x,y,z
-46.27231,0.86798644,2.6689386
-46.34483,0.89910483,2.7492762
-46.15322,1.0121548,2.9050245
-46.247322,1.0360565,2.978652
-46.24475,1.0895455,3.0792546
-46.31009,1.1223233,3.1614046
-46.379597,1.1539621,3.2428703
-46.466362,1.1806667,3.3204303
-46.640575,1.1822314,3.3770843
-46.88406,1.1647098,3.4188056
-47.19628,1.1289036,3.4469786
-47.373592,1.1326284,3.5093865
-47.491474,1.153655,3.5867891
-47.571266,1.1855645,3.6734896
-47.672337,1.2118936,3.7563124
-47.805214,1.2300107,3.8334837
-47.936848,1.2489789,3.9121437
-48.130928,1.2520807,3.9799924
-49.284103,1.0074117,3.8705878
-49.30591,1.0593145,3.9791899
-49.31931,1.1131818,4.0891924
-49.72824,1.0678432,4.1320825
-50.433884,0.95125294,4.1309423
-51.16582,0.8321111,4.1335626
-4.9479103,0.20711708,3.9060626
-18.526602,0.78031135,1.0798779
-18.567484,0.74683857,1.0107317
-25.20814,2.5789373,2.7163243
-25.29856,2.6046069,2.7424803
-25.401768,2.640043,2.7826076
-25.480724,2.6593087,2.8003678
-25.549145,2.6716828,2.8086739
-25.622223,2.6879365,2.8226466
-25.68312,2.6958554,2.8250666
-25.749311,2.7080977,2.8337717
-25.812124,2.7183065,2.8397841
-25.880095,2.7328765,2.8521647
-25.932083,2.7357476,2.8480988
-25.989893,2.743414,2.8509994
-26.04511,2.749437,2.8517098
-26.091934,2.7491524,2.8435464
-26.170052,2.7741892,2.8717608
-26.188269,2.7513807,2.8315692
-26.230305,2.74781,2.8190255
-26.281403,2.751896,2.8175926
-26.33403,2.757572,2.8185802
-26.385914,2.7629576,2.8192801
-26.437069,2.768047,2.8196812
-26.485867,2.771407,2.8177042
-26.537233,2.777318,2.8195434
-26.587875,2.7829263,2.8210697
-26.629847,2.781021,2.8117938
-26.684402,2.7908056,2.8196306
-26.732449,2.7949858,2.8194323
-26.779312,2.7983565,2.8181648
-26.828594,2.8043098,2.8207808
-26.874155,2.807019,2.818766
-26.917105,2.8074336,2.8134904
-26.96789,2.8158147,2.8199997
-27.015995,2.821915,2.823278
-27.057142,2.8212862,2.8167686
-27.099682,2.8222618,2.8127093
-27.1464,2.827819,2.8154974
-27.192009,2.8325377,2.8171525
-27.238848,2.8388944,2.8213296
-27.28321,2.8429139,2.822155
-27.326532,2.846075,2.8218055
-27.371517,2.8513741,2.824719
-27.415455,2.8558135,2.8264556
-27.45794,2.858884,2.826253
-27.500305,2.862086,2.826334
-27.540434,2.8628943,2.8229408
-27.58175,2.865339,2.8220677
-27.623793,2.8689241,2.82298
-27.666117,2.8731468,2.8249311
-27.707096,2.8759716,2.824882
-27.747967,2.8789208,2.8251014
-27.78912,2.882504,2.8263535
-27.829763,2.8857,2.8271089
-27.872192,2.8915837,2.8319764
-27.913702,2.8965712,2.835586
-27.951372,2.8965333,2.8317313
-27.989002,2.8966036,2.8281088
-28.028732,2.8998818,2.8293853
-28.06624,2.90017,2.8262382
-28.105433,2.9031591,2.82723
-28.145199,2.9073024,2.830039
-28.185839,2.9131248,2.8354592
-28.223354,2.9143767,2.8340578
-28.262419,2.9183466,2.8368335
-28.30009,2.9203389,2.8366928
-28.337996,2.9229617,2.8375778
-28.375195,2.9246438,2.837109
-28.412622,2.926957,2.8376637
-28.450258,2.9299016,2.8392467
-28.48693,2.9313726,2.8386636
-28.524105,2.9340017,2.8399043
-28.561188,2.9367356,2.8413725
-28.597637,2.9385157,2.8414588
-28.634281,2.9409266,2.8425698
-28.67162,2.9450316,2.846324
-28.70732,2.9460552,2.845457
-28.741976,2.9450493,2.8415608
-28.77711,2.9452014,2.8394885
-28.813156,2.9475787,2.84087
-28.848204,2.9479215,2.839212
-28.883442,2.9488926,2.8385735
-28.918415,2.949424,2.8373246
-28.953775,2.9511194,2.8379135
-28.98928,2.9534466,2.839529
-29.02391,2.9537253,2.8380747
-29.058512,2.9540954,2.8368187
-29.093834,2.956707,2.8390512
-29.12999,2.9621034,2.8456059
-29.164417,2.9627547,2.8449602
-29.198128,2.9613426,2.8412127
-29.232346,2.9616354,2.8401318
-29.267962,2.9668741,2.8466878
-29.302376,2.96843,2.8476605
-29.336447,2.9689965,2.8471732
-29.370207,2.968571,2.8452215
-29.403826,2.967692,2.8426294
-29.437706,2.9679832,2.8418884
-29.471931,2.9699879,2.843834
-29.505867,2.9709985,2.8443103
-29.540205,2.974267,2.8483095
-29.574354,2.977084,2.8516726
-29.607742,2.97619,2.849392
-29.641504,2.9775548,2.8506365
-29.675314,2.9795513,2.8529062
-29.708508,2.9778304,2.8495188
-29.742395,2.981089,2.8538399
-29.77593,2.9822598,2.8550062
-29.80937,2.9829736,2.855524
-29.842562,2.9815972,2.852882
-29.875977,2.9824824,2.8537736
-29.90932,2.9829102,2.8540154
-29.942614,2.9828794,2.8536048
-29.975868,2.9823892,2.852542
-30.009209,2.9836187,2.854179
-30.042536,2.9854789,2.8568401
-30.075792,2.986335,2.8580108
-30.109026,2.987277,2.859367
-30.142235,2.9866695,2.8583918
-30.175457,2.986147,2.857603
-30.208689,2.9857109,2.8569994
-30.241896,2.986449,2.8582573
-30.275112,2.9867277,2.858862
-30.308323,2.987092,2.8596516
-30.341421,2.9891756,2.8631396
-30.374435,2.991888,2.867649
-30.407772,2.9903297,2.8656425
-30.4412,2.988313,2.8629851
-30.47438,2.9891043,2.8647008
-30.50755,2.9899805,2.8666
-30.540632,2.9914858,2.8695207
-30.573689,2.9930758,2.8726254
-30.607136,2.9920337,2.871737
-30.641333,2.9867322,2.8643599
-30.674698,2.9869514,2.8655205
-30.70827,2.9861715,2.8652024
-30.74187,2.9854789,2.8650727
-30.775042,2.9870427,2.868463
-30.808067,2.9892337,2.87287
-30.841814,2.9882596,2.8724728
-30.875858,2.9862912,2.8706074
-30.910236,2.983331,2.8672757
-30.943972,2.9831655,2.868289
-30.977427,2.9841683,2.871148
-31.011343,2.9836383,2.8717146
-31.044962,2.9842763,2.8741274
-31.079927,2.9806905,2.8701272
-31.113771,2.9809694,2.8721027
-31.14511,2.9888687,2.8858004
-31.172941,3.0065196,2.9144664
-31.200018,3.0253026,2.9449
-31.230654,3.0334089,2.959045
-31.261538,3.0405164,2.9717107
-31.293753,3.0439496,2.9788117
-31.325268,3.0490706,2.988542
-31.35669,3.05427,2.9984436
-31.389154,3.0568788,3.0044427
-31.422054,3.0585048,3.0089974
-31.455658,3.058619,3.0113044
-31.488792,3.0598876,3.0154266
-31.522678,3.05965,3.017312
-31.55608,3.0605652,3.0210114
-31.590538,3.0594497,3.0216794
-31.625586,3.0573695,3.0209436
-31.66043,3.0559158,3.021222
-31.693375,3.0582547,3.0273228
-31.729155,3.0554087,3.02561
-31.766195,3.0505576,3.020924
-31.800396,3.0510721,3.0244408
-31.835829,3.0495803,3.024979
-31.872253,3.0466154,3.0233526
-31.908459,3.0442789,3.022747
-31.942823,3.0451813,3.0271044
-31.981445,3.0393953,3.0214205
-32.019234,3.0352883,3.0183468
-32.05444,3.0354533,3.0217915
-32.091393,3.0331204,3.0215368
-32.130184,3.0283043,3.017612
-32.169468,3.0230875,3.0131612
-32.21287,3.01231,3.0004268
-32.24922,3.0119827,3.00349
-32.28971,3.006099,2.99828
-32.343956,2.9818516,2.9656038
-46.492752,0.6216936,2.0373988
-46.591766,0.6458001,2.1105914
-46.41883,0.7572837,2.271009
-46.422333,0.8660996,2.4770975
-46.27913,0.96493316,2.6227818
-46.328682,1.0033267,2.7097983
-46.121105,1.1197374,2.8706093
-46.169853,1.1574967,2.9565935
-46.13645,1.2196383,3.0652575
-46.21736,1.2476661,3.1424909
-46.343506,1.262758,3.208487
-46.39103,1.3009322,3.2957149
-46.52686,1.3140118,3.3611202
-46.699997,1.3171649,3.4187245
-47.248466,1.270293,3.492384
-47.408607,1.2799585,3.5593057
-47.520405,1.3032973,3.63838
-47.603447,1.3346627,3.7245646
-47.710682,1.3599007,3.8063846
-47.865982,1.3730404,3.879467
-48.014397,1.3886046,3.9554043
-49.29049,1.1191735,3.819223
-49.294136,1.1755741,3.9312177
-49.339058,1.2214999,4.0355954
-49.382347,1.2678087,4.140461
-50.021873,1.1701729,4.1465907
-50.825924,1.036787,4.1335225
-51.658478,0.9011097,4.1250906
-52.541733,0.7581985,4.1184683
-4.974907,0.42628503,3.9979014
-4.7381535,0.30127716,3.8190985
-4.806219,0.24343109,3.6824784
-16.069296,0.59341407,1.1709118
-16.144114,0.5672345,1.1042666
-16.300644,0.5730064,1.0756054
-16.40146,0.55762815,1.0224981
-16.563644,0.56697655,0.99928474
-18.4747,0.88591576,1.1120238
-18.529804,0.85885024,1.0507064
-18.545403,0.8142278,0.967463
-25.22628,2.6326144,2.7171507
-25.330135,2.6671534,2.7567906
-25.432545,2.7016933,2.796761
-25.500534,2.7131417,2.8041244
-25.571354,2.7270784,2.815236
-25.644299,2.743079,2.829505
-25.708769,2.7535326,2.836029
-25.766174,2.759276,2.8359642
-25.837423,2.7756205,2.8513074
-25.899773,2.7858946,2.858101
-25.9426,2.7818408,2.8443713
-25.999744,2.7888777,2.8467817
-26.058443,2.7974956,2.8516312
-26.104572,2.7966764,2.8429365
-26.191347,2.8282838,2.8814907
-26.19609,2.7950244,2.82585
-26.24663,2.7983649,2.8235393
-26.296461,2.801412,2.8209224
-26.346718,2.8050954,2.819355
-26.396275,2.8084805,2.817471
-26.445688,2.812033,2.8159509
-26.494959,2.8157523,2.8147912
-26.545708,2.8210552,2.8160768
-26.59038,2.8213165,2.8100557
-26.640821,2.82695,2.8120584
-26.686344,2.8284645,2.808094
-26.734896,2.832994,2.8086915
-26.785349,2.8396032,2.8124814
-26.835087,2.8459039,2.815929
-26.882605,2.8504438,2.8168793
-26.932964,2.8580418,2.8224816
-26.978645,2.8614485,2.8219628
-27.024193,2.8650038,2.821765
-27.069122,2.868219,2.8211594
-27.113443,2.8710892,2.8201356
-27.159065,2.875569,2.8216138
-27.203129,2.8787243,2.821208
-27.24429,2.879067,2.81668
-27.289963,2.8844664,2.8198218
-27.335464,2.8900132,2.8232841
-27.377663,2.8922384,2.8218498
-27.420643,2.895587,2.8221931
-27.463497,2.89907,2.8228269
-27.503641,2.8996925,2.8192363
-27.54712,2.9044352,2.8219423
-27.588766,2.90731,2.821917
-27.62947,2.9093077,2.8206482
-27.671719,2.9134417,2.8226929
-27.712616,2.9161925,2.8227277
-27.751421,2.9165404,2.8192005
-27.793304,2.9210522,2.8220644
-27.835814,2.9267068,2.826748
-27.876633,2.93046,2.828627
-27.916573,2.933318,2.8292246
-27.95456,2.9337442,2.8261948
-27.993586,2.9358125,2.8257384
-28.030375,2.9349227,2.8208447
-28.07137,2.9402916,2.8255672
-28.110123,2.942701,2.82585
-28.146057,2.9411054,2.820085
-28.187683,2.9483736,2.827938
-28.226143,2.9511209,2.8289542
-28.262888,2.951394,2.826251
-28.301176,2.9543595,2.8277392
-28.338737,2.9563978,2.8278766
-28.374687,2.955944,2.8242583
-28.41061,2.9555895,2.8208532
-28.450043,2.9615884,2.827272
-28.487574,2.9645715,2.8291278
-28.525003,2.9676611,2.8312159
-28.5615,2.9692867,2.8311167
-28.597115,2.9694414,2.828816
-28.632162,2.968643,2.825109
-28.669794,2.9731944,2.8297067
-28.706533,2.976275,2.8321028
-28.74119,2.9752426,2.828218
-28.776566,2.9758852,2.8269758
-28.812136,2.9771519,2.826757
-28.848343,2.980101,2.8291993
-28.883781,2.981563,2.8294044
-28.919163,2.983121,2.8298168
-28.953207,2.9815922,2.8255138
-28.988914,2.9844003,2.827979
-29.024132,2.9862423,2.829009
-29.058702,2.9865842,2.827773
-29.092676,2.98542,2.8242612
-29.12848,2.9896743,2.8292027
-29.164347,2.9945602,2.8351846
-29.198202,2.993672,2.8322701
-29.232224,2.993406,2.8303757
-29.267183,2.9964373,2.8336544
-29.30175,2.9984927,2.835475
-29.336695,3.0022461,2.8399897
-29.37041,3.0018067,2.8380494
-29.403042,2.997165,2.8296318
-29.43808,3.0022635,2.8364043
-29.472126,3.0036986,2.8375382
-29.505545,3.002536,2.8346896
-29.539528,3.0041478,2.836207
-29.573566,3.0063865,2.8387547
-29.607344,3.0076377,2.8398213
-29.640991,3.008439,2.840241
-29.675125,3.0125592,2.8458786
-29.708755,3.0140748,2.847519
-29.742193,3.0146005,2.84767
-29.775404,3.0135956,2.845491
-29.808754,3.0137541,2.8451762
-29.84215,3.0145378,2.8458872
-29.87542,3.0143292,2.8451052
-29.908731,3.0147452,2.8453493
-29.942219,3.0179465,2.8499837
-29.975435,3.017995,2.8497596
-30.008572,3.0165093,2.847197
-30.041775,3.0161886,2.8465014
-30.07501,3.0170329,2.847674
-30.108217,3.017423,2.8481898
-30.141413,3.0173588,2.84805
-30.174603,3.0179193,2.8489366
-30.207758,3.0196455,2.8516908
-30.240992,3.0176764,2.8487391
-30.274248,3.0163326,2.8468142
-30.30725,3.020474,2.853487
-30.340437,3.0203807,2.8536153
-30.37363,3.0203729,2.8539276
-30.406687,3.0220697,2.8569465
-30.440027,3.020614,2.8551083
-30.473167,3.021402,2.8568168
-30.50669,3.01904,2.8536716
-30.540056,3.0183818,2.8532343
-30.573366,3.0183492,2.8538218
-30.606936,3.0167866,2.8520813
-30.64046,3.01585,2.851368
-30.6743,3.0133858,2.848331
-30.707493,3.0147762,2.8513455
-30.740988,3.0146382,2.8520346
-30.77461,3.0140502,2.8520765
-30.809336,3.0087166,2.8447943
-30.842182,3.0120637,2.8510637
-30.875229,3.0144215,2.8558474
-30.908787,3.01472,2.857482
-30.942352,3.015105,2.859305
-30.975775,3.0161138,2.8621507
-31.01075,3.011859,2.8568783
-31.042921,3.0173206,2.8667445
-31.072302,3.0314078,2.8900404
-31.10295,3.040758,2.9060311
-31.133226,3.0507138,2.9230046
-31.164413,3.057544,2.9351788
-31.196424,3.0617898,2.9433966
-31.228756,3.0650527,2.950141
-31.260832,3.0689285,2.9578867
-31.292841,3.0728865,2.9658089
-31.324139,3.0785155,2.976367
-31.357103,3.079986,2.9805431
-31.391195,3.0788972,2.9808178
-31.4258,3.0768442,2.97966
-31.45952,3.0769975,2.9819694
-31.493998,3.0756595,2.9820328
-31.528027,3.075469,2.9839258
-31.56183,3.0758967,2.9868283
-31.59644,3.074839,2.9875007
-31.631636,3.0728276,2.986763
-31.666632,3.0714383,2.9870443
-31.702248,3.0690994,2.9859262
-31.737658,3.0673833,2.9858298
-31.772554,3.0668094,2.9875498
-31.806898,3.0673745,2.9910808
-31.842777,3.0654318,2.9908223
-31.878113,3.0646303,2.9923778
-31.91287,3.064964,2.995737
-31.949257,3.0628054,2.9953384
-31.986378,3.0597172,2.9935846
-32.024265,3.0557046,2.9904847
-32.059914,3.0554109,2.9931417
-32.09835,3.0511029,2.9897304
-32.134827,3.0499902,2.9912705
-32.174557,3.0443695,2.9860015
-32.21517,3.0378466,2.979436
-32.255604,3.0319607,2.9739213
-32.29769,3.0241606,2.9655733
-32.343014,3.0124242,2.9513268
-32.40665,2.9769716,2.9011416
-46.375473,0.75211644,2.0282216
-46.302307,0.8308985,2.15687
-46.356525,0.8687315,2.2431803
-46.296093,1.103611,2.672392
-46.103073,1.214217,2.829523
-46.14441,1.2541714,2.917469
-46.139694,1.3074899,3.0182486
-46.20021,1.3416595,3.1008992
-46.287262,1.3683429,3.1768713
-46.362724,1.39854,3.2565084
-46.486423,1.4154718,3.324513
-46.666172,1.4174447,3.379849
-46.86846,1.4141092,3.4315825
-47.167816,1.385608,3.4626803
-47.490242,1.3525314,3.491764
-47.42452,1.4232526,3.6105118
-47.560497,1.4408414,3.6845531
-47.662987,1.4675798,3.7669024
-47.795506,1.487036,3.8440046
-47.931526,1.5061357,3.9216518
-48.165524,1.5014923,3.9817476
-49.32855,1.2704604,3.8711815
-49.352516,1.32164,3.9795132
-49.350796,1.3788183,4.0922847
-49.798676,1.3295944,4.1288524
-50.585686,1.2036743,4.1150823
-51.274986,1.1045625,4.1255083
-52.210457,0.95322514,4.10637
-53.11966,0.81290627,4.1015677
-4.922001,0.6292496,4.072771
-4.734091,0.5170934,3.9015026
-4.7131767,0.43983912,3.751978
-4.318493,0.27985525,3.545446
-4.3080444,0.20297456,3.394209
-14.881574,0.52651954,1.1340542
-15.050001,0.53019094,1.0991235
-15.163279,0.5146117,1.0423226
-15.221072,0.47903848,0.96235466
-15.58169,0.55592513,1.0161552
-16.061596,0.67989016,1.1278782
-16.21732,0.68419576,1.0981064
-16.320528,0.6691427,1.0456014
-16.428997,0.65647817,0.99638224
-16.533302,0.6425793,0.94606304
-16.566494,0.6009517,0.86211395
-16.612152,0.56408644,0.78407717
-18.54522,0.89215255,0.9327564
-18.481985,0.8125713,0.8040476
-18.422588,0.7336223,0.67576313
-18.41687,0.67780757,0.5771389
-25.254616,2.692901,2.7256742
-25.389894,2.7483046,2.7966013
-25.462523,2.7623453,2.8081226
-25.536674,2.7779875,2.8221684
-25.60159,2.7877567,2.827896
-25.664965,2.7968867,2.83287
-25.725584,2.8044813,2.835775
-25.780418,2.8082924,2.8333158
-25.849148,2.8225746,2.846305
-25.912037,2.833087,2.85396
-25.962593,2.834837,2.8489242
-26.024971,2.8457894,2.857533
-26.075794,2.8483684,2.853979
-26.115921,2.8429413,2.8387437
-26.17239,2.8504019,2.8426194
-26.21362,2.8461704,2.8293452
-26.262878,2.8484902,2.8258595
-26.312017,2.8509762,2.8227344
-26.366089,2.8577843,2.8261423
-26.4166,2.862003,2.8258286
-26.465294,2.8650007,2.8238125
-26.513306,2.8676953,2.8214545
-26.5639,2.872887,2.822935
-26.613241,2.8773143,2.823388
-26.664545,2.883789,2.8270192
-26.711956,2.8871386,2.8260827
-26.758707,2.8901725,2.8247757
-26.806358,2.8943083,2.8252282
-26.849258,2.894321,2.8195791
-26.895128,2.8973296,2.8185334
-26.94137,2.9009655,2.8185315
-26.98648,2.903793,2.817409
-27.032448,2.9077268,2.8180537
-27.078266,2.9118102,2.8190231
-27.123457,2.9155595,2.819583
-27.168507,2.9194539,2.820458
-27.211067,2.9210644,2.8179574
-27.254463,2.9237807,2.8172245
-27.299572,2.9285858,2.8197584
-27.343163,2.9320686,2.8203716
-27.38349,2.9322555,2.8160458
-27.424643,2.9335463,2.8134837
-27.46833,2.9379187,2.81571
-27.509714,2.9399593,2.814458
-27.551424,2.9426215,2.814238
-27.593023,2.9454112,2.8142943
-27.633682,2.9473338,2.8131018
-27.67629,2.95187,2.815998
-27.715523,2.9525452,2.813047
-27.755089,2.9538352,2.8111134
-27.798107,2.959753,2.8163767
-27.840172,2.9648018,2.8203845
-27.880173,2.967464,2.8207955
-27.921196,2.9717581,2.8237982
-27.959858,2.9731452,2.822391
-28.00172,2.9792008,2.8282657
-28.040539,2.9813285,2.8281484
-28.078207,2.9820452,2.8259182
-28.116165,2.983379,2.8247104
-28.156097,2.9878798,2.828477
-28.19421,2.9899476,2.8285446
-28.232237,2.9921243,2.8288498
-28.270176,2.9944115,2.829393
-28.30707,2.9952674,2.8277798
-28.342344,2.9936578,2.8223977
-28.379763,2.9957466,2.8228264
-28.418604,3.000519,2.827498
-28.453465,2.998694,2.8219633
-28.490934,3.001616,2.8238826
-28.52632,3.001019,2.8203816
-28.563627,3.004148,2.8227506
-28.601376,3.008421,2.8269691
-28.636602,3.0081234,2.8241158
-28.671022,3.006359,2.8190293
-28.707232,3.0083346,2.8198433
-28.74237,3.008323,2.8176107
-28.778452,3.010496,2.8188524
-28.813745,3.0111988,2.8178544
-28.849916,3.014092,2.8203425
-28.885546,3.016037,2.8214054
-28.922197,3.020703,2.8267918
-28.957014,3.0212681,2.82581
-28.991795,3.0219269,2.8250308
-29.02573,3.020573,2.8211484
-29.062597,3.0272121,2.8298674
-29.097967,3.0302625,2.8330126
-29.131598,3.0286577,2.8289018
-29.16542,3.0276687,2.825811
-29.20181,3.0347004,2.835381
-29.235874,3.034953,2.8343515
-29.269594,3.0342362,2.8318505
-29.303158,3.0330763,2.8287053
-29.337908,3.036248,2.8324275
-29.37172,3.036327,2.831338
-29.407133,3.0428693,2.840477
-29.440577,3.0420659,2.8381042
-29.473654,3.0397542,2.833407
-29.507236,3.039655,2.8322458
-29.540806,3.0396435,2.8312745
-29.574991,3.0429153,2.8355308
-29.608892,3.0452113,2.8383017
-29.642359,3.0454636,2.837902
-29.676153,3.047936,2.8410544
-29.709478,3.0478284,2.840191
-29.74302,3.0494082,2.84204
-29.776173,3.048405,2.8398643
-29.809341,3.047487,2.8378744
-29.842577,3.0471888,2.8369122
-29.875914,3.0480452,2.8378224
-29.90918,3.0484524,2.8380756
-29.942507,3.0500157,2.8402019
-29.975666,3.049525,2.839139
-30.008804,3.0485842,2.8374147
-30.04204,3.0498695,2.8392553
-30.075216,3.0501695,2.839591
-30.108437,3.0543008,2.846024
-30.141548,3.0542364,2.8458843
-30.174662,3.0542572,2.8459296
-30.207783,3.053828,2.8453145
-30.240965,3.0518792,2.84235
-30.274033,3.05376,2.8454828
-30.307087,3.0551918,2.8479552
-30.339973,3.0588467,2.8539882
-30.373148,3.0577729,2.8526068
-30.40649,3.0551813,2.8488793
-30.439632,3.0553486,2.8495564
-30.47313,3.052395,2.8453617
-30.506111,3.0543363,2.8489394
-30.5392,3.055294,2.8510165
-30.572273,3.0563364,2.8532763
-30.605413,3.0569303,2.8548799
-30.63846,3.0581434,2.8575096
-30.672062,3.056242,2.8552794
-30.70592,3.0533628,2.8515592
-30.738775,3.0558996,2.8564286
-30.773746,3.048405,2.84554
-30.80758,3.0468576,2.8440785
-30.841465,3.0454,2.8428102
-30.87434,3.048282,2.8484282
-30.907852,3.0485933,2.8500485
-30.940367,3.0527062,2.8577046
-30.972502,3.0579615,2.867207
-31.003756,3.0659468,2.8810515
-31.035007,3.0734782,2.8942275
-31.066608,3.0794985,2.9050727
-31.097918,3.0861251,2.9169178
-31.130175,3.0896597,2.9239492
-31.161999,3.0943315,2.9328175
-31.193737,3.0990827,2.9418573
-31.224794,3.1054935,2.9535499
-31.257969,3.1061924,2.9563265
-31.291779,3.1054015,2.9568186
-31.325415,3.1052263,2.958332
-31.359518,3.1040916,2.9583945
-31.393444,3.103573,2.9594784
-31.427174,3.10367,2.9615803
-31.460926,3.103857,2.9638777
-31.495434,3.1025674,2.96392
-31.529497,3.1024153,2.9657989
-31.56436,3.1007931,2.9654346
-31.5985,3.1008277,2.9677167
-31.634008,3.0983572,2.9661446
-31.668507,3.0980618,2.968027
-31.70304,3.09786,2.9701138
-31.738178,3.0967185,2.9707918
-31.773085,3.0961912,2.972487
-31.807735,3.0962765,2.975195
-31.843933,3.0938814,2.974101
-31.879292,3.0931327,2.9756317
-31.91596,3.0904284,2.9741836
-31.952402,3.0883424,2.9737616
-31.988928,3.0863612,2.973565
-32.026527,3.082952,2.971219
-32.06188,3.083224,2.974647
-32.09863,3.0815578,2.975134
-32.135807,3.0794892,2.9750633
-32.1752,3.0744832,2.970518
-32.21511,3.0690906,2.9654493
-32.25481,3.064326,2.9614258
-32.29689,3.0566542,2.9529915
-32.34598,3.040048,2.9308634
-32.40047,3.0170755,2.8990312
-46.155025,0.80787873,1.8478394
-46.160988,0.91614795,2.0542016
-47.062935,0.9158077,2.2915697
-46.297546,1.1976383,2.6266775
-46.21897,1.273473,2.751048
-46.16146,1.3423803,2.8679671
-46.160477,1.3944492,2.9679317
-46.101013,1.4627128,3.0834546
-46.221474,1.4800496,3.149743
-46.323936,1.5028174,3.2218132
-46.380184,1.5385466,3.3065343
-46.55983,1.541049,3.3608437
-46.73664,1.54514,3.4176488
-46.954872,1.5391228,3.4664164
-47.351727,1.4876542,3.476241
-47.66797,1.4590847,3.5085936
-47.47741,1.5610464,3.6552362
-47.59501,1.5841367,3.7336836
-47.702747,1.6101103,3.8152275
-47.836792,1.6300104,3.8924356
-48.021137,1.6382589,3.9610949
-49.292892,1.3871546,3.8260093
-49.301468,1.4418232,3.9369717
-49.327484,1.492199,4.0446177
-49.441193,1.5222521,4.1372147
-50.16857,1.4130883,4.129174
-51.00624,1.2831216,4.111665
-51.88797,1.1479669,4.0967836
-52.71621,1.0293279,4.0997353
-53.610676,0.900861,4.1025085
-54.825523,0.7089453,4.0714703
-4.635805,0.64022374,3.813953
-4.2645187,0.48884916,3.6118283
-4.222126,0.40557575,3.4556503
-4.6482315,0.42356825,3.3733945
-4.777233,0.37825346,3.2465572
-4.877077,0.32684684,3.115841
-4.902714,0.25890756,2.9727502
-13.497828,0.49793744,1.1869531
-13.623789,0.4806757,1.1236486
-13.698328,0.4466257,1.0413966
-13.840721,0.43568635,0.9863839
-14.782148,0.6430347,1.1491847
-14.967352,0.6512704,1.1204
-15.054188,0.6256361,1.0518823
-15.22425,0.6299653,1.019743
-15.256651,0.58538723,0.92910767
-15.785554,0.7218809,1.0589495
-16.19079,0.81634045,1.1397791
-16.297958,0.80235314,1.0889907
-16.380362,0.77942085,1.0275335
-16.524584,0.78021145,0.99584675
-16.524712,0.72626305,0.89633036
-16.57832,0.6926315,0.822207
-16.617195,0.65317297,0.74086714
-16.634777,0.6050992,0.64867115
-16.65648,0.55833006,0.5581012
-18.517563,1.108887,1.1511893
-18.551357,1.0731575,1.0788379
-18.528389,1.0130496,0.9746928
-18.548037,0.9706073,0.89350367
-18.513165,0.9041238,0.7806492
-18.519876,0.8550987,0.69060326
-18.481533,0.78561115,0.57334423
-25.214035,2.7418518,2.724701
-25.319462,2.7759354,2.7658005
-25.396357,2.791967,2.7806997
-25.473461,2.808737,2.7968988
-25.555832,2.829717,2.819518
-25.616863,2.8366694,2.8216534
-25.683292,2.8477795,2.8300943
-25.748156,2.8582668,2.8377876
-25.809013,2.8663602,2.8420944
-25.865334,2.8715878,2.8422952
-25.925707,2.8801198,2.8475547
-25.97739,2.882649,2.8440118
-26.033718,2.8889275,2.8461905
-26.083317,2.8904836,2.8414397
-26.168623,2.9196162,2.8781242
-26.181597,2.8936486,2.8323536
-26.231438,2.8961585,2.8293705
-26.278856,2.8970227,2.8240218
-26.327887,2.8994098,2.821073
-26.378479,2.903332,2.8205495
-26.428354,2.9069688,2.8197088
-26.47863,2.9112356,2.819932
-26.526552,2.9138293,2.8177323
-26.573803,2.9161205,2.8151774
-26.62201,2.9194953,2.8143702
-26.6722,2.9248917,2.816742
-26.719568,2.9281268,2.8159328
-26.766796,2.9315186,2.8154626
-26.81285,2.9341278,2.8138986
-26.85827,2.9364166,2.8119397
-26.903069,2.9383805,2.809578
-26.94926,2.9419074,2.8097024
-26.994318,2.9446356,2.8086977
-27.042685,2.9508393,2.8131194
-27.090364,2.956727,2.8171597
-27.135456,2.9603827,2.8178644
-27.178032,2.9617872,2.8151917
-27.220516,2.9633236,2.8128066
-27.264763,2.9669194,2.813682
-27.309786,2.971622,2.8163548
-27.352383,2.974049,2.815599
-27.393078,2.9746673,2.8121243
-27.439007,2.9812455,2.8179626
-27.479494,2.9821227,2.8150496
-27.521202,2.9845881,2.8146772
-27.5645,2.9891403,2.817627
-27.608063,2.9943197,2.8216348
-27.650629,2.9986532,2.82441
-27.692226,3.002133,2.8259363
-27.731277,3.002776,2.8231182
-27.770262,3.0035343,2.8205495
-27.809965,3.005399,2.8197775
-27.85035,3.0083754,2.8208156
-27.89138,3.0124702,2.8236747
-27.93002,3.0136952,2.8221188
-27.969696,3.0165331,2.8231564
-28.007803,3.0174854,2.821309
-28.047997,3.0215585,2.8244224
-28.0877,3.0252495,2.8270092
-28.124498,3.0250292,2.8235226
-28.162968,3.0274358,2.8242264
-28.202011,3.0309644,2.8267622
-28.239283,3.0320764,2.825562
-28.277462,3.034816,2.8269877
-28.315538,3.0376658,2.8286538
-28.354448,3.0421524,2.8329644
-28.390457,3.0421667,2.8302875
-28.42643,3.042281,2.827827
-28.463543,3.0445387,2.8288107
-28.500856,3.0474133,2.8308306
-28.536652,3.0478313,2.8290286
-28.571571,3.0468082,2.8250046
-28.607294,3.0474205,2.8236246
-28.644566,3.0512197,2.8273468
-28.681719,3.0551243,2.8312998
-28.717987,3.057586,2.833027
-28.752678,3.0570493,2.8300571
-28.787838,3.0576396,2.82893
-28.823898,3.060397,2.8312974
-28.859638,3.0627358,2.8330579
-28.894396,3.0630963,2.8317332
-28.929995,3.0656285,2.8339148
-28.966358,3.07034,2.8396153
-29.002382,3.0746315,2.844709
-29.03567,3.0722463,2.8392353
-29.069574,3.0715122,2.8364406
-29.103659,3.07139,2.834671
-29.138638,3.0739717,2.8372593
-29.173891,3.077694,2.8417196
-29.208523,3.079942,2.8438835
-29.241928,3.0786126,2.8404012
-29.27566,3.0784202,2.8387794
-29.310143,3.0809405,2.841535
-29.34352,3.0798748,2.838624
-29.377327,3.080474,2.838417
-29.411776,3.0837913,2.8426008
-29.445618,3.0850952,2.8436222
-29.4788,3.0838535,2.840631
-29.512226,3.0837524,2.8395085
-29.546085,3.0858471,2.8419437
-29.579254,3.084865,2.8395138
-29.612432,3.0839689,2.8372698
-29.646082,3.0857987,2.8394318
-29.679676,3.087716,2.8417835
-29.712734,3.08655,2.8392549
-29.746033,3.087055,2.8394475
-29.779718,3.0908198,2.844902
-29.813059,3.092556,2.8471618
-29.84579,3.0890863,2.8411436
-29.878946,3.0894058,2.8412342
-29.912218,3.0913994,2.8440523
-29.945097,3.0887122,2.8394294
-29.978128,3.0876985,2.8375325
-30.011385,3.0910077,2.8426008
-30.044443,3.0912242,2.8427691
-30.077494,3.0915248,2.8431206
-30.110518,3.090851,2.8419604
-30.143557,3.0897322,2.8401365
-30.176603,3.0902882,2.8410406
-30.209574,3.094108,2.8472166
-30.242592,3.0937738,2.8467932
-30.275642,3.0929947,2.845705
-30.308565,3.0949492,2.84904
-30.341692,3.0932803,2.8466253
-30.374737,3.0932858,2.8469381
-30.407692,3.0944355,2.8491297
-30.440838,3.0935519,2.8481169
-30.473711,3.0953999,2.8515224
-30.50668,3.0962744,2.8534179
-30.539707,3.0967045,2.854651
-30.572731,3.0972195,2.856069
-30.605751,3.0978196,2.8576713
-30.639215,3.095864,2.855237
-30.672352,3.0961077,2.8563666
-30.705593,3.0959094,2.8568392
-30.739283,3.093687,2.8541274
-30.772806,3.092608,2.853293
-30.806126,3.0926704,2.8543305
-30.839079,3.0943987,2.858078
-30.872007,3.096212,2.8620086
-30.90615,3.093377,2.85857
-30.940374,3.090633,2.8553286
-30.972124,3.0969074,2.8665257
-31.003279,3.1048346,2.880403
-31.035727,3.1081178,2.8869205
-31.06711,3.1146274,2.8986268
-31.098536,3.1206903,2.909666
-31.129122,3.128923,2.9242058
-31.161587,3.131481,2.9297523
-31.194399,3.1330779,2.933816
-31.227987,3.1326742,2.9347463
-31.262014,3.1313183,2.9342132
-31.295465,3.131615,2.9363613
-31.329365,3.1309602,2.9370484
-31.363081,3.1309164,2.9387584
-31.397049,3.1304436,2.9398403
-31.430588,3.131099,2.9427657
-31.464376,3.1313255,2.9450626
-31.498432,3.1311264,2.9467359
-31.533022,3.1299856,2.946972
-31.567667,3.128941,2.9474134
-31.60131,3.1300504,2.9513235
-31.636303,3.128678,2.951357
-31.671907,3.1263754,2.949976
-31.707033,3.1251986,2.9504333
-31.741644,3.1251435,2.952722
-31.775703,3.1262069,2.956832
-31.810965,3.1253185,2.9579163
-31.847797,3.1219804,2.9551916
-31.883503,3.1207845,2.9559083
-31.919586,3.1191807,2.9560418
-31.95574,3.1176796,2.9563985
-31.993273,3.1142547,2.9537868
-32.029922,3.1124575,2.953802
-32.06631,3.1112704,2.9548388
-32.102764,3.1101878,2.956102
-32.139633,3.1087058,2.9568014
-32.178352,3.1048188,2.9537902
-32.218285,3.0995445,2.9486732
-32.25911,3.093391,2.9422526
-32.300117,3.087365,2.9361072
-32.351517,3.068006,2.9091797
-46.14422,0.8016393,1.5998831
-46.108643,0.8687198,1.7182426
-46.1172,0.9212153,1.8200264
-46.231903,0.94020414,1.8846684
-46.241188,1.1008883,2.1936393
-47.02749,1.0312805,2.2596726
-47.129654,1.0570908,2.3354936
-46.238903,1.3671505,2.7047415
-46.059864,1.4698861,2.8570786
-46.116203,1.5053642,2.940321
-46.10496,1.5595672,3.0424957
-46.165726,1.5937312,3.124692
-46.29336,1.6099296,3.1896038
-46.346718,1.646457,3.2748194
-46.44746,1.6705334,3.3483863
-46.62884,1.6739421,3.403018
-46.806427,1.6791675,3.4603877
-47.050133,1.6683872,3.504116
-47.578156,1.5873601,3.4858103
-49.26887,1.2205737,3.2162404
-47.537003,1.7032194,3.703311
-47.650383,1.7280993,3.783133
-47.779625,1.7495995,3.8607435
-47.941986,1.7637808,3.9330153
-48.133812,1.7717929,4.001241
-49.319885,1.5516374,3.8868008
-49.31036,1.610115,4.0009527
-49.330765,1.6615522,4.109468
-49.878376,1.5960226,4.1292763
-50.65065,1.484277,4.118693
-51.326744,1.3974895,4.13183
-52.254494,1.2607348,4.114565
-53.35928,1.0918298,4.0820575
-54.349663,0.95265627,4.0779023
-4.728674,0.81703186,3.7611666
-4.205719,0.6372676,3.5356302
-4.5484467,0.6345432,3.4391851
-4.7289333,0.5992043,3.3200088
-4.829874,0.54755616,3.1891775
-4.8834095,0.48588085,3.0508852
-4.9109116,0.41846204,2.9081364
-4.923069,0.3474474,2.7624474
-4.9487343,0.2792077,2.6190624
-4.9706154,0.20990157,2.4747915
-13.062859,0.53017735,1.0902777
-13.502123,0.6116636,1.1427145
-13.603104,0.5857887,1.0700488
-13.812115,0.5957253,1.0404692
-13.847712,0.5490837,0.943912
-14.643127,0.7575588,1.1554403
-14.832088,0.765398,1.1270275
-15.004029,0.76834965,1.0934405
-15.123171,0.75381494,1.0390782
-15.204862,0.72659516,0.96949387
-15.285159,0.6990514,0.8997793
-16.037315,0.9123409,1.1311722
-16.16616,0.9052453,1.0892267
-16.320822,0.9081452,1.0603838
-16.39198,0.88092256,0.99393415
-16.539635,0.8823886,0.9642687
-16.606966,0.8542342,0.8972273
-17.247904,1.0450137,1.1120887
-17.474598,1.0807481,1.129303
-17.635529,1.0922372,1.115943
-17.793545,1.1034384,1.1028142
-17.953686,1.1163256,1.0924854
-18.120901,1.1329257,1.087636
-18.319983,1.1634028,1.1017337
-18.499285,1.1869795,1.107441
-18.542086,1.1050284,0.94832134
-18.527342,1.0483172,0.84763956
-18.39575,0.94101596,0.67868185
-18.405327,0.8930452,0.5892391
-18.498674,0.8812165,0.54874086
-18.33065,0.7544148,0.35207033
-18.318325,0.6949341,0.24652386
-25.230406,2.7995248,2.7244282
-25.298725,2.8089254,2.7299585
-25.444149,2.869554,2.8122873
-25.512592,2.8805282,2.8206587
-25.580072,2.8913386,2.8289604
-25.620094,2.8839345,2.810051
-25.684618,2.8934684,2.8167272
-25.748224,2.9028134,2.8232794
-25.819561,2.918046,2.8388853
-25.905165,2.944023,2.8709307
-25.96279,2.9506605,2.8738985
-26.005127,2.9465306,2.8606586
-26.045681,2.9412098,2.845695
-26.092793,2.9408762,2.8384032
-26.141596,2.9420302,2.8334794
-26.179804,2.9353342,2.8166766
-26.230217,2.9381297,2.8144555
-26.279346,2.9402015,2.8112364
-26.329487,2.9433386,2.8097553
-26.380047,2.9470975,2.8093367
-26.43156,2.9519346,2.8106856
-26.482895,2.9569497,2.81242
-26.532398,2.9607759,2.8124332
-26.57957,2.9629428,2.809991
-26.626087,2.964807,2.8071785
-26.675152,2.9691222,2.8082519
-26.723522,2.9731417,2.80897
-26.767035,2.9731627,2.8035889
-26.817196,2.9793482,2.8078604
-26.863567,2.98245,2.8074455
-26.899166,2.9759123,2.7921286
-26.958906,2.991914,2.8119712
-26.997883,2.9889135,2.8023238
-27.047167,2.995899,2.80833
-27.087006,2.9940963,2.8007088
-27.143625,3.0089521,2.8192096
-27.186554,3.0107455,2.8173857
-27.22891,3.0121984,2.8151093
-27.269318,3.011878,2.8101306
-27.311047,3.0131116,2.8076644
-27.3545,3.0163872,2.8084836
-27.399164,3.02124,2.8118649
-27.43791,3.0199847,2.8057156
-27.478374,3.0207703,2.8028493
-27.52049,3.02361,2.8032947
-27.563337,3.027549,2.8055515
-27.606459,3.0321069,2.8088646
-27.64901,3.0363142,2.8117032
-27.689772,3.038704,2.8117442
-27.729216,3.039752,2.809732
-27.768982,3.0414062,2.8087492
-27.809446,3.0441604,2.8095794
-27.848248,3.0450697,2.8075528
-27.888123,3.0475707,2.8081198
-27.928268,3.050684,2.809729
-27.966814,3.0519397,2.8084536
-28.004555,3.0523171,2.8058448
-28.043316,3.0542915,2.805841
-28.083752,3.0588653,2.8100467
-28.122301,3.0610707,2.8105435
-28.16178,3.0648854,2.8136735
-28.200792,3.0683174,2.816259
-28.236712,3.0673568,2.8118916
-28.274233,3.0690033,2.8117495
-28.313269,3.0732698,2.8158584
-28.350601,3.0751345,2.8161883
-28.386929,3.0755935,2.8143282
-28.424112,3.077668,2.815113
-28.460915,3.0793428,2.8153157
-28.498508,3.0826397,2.8181806
-28.535423,3.0850303,2.8196511
-28.571135,3.0854936,2.8180857
-28.607073,3.086564,2.8175502
-28.642685,3.0872245,2.816412
-28.677467,3.086453,2.813025
-28.713507,3.0883272,2.8139467
-28.74947,3.0903018,2.8150864
-28.785114,3.0918634,2.8156161
-28.819746,3.0914729,2.8130555
-28.854816,3.0922015,2.8123498
-28.889618,3.092511,2.8110228
-28.925259,3.0949705,2.8132138
-28.96188,3.100102,2.8197699
-28.99587,3.0991523,2.8165684
-29.030258,3.099324,2.8152266
-29.064228,3.0985541,2.8124151
-29.099703,3.1020083,2.8164773
-29.134708,3.1045244,2.819077
-29.169277,3.1061006,2.820208
-29.203274,3.1062136,2.819026
-29.236752,3.10486,2.8155203
-29.271353,3.1072273,2.8180823
-29.305878,3.1096876,2.8208451
-29.340328,3.1122391,2.8238072
-29.374275,3.113322,2.8244424
-29.408587,3.116056,2.8277998
-29.442171,3.116277,2.827136
-29.475857,3.1171067,2.8275065
-29.508688,3.1143734,2.8221526
-29.542345,3.115377,2.8229003
-29.576069,3.1169906,2.8246841
-29.609741,3.1186926,2.826661
-29.643269,3.1199594,2.827981
-29.676928,3.1223598,2.8311853
-29.710358,3.1238017,2.8328834
-29.743446,3.1232376,2.8313751
-29.77647,3.1222353,2.8292012
-29.80957,3.1218417,2.8280625
-29.843063,3.125199,2.8330574
-29.876122,3.124977,2.8322897
-29.909044,3.1232672,2.8291545
-29.942,3.1216424,2.8262014
-29.975084,3.1216743,2.8259864
-30.008112,3.1207433,2.8242526
-30.041275,3.1230428,2.8278108
-30.074326,3.12333,2.8281484
-30.10736,3.123178,2.8278189
-30.140394,3.1220622,2.8259697
-30.17343,3.1236532,2.8285627
-30.206415,3.1258533,2.8321915
-30.239452,3.1249921,2.830895
-30.272419,3.126313,2.8331876
-30.305471,3.1256216,2.8322597
-30.338543,3.125015,2.8315163
-30.371592,3.1250181,2.831808
-30.404312,3.1287735,2.8382373
-30.437271,3.1294696,2.839746
-30.470219,3.1302497,2.8414383
-30.503218,3.1305916,2.842465
-30.536362,3.129972,2.8419771
-30.569216,3.1315303,2.8450704
-30.602377,3.1310806,2.8449526
-30.635557,3.1307175,2.8450222
-30.668564,3.1314852,2.846972
-30.701664,3.1318157,2.8482594
-30.735632,3.128056,2.8429637
-30.769472,3.1254296,2.8395548
-30.803265,3.1234143,2.8371844
-30.836864,3.1225302,2.8366952
-30.869444,3.1258996,2.8431444
-30.902235,3.1283112,2.8480873
-30.934408,3.132887,2.8565798
-30.966793,3.1365035,2.8635645
-30.998644,3.1417606,2.873249
-31.030388,3.1470964,2.8831048
-31.063543,3.1478455,2.8855858
-31.096523,3.1491992,2.8890915
-31.129313,3.151156,2.89362
-31.164125,3.1475103,2.889142
-31.19674,3.1501582,2.8948832
-31.2305,3.1497936,2.8958073
-31.264292,3.1495187,2.896925
-31.300005,3.1446986,2.890759
-31.334774,3.1425514,2.8889585
-31.368284,3.1435823,2.892336
-31.401112,3.146242,2.898388
-31.435074,3.1464224,2.9004927
-31.470497,3.1436212,2.8978467
-31.505032,3.1429646,2.8987074
-31.539356,3.1429124,2.9005942
-31.573711,3.142953,2.9026814
-31.609148,3.1410491,2.9016948
-31.643583,3.1412783,2.9041915
-31.677494,3.1426175,2.908523
-31.713089,3.1410031,2.908164
-31.749903,3.1374605,2.9047685
-31.783905,3.1390846,2.9097161
-31.819695,3.1377678,2.9100032
-31.855854,3.136047,2.9097004
-31.891468,3.135436,2.9112315
-31.928078,3.1334162,2.9105644
-31.964773,3.1315014,2.9101253
-32.000893,3.1306934,2.9115162
-32.03674,3.1304884,2.913927
-32.07229,3.1308835,2.917354
-32.108902,3.1298819,2.91861
-32.14873,3.124506,2.9129515
-32.18837,3.119748,2.908348
-32.230328,3.1121352,2.8992682
-32.269566,3.1086147,2.8967748
-32.31489,3.0973077,2.8819704
-32.367332,3.077276,2.8533893
-46.205925,0.77219486,1.3099799
-46.135674,0.8511126,1.4436717
-46.12799,0.9093332,1.5527668
-46.127518,0.9648533,1.6585789
-46.116734,1.0777512,1.871944
-46.227352,1.0984607,1.9379807
-46.227386,1.1526642,2.04208
-46.382935,1.1604688,2.0944176
-46.978363,1.1511245,2.220387
-47.09988,1.1716957,2.2898364
-46.250977,1.4640825,2.6493144
-46.078327,1.5637317,2.800538
-46.09104,1.6113188,2.8962893
-46.17762,1.6387391,2.9711637
-46.16385,1.693187,3.074079
-46.225105,1.7274718,3.1564121
-46.28305,1.7627141,3.239963
-46.374344,1.7894502,3.315353
-46.510483,1.8050632,3.3803363
-46.715355,1.8039713,3.4299498
-46.912712,1.8057268,3.48345
-47.20013,1.7863352,3.5182333
-47.649315,1.729248,3.5198407
-47.495277,1.8188503,3.6581345
-47.579132,1.8510876,3.7437396
-47.653927,1.8856776,3.8318744
-47.832466,1.8965762,3.8997736
-47.991684,1.9126685,3.9732203
-49.304153,1.6708059,3.8306756
-49.320557,1.7232597,3.9401207
-49.335228,1.7759283,4.049745
-49.441685,1.8086445,4.1435285
-50.089355,1.7266442,4.1488104
-50.88507,1.6170683,4.137717
-51.799366,1.4872665,4.1173277
-52.711426,1.3628821,4.1075425
-53.607536,1.2466285,4.110245
-54.704338,1.0953655,4.0955906
-4.6901894,1.0183449,3.8368025
-4.155464,0.8409407,3.6112504
-4.6719284,0.79789424,3.3928218
-4.7827225,0.74778605,3.2632375
-4.8440514,0.6876795,3.1261187
-4.8840923,0.6231041,2.9855638
-4.894268,0.55203295,2.8396277
-4.924711,0.48509264,2.697208
-4.944618,0.41567063,2.5526733
-4.9856625,0.3507371,2.4121575
-4.950197,0.26839042,2.2559156
-4.9856396,0.20171928,2.113809
-11.54248,0.34630585,0.84129524
-11.790211,0.3584733,0.80866337
-12.153805,0.40770102,0.8213043
-13.354837,0.7206125,1.151928
-13.530951,0.7177098,1.107017
-13.617596,0.68704987,1.0291195
-13.811535,0.69122887,0.9941244
-13.857792,0.6481457,0.90180016
-14.58108,0.8284323,1.0860124
-14.853298,0.8629923,1.0921416
-15.004149,0.85816884,1.0501375
-15.196131,0.8680494,1.0272317
-15.641199,0.96615696,1.1167545
-15.923907,1.0105772,1.1399117
-16.112684,1.0236106,1.124114
-16.303625,1.0384142,1.1113386
-16.544102,1.0720654,1.1236563
-16.749376,1.0943322,1.1221666
-16.943762,1.1137536,1.117773
-17.135029,1.1331,1.1140323
-17.287495,1.1389506,1.093267
-17.506548,1.1708338,1.1074629
-17.661533,1.1794679,1.0916452
-17.832977,1.1952848,1.0859632
-17.918564,1.1784387,1.0371995
-18.189026,1.1851971,0.9950156
-18.522758,1.2697768,1.0845776
-18.537548,1.22651,1.0016446
-18.529266,1.173387,0.90523005
-18.503933,1.1126096,0.7982011
-18.382092,1.0104766,0.63414097
-18.505054,1.0109687,0.6110034
-18.543192,0.9755616,0.5385866
-18.352371,0.8404844,0.32784367
-18.351902,0.7867315,0.22951889
-25.235773,2.8415682,2.7098699
-25.307335,2.8528144,2.7187524
-25.428253,2.8966599,2.7773771
-25.534008,2.9317663,2.8230352
-25.629353,2.9609828,2.860002
-25.682917,2.962998,2.855668
-25.745121,2.97117,2.860878
-25.804567,2.9778645,2.8639712
-25.858225,2.9809132,2.8616066
-25.909891,2.9828582,2.857666
-25.962036,2.9854162,2.8547816
-26.009216,2.9846833,2.8469367
-26.062908,2.9889002,2.8468332
-26.107529,2.9867475,2.8369994
-26.150349,2.983422,2.8254385
-26.180916,2.9709854,2.7998333
-26.241173,2.9811504,2.809363
-26.27991,2.9751377,2.7938795
-26.337456,2.9839137,2.8014846
-26.395851,2.9937913,2.8109355
-26.438316,2.9913485,2.8012881
-26.487398,2.9944265,2.8003473
-26.53798,2.9990215,2.80188
-26.585665,3.0015311,2.8002496
-26.636448,3.0069184,2.8032274
-26.683836,3.0097523,2.802302
-26.730562,3.012288,2.8010006
-26.77768,3.0154343,2.8007517
-26.826725,3.0205715,2.8037314
-26.870974,3.021734,2.8005414
-26.914112,3.0221152,2.7962012
-26.958176,3.023557,2.7936163
-27.004623,3.0274587,2.7950053
-27.048456,3.0291867,2.7930412
-27.093643,3.0324535,2.7935967
-27.139168,3.0363333,2.7952104
-27.186916,3.042705,2.800867
-27.230696,3.0454752,2.8008904
-27.271564,3.045557,2.7967167
-27.314205,3.0476527,2.7958212
-27.355373,3.04846,2.7929487
-27.398705,3.0517669,2.7941356
-27.442343,3.055686,2.796379
-27.48452,3.0583127,2.7966352
-27.523558,3.0577223,2.7918186
-27.567238,3.062519,2.7956924
-27.60949,3.066013,2.7975564
-27.650776,3.068675,2.7981615
-27.692354,3.0719457,2.7998133
-27.732994,3.074377,2.80019
-27.771933,3.0749931,2.7977185
-27.812374,3.0776656,2.7986178
-27.851542,3.0790002,2.797433
-27.89139,3.0814261,2.798069
-27.931507,3.0844588,2.7997494
-27.970026,3.0856538,2.798534
-28.007736,3.0859804,2.7959776
-28.045752,3.0869064,2.7944508
-28.084053,3.0884345,2.7939553
-28.123314,3.0915527,2.7960935
-28.162798,3.0952814,2.7992835
-28.201143,3.0976422,2.800323
-28.238398,3.0986269,2.7991939
-28.276562,3.1012073,2.8007097
-28.313665,3.1024055,2.8000445
-28.351326,3.1047056,2.8012242
-28.387972,3.1056163,2.8002076
-28.425459,3.1081295,2.801849
-28.461964,3.109248,2.801283
-28.498692,3.1109698,2.801752
-28.535627,3.1132965,2.8032627
-28.571915,3.1147225,2.803362
-28.60786,3.1157455,2.8028612
-28.642681,3.114851,2.7992892
-28.679052,3.1170793,2.800858
-28.715338,3.1194096,2.8026466
-28.75054,3.1198153,2.8013506
-28.7857,3.120317,2.8002625
-28.81987,3.1188836,2.7960672
-28.85589,3.1216054,2.798705
-28.890467,3.121375,2.7965736
-28.926115,3.1237824,2.7988029
-28.96104,3.1247587,2.7987432
-28.996328,3.12685,2.8005571
-29.031137,3.1280148,2.8009076
-29.066479,3.1308079,2.8039722
-29.101921,3.1342084,2.8080816
-29.13579,3.1336071,2.8056908
-29.169828,3.1336076,2.8043313
-29.204357,3.1352375,2.8056898
-29.238163,3.1349044,2.8038802
-29.272594,3.1367173,2.805635
-29.306347,3.136563,2.804213
-29.340822,3.1390717,2.8072052
-29.374794,3.1401267,2.80786
-29.408722,3.141271,2.80871
-29.442606,3.1425047,2.809753
-29.476444,3.1438272,2.8109884
-29.509768,3.143172,2.8090239
-29.54309,3.1426034,2.8072467
-29.576622,3.1431544,2.8073545
-29.610126,3.1437938,2.8076525
-29.643787,3.1455548,2.8098392
-29.677397,3.1474037,2.8122172
-29.710949,3.1493409,2.8147845
-29.744072,3.1487732,2.813282
-29.777267,3.14881,2.812817
-29.81064,3.150488,2.815096
-29.843964,3.1522527,2.8175626
-29.877039,3.1520276,2.816802
-29.91011,3.1518877,2.8162265
-29.943369,3.1544287,2.8201056
-29.976274,3.152382,2.8164835
-30.00925,3.1509395,2.8139
-30.042274,3.1501012,2.8123531
-30.07537,3.1514251,2.8144083
-30.10841,3.1512756,2.814085
-30.141459,3.1543283,2.8190708
-30.174477,3.1527905,2.8165526
-30.207478,3.1539345,2.818489
-30.240536,3.1525662,2.8163385
-30.27342,3.1559577,2.8220606
-30.306429,3.1557977,2.8219862
-30.339445,3.1557236,2.8220959
-30.372303,3.1578095,2.8258038
-30.40535,3.157385,2.8254275
-30.43852,3.1560085,2.8235302
-30.471489,3.1567922,2.8252292
-30.50425,3.1592166,2.829669
-30.537533,3.1575768,2.827475
-30.570553,3.1580968,2.828874
-30.603485,3.15922,2.8313088
-30.63667,3.1588745,2.8313756
-30.670351,3.1560261,2.8273764
-30.704008,3.1537848,2.8244195
-30.73719,3.154217,2.8259006
-30.770601,3.1537008,2.82587
-30.804157,3.1527562,2.825181
-30.837246,3.153963,2.8280702
-30.870584,3.154224,2.8294516
-30.90255,3.1597269,2.8394785
-30.93469,3.1642783,2.8479877
-30.96659,3.1694255,2.8575149
-30.999014,3.1725945,2.8638434
-31.03268,3.1717348,2.8636107
-31.066721,3.1699374,2.861889
-31.10065,3.1687438,2.8612041
-31.133545,3.1707163,2.8657527
-31.166975,3.1712375,2.8679705
-31.200798,3.170823,2.8687038
-31.234058,3.172032,2.872141
-31.26854,3.170264,2.8707552
-31.303085,3.1685896,2.8695722
-31.337912,3.1664994,2.8677602
-31.371702,3.1670492,2.8703122
-31.405048,3.1687052,2.8747187
-31.439087,3.1689255,2.8768277
-31.474586,3.166194,2.8741689
-31.509195,3.1655872,2.8750286
-31.54284,3.1670985,2.879393
-31.578026,3.1656668,2.8790083
-31.613539,3.163828,2.8780122
-31.647778,3.164607,2.8813343
-31.682032,3.165479,2.8848548
-31.717985,3.1634278,2.8836718
-31.75402,3.1614776,2.8827066
-31.790134,3.1596289,2.8819623
-31.823639,3.1623852,2.888754
-31.859552,3.1612337,2.8892474
-31.895527,3.1601827,2.8899617
-31.93188,3.1587353,2.8900862
-31.968628,3.156894,2.8896303
-32.005783,3.1546621,2.888597
-32.041363,3.1550143,2.891809
-32.07833,3.1534877,2.892034
-32.115032,3.152561,2.8932886
-32.152847,3.1502612,2.8923807
-32.193607,3.144137,2.8853574
-32.23455,3.138139,2.8786082
-32.27458,3.133738,2.874505
-32.32184,3.1201665,2.8556857
-32.37969,3.0935767,2.8159823
-46.121483,0.8380189,1.1929989
-46.140564,0.88821816,1.2931371
-46.12926,0.9476955,1.4044185
-46.12871,1.0033574,1.5109615
-46.090286,1.0702653,1.6307378
-46.131348,1.1123867,1.7209754
-46.18612,1.2044816,1.9108639
-46.19604,1.2553923,2.0114574
-46.2491,1.2934957,2.0973344
-46.831818,1.2890904,2.2234864
-47.08426,1.2733567,2.251648
-47.168476,1.3050008,2.3330393
-46.26427,1.6044393,2.7057018
-46.067047,1.7086439,2.8631039
-46.10695,1.7486081,2.950842
-46.09205,1.8028474,3.0537567
-46.199997,1.8250015,3.123002
-46.280434,1.8545616,3.2004204
-46.353867,1.886106,3.2802348
-46.48343,1.9038668,3.3464823
-46.61466,1.9217429,3.4135237
-46.80246,1.9264274,3.4682798
-47.114487,1.9022231,3.4960265
-47.56379,1.847168,3.4960418
-49.304962,1.4928086,3.2158747
-47.554222,1.9537683,3.7062287
-47.621346,1.9902701,3.7957058
-47.80758,2.0001616,3.8614788
-47.93328,2.0243225,3.941059
-48.11721,2.0362365,4.0106745
-49.320526,1.8289528,3.8932962
-49.335175,1.8815393,4.0029607
-49.35388,1.933109,4.111781
-49.967045,1.8613882,4.1208076
-50.665367,1.7755471,4.122877
-51.3406,1.6981034,4.1363544
-52.305023,1.5668206,4.1138697
-53.28765,1.4371891,4.0995865
-54.308876,1.3054011,4.090962
-4.6501923,1.2253909,3.91464
-4.7078247,1.1646767,3.7762957
-4.14546,0.9852357,3.54531
-4.650133,1.0097504,3.4736543
-4.718424,0.9507632,3.3369923
-4.7962933,0.89378,3.2023544
-4.854706,0.83298683,3.0648718
-4.8812027,0.76564765,2.9219637
-4.9000206,0.69653916,2.7775393
-4.9349365,0.557081,2.487547
-4.9683094,0.49045992,2.3454218
-4.9002666,0.40133476,2.182097
-4.971117,0.34247804,2.047265
-4.971304,0.26768613,1.8972225
-8.586077,0.22143078,0.9792361
-10.035589,0.3472259,0.9041195
-10.066687,0.2898996,0.7854986
-10.228483,0.26973414,0.7108326
-10.534552,0.2919526,0.68731976
-10.826361,0.3116157,0.66213274
-11.132116,0.33693933,0.64509296
-11.397398,0.3517804,0.61667395
-12.998928,0.77267075,1.0864773
-13.124477,0.7520733,1.0199013
-13.741665,0.8842201,1.1431875
-14.027987,0.9166169,1.1448379
-14.29032,0.94301844,1.1401925
-14.584841,0.98117566,1.151495
-14.797806,0.99460936,1.1326575
-15.051832,1.0226064,1.1332769
-15.303357,1.0512011,1.1357083
-15.533953,1.0742078,1.1319547
-15.774401,1.1018269,1.135107
-15.980988,1.119225,1.1258974
-16.117538,1.1135225,1.0872307
-16.187347,1.0850911,1.0191402
-16.44648,1.1236734,1.0398731
-16.456184,1.0746984,0.94529057
-16.966114,1.2059972,1.0912366
-17.162518,1.2263861,1.0905747
-17.154224,1.1723654,0.990468
-17.108713,1.1039648,0.87078667
-17.289757,1.1201351,0.86562014
-17.423191,1.1191747,0.8377509
-17.56902,1.1236091,0.8177104
-17.701216,1.1234727,0.7918854
-18.487957,1.3813224,1.12222
-18.520296,1.3454945,1.04918
-18.546604,1.3070645,0.9725628
-18.51361,1.2443347,0.8620815
-18.353436,1.1286919,0.67736197
-18.352535,1.0771935,0.58195066
-18.515375,1.0937719,0.58230925
-18.349361,0.972095,0.38785982
-18.346329,0.9181354,0.2886591
-25.244856,2.887978,2.7001362
-25.440647,2.9778166,2.8309712
-25.477356,2.96783,2.8080297
-25.542412,2.97626,2.8136716
-25.603367,2.9824307,2.8159623
-25.667881,2.9913445,2.8226538
-25.727085,2.997135,2.8246355
-25.78669,3.0035658,2.8277483
-25.840498,3.006398,2.8253798
-25.89722,3.0115504,2.8267512
-25.949478,3.0139155,2.823886
-26.000996,3.0160346,2.820744
-26.057163,3.0217762,2.8233948
-26.107773,3.0238318,2.820374
-26.151775,3.0212922,2.810225
-26.197504,3.0201976,2.8024373
-26.247225,3.0223086,2.7997937
-26.296814,3.024589,2.7975173
-26.348545,3.028796,2.7983866
-26.397844,3.031418,2.7968516
-26.44812,3.0350926,2.7970834
-26.498787,3.039383,2.7983913
-26.545437,3.0407302,2.795124
-26.59035,3.040891,2.7900572
-26.640024,3.045229,2.7917266
-26.688992,3.049287,2.7930474
-26.734621,3.050805,2.7904072
-26.782234,3.0542803,2.7909799
-26.830729,3.0588207,2.7933464
-26.874434,3.0594308,2.7895117
-26.91856,3.0606358,2.7867088
-26.964096,3.0633533,2.7864122
-27.01049,3.0671365,2.78791
-27.05771,3.0719914,2.7912169
-27.100863,3.0733132,2.7889247
-27.150646,3.0812454,2.7973557
-27.192099,3.0814645,2.7934465
-27.23583,3.0841348,2.7935634
-27.277576,3.0850794,2.7909698
-27.319237,3.086153,2.7886558
-27.360355,3.0868857,2.785861
-27.40498,3.0915017,2.7894225
-27.447666,3.0943775,2.7902427
-27.489786,3.0969148,2.790587
-27.533514,3.1014748,2.7942848
-27.574945,3.103803,2.794433
-27.615002,3.1048324,2.7925391
-27.654976,3.1059823,2.7909055
-27.695686,3.1082065,2.7910867
-27.73629,3.110554,2.7915344
-27.775986,3.1120653,2.7906866
-27.815987,3.1141758,2.7908783
