x,y,z
-27.971117,2.9151251,4.0242825
-27.997637,2.9089572,4.0115414
-28.029694,2.9107065,4.007764
-28.060875,2.9113412,4.00283
-28.094069,2.9150958,4.0015087
-28.124762,2.91531,3.996296
-28.170137,2.9381073,4.0167055
-28.197062,2.9330537,4.0057483
-28.22599,2.93112,3.9984014
-28.257607,2.9335418,3.996082
-28.289164,2.936057,3.9939659
-28.32029,2.9380517,3.9913511
-28.352823,2.9425929,3.9917338
-28.38526,2.9472308,3.992327
-28.419367,2.9550445,3.9966516
-28.450535,2.9580312,3.9955568
-28.481289,2.9604907,3.9939508
-28.513672,2.9661312,3.9960861
-28.5466,2.9731069,3.999855
-28.576456,2.9746015,3.9974189
-28.607231,2.9780436,3.9973109
-28.650528,3.006443,4.026082
-28.680616,3.009471,4.025708
-28.705172,3.0013661,4.0125513
-28.708101,2.947761,3.946794
-28.71345,2.8972275,3.884542
-28.69532,2.7934775,3.7605295
-28.718973,2.7785025,3.7394166
-28.736547,2.7491536,3.7016478
-28.69529,2.5817206,3.5032744
-28.690063,2.4925566,3.3957472
-28.666544,2.3548493,3.2315445
-28.68771,2.322111,3.1895804
-28.726002,2.3316338,3.1969805
-28.70862,2.1961348,3.0350409
-28.71041,2.1053095,2.9251733
-28.708551,1.9998667,2.7981215
-28.745115,1.9974749,2.7916737
-28.703135,1.7671614,2.5181584
-28.715694,1.6867871,2.4202242
-28.72454,1.590519,2.3036022
-28.74678,1.5310271,2.2301292
-28.694767,1.2262452,1.868329
-28.716656,1.1506934,1.7758064
-28.724127,1.0204077,1.6188622
-28.740004,0.9117062,1.4872689
-38.580853,0.29893494,2.3262591
-38.589523,0.34349823,2.3938613
-38.583305,0.397393,2.4697094
-38.625935,0.41862655,2.5163784
-38.186726,0.75259733,2.8392668
-38.234753,0.76743484,2.8790064
-38.21082,0.82818484,2.958994
-38.23737,0.8562224,3.0103207
-38.211887,0.9166546,3.0896196
-38.233505,0.9470391,3.1428814
-38.251564,0.9793546,3.1978064
-38.254314,1.02073,3.2603889
-38.257244,1.0615506,3.3223996
-38.295033,1.0810118,3.366488
-38.321457,1.1071682,3.4162598
-38.348297,1.1329007,3.4657435
-38.376354,1.1577482,3.5145702
-38.42328,1.1714964,3.5544715
-38.49172,1.1729047,3.584653
-38.57305,1.1672084,3.6095223
-38.640663,1.1696389,3.6412868
-38.73346,1.1581807,3.6624947
-38.841114,1.1389353,3.6781745
-38.926033,1.1328208,3.7046614
-39.04808,1.1068017,3.7163777
-39.17128,1.0808771,3.7289305
-39.28983,1.0581758,3.7446885
-39.442795,1.0178058,3.7480006
-39.642227,0.9538491,3.7348695
-39.754433,0.93697643,3.757586
-39.867664,0.92015743,3.7810502
-39.970108,0.909492,3.8096557
-40.108227,0.88108397,3.8262863
-40.266224,0.8433926,3.8372993
-40.420403,0.8085723,3.8513837
-41.592216,0.5003724,3.894116
-41.64849,0.5190804,3.9510794
-41.6765,0.5511377,4.0167994
-41.687393,0.5910156,4.087492
-41.877007,0.5479727,4.1070876
-18.591042,0.67571115,4.078014
-18.913704,0.7800381,4.100063
-19.145126,0.8440118,4.098146
-19.361874,0.90254235,4.0942955
-19.56925,0.957989,4.0899262
-19.77771,1.0152459,4.0882487
-19.95354,1.0581002,4.078164
-20.18138,1.1272867,4.08755
-20.409222,1.1979821,4.0995893
-20.608816,1.256244,4.1044087
-20.740324,1.2818911,4.0872364
-20.875778,1.3102689,4.0729027
-21.059166,1.3637261,4.07779
-21.269726,1.4322803,4.095055
-21.427237,1.4749582,4.094456
-21.512102,1.4808993,4.067248
-21.688797,1.5353587,4.0773907
-21.868927,1.5928464,4.091016
-21.989407,1.6197925,4.0822115
-22.091354,1.6375072,4.066962
-22.249866,1.6864655,4.0768967
-22.329807,1.6935577,4.054651
-22.483995,1.7419841,4.065899
-22.561834,1.7490284,4.044783
-22.742517,1.814148,4.0712547
-22.864155,1.8472271,4.0726643
-22.982914,1.8794782,4.0741286
-23.158863,1.9454516,4.104303
-23.201498,1.935394,4.0720105
-23.356236,1.9910525,4.0952387
-23.432682,2.0016558,4.081223
-23.5381,2.0299346,4.08271
-23.604696,2.0355945,4.0653763
-23.700855,2.0595014,4.064169
-23.79821,2.0847776,4.0646963
-23.880493,2.1014142,4.0582094
-23.972527,2.1246266,4.0579643
-24.02667,2.1246648,4.0376935
-24.120451,2.1500254,4.0402536
-24.220669,2.1801577,4.0476117
-24.307583,2.2024522,4.0484586
-24.40091,2.2295198,4.054103
-24.44447,2.2245984,4.0310974
-24.529005,2.2469277,4.033254
-24.626507,2.2785206,4.0443935
-24.677862,2.2797556,4.02795
-24.75848,2.3011174,4.030477
-24.848223,2.329324,4.0398245
-24.915773,2.342852,4.035851
-24.995348,2.3652234,4.040564
-25.073124,2.3869176,4.0450454
-25.131298,2.395231,4.0371647
-25.229013,2.432304,4.057103
-25.283844,2.4391255,4.0484548
-25.341352,2.4482083,4.042245
-25.397306,2.4564848,4.0355186
-25.46488,2.473761,4.037822
-25.519772,2.4819791,4.0315847
-25.577248,2.4924874,4.0278487
-25.645416,2.511572,4.032837
-25.700418,2.520982,4.0285697
-25.75122,2.5274506,4.0216236
-25.815243,2.5446517,4.0256133
-25.874989,2.5589364,4.02698
-25.921967,2.563374,4.018715
-25.981283,2.5780954,4.021029
-26.035141,2.5887775,4.019519
-26.110743,2.6178765,4.036969
-26.146748,2.6145167,4.0216675
-26.187244,2.6150434,4.0104747
-26.257414,2.641114,4.025676
-26.319601,2.6609664,4.034798
-26.35278,2.6560526,4.0185924
-26.40086,2.664328,4.016181
-26.465971,2.6880937,4.030088
-26.51543,2.6984098,4.0302505
-26.549578,2.695156,4.016412
-26.59336,2.7008338,4.0120687
-26.640001,2.7094312,4.0109735
-26.703018,2.7337294,4.0266495
-26.746262,2.7399242,4.0234284
-26.777172,2.734559,4.0080957
-26.817955,2.7387886,4.0030804
-26.866648,2.7510066,4.0067506
-26.92305,2.771274,4.019239
-26.967278,2.7799249,4.0194917
-27.007435,2.7847767,4.0158257
-27.044724,2.786932,4.009398
-27.09729,2.80511,4.020439
-27.14355,2.817225,4.0251203
-27.17775,2.8169525,4.016511
-27.215662,2.8207903,4.0124965
-27.254017,2.8253264,4.0093794
-27.30639,2.8455076,4.0235314
-27.34596,2.852061,4.0229383
-27.381294,2.8541288,4.017553
-27.41657,2.8563085,4.01241
-27.454304,2.8614995,4.010714
-27.488937,2.8633265,4.005423
-27.53781,2.8821573,4.0191126
-27.568777,2.8801498,4.009827
-27.605549,2.8852537,4.008557
-27.644121,2.8928218,4.010163
-27.682539,2.900518,4.012048
-27.719402,2.9065754,4.0122304
-27.752443,2.9080334,4.007373
-27.785896,2.9101825,4.0033984
-27.839151,2.9384956,4.0290127
-27.87315,2.9420865,4.0269303
-27.914558,2.9558918,4.0365086
-27.949173,2.9609036,4.0362744
-27.981094,2.9624443,4.032213
-28.00405,2.9515238,4.0140862
-28.033054,2.949039,4.0056148
-28.065401,2.9514341,4.0027905
-28.098503,2.955129,4.0015497
-28.13475,2.9637423,4.006039
-28.170427,2.9718685,4.01009
-28.203192,2.9758792,4.0095334
-28.233156,2.9757526,4.0043254
-28.265396,2.9793484,4.0034866
-28.298685,2.9848623,4.0049562
-28.329262,2.9862208,4.0017343
-28.36126,2.9901037,4.0015182
-28.39461,2.996522,4.004333
-28.425346,2.9987662,4.0024137
-28.45812,3.0047698,4.004946
-28.488712,3.0071964,4.003423
-28.518229,3.0078704,3.999951
-28.55104,3.0147724,4.0038137
-28.580772,3.0162358,4.0014353
-28.611107,3.0190158,4.0006776
-28.651472,3.0416253,4.023179
-28.681183,3.0439868,4.0221305
-28.698057,3.020452,3.9908397
-28.700413,2.9659681,3.923285
-28.709608,2.9238315,3.8701644
-28.691397,2.820829,3.74552
-28.689135,2.7487426,3.6570687
-28.725441,2.7605839,3.667323
-28.704742,2.6417048,3.523675
-28.69388,2.5407338,3.400969
-28.663876,2.3890576,3.2182822
-28.688293,2.3646548,3.1857262
-28.70646,2.3234012,3.1332874
-28.737217,2.3128452,3.1171837
-28.711742,2.1525307,2.9237862
-28.710613,2.0503604,2.7990956
-28.727509,1.9933195,2.7278476
-28.723564,1.8734086,2.5819607
-28.709883,1.7181501,2.3939753
-28.716238,1.6149976,2.2677727
-28.741999,1.5666149,2.2066598
-28.708199,1.3233476,1.9135861
-28.713974,1.1965964,1.7590375
-28.728142,1.0906165,1.6291704
-28.729818,0.9333875,1.4381461
-28.774183,0.92220545,1.4213023
-38.568886,0.3186257,2.2256794
-38.57225,0.36697054,2.297194
-38.565933,0.42112064,2.3738937
-38.584293,0.45847464,2.4351473
-38.65634,0.46069074,2.4646225
-38.190067,0.80863047,2.8051653
-38.199356,0.8482158,2.8669395
-38.2157,0.8829279,2.924315
-38.222313,0.9233849,2.9867444
-38.21907,0.96951294,3.0540705
-38.236076,1.0026741,3.109933
-38.25259,1.0358262,3.1657767
-38.26705,1.0699127,3.222412
-38.273945,1.1082091,3.2826247
-38.280277,1.1464477,3.3427134
-38.306652,1.1725118,3.3924403
-38.331055,1.1995492,3.4430432
-38.363052,1.2220027,3.4898767
-38.401146,1.2408538,3.5338326
-38.465546,1.2447066,3.5656242
-38.536358,1.2451589,3.594975
-38.615276,1.2413523,3.6212611
-38.6926,1.2387683,3.648964
-38.792053,1.2243626,3.6676874
-38.879364,1.2170928,3.6926308
-39.008823,1.1874824,3.700593
-39.12625,1.1650991,3.7149725
-39.225685,1.1529355,3.7379413
-39.382805,1.1109219,3.7387462
-39.51201,1.0844781,3.7523403
-39.68354,1.0368905,3.750928
-39.81438,1.0112834,3.766953
-39.909164,1.004761,3.7978354
-40.026062,0.9875138,3.8214998
-40.165283,0.95971227,3.838317
-40.323616,0.9232235,3.8498678
-41.64114,0.50466514,3.7651281
-41.64762,0.54736924,3.8379817
-41.670086,0.58226466,3.9056234
-41.661415,0.6313915,3.9825335
-41.684547,0.6654556,4.0496054
-41.82338,0.64658093,4.083312
-42.068283,0.5804529,4.088575
-42.368767,0.49090195,4.0812936
-18.329353,0.70979524,4.118344
-18.480751,0.73291945,4.086849
-18.759533,0.8144872,4.0943904
-18.948734,0.8569503,4.0782204
-19.165462,0.91319156,4.072573
-19.387642,0.9732983,4.0710754
-19.581274,1.0214319,4.0629663
-19.802958,1.0839913,4.0661807
-19.992752,1.1327858,4.0613184
-20.206947,1.1944778,4.066885
-20.426395,1.2601018,4.076744
-20.624454,1.3167322,4.081615
-20.858505,1.3923829,4.1017256
-21.017551,1.432378,4.097135
-21.1269,1.4484658,4.075781
-21.285923,1.490236,4.0744343
-21.471355,1.5464809,4.08512
-21.669468,1.6105022,4.102994
-21.737082,1.608258,4.0709176
-21.906416,1.6594431,4.0809135
-22.035196,1.6904025,4.0760818
-22.118057,1.6977465,4.0533056
-22.296432,1.7567251,4.0723386
-22.388596,1.7703421,4.055907
-22.538643,1.816046,4.0661125
-22.643236,1.83778,4.0576053
-22.754015,1.8635788,4.0530734
-22.934746,1.929247,4.082378
-23.03886,1.9530278,4.0777035
-23.169083,1.9923398,4.0867486
-23.30991,2.038669,4.1025434
-23.379303,2.0446305,4.084631
-23.472351,2.0647619,4.079299
-23.580862,2.094595,4.0829096
-23.636353,2.0936263,4.060249
-23.757471,2.1322598,4.072662
-23.807236,2.1285844,4.0483665
-23.897303,2.1496844,4.046344
-23.992437,2.1744964,4.0481396
-24.042702,2.1720626,4.025931
-24.189175,2.2301507,4.0587554
-24.228394,2.2216008,4.0317526
-24.324432,2.2493868,4.0381804
-24.428307,2.2829247,4.0504265
-24.478504,2.2823696,4.031688
-24.55923,2.3020308,4.0319896
-24.643345,2.3244848,4.0353227
-24.718246,2.3413892,4.03388
-24.800934,2.364042,4.038248
-24.857723,2.3696814,4.0268936
-24.922386,2.3810177,4.0212383
-25.040245,2.4296036,4.0516
-25.08054,2.4250374,4.0314198
-25.17155,2.4563584,4.0461173
-25.257786,2.485042,4.058725
-25.29628,2.4801135,4.038969
-25.358679,2.4926176,4.0364504
-25.432016,2.5135427,4.0425158
-25.489052,2.5229828,4.037586
-25.52938,2.5203,4.020885
-25.585484,2.5296228,4.016307
-25.67817,2.567128,4.0401797
-25.709345,2.55827,4.017951
-25.773579,2.5750473,4.0216746
-25.83418,2.5894678,4.0233107
-25.89983,2.6083257,4.0297318
-25.932186,2.6011248,4.0098853
-25.992802,2.6167302,4.013487
-26.058338,2.636815,4.021963
-26.117062,2.6518488,4.025534
-26.1569,2.6516511,4.0136156
-26.203094,2.6569347,4.0075364
-26.287775,2.695109,4.0358825
-26.332844,2.7002847,4.0301747
-26.365952,2.695368,4.0140715
-26.411503,2.701376,4.0095625
-26.471067,2.7200336,4.0185714
-26.534561,2.7427363,4.032119
-26.55709,2.7291126,4.0074177
-26.600853,2.7346985,4.003203
-26.65463,2.7497735,4.009281
-26.712269,2.7689078,4.0199285
-26.755478,2.7750156,4.016846
-26.791574,2.774632,4.0069437
-26.838047,2.7843552,4.008072
-26.890625,2.80037,4.0161877
-26.935526,2.8093288,4.016867
-26.967304,2.8055792,4.0039
-27.010845,2.813703,4.003978
-27.054773,2.8225427,4.005003
-27.10401,2.8371754,4.0125422
-27.160576,2.8599033,4.029167
-27.186035,2.850556,4.010715
-27.219105,2.8492222,4.001171
-27.259045,2.8553886,4.000029
-27.313513,2.8776703,4.016896
-27.35772,2.8892922,4.0221405
-27.391941,2.8901782,4.0155964
-27.419518,2.8837,4.000944
-27.45625,2.8876615,3.9980445
-27.493885,2.8928957,3.9966955
-27.542257,2.9109817,4.009907
-27.576134,2.912432,4.004586
-27.612377,2.9168916,4.0027666
-27.651867,2.925544,4.005806
-27.68882,2.931412,4.00583
-27.726114,2.9379852,4.0067787
-27.756802,2.9364781,3.9986737
-27.78978,2.9379947,3.994101
-27.84349,2.96667,4.020598
-27.882828,2.9772804,4.0266714
-27.920193,2.9856615,4.0303307
-27.951283,2.985882,4.024762
-27.98235,2.9861941,4.0193915
-28.009563,2.9812517,4.008071
-28.035168,2.9740007,3.9941638
-28.07664,2.989462,4.006522
-28.105127,2.9865565,3.9978044
-28.138899,2.9915042,3.9982522
-28.180134,3.0079405,4.0121202
-28.210442,3.0083141,4.007489
-28.2384,3.005168,3.9988532
-28.271746,3.0105271,4.000193
-28.30272,3.0123694,3.9975362
-28.334381,3.01551,3.9964843
-28.36597,3.0187447,3.9956362
-28.398205,3.0232844,3.9964094
-28.429985,3.0273137,3.99668
-28.462027,3.0320454,3.997869
-28.491901,3.0332198,3.9949741
-28.521738,3.0344796,3.9922626
-28.552534,3.0376549,3.9918914
-28.584892,3.0439763,3.9953177
-28.624832,3.0650856,4.0162945
-28.65395,3.066104,4.0136647
-28.683964,3.0690446,4.013389
-28.69107,3.025981,3.9587193
-28.700449,2.9859633,3.9076295
-28.709373,2.9434605,3.853572
-28.69376,2.846654,3.7349854
-28.700209,2.7941623,3.668944
-28.713135,2.7539961,3.6175332
-28.71921,2.6964915,3.5454602
-28.692965,2.5608656,3.3801966
-28.65936,2.4014585,3.1863499
-28.689493,2.390839,3.1699758
-28.708664,2.3523166,3.1203156
-28.73845,2.3393214,3.1012096
-28.712729,2.1793947,2.9062362
-28.710457,2.0747426,2.7772913
-28.6991,1.9394126,2.6114593
-28.739693,1.9451013,2.6147237
-28.707088,1.7364635,2.3606968
-28.714813,1.6376953,2.238462
-28.736645,1.57707,2.1620417
-28.71302,1.3672853,1.9061322
-28.716434,1.2338052,1.7418928
-28.728754,1.1222064,1.6039333
-28.73048,0.96595836,1.4120984
-28.767323,0.92716527,1.3618512
-38.57048,0.3250475,2.1279902
-38.560463,0.3826003,2.2086334
-38.5466,0.44194436,2.2907405
-38.59085,0.46260238,2.3367405
-38.540947,0.5440583,2.4389749
-38.29588,0.7494085,2.6544309
-38.142464,0.8931925,2.8119855
-38.196407,0.9041891,2.8479214
-38.1989,0.94736624,2.9131174
-38.211517,0.9837966,2.9721503
-38.230545,1.0159304,3.02731
-38.228138,1.0608013,3.0937586
-38.248463,1.0914714,3.1475582
-38.251884,1.1319733,3.2099767
-38.26415,1.1668103,3.2673683
-38.27353,1.2030084,3.3258982
-38.29349,1.2327003,3.3787866
-38.318596,1.2591875,3.428958
-38.35132,1.2811389,3.4753437
-38.385326,1.3022587,3.5211349
-38.443233,1.3098636,3.5557637
-38.51561,1.309556,3.5841222
-38.592052,1.3072882,3.6112533
-38.67505,1.3017507,3.6361327
-38.760574,1.2952197,3.6606712
-38.851936,1.2859421,3.6834888
-38.966545,1.2647085,3.6973143
-39.075634,1.24705,3.7146578
-39.226555,1.2080419,3.7159462
-39.329556,1.1949203,3.7382889
-39.478813,1.1584709,3.7433114
-39.589848,1.1424885,3.7648945
-39.75594,1.0991786,3.7665305
-39.847206,1.0945301,3.7981744
-39.99969,1.0597692,3.8080678
-40.081837,1.0606837,3.845121
-40.251183,1.0191793,3.851881
-41.624077,0.48766947,3.5931945
-41.643814,0.52458715,3.6623545
-41.656937,0.56437206,3.733498
-41.660786,0.60819244,3.807345
-41.681496,0.6438713,3.8756318
-41.718357,0.67194295,3.9389153
-41.718758,0.7164817,4.013109
-41.71325,0.76331806,4.088657
-42.035927,0.66325474,4.0706425
-42.25427,0.6114552,4.085315
-42.600235,0.50492024,4.0677824
-18.045097,0.69973207,4.0860105
-18.319515,0.7748878,4.0872974
-18.580698,0.8458898,4.0878687
-18.806679,0.9027989,4.0809784
-19.061886,0.974246,4.0854754
-19.347786,1.0612552,4.102396
-19.546118,1.1100118,4.0950036
-19.721218,1.1492369,4.082341
-19.938412,1.2091205,4.0854526
-20.10897,1.248462,4.0754128
-20.351562,1.322983,4.091904
-20.55534,1.3805616,4.0977173
-20.743795,1.4320738,4.1004443
-20.861477,1.4503677,4.079706
-21.060751,1.5093291,4.090295
-21.223574,1.5515814,4.0895257
-21.368912,1.5861423,4.0839233
-21.487642,1.6082063,4.069584
-21.694353,1.6756217,4.091395
-21.849045,1.7178514,4.0947223
-21.968102,1.7426906,4.0852156
-22.095966,1.7728307,4.0806885
-22.215961,1.799633,4.0742526
-22.305864,1.8112228,4.056152
-22.481956,1.8693635,4.076804
-22.5327,1.861182,4.0436687
-22.73045,1.9330838,4.077576
-22.849129,1.963111,4.0775414
-22.953608,1.9860556,4.072217
-23.131123,2.0504234,4.102818
-23.184032,2.0459895,4.0754375
-23.340157,2.100352,4.09915
-23.37842,2.0883644,4.066053
-23.504864,2.127377,4.0778008
-23.588879,2.1425643,4.069277
-23.677376,2.1608822,4.0639896
-23.794537,2.1967664,4.0748744
-23.83481,2.1874666,4.0458293
-23.935694,2.2148385,4.050104
-23.99293,2.2163105,4.031386
-24.103136,2.250599,4.0429583
-24.21204,2.2849045,4.0551596
-24.260286,2.2820659,4.0336084
-24.372929,2.3200552,4.050245
-24.424685,2.3201325,4.0320544
-24.507164,2.3401704,4.032864
-24.61244,2.3755648,4.0486116
-24.643667,2.3633146,4.019682
-24.74226,2.3955495,4.0333157
-24.84914,2.434095,4.0535264
-24.886715,2.4269004,4.0302286
-24.975252,2.454374,4.0406456
-25.055382,2.4767802,4.04659
-25.093447,2.470685,4.025084
-25.20092,2.5131254,4.051371
-25.262915,2.524487,4.0475802
-25.309864,2.525538,4.03387
-25.381369,2.5444174,4.038089
-25.458132,2.5676434,4.0469947
-25.487972,2.5571456,4.0224576
-25.562828,2.579876,4.0314727
-25.63729,2.602918,4.041164
-25.693623,2.6129212,4.037982
-25.734184,2.6112933,4.023201
-25.77677,2.6113536,4.0103035
-25.864159,2.646311,4.0333934
-25.911724,2.6509433,4.025673
-25.962492,2.6583598,4.0210266
-26.017704,2.6696322,4.020595
-26.076614,2.68427,4.023907
-26.127491,2.6928134,4.021113
-26.174986,2.698903,4.015959
-26.233845,2.7147136,4.021222
-26.300018,2.73714,4.033724
-26.330545,2.7299497,4.0151734
-26.383663,2.7421165,4.017274
-26.431591,2.7501903,4.0152373
-26.496593,2.7735162,4.02969
-26.536732,2.7755036,4.021562
-26.578632,2.779252,4.015477
-26.62887,2.7907495,4.0179043
-26.682468,2.8057027,4.024269
-26.724531,2.810483,4.019829
-26.756495,2.806097,4.005582
-26.808914,2.8210287,4.0124936
-26.848331,2.8240438,4.0065947
-26.912903,2.851489,4.027609
-26.953093,2.8559396,4.023639
-26.979084,2.846649,4.004679
-27.026455,2.858572,4.0092134
-27.073595,2.870669,4.014122
-27.124344,2.8868537,4.0237503
-27.169888,2.8981824,4.0281773
-27.200106,2.8939314,4.0154095
-27.237324,2.8970942,4.0110154
-27.283463,2.9099832,4.0176425
-27.330925,2.9247386,4.02654
-27.365118,2.925476,4.019849
-27.394644,2.9211993,4.007615
-27.428808,2.9221377,4.001359
-27.461926,2.922039,3.9940386
-27.510498,2.9398012,4.0070868
-27.552309,2.9502783,4.012038
-27.586575,2.952269,4.0074716
-27.62417,2.958404,4.007745
-27.661156,2.9640841,4.0076246
-27.698017,2.9698853,4.0077677
-27.733818,2.9746459,4.006838
-27.764416,2.9731238,3.9987998
-27.810133,2.990921,4.0131083
-27.849623,3.0012922,4.0190144
-27.896511,3.0217438,4.036709
-27.927979,3.0224352,4.0316944
-27.956352,3.0191085,4.022113
-27.986063,3.0176253,4.014751
-28.009388,3.0073817,3.997279
-28.049292,3.020226,4.0067697
-28.081879,3.0231462,4.004811
-28.113163,3.024387,4.000986
-28.141169,3.020968,3.9917982
-28.181595,3.036066,4.004399
-28.211487,3.035809,3.999105
-28.244473,3.0404122,3.9996102
-28.276588,3.0439205,3.9989254
-28.308247,3.046925,3.9977434
-28.341318,3.0524244,3.9995985
-28.374638,3.0586243,4.0023823
-28.40566,3.061317,4.001114
-28.436617,3.0641007,4.000043
-28.467505,3.0669737,3.9991672
-28.501078,3.0747736,4.0042343
-28.53144,3.0772285,4.003043
-28.562077,3.0803778,4.0027647
-28.593948,3.0860436,4.0055747
-28.63182,3.103354,4.022381
-28.66271,3.1080084,4.0241814
-28.691944,3.1097052,4.0225315
-28.685421,3.040082,3.9355316
-28.696947,3.0045779,3.8893452
-28.703825,2.9580517,3.8299203
-28.684742,2.8545227,3.7019763
-28.694693,2.8097026,3.6444745
-28.699646,2.7519665,3.571404
-28.728434,2.7458189,3.5604434
-28.688831,2.580965,3.3581629
-28.665785,2.4478722,3.1939502
-28.68686,2.4157295,3.1514993
-28.694613,2.349037,3.0673003
-28.729057,2.3471947,3.06153
-28.701962,2.1845956,2.8611755
-28.708376,2.1035142,2.759399
-28.680477,1.9238238,2.5379777
-28.733818,1.9641447,2.583355
-28.711185,1.7860644,2.3636475
-28.710573,1.6637104,2.2114692
-28.712637,1.5425003,2.060585
-28.73108,1.466023,1.9640541
-28.716288,1.2761433,1.729423
-28.72349,1.1484356,1.570373
-28.726633,0.9981921,1.38378
-28.749172,0.9077971,1.270102
-38.553352,0.3924632,2.109312
-38.54987,0.44527602,2.1859202
-38.58502,0.47225285,2.237897
-38.577133,0.5268333,2.315969
-38.38801,0.69673586,2.5019565
-38.26576,0.82146716,2.644485
-38.12945,0.95309806,2.792499
-38.17116,0.9717524,2.8353143
-38.204933,0.995255,2.882718
-38.200623,1.0419288,2.951346
-38.216507,1.0758083,3.0082216
-38.209343,1.1232266,3.0772796
-38.2327,1.151897,3.1293736
-38.247795,1.185226,3.1856475
-38.243484,1.2296109,3.2516823
-38.229816,1.2789335,3.3219075
-38.281376,1.2901392,3.3586383
-38.306435,1.3165431,3.40878
-38.331905,1.3425326,3.4586167
-38.369873,1.3613474,3.5023694
-38.410793,1.3784723,3.5448303
-38.461197,1.3903582,3.5830364
-38.517128,1.3993027,3.619011
-38.614624,1.3858674,3.636662
-38.688503,1.3856282,3.6657524
-38.776382,1.3782296,3.689386
-38.90075,1.3519943,3.698236
-38.977325,1.3515058,3.7285604
-39.12555,1.3141599,3.7299013
-39.30104,1.2637327,3.7218275
-39.41007,1.2483544,3.742374
-39.564774,1.210464,3.7460856
-39.712364,1.1770983,3.7542791
-39.819687,1.164633,3.7793636
-39.90843,1.1618583,3.8124304
-40.050106,1.1336014,3.8269634
-40.157017,1.1229968,3.8554907
-41.641705,0.4982791,3.4768982
-41.63874,0.54622483,3.554206
-41.660255,0.5822897,3.6229248
-41.672558,0.6224103,3.6945167
-41.68603,0.66170144,3.7654943
-41.698074,0.70137143,3.8367014
-41.677956,0.7553065,3.917519
-41.67118,0.80273604,3.9937062
-41.683163,0.8414111,4.063941
-41.862762,0.80593085,4.085907
-42.116394,0.73909664,4.0890427
-42.42771,0.6488061,4.0792193
-42.76324,0.5500684,4.0664787
-17.664845,0.707917,4.0982184
-17.906948,0.76499987,4.08624
-18.260551,0.8713176,4.1082325
-18.525017,0.9413693,4.1087766
-18.731125,0.9876001,4.095219
-18.941113,1.0367494,4.0851026
-19.16373,1.0927558,4.0811877
-19.357586,1.1372511,4.0708
-19.56929,1.1909595,4.068258
-19.801271,1.2552123,4.0747137
-19.977638,1.2953985,4.0653806
-20.235903,1.3745885,4.0857387
-20.422241,1.4218888,4.0843205
-20.617458,1.4745369,4.0881433
-20.843773,1.5432241,4.1053686
-20.971552,1.5661712,4.0892725
-21.129768,1.604563,4.085868
-21.24749,1.6241786,4.068902
-21.486195,1.7039969,4.0998645
-21.655367,1.7509847,4.106434
-21.73464,1.75407,4.0790434
-21.912046,1.8070726,4.092299
-22.04858,1.8404633,4.0907593
-22.1405,1.8517895,4.071995
-22.303635,1.9005134,4.0846367
-22.390831,1.9106529,4.0661874
-22.512478,1.939414,4.063852
-22.633709,1.968724,4.0627065
-22.75369,1.9981427,4.0623746
-22.932669,2.0602808,4.0908165
-23.038563,2.0838451,4.0870333
-23.155409,2.114109,4.0896893
-23.262148,2.1395338,4.0887847
-23.363695,2.1627388,4.086532
-23.426605,2.1647353,4.0660243
-23.579208,2.218194,4.091821
-23.613186,2.2045317,4.058155
-23.736313,2.2426424,4.0714693
-23.792233,2.242272,4.050449
-23.886374,2.2647185,4.050597
-23.989473,2.2931352,4.056756
-24.047287,2.2950213,4.0388956
-24.158146,2.329373,4.0515695
-24.213318,2.3304343,4.0336547
-24.307323,2.3557386,4.0388412
-24.416843,2.3913882,4.0543294
-24.46541,2.3895192,4.034681
-24.552284,2.4121556,4.038706
-24.638037,2.4346867,4.0430803
-24.699623,2.4421973,4.033371
-24.7766,2.460091,4.034044
-24.848858,2.4753985,4.0325756
-24.924507,2.4934382,4.0341425
-24.99475,2.5083752,4.0330257
-25.057491,2.5186977,4.02768
-25.117165,2.5273018,4.0209203
-25.234661,2.5761547,4.0546374
-25.264496,2.5650463,4.02882
-25.345448,2.5898519,4.0392795
-25.406971,2.6015158,4.036843
-25.477375,2.6199403,4.0415554
-25.526587,2.6235628,4.0315037
-25.582626,2.6324158,4.027015
-25.646057,2.647059,4.0287275
-25.692146,2.6492462,4.017874
-25.755821,2.664863,4.021119
-25.807743,2.6720338,4.0158715
-25.879623,2.694808,4.0271263
-25.911154,2.6869612,4.0066476
-25.973875,2.7035053,4.0119042
-26.03235,2.7171888,4.0144234
-26.108189,2.7451518,4.0323076
-26.133617,2.7332342,4.0082
-26.18626,2.7433736,4.007657
-26.255327,2.7673726,4.022145
-26.316977,2.7858572,4.0310316
-26.332901,2.766527,3.9995165
-26.394188,2.7853868,4.0092163
-26.455124,2.8044906,4.0194445
-26.50769,2.8169017,4.0226707
-26.53982,2.8118567,4.007111
-26.583551,2.8171024,4.002889
-26.6344,2.8289597,4.0060706
-26.689201,2.8447862,4.0138144
-26.733023,2.851082,4.0112906
-26.772001,2.8531904,4.0043097
-26.820257,2.8641372,4.0072503
-26.870035,2.8768995,4.0123925
-26.916119,2.8865638,4.0142846
-26.950615,2.885421,4.004298
-26.9964,2.895389,4.006849
-27.036388,2.9000063,4.0035734
-27.087923,2.9163733,4.0136447
-27.138042,2.9318252,4.022887
-27.169876,2.9291224,4.0118275
-27.207672,2.932644,4.00791
-27.244846,2.9357314,4.0036287
-27.290428,2.9478998,4.009796
-27.33997,2.9647245,4.0214367
-27.367334,2.9581003,4.0064964
-27.403038,2.9605725,4.0020375
-27.436123,2.960332,3.994584
-27.471209,2.9624586,3.9899533
-27.523733,2.9845748,4.0084457
-27.55505,2.982983,3.9997962
-27.5898,2.9854772,3.995961
-27.626423,2.9903672,3.9950106
-27.66389,2.9965224,3.9956484
-27.699802,3.0010777,3.9945502
-27.734673,3.004598,3.992363
-27.78337,3.0255263,4.0105906
-27.820658,3.0327682,4.013007
-27.8655,3.0499754,4.02721
-27.901047,3.0557413,4.028159
-27.93425,3.058715,4.025943
-27.975693,3.0728574,4.036965
-27.993086,3.0550494,4.010486
-28.021027,3.0512943,4.0006113
-28.050703,3.0499582,3.99367
-28.08288,3.052226,3.991078
-28.114994,3.0545902,3.9886947
-28.154747,3.0682397,3.9998057
-28.18303,3.0655065,3.991568
-28.2145,3.0675776,3.9891267
-28.24708,3.0715172,3.989005
-28.278416,3.0737772,3.9869735
-28.310825,3.0779114,3.9872718
-28.344631,3.0845222,3.9906309
-28.376827,3.0888553,3.9913607
-28.408203,3.0920906,3.9908667
-28.44021,3.0966148,3.992011
-28.472467,3.1018329,3.9940825
-28.50392,3.1059492,3.9949205
-28.533583,3.1071568,3.9923406
-28.563873,3.1096506,3.9913945
-28.597054,3.1176512,3.9971879
-28.63297,3.1311798,4.0097694
-28.67084,3.1490507,4.027722
-28.693415,3.1380286,4.0107555
-28.69784,3.0907328,3.9497993
-28.691732,3.02036,3.8607578
-28.705763,2.98873,3.8187494
-28.685442,2.883575,3.6872196
-28.685184,2.817184,3.602769
-28.697802,2.7763016,3.5493646
-28.727736,2.772608,3.541356
-28.679296,2.588892,3.3134289
-28.666286,2.4800293,3.1767488
-28.685575,2.443831,3.1288772
-28.691109,2.3721232,3.0375204
-28.718134,2.3512504,3.0084372
-28.722773,2.2715104,2.907174
-28.69975,2.114302,2.7107267
-28.695461,1.9999347,2.5667324
-28.731766,1.9931676,2.5549474
-28.713415,1.8287795,2.349288
-28.711884,1.7049007,2.1933355
-28.69629,1.5309296,1.9755607
-28.736816,1.5229237,1.9622478
-28.734013,1.3740835,1.7752795
-28.724209,1.1923385,1.5475817
-28.717825,1.0104351,1.3195405
-28.755026,0.9721203,1.268816
-38.50341,0.44267178,2.0368757
-38.55496,0.45935917,2.0788326
-38.609238,0.47427034,2.1192498
-38.380806,0.67121124,2.3354168
-38.43322,0.6857259,2.3749733
-38.492958,0.69564223,2.4103365
-38.200703,0.92619705,2.6554852
-38.12081,1.0210583,2.7704725
-38.171642,1.0340695,2.8079252
-38.187744,1.0683103,2.8654141
-38.185585,1.1132579,2.9328303
-38.205227,1.144633,2.9875731
-38.199486,1.1908038,3.0559092
-38.221207,1.2202811,3.1088462
-38.240917,1.2506914,3.1626496
-38.25071,1.2865841,3.2214098
-38.25283,1.3265216,3.2837405
-38.275852,1.354171,3.3350263
-38.296066,1.3831985,3.3875647
-38.32067,1.409553,3.4377742
-38.354557,1.4305937,3.4833937
-38.390564,1.4503896,3.528048
-38.444153,1.4605651,3.5645514
-38.498413,1.4704907,3.601089
-38.575455,1.4683573,3.6276565
-38.651707,1.4669714,3.6552649
-38.746128,1.4563594,3.6755795
-38.841522,1.4457185,3.6964073
-38.921265,1.4436376,3.7248201
-38.98433,1.450422,3.7609024
-39.067394,1.4472528,3.789267
-39.1362,1.4516134,3.8241372
-39.46306,1.3275764,3.7573733
-39.64518,1.277509,3.7510595
-39.75323,1.2649157,3.7751632
-39.844387,1.2610736,3.8066893
-39.97405,1.2390873,3.82487
-40.079105,1.229563,3.8533173
-40.22729,1.2001283,3.8674774
-41.63895,0.57866454,3.44309
-41.65929,0.61548805,3.5125318
-41.676495,0.6535249,3.582872
-41.68357,0.6959412,3.656354
-41.690914,0.7379072,3.7294369
-41.659096,0.79715586,3.8145761
-41.683605,0.8306923,3.8815122
-41.6706,0.88062453,3.9597378
-41.66928,0.92498446,4.0339675
-41.748013,0.93422866,4.0846252
-42.0319,0.8554127,4.077785
-42.279263,0.7939503,4.0843105
-42.5979,0.70381427,4.074299
-42.93279,0.6088474,4.063633
-43.26425,0.51738834,4.057685
-17.173967,0.6771891,4.090002
-17.505611,0.766958,4.0970025
-17.742142,0.8192978,4.0820127
-18.041534,0.8993373,4.087076
-18.315918,0.9706664,4.0884666
-18.557455,1.0296867,4.0834537
-18.780563,1.0822444,4.0757003
-19.032215,1.1485169,4.079087
-19.276,1.2129157,4.082919
-19.482946,1.2625837,4.077914
-19.729593,1.3311801,4.08803
-19.891478,1.3632956,4.0731425
-20.085201,1.4107645,4.0706944
-20.295687,1.4670856,4.076171
-20.54786,1.5439637,4.098608
-20.675585,1.5646727,4.0798373
-20.859829,1.6125915,4.082872
-21.068302,1.673145,4.096962
-21.22723,1.7114401,4.094908
-21.331966,1.724638,4.073939
-21.494265,1.7663331,4.0764403
-21.701672,1.8311669,4.098683
-21.829754,1.8582411,4.091459
-21.914604,1.8645382,4.0679235
-22.086437,1.914976,4.081491
-22.184973,1.9294095,4.0660176
-22.316544,1.9612837,4.065821
-22.434402,1.9869205,4.061115
-22.523842,1.998484,4.045053
-22.7117,2.0622263,4.0745077
-22.783213,2.0657017,4.052743
-22.948416,2.1195903,4.0754843
-23.082766,2.1580496,4.0856194
-23.170435,2.1720448,4.0748305
-23.300568,2.209846,4.0857935
-23.38601,2.2238147,4.0760736
-23.484802,2.2457342,4.0740137
-23.584045,2.2685351,4.0733023
-23.641754,2.2683587,4.052071
-23.759361,2.3027816,4.063033
-23.817562,2.30366,4.0435257
-23.899954,2.3189106,4.0377135
-23.990644,2.3395538,4.037393
-24.077126,2.3582873,4.035751
-24.182556,2.3889494,4.0458856
-24.229206,2.3847938,4.023352
-24.354506,2.428831,4.0472717
-24.424408,2.4397254,4.0399027
-24.50092,2.4551387,4.037259
-24.5734,2.4685116,4.0330095
-24.642654,2.4802892,4.027554
-24.722118,2.499013,4.0292706
-24.811625,2.5247626,4.038333
-24.860914,2.5249927,4.0224915
-24.943882,2.5475605,4.029162
-25.037388,2.577734,4.043872
-25.091965,2.5825903,4.0335536
-25.160852,2.5974011,4.0335474
-25.253841,2.6291232,4.0510507
-25.289265,2.6219764,4.029357
-25.365175,2.6430287,4.0366864
-25.42944,2.6564856,4.0365634
-25.49205,2.6692085,4.0359764
-25.539106,2.6712234,4.0245667
-25.597178,2.6814077,4.021856
-25.679817,2.7098818,4.038515
-25.720245,2.707996,4.02372
-25.76951,2.7128153,4.016138
-25.840275,2.7340405,4.026096
-25.905956,2.751998,4.0329127
-25.941978,2.7477622,4.016404
-25.999235,2.7600293,4.0176463
-26.060204,2.7756038,4.022677
-26.118917,2.789874,4.0265718
-26.152046,2.7842047,4.0092077
-26.207808,2.7967958,4.0117145
-26.262684,2.8090816,4.0141244
-26.321772,2.825235,4.020973
-26.363512,2.827479,4.0128784
-26.410824,2.8345954,4.0102787
-26.474781,2.8561149,4.0236907
-26.521664,2.8636196,4.021931
-26.554296,2.8591018,4.0070653
-26.600967,2.8669116,4.0059676
-26.648682,2.8759584,4.006425
-26.698605,2.8873193,4.0096455
-26.74236,2.8935032,4.0072756
-26.788338,2.901994,4.0076537
-26.830046,2.9068744,4.0041494
-26.878597,2.9183908,4.008271
-26.93957,2.9420192,4.026257
-26.968735,2.935979,4.010906
-27.011549,2.9431071,4.010585
-27.057013,2.9531198,4.013699
-27.105604,2.9665852,4.0209193
-27.148973,2.9752848,4.0228767
-27.179062,2.970913,4.010018
-27.218939,2.976571,4.0087624
-27.255472,2.9790416,4.0039763
-27.305206,2.9955103,4.015454
-27.34568,3.0027041,4.0164013
-27.38131,3.0050159,4.011834
-27.416359,3.0068824,4.0068665
-27.4539,3.011663,4.005398
-27.491837,3.0171292,4.0048532
-27.53115,3.0244107,4.0065546
-27.568327,3.029568,4.0059037
-27.604404,3.0337152,4.0041904
-27.63844,3.0357122,4.000067
-27.675297,3.0412235,4.0001845
-27.711552,3.0462863,3.9998925
-27.75004,3.0543199,4.0032234
-27.782785,3.0556197,3.998717
-27.830635,3.0759287,4.0168304
-27.871733,3.088376,4.0257874
-27.905403,3.0917606,4.0241103
-27.942533,3.0998619,4.0281515
-27.975115,3.1023092,4.02557
-27.998543,3.0927029,4.008686
-28.030672,3.094746,4.0057907
-28.059366,3.0922387,3.997537
-28.090586,3.093302,3.9936447
-28.130398,3.1067023,4.0046673
-28.155333,3.0992098,3.990676
-28.199202,3.119279,4.009961
-28.226091,3.1148863,3.9998734
-28.256548,3.115848,3.9963236
-28.288887,3.1198387,3.9965243
-28.322643,3.1262841,3.999793
-28.35477,3.1304739,4.0004253
-28.387533,3.1359427,4.0027037
-28.418728,3.1391432,4.0023184
-28.449844,3.1424365,4.0021334
-28.480879,3.145821,4.0021467
-28.512524,3.1504865,4.0038104
-28.543043,3.15346,4.0034957
-28.572153,3.1541367,4.000454
-28.603533,3.159075,4.0027103
-28.641905,3.1772673,4.021305
-28.6704,3.1776185,4.018122
-28.697626,3.1756492,4.012162
-28.705294,3.1353147,3.9590816
-28.69629,3.0600736,3.862999
-28.687511,2.9823105,3.763702
-28.68192,2.908051,3.6686206
-28.681114,2.840936,3.5822673
-28.694326,2.8015435,3.5301023
-28.699028,2.7415724,3.4524755
-28.728792,2.7360654,3.4422264
-28.672483,2.529911,3.183447
-28.684471,2.4769833,3.1143312
-28.689981,2.4058027,3.0225444
-28.702658,2.3491678,2.9487715
-28.725885,2.3168712,2.9052296
-28.701796,2.158425,2.704811
-28.70688,2.070548,2.5920372
-28.71252,1.9795527,2.4753203
-28.731863,1.9227254,2.4011302
-28.713749,1.7527125,2.1857758
-28.691164,1.5592425,1.9409747
-28.73063,1.54758,1.9230137
-28.734638,1.4213128,1.7619386
-28.71312,1.2022696,1.4847918
-28.719397,1.0640998,1.3086143
-28.759289,1.0358927,1.2699957
-38.42346,0.609426,2.1332216
-38.465923,0.63121986,2.1799097
-38.530468,0.6388767,2.2128515
-38.200417,1.0318038,2.6957154
-38.165173,1.0976543,2.783834
-38.171978,1.1372888,2.8466663
-38.186684,1.1717863,2.9045582
-38.203194,1.204884,2.9611063
-38.202835,1.2475698,3.02661
-38.215927,1.281965,3.0842805
-38.228508,1.3163328,3.1418915
-38.243736,1.3488674,3.1977825
-38.238632,1.3926134,3.2638946
-38.243237,1.4304307,3.3244772
-38.288914,1.4450445,3.3640509
-38.312668,1.4717615,3.4146523
-38.342487,1.4949858,3.4621897
-38.373585,1.5173988,3.5090938
-38.416565,1.533335,3.5504084
-38.483006,1.5368044,3.5810328
-38.532173,1.5496118,3.6200714
-38.629738,1.5371981,3.63767
-38.71674,1.5307693,3.6609197
-38.782257,1.5357826,3.6943288
-38.883514,1.5228198,3.7129903
-38.95987,1.5229487,3.743134
-39.037056,1.5229683,3.7736034
-39.085606,1.5374978,3.8163748
-39.186325,1.5264444,3.8386135
-39.58309,1.3716385,3.7458215
-39.698708,1.3556466,3.7663684
-39.805996,1.344254,3.7912521
-39.91171,1.3341439,3.81779
-40.03988,1.3139803,3.8371801
-40.147614,1.3040466,3.8652272
-41.655506,0.6470711,3.4026294
-41.675873,0.6838441,3.4722161
-41.688744,0.72379184,3.5441809
-41.66439,0.7802305,3.628233
-41.659378,0.82746005,3.7052794
-41.67477,0.8652444,3.7753692
-41.702827,0.897223,3.8413239
-41.69863,0.94309187,3.9171095
-41.676086,0.9964926,3.9979563
-41.68654,1.0352657,4.0685
-41.869164,1.0007973,4.0895553
-42.150356,0.9259267,4.0849943
-42.438683,0.84981227,4.0816803
-42.72608,0.77584195,4.0818872
-43.055695,0.68633103,4.0743203
-43.409763,0.5889213,4.064276
-43.802887,0.4779811,4.0485625
-16.683678,0.64384794,4.098518
-16.986513,0.71711063,4.092401
-17.2759,0.78676367,4.0861816
-17.587873,0.8673167,4.0892515
-17.89442,0.9475517,4.094389
-18.141857,1.0052366,4.086496
-18.475176,1.1002111,4.105937
-18.711205,1.156374,4.100813
-18.926146,1.2050037,4.0920463
-19.16439,1.2648911,4.09279
-19.344522,1.3011377,4.07814
-19.565575,1.3562574,4.0784774
-19.792946,1.4155188,4.083382
-19.98193,1.4591823,4.0781903
-20.200008,1.5170081,4.0849485
-20.40689,1.5711648,4.0903707
-20.606117,1.6231472,4.0954933
-20.819338,1.6828251,4.1079206
-20.977474,1.7183688,4.1027803
-21.09134,1.7341754,4.082984
-21.241795,1.7678468,4.0781975
-21.47623,1.842392,4.107413
-21.605904,1.8682858,4.098451
-21.698782,1.8771317,4.076253
-21.892004,1.9354519,4.095668
-21.996895,1.9515759,4.0809736
-22.118315,1.9764981,4.0743203
-22.262758,2.0136967,4.078836
-22.326773,2.0111465,4.0501347
-22.502735,2.0659726,4.071354
-22.59777,2.0803778,4.058448
-22.737011,2.1182742,4.066686
-22.88633,2.1623945,4.081244
-22.946821,2.1605968,4.055828
-23.13009,2.2245207,4.0896006
-23.211166,2.2348413,4.076116
-23.351746,2.2779062,4.0927987
-23.420986,2.2829065,4.0755043
-23.50213,2.2948203,4.064921
-23.587057,2.309298,4.057139
-23.69632,2.3379662,4.063022
-23.786177,2.3563685,4.0598884
-23.845083,2.357605,4.041052
-23.940718,2.3803222,4.042858
-24.005608,2.3857453,4.0286875
-24.123873,2.4229028,4.045251
-24.209896,2.4418113,4.0448694
-24.258745,2.4390054,4.0238895
-24.394728,2.4890528,4.054608
-24.433311,2.480795,4.0289793
-24.524975,2.5052814,4.035727
-24.619228,2.532038,4.045189
-24.667332,2.5305462,4.027058
-24.74152,2.545742,4.0257983
-24.83916,2.5764036,4.0404167
-24.88686,2.5756319,4.023848
-24.960224,2.591745,4.024577
-25.061756,2.6268573,4.044984
-25.105349,2.6244035,4.027525
-25.197313,2.6544683,4.0436087
-25.264349,2.668447,4.0435724
-25.305431,2.665176,4.0259967
-25.368542,2.6771908,4.0244617
-25.463173,2.7115278,4.0464973
-25.501083,2.706902,4.0281906
-25.551598,2.7112925,4.0195045
-25.626963,2.7337213,4.0300646
-25.686073,2.7450209,4.0291867
-25.724426,2.741574,4.012885
-25.782541,2.752786,4.0123672
-25.851254,2.7722707,4.020959
-25.904825,2.7809367,4.018232
-25.964226,2.7943645,4.0208626
-25.995518,2.7866907,4.0009136
-26.079613,2.8198838,4.0254345
-26.128424,2.826334,4.0212145
-26.165398,2.82373,4.0072923
-26.22046,2.835659,4.0094323
-26.294518,2.8632913,4.029069
-26.329237,2.8596342,4.0145187
-26.371576,2.862322,4.007106
-26.425133,2.8745403,4.010425
-26.482807,2.890624,4.018262
-26.532751,2.9006398,4.019565
-26.577581,2.9066343,4.0165625
-26.615578,2.9069858,4.0073934
-26.671669,2.923339,4.0163674
-26.720247,2.9335408,4.0186253
-26.757908,2.934342,4.010432
-26.795527,2.935268,4.0025077
-26.842466,2.9448822,4.0045953
-26.897915,2.9627204,4.0162373
-26.940926,2.9694695,4.0154223
-26.96894,2.9623365,3.9988537
-27.021402,2.9785514,4.0091825
-27.051653,2.9738016,3.995574
-27.12258,3.008858,4.027997
-27.158655,3.0103865,4.021931
-27.178823,2.99617,3.997729
-27.220346,3.003374,3.9984522
-27.266542,3.01567,4.0052495
-27.31355,3.0292358,4.013698
-27.353966,3.0363445,4.014766
-27.387966,3.0369468,4.0083485
-27.42348,3.0393202,4.004115
-27.453808,3.0362434,3.9935818
-27.49379,3.0438507,3.9957314
-27.541626,3.0605392,4.0087423
-27.570772,3.056672,3.9975996
-27.60831,3.0624337,3.997954
-27.649607,3.0728223,4.0039263
-27.682035,3.0731997,3.998125
-27.719662,3.079895,3.9999511
-27.757608,3.0872803,4.002723
-27.78842,3.0862765,3.9955802
-27.842676,3.114378,4.023407
-27.875025,3.1158943,4.0195217
-27.909119,3.1197934,4.0185976
-27.940453,3.1203651,4.013768
-27.9757,3.126192,4.0153675
-28.002153,3.1206386,4.0033264
-28.032108,3.1197596,3.9970062
-28.065016,3.123004,3.9957657
-28.095757,3.1234598,3.9912362
-28.131817,3.1315327,3.9960496
-28.170143,3.1432023,4.0053515
-28.200613,3.143959,4.0014763
-28.230255,3.1436405,3.9963715
-28.262224,3.1469054,3.9957263
-28.297186,3.1549392,4.0010066
-28.329325,3.158988,4.00151
-28.361738,3.1637206,4.0029435
-28.389996,3.162094,3.9966583
-28.419714,3.162897,3.9934344
-28.45154,3.1673179,3.9947433
-28.483965,3.1730142,3.9977145
-28.512114,3.1717203,3.99215
-28.54299,3.1752355,3.9926002
-28.573782,3.178842,3.9932468
-28.605146,3.183725,3.995558
-28.64513,3.204743,4.0179567
-28.67326,3.2044787,4.0140743
-28.698256,3.1983347,4.002959
-28.704046,3.154667,3.9452455
-28.705238,3.1002107,3.8740702
-28.683254,2.9966474,3.741664
-28.686375,2.9408126,3.668603
-28.687704,2.8789265,3.5879402
-28.685472,2.8067691,3.4943867
-28.69549,2.758568,3.430704
-28.722134,2.7458432,3.4113917
-28.67521,2.5626972,3.1787105
-28.687359,2.5107036,3.1101165
-28.695004,2.4454083,3.0248203
-28.698034,2.3655646,2.9212217
-28.714699,2.316505,2.8562312
-28.712809,2.216576,2.727291
-28.717564,2.1292791,2.614153
-28.704372,1.9879174,2.4328961
-28.741909,1.9824295,2.4226513
-28.709232,1.7721968,2.1544142
-28.685034,1.5750866,1.9024916
-28.721718,1.5543277,1.8729305
-28.749035,1.5025711,1.8042994
-28.711576,1.2343473,1.4621892
-28.719973,1.1043718,1.2945852
-28.759653,1.0757148,1.2550726
-38.41532,0.61768913,2.0390687
-38.466434,0.6342411,2.080473
-38.211426,1.074614,2.6656275
-38.135548,1.1645241,2.7778106
-38.167587,1.1887667,2.8259587
-38.204678,1.2098761,2.8711758
-38.186287,1.2633839,2.9474669
-38.214695,1.2890666,2.9970822
-38.20194,1.3382509,3.068965
-38.219948,1.3693161,3.1236296
-38.23749,1.4003799,3.1782918
-38.25775,1.4296622,3.231298
-38.23128,1.4846432,3.308024
-38.274517,1.5006063,3.348703
-38.294983,1.5289872,3.4008589
-38.327152,1.5508351,3.447126
-38.359,1.5727613,3.4935617
-38.391342,1.594332,3.5397797
-38.449543,1.6022112,3.573967
-38.505173,1.6115894,3.609748
-38.592815,1.6045489,3.6314478
-38.652428,1.6122937,3.6664467
-38.771744,1.5898829,3.6757865
-38.85553,1.5860543,3.7016912
-38.8833,1.6105552,3.7520552
-39.031662,1.5752873,3.7522764
-39.06167,1.5989795,3.8025417
-39.10825,1.6145208,3.8461695
-39.490734,1.4682679,3.7574778
-39.670017,1.4219391,3.7524762
-39.769608,1.4144828,3.7798939
-39.869286,1.4074557,3.8082442
-39.98797,1.3920543,3.830575
-40.12583,1.3684268,3.8472075
-41.669125,0.70312405,3.3680124
-41.67649,0.7457588,3.442245
-41.66147,0.79812,3.5237737
-41.670174,0.8394189,3.596766
-41.708958,0.86713433,3.6596155
-41.7069,0.9126489,3.7356787
-41.707726,0.9565356,3.810419
-41.680523,1.01212,3.8934193
-41.675594,1.0576582,3.9689808
-41.69136,1.0940764,4.038011
-41.821594,1.0823543,4.073837
-42.058266,1.0270879,4.080905
-42.32246,0.96190166,4.083016
-42.626938,0.8818786,4.077232
-42.996277,0.7774997,4.057814
-43.29099,0.705317,4.0618596
-43.659813,0.605463,4.0505977
-44.00617,0.516706,4.0490503
-16.203377,0.63659644,4.1125402
-16.456919,0.6860604,4.0890713
-16.888687,0.80632615,4.1131434
-17.134384,0.8561957,4.094319
-17.47343,0.9444623,4.1028037
-17.735771,1.004133,4.094471
-18.03245,1.0792065,4.098557
-18.32822,1.1557221,4.1057696
-18.490784,1.1793456,4.0779147
-18.732414,1.2365997,4.075102
-18.952888,1.2864659,4.068644
-19.205538,1.3512211,4.0745635
-19.455591,1.4164417,4.082568
-19.66073,1.4639413,4.079048
-19.808136,1.4876666,4.0589447
-20.009567,1.5358179,4.0584497
-20.253166,1.6038029,4.074601
-20.521103,1.6841986,4.10206
-20.642948,1.7008052,4.081046
-20.829487,1.7473588,4.084619
-21.03091,1.801889,4.0958033
-21.212654,1.8486559,4.1019897
-21.28403,1.8452582,4.068265
-21.482746,1.9018726,4.084506
-21.680645,1.9594314,4.102795
-21.801357,1.9814641,4.0924706
-21.887928,1.9877476,4.069515
-22.04686,2.0296206,4.077463
-22.165718,2.0528855,4.0703483
-22.286737,2.077927,4.0654716
-22.38071,2.090205,4.050133
-22.511023,2.121288,4.0519013
-22.669806,2.1676745,4.068022
-22.753729,2.1767883,4.0517406
-22.937626,2.2380471,4.0828934
-23.019215,2.247278,4.067942
-23.131586,2.2731457,4.0686216
-23.258142,2.3072705,4.0775223
-23.36316,2.3307176,4.0772576
-23.444473,2.3420186,4.0662565
-23.569641,2.3776994,4.07853
-23.634426,2.3810208,4.060988
-23.727722,2.4004834,4.0590754
-23.79619,2.4066143,4.0449357
-23.882639,2.4232643,4.041229
-23.993872,2.454595,4.0521393
-24.049213,2.454532,4.0331755
-24.172068,2.4939346,4.0529804
-24.208506,2.4835927,4.024641
-24.306602,2.5097792,4.0324664
-24.413435,2.5418828,4.046667
-24.451942,2.5336037,4.021185
-24.551186,2.562334,4.032913
-24.637115,2.5836313,4.03767
-24.69791,2.5899563,4.027714
-24.77649,2.6077256,4.029663
-24.848808,2.6220777,4.028505
-24.906826,2.6277869,4.0188293
-25.00587,2.6601853,4.0368958
-25.062689,2.6659787,4.0279403
-25.12883,2.678184,4.025894
-25.229439,2.713611,4.048375
-25.268318,2.7086816,4.0290804
-25.349428,2.7323117,4.0399704
-25.416603,2.7470968,4.0419035
-25.472902,2.7548735,4.0367107
-25.517797,2.7550726,4.0236936
-25.580818,2.7681491,4.0246115
-25.64289,2.7809877,4.0255523
-25.703335,2.7930896,4.0259714
-25.75874,2.80197,4.0231714
-25.820776,2.8160276,4.026216
-25.880508,2.8288388,4.028174
-25.91173,2.8209002,4.0077333
-25.977152,2.8386245,4.015501
-26.03294,2.8495712,4.016104
-26.09708,2.8672962,4.024411
-26.137291,2.8670466,4.013112
-26.193094,2.87913,4.015642
-26.25189,2.8939795,4.0214806
-26.309752,2.9085505,4.027252
-26.342464,2.9033349,4.011103
-26.394228,2.9136615,4.0125146
-26.452063,2.9293494,4.02017
-26.502102,2.9390478,4.0212955
-26.537079,2.9364634,4.0086985
-26.587437,2.9470196,4.0111446
-26.632696,2.9535823,4.009237
-26.691122,2.9718442,4.0208597
-26.739584,2.9819226,4.023346
-26.764002,2.9710824,4.0019946
-26.815775,2.9846325,4.0087805
-26.868448,2.9994392,4.0172157
-26.913845,3.0080638,4.018701
-26.945791,3.004583,4.006313
-26.975485,2.9990575,3.9916434
-27.027365,3.014536,4.0015345
-27.078373,3.029673,4.0112247
-27.129631,3.0455427,4.021963
-27.16566,3.047007,4.015994
-27.201086,3.0480466,4.0096407
-27.243517,3.0562646,4.01186
-27.282007,3.0608177,4.009897
-27.3321,3.0775185,4.022439
-27.36709,3.079074,4.0172043
-27.394709,3.0730543,4.0030766
-27.432241,3.0775647,4.00156
-27.46864,3.0810962,3.998997
-27.523712,3.1052065,4.021148
-27.550196,3.0984914,4.006589
-27.584229,3.100178,4.0021763
-27.617714,3.101414,3.9973257
-27.650663,3.1021957,3.9920273
-27.690313,3.1109085,3.9963946
-27.72644,3.1158328,3.9963129
-27.761038,3.119189,3.994445
-27.806261,3.1356032,4.0085163
-27.853914,3.1555657,4.027055
-27.889788,3.1615713,4.028779
-27.920574,3.1614614,4.023162
-27.95223,3.162578,4.019128
-27.981644,3.1609454,4.0118227
-28.007591,3.1548371,3.9991167
-28.037487,3.1539335,3.9928548
-28.069496,3.1559768,3.9902909
-28.108543,3.16786,3.9999185
-28.13786,3.1666672,3.993567
-28.178572,3.1816664,4.007261
-28.206127,3.178363,3.9984846
-28.23808,3.1814852,3.9977229
-28.269953,3.184703,3.9971697
-28.301357,3.1874378,3.9961052
-28.333828,3.1920066,3.997405
-28.365067,3.194931,3.996752
-28.396969,3.1991122,3.9977493
-28.428406,3.2028065,3.9982278
-28.459396,3.2060099,3.998181
-28.488897,3.206965,3.99541
-28.517323,3.206246,3.9906235
-28.54949,3.2120605,3.9940858
-28.592922,3.237955,4.022796
-28.619364,3.2345757,4.0149307
-28.646824,3.2330337,4.0094357
-28.67493,3.232746,4.005584
-28.708029,3.2419922,4.013797
-28.73909,3.2477896,4.0177608
-28.71368,3.1428576,3.882234
-28.687607,3.0323896,3.7395473
-28.683065,2.9615295,3.6466942
-28.684698,2.9006877,3.5664196
-28.682472,2.8290603,3.4724422
-28.6947,2.785971,3.4145193
-28.709608,2.7470465,3.3618627
-28.703043,2.657318,3.2447758
-28.687717,2.5429447,3.0963101
-28.69431,2.4757354,3.0076084
-28.69096,2.3808925,2.8837376
-28.702044,2.3177626,2.8001146
-28.727806,2.2894516,2.7607865
-28.723291,2.1793852,2.6173563
-28.702572,2.0192397,2.4099922
-28.731346,1.9890559,2.368217
-28.707384,1.8051236,2.1302576
-28.68453,1.6137302,1.8825784
-28.715096,1.5743716,1.82898
-28.748514,1.5417149,1.7839942
-28.70663,1.2616112,1.4225111
-28.717978,1.1422861,1.2665362
-28.753529,1.0992706,1.2082372
-38.247543,0.6389432,1.8965483
-38.37947,0.6027708,1.8826709
-38.520554,0.6615641,2.0160618
-38.568005,0.6807921,2.060441
-38.64062,0.6843138,2.0890555
-38.090324,1.248606,2.7773066
-38.159916,1.2504413,2.803341
-38.16987,1.2873507,2.8640022
-38.183926,1.3215129,2.9219332
-38.1959,1.3565469,2.9806795
-38.197136,1.3973463,3.0449324
-38.21668,1.4273984,3.0987945
-38.23736,1.456574,3.1518326
-38.237705,1.496764,3.2153015
-38.255028,1.5272284,3.2695208
-38.26387,1.5620508,3.3278084
-38.284275,1.5903215,3.3799596
-38.30588,1.6177454,3.4313493
-38.339268,1.6387475,3.4768858
-38.37235,1.6598356,3.5226073
-38.429695,1.6682425,3.556974
-38.478695,1.6810939,3.5955963
-38.554756,1.6802115,3.6221929
-38.641613,1.6741879,3.6446352
-38.742702,1.661439,3.6616411
-38.80558,1.6682117,3.696228
-38.89769,1.66078,3.7188458
-38.904964,1.6952071,3.7778897
-39.057755,1.6589367,3.7767096
-39.11705,1.668463,3.815116
-39.464333,1.5412407,3.7393827
-39.601936,1.5153875,3.750031
-39.739895,1.49016,3.762035
-39.809517,1.4973571,3.8013077
-39.93071,1.4811149,3.8220363
-40.034832,1.4732754,3.8502245
-40.188457,1.4436142,3.8617606
-41.64516,0.8325708,3.4185658
-41.664875,0.8691118,3.4881086
-41.684933,0.905277,3.5573769
-41.68867,0.94832945,3.631895
-41.704117,0.98599625,3.7022676
-41.658993,1.0493131,3.7916737
-41.674065,1.0864329,3.8613977
-41.690384,1.1227992,3.9305634
-41.704395,1.1599066,4.0002604
-41.700024,1.2043679,4.075143
-41.916965,1.1579826,4.086459
-42.23225,1.0730011,4.0727262
-42.488285,1.0137689,4.07878
-42.807236,0.9310038,4.0709286
-43.089172,0.86477923,4.0763454
-43.464306,0.76378226,4.0612383
-43.841507,0.6642809,4.0499125
-44.217106,0.56768703,4.043277
-15.850953,0.68532443,4.1617084
-16.077063,0.72094226,4.1278234
-16.164066,0.7054281,4.0627394
-16.648422,0.8410642,4.0968647
