x,y,z
-29.566948,2.6552067,4.057022
-29.594696,2.6558275,4.05598
-29.624758,2.6711137,4.070014
-29.653093,2.6767514,4.074274
-29.680935,2.6796823,4.0758505
-29.707232,2.6715546,4.0661917
-29.733658,2.6634922,4.056674
-29.760216,2.655496,4.047298
-29.787666,2.6545296,4.0452023
-29.815413,2.6564198,4.0461164
-29.843704,2.6646533,4.0536165
-29.87186,2.6729608,4.061277
-29.899239,2.6729777,4.060519
-29.925903,2.6626086,4.049183
-29.953032,2.6571867,4.0430026
-29.980247,2.651834,4.0369706
-30.007849,2.6535256,4.038249
-30.035156,2.6476154,4.031805
-30.06348,2.6766546,4.0613246
-30.090767,2.6750722,4.0594854
-30.117977,2.6630948,4.0470533
-30.14539,2.655373,4.0390706
-30.172913,2.6505132,4.0341067
-30.20043,2.6513052,4.0350266
-30.227901,2.653563,4.0375338
-30.255337,2.655891,4.040193
-30.282314,2.6687517,4.0537443
-30.30992,2.6642451,4.0495477
-30.337915,2.6542315,4.0397797
-30.365942,2.646383,4.0323176
-30.393436,2.6476707,4.0343127
-30.420797,2.650422,4.0378904
-30.4483,2.6511536,4.0394764
-30.47381,2.6721578,4.0619264
-30.501568,2.6688466,4.059524
-30.52954,2.664215,4.0558515
-30.558273,2.654089,4.0466366
-30.586996,2.6454325,4.039015
-30.615765,2.6375482,4.032272
-30.643225,2.639476,4.035655
-30.671307,2.6373036,4.034926
-30.696568,2.6525736,4.052109
-30.724463,2.6512356,4.0523934
-30.75477,2.6367822,4.03937
-30.784794,2.6251898,4.0293627
-30.812813,2.6247754,4.0308537
-30.84113,2.623049,4.031092
-30.868732,2.6248608,4.035021
-30.895382,2.6308975,4.0433307
-30.922575,2.634232,4.0489683
-30.952206,2.627263,4.0442095
-30.984697,2.6093187,4.028394
-31.013056,2.608737,4.030318
-31.041613,2.6075394,4.031702
-31.07038,2.6057281,4.0325527
-31.099957,2.6012368,4.030777
-31.125414,2.611289,4.043813
-31.1503,2.6227775,4.0583706
-31.188938,2.5889392,4.0272036
-31.21816,2.5868344,4.0282154
-31.249426,2.5786314,4.0231686
-31.278547,2.5773764,4.025226
-31.305824,2.5816832,4.0329704
-31.33232,2.5881124,4.042929
-31.36165,2.5863976,4.044785
-31.39953,2.5615244,4.0235004
-31.427067,2.5654535,4.0312243
-31.461607,2.5510352,4.0206637
-31.491312,2.5496712,4.0232797
-31.518862,2.553835,4.0315113
-31.54635,2.5580683,4.039894
-31.577179,2.5542192,4.040307
-31.618486,2.5260267,4.016605
-31.650532,2.5203464,4.015436
-31.680573,2.5194988,4.019171
-31.71583,2.507236,4.0116935
-31.74849,2.5011628,4.0104694
-31.780302,2.49721,4.011453
-31.810253,2.4973922,4.0166264
-31.84217,2.4936175,4.017997
-31.873491,2.49128,4.020891
-31.905869,2.4870174,4.0220003
-31.937288,2.484861,4.0252857
-31.979221,2.4627056,4.0090995
-32.011593,2.4594178,4.011527
-32.0415,2.4608996,4.0187197
-32.070297,2.4644628,4.0280375
-32.099415,2.467436,4.0368724
-32.13375,2.4611773,4.0368395
-32.16857,2.4543595,4.0363903
-32.206985,2.4416828,4.0304017
-32.250698,2.4205253,4.016379
-32.292374,2.4034867,4.006508
-32.32588,2.4004498,4.0102735
-32.36351,2.3909228,4.0079317
-32.400887,2.3821752,4.006482
-32.442165,2.367635,3.9996414
-32.478607,2.3611038,4.0006075
-32.513443,2.3573053,4.0043163
-32.554844,2.3438106,3.9989443
-32.58989,2.340241,4.0031486
-32.630756,2.328313,3.9995809
-32.667786,2.322373,4.001829
-32.6981,2.326284,4.013495
-32.749466,2.3004804,3.9973593
-32.787327,2.2942655,3.9998093
-32.825756,2.2875266,4.001919
-32.848663,2.3021698,4.0241137
-32.8905,2.2911386,4.0224915
-32.928154,2.2860255,4.026532
-22.306957,0.8503392,4.1220713
-22.443317,0.89901257,4.1234837
-22.535273,0.9192276,4.107033
-22.736937,1.0133274,4.1403923
-22.796165,1.0131531,4.111831
-22.944326,1.0736029,4.1246853
-23.061737,1.114172,4.124965
-23.164103,1.1452088,4.119452
-23.277542,1.184659,4.1204367
-23.364683,1.206486,4.10983
-23.470469,1.2420576,4.1094527
-23.578825,1.2802408,4.111605
-23.702435,1.3302176,4.1228886
-23.789635,1.3547904,4.116668
-23.838697,1.3520529,4.0911617
-23.98674,1.422471,4.119365
-24.044245,1.426893,4.0999866
-24.168955,1.4819868,4.118449
-24.210037,1.4749098,4.0913625
-24.30188,1.5066168,4.0935655
-24.422821,1.5614319,4.1137733
-24.482883,1.5700982,4.0996833
-24.616915,1.6369956,4.13043
-24.645906,1.6222551,4.0992527
-24.770931,1.683928,4.127284
-24.841167,1.7028046,4.1228046
-24.904182,1.7163162,4.114524
-24.99681,1.7544444,4.125951
-25.054474,1.7645473,4.11576
-25.119534,1.7811437,4.111034
-25.201393,1.8122988,4.118303
-25.27199,1.8346186,4.118941
-25.32882,1.8457155,4.110904
-25.40021,1.8697276,4.113646
-25.475916,1.898084,4.120327
-25.517536,1.8971413,4.103409
-25.57361,1.9091496,4.097347
-25.67582,1.9628345,4.1260643
-25.71052,1.9566447,4.105598
-25.778784,1.9811006,4.110868
-25.862041,2.019968,4.128596
-25.90472,2.0219789,4.115733
-25.958725,2.0347958,4.112208
-26.020687,2.0555363,4.115685
-26.080479,2.0747352,4.1181684
-26.120216,2.075061,4.1047826
-26.166695,2.0821028,4.0973473
-26.23134,2.107315,4.1058245
-26.29198,2.1291761,4.1117296
-26.345095,2.1440344,4.111847
-26.377731,2.1385264,4.0944266
-26.420498,2.1434226,4.0862527
-26.499556,2.186154,4.1115756
-26.531406,2.1804652,4.0945454
-26.566805,2.1785336,4.0809617
-26.615974,2.1914074,4.080691
-26.67347,2.2136672,4.0890274
-26.727806,2.2330723,4.095091
-26.756132,2.2243147,4.0761023
-26.795116,2.2273746,4.067861
-26.847788,2.2460508,4.073909
-26.90943,2.2754807,4.0899644
-26.963055,2.296441,4.0986147
-26.993336,2.2907822,4.0832143
-27.03802,2.3020854,4.083453
-27.095142,2.3285813,4.097842
-27.148203,2.3509023,4.10866
-27.172531,2.33882,4.087944
-27.21493,2.3488579,4.087788
-27.262733,2.3659906,4.0944037
-27.317787,2.3927934,4.1102414
-27.360996,2.405216,4.112908
-27.392702,2.4031696,4.1022077
-27.42881,2.4069467,4.0970883
-27.465334,2.4114757,4.092817
-27.525608,2.4480891,4.1189666
-27.55795,2.4477863,4.1104813
-27.587488,2.443728,4.0985503
-27.618929,2.4423223,4.089239
-27.651299,2.442295,4.0813518
-27.69043,2.452043,4.0829153
-27.739662,2.476789,4.0989904
-27.77923,2.4881163,4.1024137
-27.807278,2.482708,4.089905
-27.83583,2.4780228,4.0781803
-27.86956,2.4812248,4.0741634
-27.906595,2.4897451,4.0754137
-27.952621,2.5127535,4.0908527
-27.988022,2.5195713,4.090762
-28.014397,2.5120852,4.076879
-28.040886,2.504664,4.063137
-28.071821,2.5045376,4.0566006
-28.113256,2.522273,4.067653
-28.155933,2.5427864,4.0815983
-28.18881,2.5469413,4.079646
-28.216389,2.5419369,4.068795
-28.241096,2.5317059,4.052876
-28.27285,2.53413,4.049521
-28.309912,2.546607,4.056219
-28.347467,2.560533,4.064492
-28.385828,2.5765777,4.075011
-28.41574,2.5767465,4.069896
-28.44329,2.572325,4.0603104
-28.470907,2.5679746,4.050878
-28.501509,2.5697184,4.0476136
-28.534628,2.5769105,4.0498977
-28.577662,2.6056705,4.073895
-28.610971,2.6144285,4.0780087
-28.638075,2.609836,4.068835
-28.664354,2.6032927,4.057779
-28.694818,2.6062508,4.056364
-28.722364,2.6025465,4.048332
-28.752491,2.6049933,4.0465913
-28.792202,2.6311915,4.0689473
-28.823658,2.6378918,4.0717316
-28.850506,2.633163,4.063045
-28.877943,2.629859,4.055881
-28.907198,2.6313777,4.0536942
-28.936668,2.633656,4.052372
-28.967789,2.6407766,4.0560675
-28.999493,2.6500292,4.062037
-29.028963,2.6532407,4.061954
-29.057026,2.652441,4.0578713
-29.083122,2.6455722,4.0476756
-29.112532,2.6490135,4.048092
-29.142086,2.6532202,4.049383
-29.170149,2.6527176,4.0459456
-29.20608,2.679679,4.070738
-29.234303,2.6807144,4.0690694
-29.263245,2.6845675,4.0703783
-29.288704,2.6754618,4.058464
-29.31605,2.6732836,4.0537415
-29.343761,2.6725497,4.0505853
-29.372946,2.6780756,4.053954
-29.40407,2.6926236,4.066708
-29.434647,2.7058845,4.078237
-29.46093,2.6999493,4.070065
-29.487167,2.69339,4.061323
-29.514177,2.6903424,4.056282
-29.541237,2.6873646,4.0513906
-29.56932,2.6899753,4.052355
-29.59794,2.6961122,4.0570493
-29.627895,2.7113047,4.0711994
-29.655703,2.7141433,4.0726576
-29.682663,2.7115262,4.0685477
-29.709198,2.7055197,4.061005
-29.736092,2.701655,4.0557575
-29.762802,2.6957831,4.0485067
-29.790066,2.6941311,4.045707
-29.817778,2.6967027,4.047369
-29.846544,2.7111187,4.061402
-29.87371,2.7096808,4.0590677
-29.900902,2.7083135,4.0568852
-29.927923,2.7042437,4.0519757
-29.954885,2.698164,4.0450563
-29.981913,2.6914597,4.037566
-30.00914,2.6869037,4.032386
-30.036781,2.692123,4.037439
-30.064646,2.7092006,4.0548944
-30.091885,2.7076292,4.0530534
-30.119122,2.703355,4.048483
-30.146421,2.693603,4.0382996
-30.173826,2.6922417,4.036914
-30.201231,2.6923385,4.0371237
-30.228634,2.6925054,4.0374856
-30.25577,2.7010622,4.0466433
-30.283041,2.7027557,4.0487494
-30.31052,2.6996667,4.0459666
-30.33821,2.693877,4.040459
-30.36586,2.6902382,4.0372667
-30.393724,2.6845922,4.032072
-30.421059,2.6866395,4.0349445
-30.447985,2.6929116,4.0422807
-30.473778,2.7096372,4.060538
-30.501669,2.7042747,4.055957
-30.530052,2.6955252,4.047948
-30.558496,2.6875443,4.0408206
-30.58671,2.6824057,4.0367246
-30.615206,2.6759586,4.0313587
-30.64185,2.6827178,4.0397506
-30.669691,2.6812541,4.0397077
-30.695839,2.6902199,4.050536
-30.723886,2.6875167,4.049372
-30.75198,2.6848874,4.048369
-30.782627,2.669232,4.0339956
-30.810648,2.6681361,4.034752
-30.840408,2.6588478,4.027138
-30.868092,2.6599689,4.030352
-30.894054,2.6687303,4.0415206
-30.921963,2.6686146,4.043618
-30.950375,2.6665106,4.043752
-30.981749,2.6528063,4.0320454
-31.011932,2.6446838,4.0261774
-31.041153,2.6407614,4.0247188
-31.069687,2.63966,4.0262446
-31.096687,2.644113,4.033552
-31.123417,2.6493192,4.041708
-31.151505,2.6498046,4.045109
-31.185516,2.6312296,4.0291047
-31.216364,2.6236842,4.024488
-31.24511,2.623049,4.027025
-31.274784,2.6197643,4.0269485
-31.303581,2.619285,4.029823
-31.331194,2.622285,4.0363274
-31.359741,2.6226363,4.040221
-31.393059,2.6101594,4.0311747
-31.426329,2.5984616,4.0230355
-31.45665,2.5949986,4.0233555
-31.489443,2.585526,4.017691
-31.517479,2.588327,4.024548
-31.542686,2.597959,4.038386
-31.570868,2.600223,4.044861
-31.614962,2.565474,4.014141
-31.646633,2.5605185,4.013573
-31.676285,2.5603633,4.0179343
-31.712072,2.5468493,4.008988
-31.743097,2.5441866,4.011045
-31.77544,2.538931,4.0106087
-31.805937,2.5377874,4.014392
-31.837772,2.5340536,4.0156913
-31.869009,2.5317473,4.0185204
-31.901644,2.5268626,4.0188875
-31.931953,2.5267365,4.024095
-31.971718,2.5087326,4.011677
-32.00574,2.5021558,4.010726
-32.03627,2.5023167,4.016555
-32.063145,2.5091875,4.0291038
-32.093998,2.5088472,4.034629
-32.127125,2.5046306,4.0364466
-32.161087,2.4991932,4.037183
-32.199017,2.4872725,4.0316906
-32.24264,2.4662685,4.0174646
-32.28541,2.447387,4.005493
-32.320435,2.4417658,4.006614
-32.355553,2.4362524,4.007968
-32.394073,2.4256191,4.0044847
-32.43151,2.417069,4.00317
-32.467823,2.4105926,4.004003
-32.505104,2.4029303,4.0038295
-32.545982,2.390194,3.9989176
-32.583996,2.382131,3.9986587
-32.619034,2.3787193,4.0030046
-32.66357,2.361854,3.9946218
-32.69929,2.3580372,3.9988718
-32.730934,2.360121,4.00887
-32.773247,2.3475242,4.0050426
-32.81905,2.3305845,3.997281
-32.85088,2.3330016,4.0080023
-32.881718,2.3367863,4.0201225
-32.912502,2.3406563,4.0324273
-21.962921,0.8083739,4.127642
-22.085682,0.84513426,4.119581
-22.211206,0.8844776,4.114041
-22.315723,0.9111047,4.1009464
-22.528625,1.0089481,4.1360197
-22.643866,1.0444846,4.130694
-22.750883,1.0753644,4.1229706
-22.88165,1.1227958,4.127269
-22.965382,1.139571,4.111289
-23.106756,1.195905,4.1233416
-23.178345,1.205657,4.1036825
-23.313265,1.2594144,4.1155376
-23.394257,1.2767777,4.102374
-23.524273,1.3289692,4.1146817
-23.599348,1.3434036,4.100556
-23.735031,1.4014397,4.1186085
-23.804249,1.4128878,4.1033964
-23.897118,1.4418404,4.101503
-23.996273,1.4760535,4.104086
-24.074379,1.4955177,4.0962467
-24.183727,1.5386989,4.1067266
-24.235676,1.5397825,4.0859804
-24.367357,1.6013112,4.111605
-24.428267,1.6101236,4.097607
-24.537125,1.6561213,4.1126537
-24.635372,1.694854,4.1227264
-24.693356,1.7029264,4.109434
-24.791466,1.7429676,4.121575
-24.856737,1.7577329,4.1143255
-24.930187,1.779484,4.1129847
-25.034575,1.8268434,4.1325226
-25.0755,1.8233252,4.1118073
-25.151474,1.8488044,4.1147003
-25.23323,1.879707,4.1224236
-25.284039,1.8853308,4.1099815
-25.36308,1.915129,4.1176186
-25.432318,1.9372373,4.119362
-25.47594,1.9377921,4.1036286
-25.5361,1.9529042,4.1002107
-25.615108,1.9850125,4.111317
-25.692348,2.0162923,4.122168
-25.739923,2.0217333,4.1116395
-25.793869,2.0331748,4.1064215
-25.877111,2.0717142,4.124543
-25.913977,2.0683928,4.1073337
-25.962896,2.0763574,4.099967
-26.02927,2.101008,4.1072216
-26.097773,2.1282897,4.117103
-26.126877,2.1185052,4.0951185
-26.180702,2.1325715,4.0940533
-26.255669,2.167698,4.111704
-26.29619,2.169676,4.100596
-26.337282,2.172389,4.090311
-26.377132,2.1740382,4.0792594
-26.447155,2.206527,4.095809
-26.503166,2.2254171,4.100584
-26.536734,2.2215276,4.0852227
-26.58655,2.2347238,4.0853477
-26.628126,2.2395887,4.0781903
-26.68613,2.2622716,4.0873384
-26.739265,2.280291,4.0925336
-26.772522,2.2770746,4.0786314
-26.810265,2.2788677,4.0694313
-26.860632,2.2949343,4.073472
-26.91293,2.3136532,4.0801835
-26.95952,2.326387,4.081618
-26.992504,2.3237996,4.069079
-27.045181,2.344282,4.078075
-27.102798,2.3711848,4.0932918
-27.149033,2.3852158,4.096768
-27.179018,2.3800387,4.082465
-27.23519,2.4068832,4.098326
-27.27217,2.410724,4.0927963
-27.324146,2.4335487,4.1053314
-27.371283,2.4508982,4.1129227
-27.396969,2.4412673,4.09512
-27.434982,2.4475138,4.092498
-27.47771,2.4602234,4.096188
-27.522617,2.476257,4.103237
-27.55876,2.4809947,4.099652
-27.590612,2.4801092,4.0908036
-27.62201,2.4786775,4.081541
-27.657993,2.4837358,4.0786505
-27.69705,2.4933958,4.0803475
-27.743095,2.5134602,4.0922866
-27.778208,2.5182486,4.0895805
-27.807123,2.5141225,4.0783253
-27.837389,2.5120106,4.0691285
-27.8745,2.5203323,4.070233
-27.916525,2.5365467,4.0792146
-27.954119,2.5464165,4.082137
-27.989082,2.5525088,4.081488
-28.019072,2.5508974,4.0733747
-28.048279,2.5480647,4.064154
-28.08068,2.5505362,4.060275
-28.118101,2.5616066,4.0650306
-28.15841,2.5780382,4.0752516
-28.189722,2.5795162,4.070758
-28.21577,2.571886,4.057293
-28.240831,2.562345,4.041995
-28.271118,2.5620866,4.0360465
-28.310701,2.5790691,4.0474625
-28.345066,2.5869327,4.049885
-28.387619,2.6107817,4.068489
-28.415092,2.606288,4.058746
-28.440948,2.5985477,4.045813
-28.473867,2.6048195,4.047095
-28.50505,2.6078641,4.0452266
-28.53873,2.6163254,4.048945
-28.578548,2.638224,4.0664
-28.610897,2.6449018,4.0685616
-28.63646,2.6369715,4.055986
-28.661846,2.6284332,4.042863
-28.692917,2.6326835,4.042839
-28.72649,2.6430573,4.0491652
-28.755667,2.6434627,4.0454245
-28.791994,2.6614208,4.0597258
-28.823158,2.6673849,4.061878
-28.849722,2.6619902,4.052491
-28.877401,2.6593578,4.046015
-28.907145,2.6621957,4.0452385
-28.936338,2.663765,4.043252
-28.966225,2.667442,4.0435257
-29.001482,2.6867661,4.0600176
-29.03041,2.6885905,4.0585847
-29.05615,2.681003,4.047523
-29.082888,2.6761923,4.0394015
-29.110342,2.673485,4.0335317
-29.141373,2.6824007,4.039776
-29.171238,2.6880045,4.0426874
-29.205727,2.710025,4.062717
-29.234491,2.7130823,4.063185
-29.2619,2.711446,4.0588684
-29.286095,2.6976042,4.041945
-29.313648,2.6961017,4.037917
-29.344086,2.7062805,4.046129
-29.37272,2.7097113,4.047409
-29.402863,2.7200563,4.055981
-29.433128,2.731854,4.066164
-29.460865,2.7327852,4.065103
-29.487463,2.7283092,4.0584784
-29.513865,2.72253,4.0505676
-29.54036,2.716817,4.042799
-29.567926,2.7166572,4.0409126
-29.596775,2.7241175,4.0470796
-29.627712,2.7453856,4.067787
-29.655241,2.7468257,4.0678296
-29.68145,2.7394056,4.05867
-29.707125,2.7272391,4.04461
-29.733002,2.715136,4.030686
-29.760637,2.7161627,4.030602
-29.788862,2.7227645,4.0364475
-29.817116,2.7308178,4.0438995
-29.845552,2.7423868,4.0551267
-29.872911,2.7437048,4.055675
-29.89982,2.7395844,4.0505905
-29.926939,2.7375991,4.0478253
-29.95301,2.7177727,4.026395
-29.980627,2.7214355,4.0297165
-30.00797,2.7203465,4.028126
-30.035357,2.7200167,4.0274105
-30.06293,2.7266493,4.0340915
-30.090412,2.734731,4.0423765
-30.117641,2.7304776,4.037773
-30.144938,2.7242258,4.0311484
-30.172287,2.7249372,4.0319204
-30.199734,2.7188268,4.0256
-30.227001,2.724503,4.0317497
-30.254217,2.7288713,4.0366
-30.281105,2.73951,4.048119
-30.308733,2.7316144,4.0402374
-30.336454,2.7244792,4.0332365
-30.364891,2.7084632,4.016987
-30.392414,2.7083616,4.017538
-30.419825,2.7097087,4.0196877
-30.446394,2.7200742,4.0313845
-30.47279,2.730506,4.043223
-30.499533,2.7361865,4.0501513
-30.52715,2.7336802,4.048567
-30.556618,2.7168074,4.0319996
-30.585268,2.7082639,4.0242543
-30.61152,2.717663,4.0353956
-30.64114,2.703774,4.0222178
-30.669025,2.7023249,4.022156
-30.694866,2.713302,4.0351777
-30.722218,2.7147372,4.0382895
-30.75056,2.7107577,4.03582
-30.7799,2.7020562,4.0285015
-30.80828,2.6989152,4.0270796
-30.837296,2.6931112,4.022964
-30.865211,2.6928601,4.0247293
-30.891739,2.6988363,4.0330677
-30.918814,2.7021446,4.038701
-30.947838,2.6973248,4.03595
-30.97936,2.6830275,4.023428
-31.008274,2.679737,4.0224524
-31.036512,2.6792514,4.024479
-31.067417,2.6693034,4.0167665
-31.096539,2.666251,4.0163074
-31.121296,2.6782413,4.031527
-31.149162,2.6794133,4.035608
-31.178501,2.6759043,4.0349274
-31.216183,2.646689,4.0077667
-31.244072,2.6487856,4.0130844
-31.273994,2.6448586,4.012268
-31.301872,2.6471057,4.017909
-31.324429,2.6643023,4.039028
-31.353596,2.6626263,4.040783
-31.385563,2.6536055,4.0350814
-31.419487,2.6399581,4.024738
-31.45154,2.631804,4.0201454
-31.483198,2.6250896,4.017136
-31.510588,2.6292238,4.0253286
-31.537355,2.6347704,4.0350466
-31.572592,2.6202583,4.0243683
-31.603712,2.6159086,4.024175
-31.637577,2.6056242,4.018043
-31.671015,2.5967796,4.013494
-31.704912,2.5873685,4.0084867
-31.736156,2.584063,4.009789
-31.771915,2.5715206,4.00184
-31.799795,2.5757246,4.0109553
-31.830246,2.5746841,4.0148573
-31.8644,2.566428,4.0115848
-31.894958,2.5655673,4.015878
-31.925537,2.5647912,4.0203543
-31.963852,2.5495596,4.010424
-32.002068,2.5351133,4.001429
-32.03293,2.5346355,4.0065513
-32.06418,2.533586,4.0112047
-32.085026,2.5510297,4.034399
-32.119568,2.544224,4.0334997
-32.155376,2.5355582,4.0308785
-32.196766,2.5178442,4.019417
-32.23963,2.498312,4.0063224
-32.275642,2.490671,4.0051517
-32.310165,2.4857488,4.0067964
-32.34887,2.4744287,4.0022693
-32.38569,2.4664817,4.0012074
-32.425163,2.454764,3.9965854
-32.461433,2.4483526,3.997313
-32.495667,2.4452853,4.0014405
-32.536484,2.4326487,3.996368
-32.575306,2.4233687,3.9947233
-32.612946,2.4161434,3.9952254
-32.6453,2.416736,4.0034385
-32.68313,2.409739,4.0044355
-32.716,2.4098945,4.0124702
-32.763786,2.3897328,4.001091
-32.80295,2.381842,4.001689
-32.83749,2.380435,4.008647
-32.87927,2.3696184,4.0067515
-32.919285,2.3614764,4.0075746
-32.97858,2.328829,3.9852905
-21.88056,0.8438368,4.134643
-22.024544,0.89275575,4.134364
-22.112873,0.9076264,4.1126757
-22.306831,0.9900384,4.1364017
-22.421375,1.023165,4.1284685
-22.536325,1.057308,4.1219788
-22.706661,1.1282504,4.141346
-22.76268,1.1255827,4.111254
-22.930176,1.1967878,4.132711
-22.988953,1.1968908,4.1055884
-23.148941,1.2652221,4.12689
-23.213482,1.2701986,4.1042585
-23.356838,1.3293054,4.120751
-23.402649,1.3223882,4.0905614
-23.576033,1.4041636,4.125061
-23.622993,1.3989451,4.097036
-23.774523,1.4676826,4.1237755
-23.825657,1.4662559,4.0994134
-23.940111,1.5104661,4.109435
-23.985825,1.5058155,4.0834002
-24.111977,1.5600226,4.1021824
-24.206593,1.5921016,4.104892
-24.269402,1.6012702,4.0905886
-24.398176,1.6602035,4.1150618
-24.432964,1.6492832,4.0860667
-24.56636,1.713525,4.1159725
-24.645267,1.7371454,4.1147733
-24.717453,1.7561302,4.1103606
-24.83605,1.8119333,4.1356425
-24.882849,1.8121947,4.117219
-24.961117,1.8376867,4.119318
-25.050156,1.8724446,4.129355
-25.10414,1.8795568,4.117429
-25.181396,1.9059912,4.121571
-25.264431,1.937824,4.130583
-25.301498,1.9320961,4.1090493
-25.370386,1.9531615,4.1099067
-25.438972,1.9745058,4.111369
-25.481237,1.9738574,4.0947704
-25.554005,1.9996983,4.100665
-25.636936,2.0350296,4.114982
-25.697752,2.0516992,4.1139045
-25.745968,2.0576289,4.1039734
-25.828981,2.095024,4.121247
-25.885773,2.1095266,4.119269
-25.931509,2.1143398,4.1091957
-25.974007,2.116393,4.0969353
-26.056717,2.1560965,4.1176953
-26.123219,2.1814604,4.1263523
-26.136013,2.1564176,4.091045
-26.18304,2.1638637,4.084402
-26.267845,2.2082071,4.1106634
-26.285236,2.1875756,4.079603
-26.341478,2.205075,4.082603
-26.394464,2.2198038,4.0833945
-26.449593,2.237126,4.0867705
-26.517403,2.2678607,4.102515
-26.552027,2.2651792,4.088347
-26.590744,2.2668257,4.0782437
-26.637478,2.277063,4.0761323
-26.704578,2.3092852,4.0943437
-26.741762,2.3101878,4.084147
-26.781172,2.313645,4.076451
-26.824968,2.3221157,4.0735474
-26.88793,2.3521523,4.090819
-26.93675,2.367109,4.094383
-26.969067,2.3638048,4.0811415
-27.011637,2.3722992,4.07905
-27.054066,2.3809402,4.077276
-27.107958,2.40334,4.088623
-27.164106,2.4290447,4.103338
-27.190321,2.4195433,4.0850143
-27.235146,2.4325247,4.0880938
-27.288902,2.4568985,4.1022015
-27.328682,2.4645915,4.1006503
-27.377796,2.4843237,4.1107717
-27.409323,2.4822588,4.1002173
-27.4482,2.4897237,4.0989304
-27.48743,2.4979467,4.0985303
-27.528915,2.5094593,4.101463
-27.568787,2.5192144,4.102865
-27.600533,2.518324,4.0940986
-27.63182,2.5168905,4.084913
-27.67091,2.5263674,4.0864706
-27.709383,2.5353365,4.087687
-27.749496,2.546988,4.09168
-27.786312,2.5542936,4.0915694
-27.813814,2.548255,4.0784755
-27.847889,2.5519204,4.075029
-27.883604,2.5582633,4.0743494
-27.912876,2.5550523,4.0643487
-27.96595,2.5887146,4.091
-27.9983,2.5908961,4.086614
-28.018417,2.5737445,4.0631
-28.044416,2.5657077,4.0487123
-28.083996,2.579823,4.0565286
-28.120993,2.5901656,4.0607233
-28.15858,2.601931,4.066484
-28.19559,2.6131659,4.0718517
-28.22229,2.6068711,4.0597234
-28.25204,2.6058803,4.0530176
-28.279615,2.601038,4.0425186
-28.314428,2.6093965,4.0454497
-28.359686,2.6375842,4.0685854
-28.39161,2.6415763,4.067366
-28.416956,2.6331377,4.0536275
-28.444452,2.6287193,4.0440474
-28.474333,2.6289978,4.039335
-28.507786,2.636639,4.042229
-28.543346,2.6490183,4.05008
-28.580584,2.6654897,4.0622463
-28.613209,2.6727834,4.0651464
-28.64084,2.6695344,4.057342
-28.666727,2.662362,4.045591
-28.69741,2.6659176,4.044943
-28.728315,2.670227,4.0451713
-28.763931,2.6859808,4.057299
-28.795687,2.6931536,4.0606976
-28.828667,2.7037659,4.0677557
-28.85457,2.6970549,4.0570035
-28.879282,2.6870527,4.0429134
-28.910501,2.6938941,4.046352
-28.938866,2.6934328,4.0423126
-28.968689,2.6970825,4.04263
-29.003185,2.7142818,4.057134
-29.034609,2.7235005,4.063449
-29.06113,2.718645,4.055201
-29.088387,2.7158818,4.04921
-29.11697,2.7172432,4.047603
-29.145107,2.717328,4.0447493
-29.173033,2.7168107,4.041349
-29.204319,2.72788,4.0501575
-29.23733,2.7458172,4.0662594
-29.265009,2.7455416,4.0633826
-29.289984,2.7351575,4.0499845
-29.316698,2.730945,4.04313
-29.345,2.7329159,4.042846
-29.373915,2.7376828,4.045584
-29.405735,2.755456,4.062092
-29.436039,2.7678757,4.073068
-29.462187,2.7619877,4.0648603
-29.48857,2.7568474,4.0575128
-29.51517,2.752455,4.0510283
-29.541452,2.7460825,4.0425286
-29.569315,2.7479663,4.0428147
-29.598547,2.7581189,4.0519133
-29.629387,2.7792816,4.072732
-29.65659,2.7793455,4.071351
-29.68309,2.7746937,4.0650635
-29.707787,2.756429,4.044451
-29.733759,2.7457485,4.0319285
-29.761639,2.749505,4.034756
-29.789991,2.7581272,4.0428157
-29.816706,2.7524428,4.035809
-29.84618,2.7749114,4.0586987
-29.873436,2.7762213,4.05926
-29.9004,2.7741745,4.056341
-29.926777,2.7632866,4.044128
-29.95221,2.733954,4.0124335
-29.980368,2.7471943,4.025949
-30.007576,2.7440505,4.0221715
-30.034885,2.742348,4.0199986
-30.063057,2.7715797,4.050715
-30.090017,2.762474,4.0408483
-30.117182,2.7582395,4.036224
-30.144419,2.7568183,4.0346613
-30.171715,2.7506657,4.0281577
-30.199093,2.745955,4.023262
-30.226355,2.7495456,4.0272484
-30.253443,2.7566357,4.0350246
-30.280048,2.772709,4.0524044
-30.307125,2.773764,4.053931
-30.33565,2.7495203,4.028714
-30.362587,2.755517,4.035638
-30.39045,2.7478738,4.0281816
-30.417585,2.7505827,4.0317755
-30.444426,2.756101,4.0384226
-30.470692,2.7664814,4.0502944
-30.497974,2.7659707,4.050708
-30.527275,2.7484174,4.0331583
-30.556013,2.7377892,4.0230265
-30.58273,2.7436562,4.0304303
-30.611105,2.7372813,4.0249643
-30.638453,2.7385015,4.0276093
-30.665346,2.7425249,4.033295
-30.691368,2.7513976,4.044176
-30.719538,2.7473617,4.041504
-30.74841,2.739989,4.0353928
-30.7786,2.7265568,4.0229807
-30.807226,2.7220721,4.0200925
-30.834637,2.7237964,4.023831
-30.863367,2.719462,4.0212708
-30.890621,2.722011,4.0260377
-30.91655,2.7300708,4.036677
-30.943512,2.7334356,4.0424523
-30.979216,2.7022233,4.0119987
-31.005829,2.7077837,4.0202565
-31.033272,2.7100184,4.0251017
-31.0658,2.694019,4.010923
-31.092352,2.6997957,4.019648
-31.115395,2.7171447,4.040553
-31.144558,2.7135735,4.0396457
-31.175697,2.7039983,4.032559
-31.208092,2.6911376,4.022145
-31.238247,2.685795,4.019677
-31.266434,2.6866043,4.0237107
-31.294611,2.6874883,4.0279055
-31.325907,2.679698,4.0231676
-31.350199,2.6914954,4.038872
-31.384373,2.6764793,4.0268235
-31.417257,2.665595,4.0191765
-31.449802,2.6561503,4.0131316
-31.48278,2.6461327,4.0066023
-31.509901,2.650931,4.0154877
-31.538345,2.6524565,4.021074
-31.564775,2.6587296,4.0316367
-31.598959,2.6470642,4.023814
-31.633047,2.6361704,4.0169063
-31.66883,2.6220546,4.0068088
-31.701166,2.6160257,4.0051317
-31.728916,2.6200476,4.013852
-31.762018,2.6128716,4.0112066
-31.795246,2.6057951,4.008776
-31.824646,2.6067526,4.01465
-31.860397,2.595243,4.007925
-31.890903,2.5943975,4.01217
-31.922813,2.5910037,4.013926
-31.957945,2.581783,4.009886
-31.992167,2.5746422,4.0080757
-32.02326,2.5735087,4.012455
-32.055843,2.569844,4.014384
-32.07732,2.585896,4.036273
-32.117435,2.5693338,4.0254307
-32.15055,2.5652966,4.0273113
-32.187233,2.5554986,4.0235386
-32.226448,2.5419176,4.016121
-32.271477,2.5193803,3.999918
-32.30475,2.516444,4.003426
-32.338898,2.5123124,4.005863
-32.37478,2.505701,4.005961
-32.417076,2.48953,3.996725
-32.454964,2.480586,3.9948025
-32.492146,2.4730496,3.9944143
-32.5312,2.463066,3.9917588
-32.56425,2.462177,3.9981866
-32.600445,2.4569106,4.0004406
-32.642143,2.4440997,3.995453
-32.673565,2.446082,4.005068
-32.713726,2.4360733,4.003115
-32.761517,2.4160452,3.9915938
-32.79078,2.421526,4.0049973
-32.83902,2.4017978,3.9941258
-32.864952,2.411899,4.0122294
-32.89754,2.4132447,4.0219846
-32.96501,2.3700666,3.9891338
-21.62991,0.8240166,4.1265845
-21.80417,0.8888552,4.1356335
-21.905937,0.9104829,4.1175075
-22.092585,0.9852035,4.1352797
-22.200758,1.0124199,4.122545
-22.301456,1.0356038,4.1077933
-22.497902,1.1200712,4.1354876
-22.584255,1.1357899,4.1172543
-22.727102,1.188371,4.125137
-22.823849,1.2120867,4.113781
-22.94607,1.2530813,4.1152267
-23.063122,1.2915461,4.1156707
-23.16113,1.3181746,4.108387
-23.262665,1.3478117,4.1038904
-23.3692,1.3815236,4.1029973
-23.484468,1.4219546,4.107704
-23.580221,1.4498284,4.1038685
-23.674107,1.4770651,4.1001463
-23.788727,1.519455,4.108353
-23.87881,1.5454383,4.104903
-24.000622,1.5946214,4.1196175
-24.069092,1.6065462,4.1066117
-24.149225,1.6272957,4.100782
-24.22174,1.6430173,4.0915227
-24.314518,1.6741033,4.094651
-24.427242,1.7207093,4.110505
-24.508213,1.7445157,4.1090603
-24.61333,1.7871493,4.1230273
-24.671326,1.7947829,4.1096845
-24.767672,1.8322002,4.120562
-24.842249,1.8535584,4.1190414
-24.920052,1.8779801,4.120425
-25.012218,1.9143364,4.131992
-25.060692,1.9167013,4.1161933
-25.121597,1.9292574,4.1090393
-25.23534,1.9850352,4.1380534
-25.283941,1.9886818,4.1242876
-25.336575,1.9958752,4.1137276
-25.398571,2.0111537,4.1102333
-25.477825,2.0413728,4.1197033
-25.509201,2.0316706,4.0956783
-25.583876,2.059019,4.103409
-25.671343,2.0980837,4.121595
-25.711033,2.0963366,4.1051006
-25.777449,2.1182418,4.1092505
-25.846127,2.142717,4.1159806
-25.910582,2.1640081,4.1202936
-25.9562,2.168775,4.1104507
-25.99984,2.1719623,4.0994253
-26.082476,2.211382,4.1206236
-26.120735,2.210303,4.106326
-26.176394,2.2257323,4.106898
-26.215164,2.225532,4.0937586
-26.290052,2.2601714,4.1120644
-26.329163,2.2609062,4.100206
-26.375492,2.2688677,4.0950475
-26.40912,2.2645411,4.0789413
-26.487371,2.304906,4.103683
-26.5308,2.3110275,4.097524
-26.558916,2.301763,4.0774374
-26.601677,2.3075476,4.0712953
-26.67083,2.341105,4.0909934
-26.721748,2.3562813,4.0940056
-26.757128,2.3553526,4.0822763
-26.787458,2.3490899,4.065707
-26.83849,2.3653462,4.0703135
-26.901411,2.3951645,4.0878816
-26.951262,2.4112206,4.0928016
-26.98511,2.409753,4.081399
-27.028656,2.4194036,4.0806513
-27.085907,2.4451551,4.095381
-27.139042,2.4668245,4.1064916
-27.17455,2.468364,4.098619
-27.216766,2.4780416,4.098676
-27.25882,2.4878645,4.0990486
-27.307833,2.506514,4.1080956
-27.35049,2.517887,4.110334
-27.385971,2.520691,4.104456
-27.421398,2.5236063,4.0988197
-27.452368,2.521006,4.08795
-27.495953,2.5347824,4.093158
-27.552242,2.5656595,4.1152644
-27.587168,2.5690813,4.110727
-27.609371,2.5555987,4.089715
-27.642447,2.5566816,4.083094
-27.681002,2.565453,4.0841765
-27.726208,2.5838575,4.0949345
-27.764378,2.5929005,4.096605
-27.7953,2.5918927,4.088442
-27.826664,2.5916111,4.081105
-27.860188,2.5946116,4.077147
-27.89237,2.5957952,4.0714927
-27.936356,2.6150062,4.0839996
-27.981686,2.6369386,4.0994177
-28.007278,2.6288314,4.0848274
-28.037062,2.6272216,4.0768547
-28.064453,2.621827,4.065158
-28.091526,2.6158566,4.0529604
-28.128853,2.6267705,4.0579405
-28.174475,2.6520543,4.0776353
-28.202175,2.6476612,4.0673633
-28.228437,2.6407423,4.054603
-28.261827,2.6462493,4.0545864
-28.289654,2.6420841,4.0448074
-28.325792,2.6529984,4.050536
-28.370579,2.680364,4.0732493
-28.403416,2.6862946,4.074152
-28.43032,2.6811862,4.0638227
-28.458311,2.6781144,4.055667
-28.488667,2.6797144,4.0524106
-28.51605,2.6754804,4.0432305
-28.54959,2.6838303,4.047135
-28.597486,2.7226162,4.082653
-28.625828,2.721302,4.0768147
-28.650227,2.711471,4.0622253
-28.679262,2.7116222,4.058069
-28.705942,2.706553,4.048572
-28.737589,2.7128267,4.050965
-28.769405,2.7198567,4.05425
-28.806349,2.7396107,4.070923
-28.833197,2.735527,4.0628157
-28.860107,2.7315116,4.0548577
-28.888895,2.7322328,4.051937
-28.917664,2.7330322,4.0491858
-28.947157,2.7359138,4.048707
-28.971977,2.7261696,4.035054
-29.012142,2.7593243,4.066583
-29.041086,2.7617946,4.0659614
-29.068398,2.7596505,4.060564
-29.094418,2.7535496,4.0510736
-29.121822,2.751544,4.045978
-29.14988,2.7516255,4.0431647
-29.179558,2.7571638,4.0462055
-29.213875,2.7789438,4.0665226
-29.242064,2.7806156,4.0656643
-29.269657,2.7803397,4.0628242
-29.296167,2.776088,4.055848
-29.32222,2.7698774,4.0468655
-29.350569,2.7725143,4.0473523
-29.379522,2.777932,4.050877
-29.409637,2.78884,4.0603285
-29.440472,2.8038945,4.074286
-29.466228,2.7966874,4.064639
-29.492384,2.7908988,4.0565724
-29.519035,2.7872095,4.0508156
-29.546131,2.785623,4.0473757
-29.573866,2.7874994,4.047706
-29.60168,2.7901273,4.048921
-29.632118,2.8091307,4.0677032
-29.659801,2.8125913,4.069975
-29.686623,2.8106868,4.0665917
-29.712347,2.8006895,4.054632
-29.739649,2.80164,4.0544524
-29.765694,2.7924547,4.0435038
-29.793196,2.7949052,4.0450807
-29.820229,2.7933426,4.042439
-29.848974,2.8095565,4.0589104
-29.876848,2.8190358,4.0682535
-29.90312,2.810192,4.0580473
-29.929445,2.8000512,4.0465226
-29.956398,2.7974749,4.0431776
-29.98343,2.7956486,4.040713
-30.010403,2.7918458,4.036206
-30.037487,2.7894769,4.0333104
-30.065235,2.810362,4.055426
-30.092186,2.8074512,4.0521045
-30.119125,2.7984717,4.04235
-30.146238,2.8052473,4.049567
-30.173357,2.7950423,4.0386515
-30.200617,2.7869532,4.030081
-30.227617,2.795302,4.039214
-30.254477,2.803719,4.048495
-30.281473,2.8053858,4.0506144
-30.30868,2.802349,4.0477686
-30.336338,2.792567,4.0377693
-30.363705,2.7896733,4.0352316
-30.391176,2.7861693,4.032118
-30.418247,2.7881866,4.034997
-30.444845,2.7950404,4.043132
-30.47098,2.805367,4.055057
-30.497465,2.8109915,4.0620217
-30.525951,2.7989879,4.0501966
-30.55447,2.7884235,4.0399933
-30.583263,2.777255,4.0292325
-30.611565,2.770925,4.023728
-30.638832,2.7721462,4.0263753
-30.665535,2.776834,4.0328026
-30.691236,2.7870216,4.0451756
-30.718102,2.789805,4.0497165
-30.74822,2.7750173,4.035589
-30.777533,2.76574,4.027433
-30.804653,2.7680652,4.031727
-30.832314,2.7677505,4.033287
-30.861032,2.7627692,4.0299582
-30.889217,2.7605715,4.0296783
-30.916151,2.7638593,4.0353107
-30.942532,2.7692418,4.0432453
-30.97436,2.7530787,4.028379
-31.002176,2.7532074,4.030901
-31.03221,2.745316,4.0249996
-31.06124,2.7415526,4.0235677
-31.086813,2.7499905,4.0351353
-31.11366,2.753779,4.041855
-31.140656,2.7569628,4.0480103
-31.174202,2.7393875,4.0323243
-31.207394,2.723929,4.0189857
-31.236368,2.7219858,4.0200043
-31.26584,2.7187817,4.019782
-31.292782,2.7230237,4.027485
-31.31845,2.730678,4.0388503
-31.345974,2.7330475,4.044736
-31.377247,2.725473,4.04027
-31.412785,2.7073169,4.0248194
-31.442568,2.7046,4.025654
-31.475365,2.694643,4.0190125
-31.504765,2.6934295,4.0216126
-31.524656,2.714882,4.047947
-31.556492,2.7078328,4.04462
-31.593409,2.6896102,4.0297728
-31.624992,2.684086,4.028259
-31.658794,2.674025,4.022139
-31.691849,2.6660495,4.018297
-31.726295,2.6555338,4.0119395
-31.754543,2.6583025,4.019437
-31.784052,2.658513,4.024378
-31.821815,2.6423745,4.012553
-31.850124,2.6453938,4.0205946
-31.88453,2.6366882,4.0166664
-31.911812,2.6418357,4.0270805
-31.95098,2.624827,4.0148644
-31.981148,2.624921,4.0202994
-32.015312,2.617929,4.0185914
-32.048866,2.6123433,4.018439
-32.067955,2.6322083,4.0443196
-32.105663,2.619649,4.0372677
-32.140514,2.6123977,4.035744
-32.17121,2.6123722,4.0416684
-32.21849,2.5853004,4.0203395
-32.262627,2.5642066,4.0052457
-32.29779,2.5580807,4.0054135
-32.33307,2.552063,4.0058193
-32.36554,2.5506492,4.0109735
-32.40394,2.5403583,4.007345
-32.44592,2.5250766,3.9988747
-32.48169,2.5195184,4.000275
-32.511448,2.5229967,4.010806
-32.551315,2.5119193,4.0069666
-32.58869,2.504787,4.007197
-32.623028,2.5022135,4.0120797
-32.66153,2.4940486,4.0115643
-32.70618,2.4777973,4.003234
-32.74643,2.4680095,4.0014424
-32.785427,2.4602437,4.001794
-32.82026,2.4582598,4.007955
-32.851273,2.461397,4.0192404
-32.891018,2.4533606,4.019752
-32.93238,2.4435833,4.018732
-21.29592,0.8114259,4.1528144
-21.397362,0.82963085,4.129941
-21.549267,0.87825155,4.127539
-21.721773,0.94019556,4.134954
-21.887875,0.99953055,4.141845
-22.014503,1.0361285,4.134647
-22.106115,1.0521486,4.114371
-22.297739,1.1302941,4.1371098
-22.411768,1.1617327,4.1289945
-22.51191,1.1852114,4.116088
-22.704424,1.2676282,4.145153
-22.757898,1.263093,4.11405
-22.929255,1.3343661,4.137291
-22.994915,1.3386233,4.113516
-23.130623,1.3888683,4.123437
-23.20057,1.3968837,4.103409
-23.348387,1.4569008,4.1220484
-23.417812,1.4656777,4.1036716
-23.572052,1.5320132,4.128676
-23.614998,1.523953,4.0987325
-23.775557,1.5966289,4.130149
-23.800852,1.5771546,4.092325
-23.939056,1.636308,4.1149607
-23.994267,1.6382606,4.0942564
-24.088871,1.668386,4.095762
-24.210451,1.7185149,4.113499
-24.255505,1.7144506,4.0892835
-24.384872,1.771877,4.1140428
-24.425983,1.7656631,4.0888333
-24.58175,1.8444469,4.132027
-24.640482,1.8522723,4.1189218
-24.711304,1.8695182,4.1137724
-24.822561,1.9179833,4.1345043
-24.866419,1.9157639,4.1142898
-24.944895,1.940464,4.1165004
-25.043373,1.9813869,4.1326146
-25.074263,1.9699506,4.1056185
-25.176796,2.0154228,4.126463
-25.249,2.037548,4.128226
-25.295507,2.0394266,4.113228
-25.352894,2.0503817,4.106175
-25.419607,2.0693803,4.1062927
-25.484694,2.0875268,4.1060295
-25.546831,2.1036844,4.1043897
-25.608727,2.1200879,4.1032805
-25.690212,2.1537042,4.1174893
-25.735718,2.1570296,4.105629
-25.80336,2.179862,4.111126
-25.884275,2.2149534,4.1277976
-25.91055,2.2023096,4.102586
-25.956844,2.2075238,4.093353
-26.049446,2.254922,4.1220393
-26.11608,2.2796323,4.1308746
-26.126549,2.2530937,4.093871
-26.173513,2.2602038,4.0872846
-26.254347,2.2994971,4.110133
-26.295311,2.3017783,4.0996766
-26.327705,2.2960052,4.082025
-26.386782,2.3161442,4.0882826
-26.433538,2.3247476,4.084199
-26.492062,2.345316,4.0913877
-26.527216,2.343048,4.077669
-26.568258,2.346818,4.0697064
-26.612143,2.3536983,4.064821
-26.681301,2.3869507,4.084841
-26.73104,2.4007726,4.0869374
-26.760683,2.3938184,4.069659
-26.811258,2.4091558,4.073575
-26.855442,2.4180617,4.0716143
-26.91276,2.441598,4.083771
-26.952682,2.4466152,4.0785127
-26.9985,2.4584317,4.079928
-27.043045,2.4691968,4.080531
-27.097023,2.4910765,4.0920296
-27.14641,2.5082808,4.0992594
-27.178194,2.5054893,4.087339
-27.21989,2.5144334,4.0869274
-27.267612,2.5308905,4.0940037
-27.317099,2.5499828,4.1038604
-27.369297,2.572959,4.1177373
-27.391611,2.5596676,4.0962543
-27.426506,2.5619042,4.090101
-27.461353,2.5642495,4.084183
-27.51119,2.5859804,4.097561
-27.552984,2.5979266,4.101459
-27.584122,2.5962827,4.0920258
-27.615274,2.594728,4.0827875
-27.649696,2.5976505,4.078122
-27.689117,2.6075861,4.080594
-27.73382,2.6252027,4.090917
-27.770582,2.6322641,4.0908246
-27.800108,2.6293414,4.080821
-27.827915,2.62397,4.0684414
-27.862309,2.6281772,4.065826
-27.90091,2.6388366,4.0698695
-27.946526,2.6604345,4.085158
-27.980896,2.665635,4.0839634
-28.00815,2.6600962,4.071954
-28.03589,2.6552656,4.0607486
-28.068935,2.6588292,4.0582066
-28.09873,2.6573634,4.0506268
-28.141472,2.6771715,4.0649686
-28.179235,2.6894102,4.0717006
-28.206112,2.6837363,4.060132
-28.236078,2.6832917,4.0540338
-28.269005,2.6880994,4.0534563
-28.298555,2.687183,4.0470676
-28.336386,2.7012506,4.0562987
-28.374323,2.7160907,4.0664706
-28.404327,2.7167609,4.0620546
-28.430878,2.7110083,4.0510497
-28.459541,2.7092319,4.0442643
-28.490551,2.712099,4.0424128
-28.526083,2.7242007,4.050314
-28.557865,2.7292194,4.050927
-28.599033,2.7539783,4.072336
-28.627356,2.7526503,4.066523
-28.65325,2.746146,4.055354
-28.681042,2.743649,4.0484743
-28.710043,2.7438574,4.044524
-28.740473,2.7474384,4.044221
-28.777056,2.765615,4.059426
-28.808886,2.7733455,4.0637183
-28.836775,2.7719166,4.0584197
-28.86388,2.7685769,4.0511785
-28.890255,2.7633197,4.0419807
-28.919512,2.765421,4.040669
-28.948975,2.7682662,4.0402365
-28.977406,2.768536,4.037154
-29.014389,2.792817,4.0597277
-29.043522,2.7959228,4.05986
-29.071007,2.794446,4.0551915
-29.097406,2.7897081,4.047118
-29.124956,2.7883723,4.042756
-29.151892,2.7851052,4.0364065
-29.180508,2.787253,4.0359282
-29.21542,2.8108792,4.0585485
-29.244534,2.8158746,4.061311
-29.271688,2.814252,4.05706
-29.298506,2.811359,4.0515213
-29.326591,2.81323,4.051176
-29.353622,2.8111486,4.0466638
-29.383139,2.8192105,4.0531416
-29.41488,2.8374343,4.0706496
-29.442196,2.8375971,4.068801
-29.46848,2.8331213,4.0620313
-29.494972,2.829385,4.0561304
-29.521528,2.825716,4.050376
-29.547882,2.8207662,4.043311
-29.575056,2.819928,4.040761
-29.603298,2.8252296,4.044921
-29.633457,2.842753,4.062377
-29.661085,2.8461852,4.064686
-29.687649,2.8429375,4.059844
-29.713606,2.8350282,4.0500307
-29.740404,2.83259,4.0462103
-29.767157,2.829544,4.041806
-29.794344,2.8299475,4.041214
-29.820597,2.8216279,4.031244
-29.84999,2.8444963,4.0551558
-29.877087,2.8457909,4.0557604
-29.903517,2.8390315,4.047707
-29.929775,2.8282776,4.035393
-29.95676,2.8263922,4.0327716
-29.983812,2.825253,4.0310354
-30.01085,2.8235059,4.0287147
-30.038284,2.8319895,4.0375733
-30.0657,2.845286,4.051733
-30.09267,2.8471363,4.053544
-30.119492,2.8375385,4.043003
-30.146486,2.8341076,4.0392313
-30.173548,2.8293905,4.034138
-30.200808,2.8172908,4.0211067
-30.22788,2.8215208,4.025878
-30.254389,2.8407235,4.0469756
-30.281328,2.8417044,4.0483675
-30.308657,2.8346257,4.0410895
-30.33611,2.8276193,4.0339665
-30.363638,2.8213618,4.027734
-30.390759,2.8219457,4.029
-30.41764,2.825307,4.0333524
-30.44453,2.8280592,4.037119
-30.470753,2.8369684,4.0476346
-30.497347,2.841209,4.0531616
-30.52508,2.8353755,4.0478477
-30.553865,2.8221805,4.034642
-30.581957,2.8158212,4.0289226
-30.609964,2.8108873,4.024826
-30.637333,2.8107538,4.026004
-30.663828,2.8160906,4.033173
-30.689886,2.8235168,4.042674
-30.716185,2.8289852,4.0501285
-30.74468,2.8223867,4.0446253
-30.774355,2.8104773,4.0334725
-30.80285,2.8053842,4.0297647
-30.831726,2.7990222,4.0247717
-30.859814,2.7967734,4.024297
-30.886229,2.8019934,4.0319476
-30.913689,2.802577,4.03468
-30.940643,2.8052456,4.0397325
-30.971018,2.7945657,4.0305123
-31.002296,2.7812912,4.018601
-31.030668,2.7794967,4.0191107
-31.059265,2.7771087,4.019068
-31.085161,2.7841635,4.0292287
-31.111347,2.7899437,4.0380945
-31.140347,2.7864375,4.0370936
-31.171967,2.7750025,4.0277033
-31.204664,2.760993,4.0156646
-31.235811,2.752412,4.009529
-31.264576,2.7512436,4.011396
-31.290535,2.7581334,4.021934
-31.316385,2.7650862,4.0326076
-31.345089,2.7641358,4.0349483
-31.376091,2.7572942,4.0311165
-31.409283,2.7452416,4.021853
-31.441631,2.735937,4.015617
-31.472256,2.7313578,4.014488
-31.500761,2.7321491,4.0191383
-31.522802,2.748191,4.039984
-31.549736,2.7524128,4.048404
-31.583612,2.7409043,4.040322
-31.628105,2.7064862,4.008238
-31.657122,2.7070365,4.0130982
-31.688297,2.703073,4.013307
-31.72049,2.697234,4.011648
-31.752789,2.6914897,4.0101957
-31.782917,2.6904154,4.013735
-31.81274,2.6900785,4.018139
-31.846611,2.682002,4.014563
-31.878918,2.6772833,4.014602
-31.910963,2.6733112,4.0155234
-31.936743,2.681118,4.0287833
-31.981007,2.6552763,4.007226
-32.01227,2.6535435,4.010804
-32.044678,2.6499615,4.0125732
-32.067806,2.6626112,4.031199
-32.100975,2.6579082,4.032003
-32.134228,2.653304,4.0330243
-32.16796,2.6481586,4.033603
-32.210484,2.6290033,4.019943
-32.256138,2.6055133,4.002017
-32.29123,2.599451,4.002077
-32.32684,2.5928602,4.001723
-32.362152,2.5870183,4.0022583
-32.397995,2.5806503,4.0023875
-32.435658,2.5718546,4.000187
-32.471313,2.5663514,4.0014577
-32.507507,2.560327,4.0023313
-32.54602,2.5512576,4.000271
-32.586037,2.5404234,3.996584
-32.620804,2.5372772,4.0007644
-32.657005,2.5323524,4.003289
-32.698395,2.5206442,3.9991736
-32.73015,2.5222216,4.008462
-32.76993,2.5132694,4.007388
-32.81848,2.493227,3.9954724
-32.845127,2.5019875,4.0122657
-32.88483,2.4940448,4.0126486
-32.91826,2.4942913,4.0212507
-20.978367,0.7776401,4.134628
-21.155102,0.8367491,4.1368604
-21.299826,0.8786588,4.129145
-21.47201,0.93742895,4.1335216
-21.669693,1.0123155,4.1498146
-21.737642,1.0121922,4.117167
-21.914492,1.0770266,4.1289344
-22.052517,1.1199007,4.1269093
-22.187613,1.1619425,4.125237
-22.29731,1.1894398,4.114338
-22.47867,1.2616143,4.135545
-22.52528,1.2518015,4.0998774
-22.720427,1.334739,4.1307473
-22.829956,1.3654017,4.1252723
-22.93832,1.3960495,4.1204834
-23.021229,1.4111364,4.104984
-23.14375,1.4522359,4.109184
-23.254087,1.4863076,4.1089406
-23.365534,1.5218823,4.110517
-23.468815,1.5528595,4.1093216
-23.578592,1.5888903,4.1126065
-23.666529,1.6110396,4.1059422
-23.770885,1.6448956,4.108829
-23.875542,1.6797273,4.113112
-23.95039,1.6947796,4.1025743
-24.011559,1.7007642,4.085327
-24.149405,1.7608371,4.1112375
-24.214495,1.7706418,4.097956
-24.295687,1.7922907,4.0945244
-24.402273,1.8327798,4.1067553
-24.449863,1.8313067,4.085573
-24.606468,1.9098454,4.129932
-24.649925,1.9063196,4.107896
-24.7718,1.961366,4.1344213
-24.854988,1.9884579,4.1384726
-24.899382,1.9867604,4.1189613
-24.996847,2.025829,4.13387
-25.06069,2.0397882,4.1281576
-25.12293,2.0529118,4.122072
-25.19193,2.0717502,4.1211815
-25.266876,2.0958076,4.1251297
-25.320847,2.1036618,4.1155353
-25.3706,2.108407,4.103517
-25.462387,2.1476803,4.121747
-25.504984,2.1473398,4.105899
-25.572405,2.1677706,4.1084614
-25.656185,2.202454,4.1239347
-25.696375,2.2010374,4.1079106
-25.745798,2.2076306,4.09918
-25.835667,2.2493877,4.122077
-25.89371,2.2643695,4.121459
-25.937317,2.2670891,4.1100864
-25.979591,2.268823,4.098015
-26.06705,2.3112335,4.1230483
-26.108315,2.3128,4.111333
-26.157713,2.32197,4.1067495
-26.198853,2.3238368,4.0956855
-26.262867,2.347205,4.104616
-26.31053,2.3557768,4.100176
-26.344624,2.3517513,4.084251
-26.389069,2.3577235,4.077772
-26.45686,2.386613,4.0929174
-26.509274,2.401149,4.0949316
-26.540134,2.394762,4.0774856
-26.592236,2.4096375,4.080235
-26.634766,2.4152732,4.0744643
-26.695124,2.4393816,4.086441
-26.740177,2.4483194,4.0842314
-26.774837,2.446722,4.072133
-26.819668,2.4559522,4.0705576
-26.872734,2.4742959,4.0779495
-26.92716,2.494636,4.0875115
-26.968052,2.5007868,4.0835776
-27.007744,2.5058737,4.0787764
-27.052208,2.5165176,4.0795474
-27.111483,2.5442326,4.097183
-27.156504,2.5564394,4.099902
-27.1908,2.5566702,4.0910487
-27.229248,2.561872,4.087216
-27.272243,2.5726852,4.0890746
-27.320164,2.5897577,4.0973067
-27.368809,2.6082287,4.107133
-27.3991,2.6047974,4.0953755
-27.429432,2.601451,4.083803
-27.467176,2.60743,4.081654
-27.523771,2.637603,4.1039004
-27.560135,2.6426392,4.1011486
-27.593073,2.643455,4.0942817
-27.622217,2.6394024,4.0826173
-27.663061,2.6509826,4.0868573
-27.692646,2.6477427,4.076235
-27.735485,2.662695,4.084188
-27.77266,2.670289,4.084822
-27.804798,2.6711092,4.078686
-27.83427,2.6682572,4.068904
-27.871609,2.6768093,4.070896
-27.909222,2.6861129,4.0737977
-27.945395,2.6936457,4.07502
-27.98185,2.7019265,4.077143
-28.012774,2.7020907,4.0710225
-28.043274,2.7017088,4.064438
-28.072962,2.7001429,4.0567255
-28.106647,2.7050247,4.055798
-28.14613,2.719573,4.0650344
-28.182646,2.729784,4.0699024
-28.209808,2.7247632,4.059016
-28.237043,2.719812,4.048281
-28.268808,2.722629,4.0457544
-28.302343,2.7287507,4.046795
-28.331799,2.727898,4.0406284
-28.380432,2.7619176,4.071214
-28.408201,2.7586951,4.062788
-28.43498,2.7536077,4.052477
-28.46387,2.7524698,4.0464134
-28.495766,2.7572417,4.0466843
-28.528553,2.7640526,4.0492196
-28.568628,2.785901,4.0678077
-28.601988,2.7948785,4.0728807
-28.630827,2.7948418,4.0684834
-28.656904,2.7890162,4.058012
-28.683071,2.783256,4.0476813
-28.71463,2.7893233,4.0500426
-28.743475,2.7895951,4.046313
-28.775991,2.7984593,4.0518613
-28.80779,2.80611,4.0562162
-28.836184,2.8059769,4.0523305
-28.864037,2.8046064,4.0472
-28.89347,2.8072572,4.04647
-28.922338,2.8086715,4.0444994
-28.949677,2.8062103,4.0384445
-28.979733,2.811077,4.0403614
-29.017328,2.8371582,4.0652485
-29.04539,2.8375869,4.062581
-29.07071,2.830152,4.0514975
-29.094822,2.8188062,4.036252
-29.121279,2.8141413,4.0282965
-29.15201,2.8228068,4.034852
-29.184423,2.837534,4.0480747
-29.215185,2.8477085,4.056462
-29.2421,2.8453407,4.051328
-29.270735,2.849029,4.05285
-29.296577,2.8428097,4.0436826
-29.327263,2.854641,4.0542226
-29.35417,2.8525615,4.0497136
-29.382586,2.8565545,4.051895
-29.412827,2.8686333,4.062974
-29.442394,2.8787951,4.0720544
-29.468699,2.8750062,4.065998
-29.493793,2.8652663,4.0535154
-29.519997,2.86027,4.0462794
-29.54745,2.861363,4.0457706
-29.574135,2.8585095,4.0410237
-29.602163,2.8630939,4.044487
-29.631002,2.8731146,4.0539813
-29.658709,2.87718,4.0570383
-29.685436,2.8752809,4.0536404
-29.711624,2.8694243,4.0459795
-29.738356,2.86699,4.0421405
-29.76496,2.8632805,4.036976
-29.79201,2.8629975,4.035642
-29.82006,2.872191,4.044781
-29.84808,2.882802,4.0555563
-29.875374,2.887439,4.0598526
-29.900972,2.871975,4.0421553
-29.927221,2.8619545,4.0305033
-29.95419,2.8607445,4.0285993
-29.98103,2.8569121,4.0238876
-30.008242,2.8598766,4.026718
-30.03503,2.8528187,4.01861
-30.062801,2.8767834,4.0446653
-30.089678,2.8759208,4.043515
-30.116325,2.8515728,4.016628
-30.14344,2.8548858,4.0202146
-30.170517,2.855577,4.0209928
-30.19756,2.8576832,4.023401
-30.224516,2.861878,4.028178
-30.251423,2.8654685,4.0323653
-30.278154,2.8718195,4.0396595
-30.305014,2.8735292,4.0419264
-30.33236,2.8665628,4.0347376
-30.359783,2.8603406,4.0284424
-30.387058,2.857552,4.0259953
-30.414555,2.8528178,4.0214863
-30.44169,2.8528605,4.0222983
-30.46738,2.867084,4.0387464
-30.493572,2.874652,4.0479593
-30.52133,2.8681822,4.041847
-30.549633,2.8584292,4.032214
-30.577368,2.8541217,4.0286303
-30.605183,2.8498874,4.0252066
-30.631927,2.853104,4.030022
-30.659388,2.8516955,4.0298476
-30.685837,2.8563895,4.036427
-30.712814,2.8578012,4.039488
-30.74155,2.8499105,4.0324526
-30.770824,2.8400903,4.023394
-30.798054,2.8410516,4.026198
-30.82527,2.8420835,4.0291553
-30.854124,2.8358374,4.0242476
-30.882,2.8343434,4.024606
-30.90796,2.84093,4.0338492
-30.93566,2.8402452,4.0352426
-30.96528,2.8323042,4.028819
-30.995222,2.8237796,4.021849
-31.024023,2.8199978,4.0201254
-31.052893,2.8162937,4.018572
-31.080065,2.8186493,4.023679
-31.106596,2.8230662,4.0310965
-31.134928,2.8215785,4.0321884
-31.16457,2.8161902,4.02914
-31.194971,2.8088975,4.0241218
-31.227076,2.797059,4.0142856
