x,y,z
1.9252491,2.2144082,1.0817795
1.6362705,2.1611595,0.95288897
1.4954624,2.0910752,0.7957196
0.8531246,2.0842793,0.74803495
-1.0285149,2.2393446,0.98248816
-2.1636868,2.306959,1.0685601
-2.3626747,2.2555985,0.9486556
-2.4127903,2.184774,0.79488087
-2.6169472,2.1353798,0.6790242
-2.5391655,2.046822,0.4940567
-2.5520477,1.9706538,0.33095407
-9.902838,2.5091338,1.1069846
-10.016027,2.469075,1.0162067
-10.142797,2.4318037,0.93071985
-10.244688,2.3905306,0.8380065
-10.271467,2.335857,0.7205939
-9.835367,2.1951208,0.44335127
-10.19936,2.2023864,0.44088316
-12.223074,2.5297098,1.0360265
-12.23468,2.4772182,0.92415
-12.21855,2.4190173,0.8015628
-12.07835,2.3354921,0.6313782
-12.241549,2.3126876,0.575161
-12.027958,2.212541,0.3734007
-20.731506,2.9630892,1.554349
-21.60083,3.103013,1.8106384
-25.9597,3.1960886,1.8453236
-26.522026,3.10506,1.642314
-27.094486,3.0825686,1.5825281
-27.232315,3.0764005,1.5668974
-27.299025,3.0956163,1.6050134
-27.524487,3.2326112,1.8819909
-27.599827,3.265392,1.9478521
-27.625713,3.2462394,1.9079924
-27.669197,3.2459352,1.9065266
-27.712238,3.2453473,1.904499
-27.751957,3.2411857,1.8952074
-27.79242,3.2379541,1.887824
-27.833242,3.2352457,1.8815217
-27.86752,3.2247918,1.859448
-27.888472,3.1978393,1.803751
-27.90278,3.1617603,1.7294488
-27.920633,3.1289856,1.6618834
-27.940287,3.0974553,1.5968523
-27.938675,3.0366788,1.4721737
-27.931879,2.966585,1.328476
-27.926659,2.895934,1.1836243
-27.926012,2.8289323,1.0462012
-27.918695,2.7496128,0.8836298
-27.923527,2.6849043,0.7508559
-27.938772,2.6332016,0.6446147
-27.880796,2.466379,0.30339432
-38.016994,2.4307516,0.38084888
-38.016304,2.472781,0.46826506
-38.02758,2.5090392,0.54413843
-38.045303,2.5421176,0.61365414
-38.032745,2.5878618,0.70842695
-38.102085,2.5983274,0.73283863
-38.106308,2.6362607,0.81202173
-38.030327,2.7069366,0.9563894
-38.088024,2.721806,0.9895959
-38.138874,2.7395597,1.028573
-38.182022,2.7604446,1.073801
-38.14216,2.814044,1.1840482
-38.13813,2.852896,1.2649522
-38.189537,2.869968,1.3026128
-38.24379,2.886033,1.3383045
-38.30785,2.898517,1.36693
-38.374916,2.9100761,1.3937669
-38.472176,2.9107716,1.3991451
-38.536945,2.9237323,1.4288588
-38.605545,2.9355159,1.4562893
-38.679604,2.9455965,1.480402
-38.779755,2.946824,1.4870963
-38.864254,2.953953,1.5055094
-38.9656,2.9556892,1.5133595
-39.076797,2.9545963,1.5157194
-39.178635,2.9571922,1.5254331
-39.311436,2.9500868,1.5161552
-39.404884,2.956508,1.5335703
-39.5507,2.946528,1.518868
-39.6405,2.955137,1.5407577
-39.777298,2.949402,1.5346122
-39.893875,2.9506607,1.5422873
-40.005737,2.9539375,1.5540147
-40.136993,2.9519005,1.5554566
-40.23513,2.9604099,1.5776157
-40.340073,2.9673421,1.5967851
-40.43839,2.9766715,1.6207209
-40.551174,2.9822738,1.6374907
-41.848503,2.6530416,1.0031605
-41.234688,2.8670628,1.4257507
-41.282837,2.893711,1.4839592
-41.267857,2.9375913,1.5756044
-41.334885,2.9590251,1.623743
-41.49261,2.9565828,1.6257586
-41.650745,2.9548488,1.6293097
-41.729916,2.9743204,1.6739464
-41.927048,2.963995,1.6612344
-42.02647,2.9793024,1.6980777
-42.230675,2.969021,1.6858392
-42.397503,2.9689858,1.6935024
-42.517704,2.981044,1.7245393
-42.693104,2.9804974,1.7315764
-42.83766,2.9880788,1.7543583
-43.036983,2.9836721,1.754426
-43.15152,2.999641,1.7935643
-43.321846,3.0035472,1.8098817
-43.515934,3.0030262,1.817997
-43.694122,3.0069642,1.8348122
-43.872597,3.0117178,1.8533983
-44.06228,3.014973,1.8693786
-44.275105,3.0143352,1.878262
-44.4911,3.0141273,1.8882408
-44.708427,3.0147457,1.9000626
-44.889336,3.023732,1.9278779
-45.133186,3.0212183,1.9344153
-45.387703,3.0178926,1.9397831
-45.614906,3.0210752,1.9576492
-45.8062,3.0321229,1.9904714
-46.09831,3.0255013,1.9907889
-46.39757,3.0190988,1.9919581
-46.654366,3.0218208,2.0104375
-46.956596,3.0178657,2.0170212
-47.183193,3.0285053,2.0508933
-47.54857,3.016728,2.0440645
-47.834396,3.0201073,2.065528
-48.07801,3.0318313,2.102666
-48.419533,3.0290072,2.1137981
-48.731186,3.0326447,2.1372204
-48.997513,3.0448747,2.1766906
-49.35756,3.0441556,2.1933541
-49.73629,3.0424829,2.2089705
-50.018814,3.0568266,2.2538843
-50.399372,3.058477,2.2767606
-50.919815,3.0423756,2.268941
-51.265884,3.0530298,2.30935
-51.739567,3.048166,2.3232079
-52.21486,3.0455182,2.3419251
-52.679146,3.0467267,2.3683581
-53.087715,3.0573583,2.4121037
-53.6791,3.047366,2.421239
-54.146824,3.055414,2.4626093
-54.683075,3.0576987,2.4952464
0.99894905,2.2430763,0.63234615
0.78128815,2.1838198,0.4970131
-1.2361317,2.3505125,0.7787185
-2.3685646,2.4150002,0.87451124
-2.412897,2.3434136,0.719378
-2.5814743,2.2883701,0.59509945
-2.493185,2.199004,0.4069004
-4.726368,2.431563,0.8219347
-5.2964764,2.4405603,0.82001686
-8.764051,2.626464,1.0897903
-9.886412,2.6840334,1.1717577
-9.953732,2.6358986,1.0664134
-10.087507,2.5990381,0.9827728
-10.163494,2.5528233,0.8812785
-10.250385,2.5086715,0.7838268
-10.300499,2.458252,0.6743517
-10.339233,2.4057965,0.56097174
-12.174522,2.681518,1.0834184
-12.218752,2.6353805,0.9833846
-12.208191,2.5788882,0.8632493
-12.110994,2.505424,0.7100377
-12.212933,2.469881,0.6306248
-12.2629795,2.4243915,0.53187704
-12.052977,2.3266113,0.33092022
-12.046663,2.268804,0.207973
-19.837523,2.9446485,1.3793831
-20.044907,2.9673462,1.4207993
-21.612255,3.1301696,1.7160525
-26.957357,3.1299248,1.5818696
-27.048243,3.12355,1.567069
-27.092594,3.1195726,1.5580544
-27.141129,3.119674,1.5574908
-27.288473,3.1232424,1.5626416
-27.586317,3.2867434,1.8990822
-27.60485,3.2596765,1.8423944
-27.64792,3.2584298,1.8391824
-27.691303,3.257711,1.8370752
-27.73968,3.2627916,1.8469939
-27.775377,3.2538023,1.8277774
-27.817892,3.2526352,1.8247771
-27.857605,3.2483237,1.8152723
-27.879082,3.222035,1.760232
-27.894238,3.1871524,1.6873822
-27.908663,3.1501963,1.6102328
-27.92566,3.1152723,1.537292
-27.932219,3.0654914,1.4335499
-27.932678,3.0057282,1.3091044
-27.926556,2.9346893,1.1612687
-27.923851,2.8655863,1.0174346
-27.91777,2.7888849,0.8578305
-27.927794,2.7324338,0.74021435
-27.937094,2.6725862,0.61554575
-38.018894,2.5338156,0.43930674
-38.033737,2.56826,0.51218605
-38.047894,2.602657,0.5849633
-38.02882,2.6506925,0.68554735
-38.086494,2.666162,0.71971464
-38.15351,2.6779041,0.74630976
-38.106457,2.736147,0.8676548
-38.09652,2.778603,0.9568076
-38.147408,2.7964282,0.9958091
-38.219765,2.8059094,1.0178547
-38.308662,2.8092504,1.0274477
-38.19438,2.8906646,1.1957817
-38.444435,2.8330393,1.0815334
-38.484734,2.8555505,1.1301851
-38.465557,2.8999546,1.2232871
-38.51181,2.9199734,1.2668872
-38.58106,2.9317467,1.2937851
-38.66663,2.9379487,1.3094258
-38.75936,2.942007,1.3207707
-38.842033,2.9499846,1.3401046
-39.07347,2.9073207,1.2570028
-39.197502,2.902597,1.2507963
-39.28044,2.9122863,1.2738018
-39.42116,2.9032192,1.2589602
-39.508453,2.912379,1.281014
-39.659733,2.9012778,1.2622328
-39.776676,2.9019706,1.2673378
-39.91432,2.8967416,1.2605834
-40.03521,2.8974564,1.2658944
-40.24781,2.8706703,1.2159257
-40.3366,2.88266,1.2441149
-40.40463,2.9012003,1.2855277
-40.461643,2.9231791,1.3338861
-40.516716,2.94583,1.3836241
-40.516876,2.9843674,1.46526
-40.604073,2.9978871,1.4967275
-41.725567,2.7219367,0.94840145
-41.87363,2.72305,0.95559406
-41.27688,2.928207,1.3709936
-41.314037,2.9580085,1.4354124
-42.085953,2.7924557,1.1097593
-42.16716,2.8132243,1.1565132
-41.938126,2.9145443,1.363893
-41.96138,2.9495516,1.4389725
-42.008484,2.97842,1.5018373
-42.234585,2.96285,1.4763837
-42.44129,2.9532886,1.4630556
-42.56671,2.9644876,1.491097
-42.671898,2.981071,1.529913
-42.785892,2.9960063,1.565546
-42.96749,2.9957607,1.5712423
-43.14057,2.9983842,1.582767
-43.35427,2.9927268,1.5780983
-43.472466,3.0093794,1.6176133
-43.7284,2.9964123,1.5988989
-43.889378,3.005285,1.6233845
-44.05507,3.0139203,1.6475525
-44.245483,3.018178,1.6632857
-44.48723,3.012808,1.6603389
-44.67567,3.0195088,1.681252
-44.909252,3.0181155,1.6865354
-45.115776,3.0232377,1.7047696
-45.34011,3.0259352,1.718493
-45.61561,3.0200167,1.7156868
-45.78808,3.0348377,1.7534623
-46.097008,3.025301,1.7441835
-46.38342,3.0214694,1.746295
-46.630333,3.0261593,1.7651992
-46.939285,3.0212035,1.7657747
-47.252617,3.017091,1.7683344
-47.49709,3.0262594,1.7967911
-47.799232,3.02703,1.8094292
-48.109413,3.0280206,1.8228593
-48.393635,3.0347567,1.8476481
-48.718933,3.0364332,1.863152
-49.017204,3.0439444,1.8901696
-49.3396,3.0492783,1.9134464
-49.74529,3.0438144,1.9167204
-50.077225,3.0512273,1.9448566
-50.46118,3.0528436,1.9625411
-50.911774,3.0470445,1.9668503
-51.259434,3.057744,2.0026999
-51.75741,3.0498948,2.004445
-52.130974,3.0610547,2.0423112
-52.62932,3.0579412,2.054285
-53.150578,3.0544815,2.0664072
-53.642548,3.0573206,2.0909724
-54.201004,3.0546153,2.1061811
-54.710644,3.0605433,2.1381102
-1.5494537,2.3168046,0.26552868
-2.5631447,2.3690085,0.35405588
-6.7770996,2.5211048,0.5828247
-7.821102,2.6108012,0.7514615
-8.149395,2.59665,0.71345234
-8.930521,2.6547704,0.8203387
-9.063959,2.6142228,0.73013735
-10.08708,2.718169,0.9299655
-10.220274,2.6811962,0.84749126
-10.274275,2.6314514,0.73941374
-10.318714,2.5801144,0.6281557
-10.3406315,2.5248437,0.5089841
-12.203087,2.7945843,1.0458097
-12.137865,2.728869,0.906229
-12.036886,2.6559505,0.7520132
-12.1807785,2.6276178,0.6879778
-12.278856,2.591224,0.6076932
-12.058098,2.4939628,0.40399313
-20.112085,3.1292262,1.59056
-20.18729,3.1135297,1.5554953
-19.891327,2.990458,1.2985878
-20.006369,2.9855795,1.2858458
-20.193016,3.0025542,1.3183484
-20.35334,3.0126987,1.3368025
-20.556414,3.0368018,1.3842182
-20.738083,3.0555406,1.4206185
-20.884802,3.0644345,1.4367061
-21.129498,3.1052258,1.5189528
-21.188541,3.0880356,1.4811158
-21.32941,3.097593,1.498765
-21.432241,3.0954397,1.492178
-21.586378,3.110894,1.5221696
-21.75161,3.1310313,1.5619459
-25.916885,3.1784105,1.5934443
-26.525278,3.10762,1.435926
-26.573273,3.1040323,1.4277782
-26.86181,3.1304789,1.4805713
-27.040583,3.1567636,1.5343156
-27.092236,3.1593194,1.5391936
-27.141193,3.1596987,1.5394993
-27.191269,3.1613991,1.5425959
-27.238747,3.1609013,1.5410733
-27.272089,3.1467912,1.5108991
-27.442627,3.2230532,1.6705923
-27.557236,3.2937572,1.8190727
-27.577705,3.2684867,1.7654371
-27.620438,3.266303,1.7604318
-27.663507,3.2646387,1.7565279
-27.709427,3.2662947,1.7596273
-27.755566,3.2684877,1.7638655
-27.7977,3.2664006,1.7590938
-27.835335,3.2591975,1.7435508
-27.865303,3.2428102,1.7086596
-27.87702,3.2038388,1.6261787
-27.891405,3.1668544,1.5478835
-27.912231,3.136744,1.4840746
-27.92343,3.0932164,1.3919854
-27.91877,3.0272264,1.2525463
-27.920778,2.967643,1.126605
-27.922033,2.9046907,0.99355555
-27.91041,2.821142,0.81707907
-27.928572,2.776845,0.7233467
-27.933348,2.7111356,0.58446693
-38.019802,2.5944273,0.40938568
-38.027515,2.6316457,0.48870468
-38.05242,2.6612673,0.55216646
-38.064472,2.6959713,0.6262307
-38.08818,2.725571,0.68964624
-38.142776,2.742491,0.7266264
-38.14863,2.778915,0.8042717
-38.15595,2.8143766,0.87990475
-38.15808,2.8514957,0.9589839
-38.221523,2.8646607,0.98816776
-38.284122,2.878325,1.0184073
-38.58248,2.803754,0.8650117
-38.670433,2.8094342,0.87872887
-38.7738,2.8098617,0.8815479
-38.821392,2.83097,0.927413
-38.853256,2.8577209,0.98502064
-38.88932,2.8828793,1.0393224
-38.936672,2.904036,1.0853162
-38.98608,2.9245145,1.1299143
-39.039154,2.943798,1.1720438
-39.0912,2.9635098,1.2150769
-39.19704,2.9654582,1.2212687
-39.283173,2.9743798,1.2419648
-39.39263,2.976112,1.2477846
-39.503967,2.9777842,1.2535253
-39.63095,2.9750702,1.2502222
-39.881905,2.934413,1.1683898
-40.247,2.8602855,1.0173798
-40.438213,2.841467,0.9810028
-40.55207,2.8469756,0.9950371
-40.47344,2.9099913,1.128027
-40.51796,2.9360907,1.1846638
-40.619637,2.9457126,1.2072725
-41.14837,2.8341808,0.9797363
-41.309906,2.8294315,0.97288036
-41.45424,2.8303158,0.97772455
-41.612484,2.8281188,0.97627974
-41.80944,2.8162873,0.95505285
-41.870552,2.8417568,1.0107665
-41.951054,2.8622446,1.0562449
-42.036545,2.8816953,1.0996222
-42.11499,2.9032407,1.1473441
-42.121353,2.943228,1.2330103
-42.33647,2.9309754,1.211338
-42.888992,2.8370414,1.0220551
-42.99122,2.8556342,1.0640149
-43.18644,2.852411,1.0612807
-42.99013,2.9423923,1.2496886
-43.351273,2.901376,1.1696334
-43.418697,2.929675,1.2316785
-43.545383,2.9447691,1.2667403
-43.70957,2.9520764,1.285953
-43.941147,2.9454184,1.2767296
-44.157204,2.9433308,1.2769723
-44.37828,2.9412901,1.2774401
-44.57279,2.945951,1.2917004
-44.81384,2.9419785,1.2884974
-45.06002,2.9382172,1.2858744
-45.222992,2.9523673,1.3198242
-45.475586,2.9496317,1.3195729
-45.699448,2.9537656,1.3334274
-45.86126,2.9708467,1.3736835
-46.028633,2.987617,1.4134116
-46.256073,2.9940705,1.4323716
-46.463497,3.0052834,1.4611077
-46.635887,3.0237489,1.5046358
-46.947815,3.0185194,1.5004764
-47.191437,3.0266883,1.5235486
-47.47931,3.0285625,1.5341272
-47.820137,3.0230782,1.530128
-48.08657,3.031529,1.5543761
-48.427685,3.029305,1.5574217
-48.737373,3.0337892,1.5741763
-49.0447,3.0402021,1.5950379
-49.41779,3.0381646,1.5992751
-49.775414,3.0403483,1.612246
-50.146904,3.0423224,1.6251073
-50.467514,3.0534782,1.6565471
-50.886787,3.052369,1.663928
-51.256996,3.0601592,1.6893249
-51.754128,3.052699,1.6849027
-52.173416,3.0580864,1.7063189
-52.606697,3.063789,1.7287631
-53.118538,3.0617542,1.736424
-53.598324,3.0663075,1.7575321
-54.20144,3.0583916,1.7547274
-54.673843,3.069027,1.7888007
-6.862797,2.529358,0.26272917
-7.639141,2.5789347,0.36187696
-8.162601,2.5939484,0.38896942
-9.03266,2.6658669,0.5354309
-9.406467,2.663609,0.5267639
-9.455767,2.6106656,0.41195202
-10.316273,2.6916034,0.57801294
-10.352585,2.5798984,0.3364992
-12.082642,2.7672215,0.7235246
-12.091766,2.71421,0.60902023
-12.074163,2.6560767,0.4837346
-12.051157,2.5965383,0.35548067
-12.036528,2.538146,0.22962332
-20.339567,3.2549102,1.6958518
-20.183987,3.1752326,1.5256209
-20.34172,3.1829662,1.5408616
-19.964077,3.0377307,1.2314258
-19.989904,3.0068011,1.1645823
-20.202894,3.0309439,1.214685
-20.424637,3.0590053,1.2731543
-20.527004,3.0523236,1.2578654
-20.66167,3.056011,1.2646255
-20.8589,3.079851,1.3142338
-20.935244,3.0669048,1.2856979
-21.623817,3.1446235,1.4470873
-21.682724,3.1288178,1.412569
-21.763668,3.1206355,1.3942752
-21.87722,3.123985,1.4005308
-21.993462,3.128889,1.4101119
-22.09616,3.1296742,1.4109483
-22.18551,3.1262374,1.4028139
-22.281525,3.125631,1.4007177
-22.393951,3.1315067,1.4124393
-22.497618,3.1347847,1.4186478
-22.5979,3.1373663,1.423389
-22.69783,3.1403575,1.4290175
-22.795908,3.1431863,1.4343171
-22.888462,3.1444075,1.4362063
-22.979244,3.1454217,1.4376688
-23.071188,3.1473775,1.4411511
-23.162811,3.149701,1.4454303
-23.251944,3.1515071,1.4486208
-23.345068,3.1554425,1.4563622
-23.426418,3.1549857,1.4547534
-23.516033,3.1584382,1.4614916
-23.604597,3.1619444,1.4683571
-23.683018,3.1615546,1.466927
-23.766077,3.1635988,1.4706984
-23.841238,3.1625898,1.467968
-23.929922,3.1680346,1.4790158
-24.018898,3.1741416,1.491487
-24.087141,3.1712358,1.4847426
-24.163992,3.172658,1.4872413
-24.233894,3.1712139,1.483633
-24.322205,3.1789098,1.4995394
-24.38041,3.1725996,1.4855642
-24.475893,3.1847646,1.5110302
-24.553265,3.188611,1.518753
-24.62386,3.189511,1.5201955
-24.68974,3.1883898,1.5173302
-24.757355,3.1884859,1.5170727
-24.82666,3.189812,1.5194497
-24.885706,3.1861014,1.5110798
-24.973877,3.198204,1.5364861
-25.044233,3.2013092,1.5426879
-25.091057,3.1919286,1.5222301
-25.1756,3.203576,1.5466924
-25.232521,3.2003217,1.5393329
-25.284575,3.194537,1.5265737
-25.376892,3.212142,1.5637918
-25.423294,3.2037015,1.5453706
-25.461609,3.1905723,1.5169368
-25.53943,3.1649442,1.4614263
-27.468588,3.2853057,1.7095938
-27.496338,3.2671337,1.670507
-27.545729,3.270941,1.6784697
-27.597897,3.2780426,1.6934886
-27.639107,3.273896,1.684433
-27.684685,3.274596,1.6857557
-27.726944,3.2718706,1.679748
-27.776546,3.277586,1.6918159
-27.820726,3.2774959,1.6914582
-27.849579,3.2596152,1.6530147
-27.86921,3.23021,1.5898986
-27.885029,3.1952078,1.5147991
-27.905315,3.1645947,1.4490952
-27.91473,3.1191258,1.3515844
-27.917023,3.0627394,1.2306938
-27.917524,3.001826,1.1001081
-27.91733,2.937578,0.962378
-27.911905,2.863509,0.80361414
-27.942616,2.837545,0.7478614
-27.929976,2.7478607,0.5556536
-38.038837,2.643911,0.36480093
-38.033817,2.686237,0.4557705
-38.055172,2.7171915,0.52249336
-38.08821,2.743143,0.5785556
-38.13388,2.763894,0.62353706
-38.125122,2.8062024,0.71445656
-38.185307,2.8209984,0.74675226
-38.17361,2.8637266,0.8385606
-38.24279,2.8750288,0.86342335
-38.26108,2.9057589,0.92967224
-38.319386,2.921335,0.9636502
-38.57559,2.8641846,0.8427825
-38.658188,2.8720772,0.86043644
-38.769894,2.8698525,0.8565669
-38.82054,2.889882,0.90008116
-38.85395,2.916007,0.95657253
-38.88925,2.9413843,1.0114756
-38.933487,2.963632,1.0597234
-38.98445,2.9836152,1.103159
-39.057987,2.9961388,1.1307344
-39.11962,3.012836,1.1671972
-39.21924,3.0173388,1.1777396
-39.311867,3.0245514,1.1940608
-39.41985,3.0273006,1.2009101
-39.543396,3.0257056,1.198545
-39.68351,3.0196345,1.1866937
-40.017605,2.9551432,1.0507545
-40.37839,2.8848848,0.90263796
-40.425034,2.910495,0.9581976
-40.520718,2.9217281,0.9832349
-40.635468,2.9278293,0.99739504
-40.806057,2.9184966,0.9788189
-40.906414,2.929934,1.0043535
-41.143288,2.903764,0.9501157
-41.257744,2.912665,0.9703231
-41.439003,2.9039595,0.9532151
-41.609047,2.8992484,0.94461536
-41.733715,2.9074235,0.96336937
-41.862827,2.9150147,0.98091173
-41.927032,2.9398882,1.0351014
-41.987503,2.9658504,1.0916085
-42.10202,2.978422,1.1197648
-42.22873,2.9884822,1.1426301
-42.39121,2.990424,1.1483335
-42.956123,2.8967304,0.9516797
-43.12947,2.8990932,0.958406
-43.217155,2.9222784,1.0092168
-43.269405,2.9538918,1.0778689
-43.336243,2.982262,1.1396732
-43.52511,2.9835787,1.1443157
-43.65392,2.9990473,1.178906
-45.05548,2.883196,0.94258547
-45.099358,2.9215577,1.0257602
-45.6296,2.9109526,1.0080652
-46.838974,2.9296389,1.0603242
-46.910652,2.9674623,1.1426678
-48.528305,2.733552,0.6539507
-47.735405,2.9258332,1.0610547
-47.8231,2.9634957,1.1432338
-48.06604,2.9755113,1.1716151
-48.600815,2.940865,1.1022058
-48.670753,2.983962,1.195962
-49.01236,2.9842732,1.2000928
-49.41388,2.9770355,1.1885386
-49.767235,2.979219,1.1968484
-50.24593,2.9644814,1.1699009
-50.52308,2.9817805,1.2100949
-50.92474,2.9825442,1.2158575
-51.30903,2.9878085,1.2311716
-51.50048,3.0216105,1.3061609
-51.9084,3.0270212,1.3220525
-52.185886,3.0517502,1.3783464
-52.650265,3.0536175,1.3871827
-53.18254,3.049257,1.3832765
-53.668587,3.0533643,1.3971987
-54.182285,3.0566003,1.409534
-54.63784,3.0693355,1.4418054
-10.281652,2.6887107,0.24380112
-20.416891,3.30654,1.6280026
-20.289043,3.2352562,1.4725256
-20.273169,3.1941512,1.3830905
-20.481808,3.2164698,1.4324121
-20.484753,3.1807818,1.3548236
-20.096382,3.0305517,1.0266919
-20.243366,3.0353837,1.0377512
-20.338707,3.0255413,1.0167046
-20.497765,3.035449,1.0388412
-20.653738,3.045319,1.060883
-20.909897,3.087296,1.1531162
-20.974834,3.0706446,1.1171403
-21.617348,3.132922,1.2549186
-21.687283,3.1204622,1.2280693
-21.77583,3.1145787,1.2155876
-21.895798,3.1199272,1.2276468
-22.000729,3.120701,1.229701
-22.10532,3.1219058,1.2326889
-22.217901,3.1265247,1.2431293
-22.323252,3.1291535,1.2492142
-22.430468,3.133041,1.2580419
-22.536524,3.137094,1.2672243
-22.631035,3.1373978,1.2682071
-22.719345,3.1358309,1.2650995
-22.828686,3.1428142,1.2806625
-22.923676,3.1448407,1.2853913
-23.015423,3.1461015,1.2884398
-23.105415,3.1471486,1.291018
-23.200119,3.1505835,1.2988048
-23.292316,3.1535213,1.3054991
-23.378492,3.1544733,1.3078523
-23.479862,3.1622689,1.3251433
-23.532484,3.1499424,1.2984915
-23.652628,3.1668227,1.335609
-23.740253,3.170358,1.3435812
-23.81655,3.16939,1.3417163
-23.88922,3.1671839,1.337143
-23.967129,3.1676962,1.3385015
-24.047474,3.1697354,1.3431892
-24.14556,3.1804485,1.366807
-24.21921,3.1803405,1.3667974
-24.299881,3.1839519,1.3749018
-24.364517,3.1803107,1.3671727
-24.429688,3.1772137,1.3606272
-24.502466,3.1781654,1.3629155
-24.57948,3.1816251,1.3706727
-24.650455,3.1824794,1.3727412
-24.726238,3.186179,1.3810143
-24.791685,3.1849635,1.3785582
-24.861311,3.1862648,1.3815904
-24.931925,3.1884742,1.3866005
-25.00166,3.1906104,1.3914475
-25.06992,3.1923373,1.3953986
-25.136127,3.1933117,1.3977032
-25.20211,3.1945202,1.400516
-25.271418,3.1979778,1.4082317
-25.333391,3.1976376,1.40766
-25.399261,3.199883,1.4127254
-25.466038,3.2030418,1.4197812
-25.527962,3.2037046,1.4213877
-25.58572,3.2021773,1.4182134
-25.65065,3.2053237,1.4252329
-25.712528,3.2069678,1.4289713
-25.779152,3.2119534,1.4399967
-25.8389,3.2129889,1.4424005
-25.899534,3.2149265,1.446773
-25.95834,3.2160168,1.4492922
-26.012701,3.214479,1.4460769
-26.07063,3.2155976,1.4486542
-26.126284,3.2154863,1.4485455
-26.189,3.2205572,1.4597378
-26.247332,3.222978,1.4651465
-26.300396,3.2219963,1.4631324
-26.355337,3.2226276,1.4646335
-26.412088,3.2248862,1.4696827
-26.46863,3.227332,1.4751368
-26.522537,3.2281406,1.4770184
-26.579151,3.231319,1.4840646
-26.63553,3.2346835,1.4915161
-26.68934,3.236392,1.4953532
-26.740194,3.2360547,1.4947271
-26.79412,3.238472,1.5001049
-26.840183,3.2347362,1.4920654
-26.905376,3.2471838,1.5193114
-26.947643,3.2407696,1.5054264
-27.00735,3.249489,1.5245385
-27.0521,3.2456074,1.5161724
-27.102345,3.2467625,1.5187879
-27.149931,3.2458007,1.5167837
-27.20279,3.2499177,1.5258527
-27.25541,3.2542036,1.5352874
-27.309395,3.2601845,1.5484152
-27.356771,3.2602124,1.5485625
-27.40209,3.2584608,1.5448294
-27.455032,3.2645395,1.5581646
-27.500881,3.2638402,1.5567217
-27.543295,3.2597923,1.5479774
-27.595634,3.2663321,1.5623121
-27.63757,3.2621515,1.5532756
-27.683437,3.2623715,1.5538306
-27.730604,3.264287,1.5580797
-27.777277,3.2659514,1.5617795
-27.824484,3.2685373,1.5674882
-27.841276,3.2354774,1.495492
-27.867119,3.212255,1.444941
-27.884254,3.1776104,1.3694911
-27.90012,3.1401803,1.2879691
-27.911125,3.095193,1.1899748
-27.912756,3.0362496,1.0615611
-27.916039,2.9772086,0.93293524
-27.917767,2.9136877,0.7945461
-27.93328,2.8668487,0.69252014
-27.924904,2.783945,0.51188517
-38.079422,2.734486,0.39021826
-38.0895,2.7699695,0.46738958
-38.114746,2.7990572,0.53059435
-38.136528,2.8292954,0.59631205
-38.16577,2.8564045,0.65519524
-38.19526,2.8832629,0.7135291
-38.26274,2.8955977,0.74013615
-38.38672,2.8870323,0.7210784
-38.351883,2.9378026,0.8316469
-38.45429,2.9378238,0.83134127
-38.54944,2.9409811,0.83788013
-38.639492,2.9464054,0.8493643
-38.726646,2.9532514,0.8639517
-38.833893,2.953506,0.8641281
-38.868874,2.9790518,0.9195709
-38.92051,2.9988904,0.96253777
-38.985928,3.0141935,0.9955902
-39.200134,2.9806247,0.9218073
-39.296745,2.9867616,0.9348054
-39.396687,2.9922643,0.94641066
-39.511917,2.9933746,0.94840574
-39.657818,2.9854555,0.9306488
-40.050636,2.9019737,0.74765253
-40.05292,2.9405198,0.8314705
-39.916004,3.020697,1.0063348
-40.120285,2.9979372,0.95608044
-40.248016,2.9989073,0.95771074
-40.336716,3.0118356,0.98548985
-40.50286,3.002955,0.9655509
-40.610912,3.011399,0.9835019
-40.778088,3.0038564,0.966465
-40.89417,3.0112772,0.9821558
-41.036392,3.012142,0.98349047
-41.17648,3.014302,0.9876466
-41.34561,3.0094953,0.97654104
-41.466156,3.0182438,0.99509287
-41.653217,3.0104613,0.9774442
-41.78885,3.0167222,0.99052334
-41.984726,3.0085838,0.9720621
-42.200203,2.9966807,0.9453373
-42.406124,2.9882905,0.9262843
-42.58935,2.9864478,0.92155075
-42.881775,2.9597862,0.8624325
-43.0254,2.9694245,0.8828082
-43.131577,2.9883187,0.9234481
-43.23681,3.0078435,0.9654603
-43.92536,2.8979154,0.72376204
-43.95364,2.9370587,0.8087177
-44.070877,2.9568734,0.85130405
-44.114204,2.9928944,0.9294081
-45.55763,2.8829339,0.68452215
-45.607452,2.921698,0.7685466
-45.604168,2.9707813,0.87521076
-45.88896,2.9646573,0.8607178
-46.14445,2.9655232,0.86153126
-46.46081,2.9564679,0.8405318
-46.734074,2.956902,0.8403268
-47.00059,2.9599378,0.8458004
-47.331192,2.953092,0.82953167
-47.683876,2.944174,0.8086648
-47.907875,2.9588933,0.8396888
-48.223976,2.959373,0.8393855
-48.465385,2.9736702,0.8694129
-48.794724,2.9750395,0.87097883
-49.21911,2.9631295,0.8432903
-49.72325,2.9411325,0.7933464
-49.824997,2.9828088,0.8834281
-50.20576,2.983344,0.88294697
-50.34204,3.021468,0.9651575
-51.261497,2.948224,0.80210304
-51.397743,2.9896705,0.891521
-51.613297,3.0207675,0.9581146
-52.494446,2.9634428,0.82978535
-54.069893,2.8195753,0.51048994
-54.111397,2.8817194,0.64525175
-54.04389,2.95756,0.8102293
-53.98369,3.0318747,0.9718547
-54.218857,3.070087,1.0537896
-20.495377,3.323412,1.4949918
-20.122635,3.0318599,0.8492274
-20.311735,3.0490177,0.8898597
-20.498302,3.066549,0.93126297
-20.608685,3.062023,0.92304087
-20.674984,3.0444388,0.8854523
-20.936562,3.0880225,0.9852023
-21.02513,3.0786378,0.9659457
-21.647875,3.1342335,1.0975289
-21.731506,3.1262078,1.0811434
-21.831902,3.12426,1.0783582
-21.947264,3.1279924,1.0882716
-22.069008,3.1345975,1.1045866
-22.1608,3.1312804,1.09864
-22.259127,3.1307511,1.0989103
-22.369835,3.1352315,1.1103702
-22.466734,3.1352496,1.1118088
-22.58325,3.1430883,1.1307211
-22.686012,3.1464264,1.1395297
-22.772316,3.144043,1.1355133
-22.87436,3.1481748,1.1460423
-22.968048,3.1496096,1.1505146
-23.061403,3.1514168,1.1557941
-23.14943,3.151589,1.1573944
-23.238586,3.1526804,1.161026
-23.343622,3.1607938,1.1803241
-23.423653,3.1591203,1.1777301
-23.514585,3.1624484,1.1862874
-23.604462,3.16584,1.1949635
-23.67887,3.163044,1.1898022
-23.769468,3.1676986,1.2012563
-23.852898,3.1697025,1.20677
-23.936012,3.1720264,1.2129779
-24.026157,3.1780157,1.2273436
-24.107912,3.1806884,1.2342882
-24.181433,3.1799815,1.233676
-24.261936,3.182947,1.2412367
-24.334965,3.182797,1.2418318
-24.407764,3.1829152,1.2430081
-24.486095,3.1861284,1.2510672
-24.56601,3.1905835,1.2618775
-24.638624,3.1918488,1.2655602
-24.715988,3.1959336,1.2755084
-24.777477,3.1922882,1.268218
-24.86291,3.2014246,1.2893887
-24.9191,3.1956663,1.2773638
-24.997105,3.2018094,1.2918334
-25.056656,3.1984334,1.285089
-25.120882,3.1978858,1.2846298
-25.18907,3.1998723,1.2897992
-25.259933,3.2037609,1.2991886
-25.32816,3.2065732,1.306169
-25.39899,3.2113035,1.3174014
-25.45919,3.21024,1.3157282
-25.522638,3.2114053,1.3190026
-25.58418,3.2117727,1.3204899
-25.651655,3.2160962,1.3307643
-25.707783,3.213821,1.3263493
-25.773643,3.217908,1.3360729
-25.834873,3.2194695,1.3401685
-25.900177,3.2240088,1.3508725
-25.956139,3.22287,1.3489404
-26.015652,3.224355,1.3528309
-26.079124,3.228842,1.3633838
-26.130955,3.2258153,1.3572235
-26.191902,3.2293005,1.3655281
-26.246525,3.228744,1.3648386
-26.30151,3.228717,1.3653173
-26.360296,3.231722,1.3725224
-26.421778,3.237071,1.3849254
-26.475208,3.2368827,1.385015
-26.524193,3.23362,1.3782663
-26.5807,3.2362905,1.3846889
-26.63745,3.2395089,1.3923192
-26.68888,3.238909,1.3914595
-26.74339,3.2410254,1.3966231
-26.797247,3.24295,1.4013524
-26.83843,3.234754,1.3836007
-26.891617,3.2366211,1.388186
-26.943312,3.2375464,1.3906713
-26.993994,3.2378905,1.3918581
-27.045387,3.239134,1.3950338
-27.097454,3.241283,1.4002109
-27.149336,3.2435946,1.4057398
-27.204693,3.2494454,1.4191155
-27.260557,3.2562284,1.4345503
-27.315313,3.2624395,1.4487066
-27.363138,3.2623947,1.4489751
-27.413546,3.2651477,1.4554415
-27.459595,3.2638721,1.4529638
-27.506695,3.263873,1.4533105
-27.561403,3.2720392,1.4717636
-27.60817,3.2723358,1.4727516
-27.654825,3.2727687,1.4740362
-27.70102,3.272953,1.4747615
-27.74883,3.275201,1.4800577
-27.795465,3.276431,1.483088
-27.826323,3.2595785,1.446012
-27.848436,3.2319036,1.3849349
-27.875782,3.20969,1.3359675
-27.874367,3.1512308,1.2066293
-27.887611,3.10908,1.1134567
-27.906584,3.0727663,1.0332279
-27.907188,3.01093,0.8964138
-27.908384,2.9474142,0.7558837
-27.924839,2.9023123,0.6561775
-27.914244,2.8173127,0.46803093
-38.1293,2.812837,0.3983631
-38.136757,2.8489158,0.477643
-38.17108,2.874264,0.532928
-38.215927,2.8954933,0.57899475
-38.25751,2.9179394,0.6277766
-38.30466,2.938284,0.6718488
-38.382755,2.9473026,0.6905594
-38.39135,2.9817824,0.7662573
-38.469917,2.9909236,0.7852144
-38.65891,2.9613934,0.7175255
-38.738155,2.9713972,0.73835325
-38.819733,2.9809034,0.75804424
-38.864502,3.003241,0.8064761
-38.983036,3.0008292,0.799407
-39.089577,3.003025,0.80263376
-39.16444,3.0161104,0.83025694
-39.397507,2.978359,0.74378633
-39.59191,2.9544945,0.6884017
-39.679047,2.9656215,0.7115116
-39.723305,2.9904149,0.76528645
-40.01869,2.9381843,0.64602184
-40.062565,2.9640887,0.70222616
-40.041595,3.009363,0.80195904
-40.20095,3.0009477,0.78099155
-40.294292,3.0126386,0.8051901
-40.42769,3.0132048,0.80432796
-40.58115,3.0087657,0.79215336
-40.698917,3.015134,0.8042555
-40.81029,3.023819,0.8215327
-41.014,3.007873,0.78327894
-41.147736,3.0118923,0.78994226
-41.306896,3.0098326,0.78285074
-41.459835,3.0102336,0.7812476
-41.587044,3.018048,0.7963114
-41.728874,3.0227423,0.80428505
-41.95265,3.0075967,0.7674022
-42.633995,2.8806663,0.47789383
-42.655666,2.9188592,0.56125975
-42.63627,2.9667485,0.66654825
-42.727253,2.9880686,0.71175814
-42.92722,2.9842818,0.70011616
-43.08,2.992398,0.7153363
-43.524345,2.9351928,0.58252764
-43.82304,2.9131708,0.5292387
-43.937656,2.9333072,0.57140255
-43.97116,2.9714696,0.65441465
-44.23387,2.9606633,0.62626743
-45.69807,2.9470634,0.5712471
-45.973244,2.9432695,0.55815315
-46.161297,2.9572783,0.58551645
-46.460384,2.9516616,0.5679898
-46.72112,2.9545815,0.56979704
-47.00161,2.955299,0.56642675
-47.31572,2.9515524,0.55268717
-47.518585,2.9686334,0.5864425
-47.88276,2.9593275,0.5596323
-48.208233,2.958386,0.55178404
-48.602013,2.9479537,0.52195644
-48.704597,2.9863462,0.60402966
-49.147156,2.9715083,0.563673
-49.524734,2.9690652,0.55155134
-49.760185,2.990136,0.59334517
-50.06697,3.0017087,0.6130886
-50.704662,2.9665353,0.5247307
-50.96695,2.9884741,0.56788826
-51.36142,2.9931471,0.5709281
-51.93615,2.9750907,0.5210428
-52.25284,2.9947412,0.55816746
-52.573616,3.0154026,0.59740496
-54.13456,2.878014,0.2689662
-54.092476,2.9509852,0.42898226
-54.26487,2.9970655,0.5263624
-12.15093,3.000907,0.35865545
-19.90524,2.9980717,0.58500195
-19.855583,2.943717,0.46313524
-19.88644,2.9125607,0.39490747
-20.328207,3.0051107,0.6122799
-20.641361,3.0615418,0.74600744
-20.795269,3.0708647,0.7708788
-20.976772,3.0897262,0.8176465
-21.1143,3.0957506,0.8347254
-21.213137,3.0901043,0.8248472
-21.370602,3.1040232,0.8599534
-21.545748,3.1247368,0.9106016
-21.673145,3.1306078,0.92701006
-21.762651,3.1243696,0.9155097
-21.877777,3.1273232,0.9250865
-21.99699,3.1323276,0.939312
-22.111954,3.136511,0.95159006
-22.220478,3.1390457,0.960022
-22.309298,3.135062,0.95344305
-22.425215,3.1414025,0.9704981
-22.519331,3.140349,0.9705429
-22.624102,3.1437695,0.9807944
-22.71975,3.144312,0.9844012
-22.82372,3.148561,0.9964485
-22.920803,3.1507204,1.0036621
-23.021791,3.154952,1.0155721
-23.120224,3.1587434,1.0264244
-23.20417,3.1572378,1.0251174
-23.311657,3.1657887,1.0467634
-23.403994,3.1687295,1.0555353
-23.489052,3.1691349,1.0584726
-23.579311,3.1721997,1.0674481
-23.65761,3.1706293,1.0657973
-23.7472,3.1743696,1.0762358
-23.829681,3.1754897,1.080656
-23.905182,3.1739373,1.0789447
-23.988436,3.1762674,1.0860548
-24.068066,3.1774042,1.0904102
-24.1461,3.1782327,1.0940299
-24.239452,3.1866834,1.1149845
-24.321335,3.1902819,1.124846
-24.407347,3.1963534,1.1403046
-24.464327,3.1887894,1.124681
-24.534554,3.1879616,1.1243715
-24.613964,3.1920905,1.135315
-24.69675,3.198409,1.1512094
-24.761852,3.1961725,1.1476083
-24.834751,3.1983008,1.1539106
-24.909792,3.2019744,1.1636992
-24.985708,3.2065678,1.1755486
-25.045149,3.2027202,1.1681838
-25.119892,3.2075086,1.1804228
-25.19017,3.2102897,1.1880732
-25.25259,3.2090642,1.1865983
-25.315422,3.2083805,1.1863308
-25.381508,3.209895,1.1910319
-25.45586,3.2166216,1.2075405
-25.512947,3.2136168,1.2019367
-25.574951,3.213812,1.2035751
-25.641174,3.2169092,1.2117753
-25.704382,3.218549,1.2166476
-25.77169,3.2231193,1.2281427
-25.836533,3.226566,1.2370663
-25.90003,3.2295537,1.2449284
-25.954317,3.2269247,1.2400384
-26.014763,3.2286022,1.2448916
-26.075502,3.23083,1.2509704
-26.137028,3.2339568,1.2590666
-26.193241,3.2338068,1.2597194
-26.248297,3.2331388,1.2591825
-26.305685,3.2344022,1.2630019
-26.360432,3.2340915,1.2632403
-26.422287,3.239261,1.2758651
-26.47283,3.2364776,1.270472
-26.529455,3.2384777,1.2758889
-26.586338,3.2410185,1.2825117
-26.63699,3.2390847,1.2789941
-26.68984,3.2391028,1.2798767
-26.746607,3.2425342,1.2884641
-26.799564,3.243254,1.2909017
-26.854124,3.245592,1.2969851
-26.907175,3.2470114,1.3009734
-26.965197,3.2529817,1.3152342
-27.011469,3.2492483,1.3075442
-27.066088,3.2529986,1.3167553
-27.11799,3.2547112,1.3213463
-27.170532,3.2573237,1.3279567
-27.215647,3.2534273,1.3198452
-27.266697,3.2552335,1.3246055
-27.321081,3.2605507,1.3372827
-27.375957,3.2667897,1.3520241
-27.42485,3.267583,1.3544526
-27.471743,3.266644,1.3529572
-27.52186,3.2692306,1.3594089
-27.57685,3.2772555,1.3781252
-27.623665,3.2771301,1.3784275
-27.66898,3.2756228,1.375598
-27.716993,3.2772865,1.3799138
-27.762823,3.2768044,1.3793745
-27.811234,3.2795098,1.3860164
-27.82317,3.2398555,1.2970691
-27.859982,3.2285566,1.2720985
-27.872128,3.1869605,1.1787715
-27.880798,3.139541,1.0723133
-27.89264,3.0943768,0.9709463
-27.902182,3.0445218,0.8590045
-27.913435,2.9949932,0.74780464
-27.938976,2.9628906,0.6759043
-27.853304,2.775142,0.2530365
-38.20218,2.8858314,0.39375782
-38.247055,2.9074082,0.44064188
-38.312805,2.9211853,0.46963453
-38.454964,2.9070113,0.434515
-38.55499,2.9090486,0.43650246
-38.64934,2.9136171,0.44424772
-38.720715,2.9267695,0.47164965
-38.78226,2.9435904,0.5074458
-38.805843,2.9736714,0.573679
-38.828865,3.0037549,0.6399174
-38.942986,3.002953,0.6351409
-39.015255,3.0166693,0.6636987
-39.163876,3.005551,0.6350703
-39.2271,3.0229912,0.6721058
-39.372013,3.014449,0.64926434
-39.464294,3.0233605,0.6665616
-39.715687,2.9830577,0.5703349
-39.792324,2.9982073,0.6018653
-40.07789,2.9501603,0.48749733
-40.01644,3.0080378,0.6175432
-40.303318,2.9620423,0.50765705
-40.444576,2.9604442,0.5002084
-40.48676,2.9881246,0.56039286
-40.543148,3.0117435,0.61116505
-40.68415,3.0117273,0.6071806
-40.829685,3.011186,0.6018872
-41.00779,3.0025117,0.57764673
-41.151047,3.0042083,0.57734203
-41.288895,3.0080678,0.581964
-41.441254,3.008807,0.5792451
-41.599075,3.0089161,0.57495975
-41.739716,3.0142133,0.5826292
-41.94733,3.0033805,0.5526624
-42.514927,2.904596,0.3176875
-42.557175,2.9376774,0.38961744
-42.65525,2.957304,0.4301448
-42.696693,2.9907188,0.50279665
-42.96463,2.9711885,0.45174265
-42.999836,3.0067623,0.52931166
-43.204224,3.0038903,0.5169072
-43.687355,2.9397943,0.36095905
-43.79104,2.9621637,0.4072647
-43.970734,2.9684358,0.4157338
-44.295692,2.9445748,0.3532982
-44.25285,2.999882,0.4766574
-49.09929,2.9809084,0.28470612
-49.39235,2.991673,0.29910088
-49.99281,2.9572997,0.20449066
-50.32112,2.966639,0.21457958
-50.670563,2.974548,0.2208252
-50.79679,3.0161057,0.30809355
-51.45769,2.983306,0.21490383
-51.833595,2.9931173,0.22439528
-52.238426,3.0009432,0.22856998
-52.593884,3.0173068,0.2530465
-0.6959019,3.4461663,0.5427761
-1.8864822,3.471534,0.6539264
-2.5135403,3.4518964,0.63994646
-3.2353706,3.4443173,0.6568141
-20.296587,3.0204723,0.47158432
-20.403187,3.013372,0.45980024
-20.492298,3.0013974,0.43640232
-20.834633,3.068495,0.5998368
-21.016521,3.0874906,0.6493368
-21.149418,3.091989,0.6644573
-21.276384,3.0953097,0.6766925
-21.508587,3.1337984,0.7717333
-21.591324,3.124295,0.7535033
-21.706589,3.1260614,0.76175165
-21.823692,3.1290758,0.7728472
-21.92383,3.1268833,0.7716088
-22.046806,3.1331718,0.7902317
-22.153648,3.1344624,0.7970209
-22.259365,3.135923,0.8041291
-22.374962,3.141541,0.82091904
-22.482748,3.144956,0.83245564
-22.576313,3.1436787,0.8329158
-22.674633,3.1446712,0.8386307
-22.794106,3.1542706,0.8644314
-22.873053,3.148931,0.85518265
-22.96106,3.1474924,0.8550091
-23.102999,3.1678991,0.9058571
-23.17684,3.1619337,0.8949652
-23.283236,3.1695318,0.91571474
-23.358707,3.1650374,0.90815496
-23.456673,3.1702712,0.92325497
-23.539865,3.1698427,0.9250822
-23.620758,3.1688597,0.9255638
-23.703415,3.1690555,0.9287429
-23.794477,3.1733775,0.94148636
-23.874512,3.173333,0.94400215
-23.964823,3.1783369,0.9582243
-24.05144,3.1822,0.9697356
-24.127928,3.181893,0.97149324
-24.208683,3.1839812,0.978775
-24.285275,3.1845508,0.9824805
-24.367317,3.188149,0.9931803
-24.46225,3.1984994,1.019517
-24.53157,3.1968906,1.018024
-24.602566,3.1964571,1.0192218
-24.67827,3.1987705,1.0267553
-24.734095,3.1913404,1.0116434
-24.8239,3.2017117,1.0377874
-24.892689,3.2016802,1.0397615
-24.975584,3.2095187,1.0599394
-25.046173,3.211286,1.0660038
-25.110619,3.2100966,1.0651832
-25.186527,3.2155762,1.079771
-25.252245,3.21583,1.0822215
-25.316029,3.2153354,1.0829067
-25.377354,3.2137518,1.0810418
-25.446396,3.2169697,1.09025
-25.506224,3.215157,1.0877929
-25.576948,3.2201645,1.1010728
-25.640217,3.221103,1.1049128
-25.702723,3.221923,1.108449
-25.759651,3.2196019,1.1046991
-25.82762,3.224535,1.1176739
-25.898933,3.2320738,1.136632
-25.951088,3.2276514,1.1279469
-26.012478,3.2295213,1.1337585
-26.070065,3.2292037,1.1344953
-26.136074,3.2349102,1.1491003
-26.197239,3.2377453,1.157052
-26.253204,3.2373264,1.1574745
-26.312931,3.2398643,1.1646872
-26.375801,3.24504,1.1779513
-26.428308,3.243087,1.1747622
-26.484503,3.2441034,1.17839
-26.541914,3.246356,1.1848431
-26.5991,3.248796,1.1917009
-26.650585,3.2471676,1.189168
-26.710993,3.2528093,1.2033477
-26.768408,3.2565126,1.2130394
-26.820284,3.2561085,1.2132554
-26.86899,3.2533495,1.2080336
-26.915497,3.2489333,1.1989808
-26.977253,3.2576535,1.2201209
-27.032753,3.2615104,1.2300501
-27.082642,3.2608209,1.2295055
-27.135675,3.2631962,1.2359858
-27.182894,3.2606196,1.2310648
-27.232834,3.2607453,1.2323341
-27.289278,3.2672672,1.2482805
-27.3454,3.2739723,1.2646236
-27.396275,3.2760553,1.2703276
-27.446968,3.2782936,1.2763672
-27.499683,3.2829137,1.2878575
-27.550337,3.2858367,1.2954307
-27.598656,3.2866745,1.2981958
-27.648243,3.2891505,1.3047051
-27.694893,3.2887757,1.3046527
-27.740437,3.2874062,1.3023014
-27.779932,3.2793832,1.284668
-27.80094,3.2499313,1.217866
-27.83014,3.2291875,1.1710362
-27.872494,3.2236588,1.1590972
-27.87902,3.1741483,1.0462875
-27.875742,3.1104717,0.9010048
-27.898148,3.077204,0.82545424
-27.918856,3.0404973,0.7420206
-27.919716,2.9758139,0.59446
-38.41456,2.9813044,0.44318724
-38.512123,2.984408,0.44663906
-38.62928,2.9810882,0.43492794
-38.709503,2.9912448,0.45481062
-38.861202,2.9771898,0.41768694
-38.90334,3.0011718,0.46996927
-38.972458,3.0161042,0.5009203
-39.10183,3.0113575,0.48545074
-39.247852,3.001905,0.4587803
-39.325096,3.015419,0.48618078
-39.462807,3.0100098,0.46884727
-39.60498,3.0039692,0.4499073
-39.747738,2.9985416,0.43229628
-40.087845,2.933695,0.2739787
-40.118805,2.9642954,0.34132338
-40.21041,2.9767547,0.36567593
-40.277313,2.996817,0.40798855
-40.337597,3.0189595,0.45518875
-40.492687,3.0141625,0.438375
-40.61924,3.018246,0.44252586
-40.854218,2.9928374,0.37641478
-41.021057,2.9875286,0.35792208
-41.129494,2.9989097,0.37903547
-41.294033,2.995806,0.36551237
-41.42773,3.0016868,0.37327528
-41.567535,3.0066285,0.3786683
-41.71185,3.0111027,0.38281107
-41.808804,3.0282207,0.4170766
-42.183064,2.9768302,0.28712702
-42.453995,2.9530704,0.22302198
-42.525467,2.9790277,0.27797174
-42.654472,2.9914773,0.30040407
-43.05683,2.9847648,0.2687497
-43.51272,2.9703012,0.21748495
-43.67388,2.9796546,0.23154259
-3.2666435,3.6177387,0.5819516
-3.2728748,3.5452385,0.4222088
-4.8322735,3.6166427,0.6773071
-5.3692474,3.598698,0.67110395
-5.5525703,3.5487318,0.5720124
-20.385601,3.0453002,0.32327986
-20.416565,3.0152943,0.25688314
-20.864613,3.0751011,0.41556215
-20.982212,3.0736403,0.41825962
-21.16147,3.092492,0.47016287
-21.300087,3.0993123,0.49266434
-21.453232,3.1116989,0.52850866
-21.618395,3.129014,0.5761242
-21.74061,3.1329134,0.59108067
-21.830246,3.1263778,0.5806713
-21.94419,3.1286478,0.5914588
-22.071701,3.136294,0.61511326
-22.175858,3.13641,0.6204653
-22.284027,3.138517,0.63051605
-22.381618,3.1373668,0.6326127
-22.490425,3.1408546,0.64578485
-22.602358,3.1461232,0.663136
-22.70808,3.1496935,0.6762967
-22.801317,3.1490774,0.67929554
-22.892834,3.1482782,0.6817713
-22.993837,3.1516829,0.69425297
-23.097883,3.1568737,0.71092653
-23.188328,3.1571913,0.7158232
-23.280506,3.1586988,0.72348976
-23.375053,3.1616924,0.7346349
-23.477325,3.1684618,0.7547307
-23.562943,3.1687891,0.75932884
-23.658272,3.1737494,0.7749295
-23.73126,3.1695497,0.7685642
-23.820566,3.1728766,0.78011274
-23.912098,3.177717,0.79519844
-23.995405,3.179385,0.80263996
-24.083542,3.1837323,0.81640005
-24.160387,3.1833632,0.81885195
-24.234436,3.1820798,0.8190651
-24.3152,3.184369,0.82772684
-24.394379,3.1863558,0.8356037
-24.470757,3.1874201,0.8412261
-24.55794,3.1942608,0.86052036
-24.63732,3.1977515,0.8717866
-24.712706,3.199686,0.8792958
-24.786585,3.2012742,0.8859277
-24.865547,3.2059345,0.8997927
-24.930517,3.2036846,0.89720917
-24.995914,3.2019706,0.89585257
-25.065212,3.2026937,0.90022564
-25.134262,3.203661,0.90512705
-25.20649,3.2067847,0.9150877
-25.28577,3.2143354,0.9354758
-25.355047,3.216706,0.9435482
-25.416801,3.215115,0.94220257
-25.481155,3.2153544,0.9451442
-25.54475,3.2154865,0.9477887
-25.618963,3.2223883,0.9663868
-25.690079,3.2279136,0.9816823
-25.74224,3.2221265,0.9702177
-25.798597,3.2191513,0.9653611
-25.864227,3.2223513,0.9750409
-25.929052,3.2254431,0.98442173
-25.984924,3.2230477,0.98082113
-26.052803,3.228919,0.99667597
-26.109331,3.227583,0.99550056
-26.16276,3.2243884,0.989913
-26.23322,3.2332919,1.0127869
-26.294043,3.2359443,1.020896
-26.3484,3.2343326,1.0189328
-26.409733,3.2380607,1.0295024
-26.46471,3.2374969,1.0299368
-26.523237,3.2398818,1.0372763
-26.582445,3.2431543,1.0466657
-26.637337,3.2434757,1.0490837
-26.69429,3.2457223,1.055995
-26.750584,3.2477996,1.0624752
-26.801886,3.246175,1.0602283
-26.854809,3.2461202,1.0616393
-26.911398,3.2494235,1.0709052
-26.965237,3.2507708,1.0755477
-27.019306,3.2526424,1.0813904
-27.068304,3.2503831,1.0775123
-27.118841,3.249704,1.0773149
-27.179544,3.258543,1.0994115
-27.224646,3.2534928,1.0889087
-27.27592,3.254363,1.0922608
-27.324018,3.2524805,1.0891366
-27.37876,3.257293,1.1016741
-27.43176,3.2608168,1.1111631
-27.48598,3.265968,1.1244354
-27.537786,3.2690868,1.1329188
-27.587284,3.2701552,1.1365733
-27.635607,3.2702627,1.1379547
-27.685844,3.2727292,1.1448317
-27.734236,3.2734914,1.1476974
-27.777925,3.2691946,1.138699
-27.811699,3.253474,1.1029568
-27.836727,3.2269995,1.0420485
-27.872686,3.2128837,1.0100408
-27.881683,3.165123,0.8993478
-27.8891,3.1135454,0.77974033
-27.92078,3.0912395,0.7285719
-27.917337,3.021864,0.5673804
-39.035053,2.9905663,0.24387503
-39.08644,3.012212,0.29048777
-39.14589,3.0312743,0.33079767
-39.37242,2.9966884,0.24082804
-39.499874,2.9950907,0.23073387
-39.62008,2.9964452,0.22767782
-39.760822,2.9920583,0.21051645
-3.2512817,3.6925204,0.35652828
-5.550907,3.685731,0.5163307
-21.166405,3.0809748,0.27512312
-21.309698,3.0891018,0.3025856
-21.429806,3.0904264,0.31297445
-21.646421,3.1246343,0.4047346
-21.768778,3.12845,0.42091274
-21.865532,3.1241727,0.41690874
-21.974503,3.1246052,0.42443419
-22.081617,3.1249645,0.43164492
-22.184711,3.1244605,0.43659782
-22.306192,3.1311388,0.4591365
-22.4192,3.1354356,0.47565985
-22.54168,3.143891,0.5022855
-22.64582,3.1462078,0.5136628
-22.75024,3.1492083,0.5266018
-22.854216,3.1526268,0.5404453
-22.941755,3.1502192,0.53987455
-23.044918,3.154426,0.555429
-23.158588,3.1634436,0.5826516
-23.251194,3.1646264,0.5905638
-23.327864,3.159764,0.5835862
-23.427246,3.1647038,0.6004963
-23.521477,3.1680636,0.61343765
-23.609322,3.1692376,0.62094355
-23.692213,3.1687496,0.62430286
-23.788559,3.1745963,0.64302444
-23.879877,3.1788015,0.6576438
-23.969479,3.1827784,0.67161417
-24.043941,3.1803837,0.6699877
-24.129004,3.1832476,0.6810789
-24.204235,3.1820037,0.6821022
-24.29238,3.1872652,0.69885635
-24.36766,3.1868937,0.701849
-24.439608,3.1852937,0.7017894
-24.52113,3.1887736,0.71398497
-24.6132,3.198015,0.7400665
-24.695692,3.2030425,0.75584936
-24.767029,3.2028658,0.7589526
-24.86713,3.2180238,0.7991028
-24.948895,3.224301,0.8176732
-25.021484,3.2262223,0.8256364
-25.087437,3.2249668,0.82585907
-25.150908,3.222683,0.82354116
-25.207422,3.2168279,0.812552
-25.2639,3.2111506,0.8019476
-25.324238,3.207877,0.7970972
-25.428047,3.230046,0.85353327
-25.484468,3.2253501,0.84513426
-25.54137,3.2211542,0.8378959
-25.606781,3.2223172,0.84351826
-25.657076,3.2146006,0.82771635
-25.733711,3.2233531,0.85149956
-25.79789,3.2248461,0.8577585
-25.865433,3.2288597,0.87002563
-25.921429,3.225837,0.86533165
-25.988943,3.230621,0.8793459
-26.056118,3.2356386,0.8938675
-26.11751,3.237211,0.9000673
-26.171337,3.233952,0.89462805
-26.218319,3.2261415,0.8782363
-26.295977,3.2400994,0.9140024
-26.34985,3.2377162,0.9105396
-26.406898,3.237882,0.9131465
-26.461926,3.236862,0.91287184
-26.51956,3.2380705,0.91789484
-26.575188,3.2380867,0.9200225
-26.630655,3.238277,0.9225273
-26.6864,3.2389867,0.92623615
-26.744137,3.2416086,0.93447924
-26.79177,3.2363977,0.92395544
-26.848314,3.238664,0.93127203
-26.899622,3.2369,0.9289193
-26.952078,3.2363434,0.92941713
-27.006035,3.2373562,0.93362856
-27.07025,3.247737,0.9601655
-27.125689,3.250882,0.9693856
-27.175436,3.2492168,0.96709347
-27.228176,3.250552,0.97192526
-27.28415,3.2552683,0.9847865
-27.339846,3.2601614,0.9980316
-27.395994,3.2659502,1.013372
-27.448221,3.2683084,1.0204997
-27.500608,3.2711866,1.0288324
-27.554188,3.2756743,1.0409651
-27.604065,3.2766922,1.0447993
-27.651426,3.275306,1.0428786
-27.700384,3.2758791,1.0455947
-27.744637,3.2714696,1.0364208
-27.777685,3.254335,0.9969449
-27.807703,3.2332158,0.94797754
-27.841072,3.2154584,0.9069967
-27.85061,3.1682146,0.79588366
-27.886856,3.1523688,0.75943613
-27.892267,3.0969133,0.62881374
-27.913637,3.059954,0.54217005
-22.125824,3.128012,0.2708087
-22.239887,3.1313212,0.28654718
-22.353453,3.1350944,0.30329084
-22.480675,3.1445358,0.33416557
-22.593132,3.149266,0.35298395
-22.685486,3.1470623,0.35419083
-22.78311,3.1473382,0.36151075
-22.887962,3.1509376,0.3770485
-22.99989,3.1579168,0.40092802
-23.095564,3.1591163,0.41015863
-23.199661,3.1642344,0.42908096
-23.30258,3.1694918,0.44821405
-23.396978,3.1718438,0.45994234
-23.486996,3.1728935,0.46829557
-23.569408,3.1712105,0.46971083
-23.662031,3.1743336,0.48301888
-23.769829,3.1846056,0.5140376
-23.856346,3.1862028,0.5233016
-23.924583,3.1801095,0.5133128
-24.013062,3.1834636,0.5267544
-24.096722,3.185127,0.53588533
-24.183796,3.1888492,0.55003214
-24.260525,3.1882164,0.5532632
-24.354252,3.196103,0.57754517
-24.423594,3.1928105,0.573997
-24.496416,3.1915421,0.5753913
-24.593683,3.2027938,0.6077051
-24.656895,3.197592,0.5991888
-24.70226,3.183534,0.5687084
-24.576433,3.0809197,0.3193369
-24.797094,3.1576002,0.513031
-24.84304,3.143903,0.4833331
-24.946384,3.1611383,0.5299101
-25.027374,3.1670206,0.54837227
-25.09838,3.1679122,0.55444956
-25.179142,3.1746764,0.5749159
-25.30193,3.2059095,0.65552425
-25.40707,3.2281947,0.71397114
-25.462532,3.2223983,0.7032442
-25.536736,3.2279058,0.7202501
-25.598326,3.2263312,0.7197828
-25.65923,3.2246377,0.7189646
-25.730915,3.229908,0.73517895
-25.787788,3.2263732,0.72972584
-25.857328,3.2311373,0.74456596
-25.927021,3.2364695,0.7607317
-25.98385,3.2338605,0.7573762
-26.044527,3.2340586,0.76084375
-26.104027,3.233794,0.76312494
-26.168669,3.2373648,0.774734
-26.219141,3.231512,0.7632408
-26.27955,3.2328124,0.76919174
-26.340206,3.2346442,0.77638483
-26.400164,3.236337,0.78318644
-26.457153,3.2362008,0.78546906
-26.512625,3.235228,0.7856617
-26.57375,3.2388415,0.7969947
-26.627113,3.2368631,0.79463816
-26.686895,3.2401726,0.80512905
-26.750273,3.2467628,0.8235607
-26.803114,3.2453074,0.82233906
-26.862118,3.2491872,0.83406544
-26.920433,3.252911,0.84536266
-26.974817,3.2536964,0.8494587
-27.031437,3.2567387,0.8590007
-27.081486,3.2543693,0.85533667
-27.13459,3.2549472,0.8588004
-27.190609,3.2584963,0.86944246
-27.244108,3.260107,0.8753276
-27.299284,3.2636466,0.88585615
-27.34981,3.2631063,0.88643456
-27.408176,3.2705271,0.9062996
-27.458706,3.2706585,0.90842485
-27.509808,3.271651,0.9126034
-27.564545,3.276732,0.9266572
-27.61629,3.279112,0.9341197
-27.663849,3.277331,0.9314556
-27.711678,3.2760441,0.9299536
-27.75462,3.2694721,0.9156127
-27.792934,3.2575781,0.8883519
