x,y,z
-32.789963,2.5261974,2.2205863
-32.589066,2.9373748,2.8567953
-32.635937,2.9270976,2.8453822
-32.639336,2.9696453,2.9139156
-32.635517,3.0196314,2.9936352
-32.669556,3.0240622,3.00456
-32.70138,3.031077,3.0194402
-32.713806,3.0600495,3.0674343
-32.7434,3.0691595,3.0855389
-32.76655,3.0852687,3.1142077
-32.802586,3.0870953,3.1214628
-32.831726,3.0964155,3.1400232
-32.856987,3.1097357,3.1646204
-32.88248,3.1226146,3.188592
-32.914406,3.1286986,3.2024417
-32.940475,3.1407197,3.225212
-32.974117,3.1450114,3.236493
-33.01215,3.1450295,3.2414737
-33.04824,3.1471007,3.249587
-33.083336,3.1502433,3.259366
-33.12654,3.145786,3.257937
-33.16271,3.1481934,3.26678
-33.20199,3.1478357,3.271604
-33.24185,3.1471243,3.275992
-33.28337,3.1451118,3.2785454
-33.32499,3.1432343,3.281392
-33.36347,3.1443326,3.288715
-33.407963,3.1403594,3.2886648
-33.451504,3.1374779,3.2903233
-33.49239,3.137088,3.2957368
-33.532784,3.1372979,3.3021212
-33.570972,3.1395032,3.3115144
-33.610313,3.1408966,3.319806
-33.65657,3.136855,3.3202667
-33.702393,3.1334355,3.3217468
-33.74601,3.1320157,3.3262448
-33.79031,3.1302834,3.3303952
-33.834705,3.128702,3.3348718
-33.875607,3.1300056,3.3436275
-33.92559,3.1246285,3.3428397
-33.97028,3.1235058,3.348311
-34.015053,3.1225348,3.3541126
-34.053734,3.1262126,3.3666983
-34.088665,3.1326995,3.3833985
-34.129795,3.1348255,3.393937
-34.17347,3.1353078,3.4022293
-34.212746,3.1390393,3.4152617
-34.260986,3.1367164,3.4197779
-34.308693,3.1350048,3.42529
-34.35,3.1378438,3.437375
-34.395893,3.137764,3.4454365
-34.443836,3.1365397,3.4520063
-34.49652,3.132455,3.454679
-34.532642,3.1393497,3.4729214
-34.572727,3.1437757,3.4877887
-34.621597,3.1427705,3.4951625
-34.650097,3.1547253,3.5207539
-34.710674,3.146806,3.5187354
-34.748,3.153492,3.5371847
-34.7929,3.1556659,3.5494747
-34.83643,3.158835,3.563263
-34.87152,3.16716,3.584279
-34.901554,3.1785,3.6095233
-34.90722,3.203982,3.6542325
-34.9289,3.2199497,3.6858878
-34.964024,3.228167,3.7069988
-35.00412,3.2336373,3.7244592
-35.0347,3.2445226,3.7493773
-35.76574,2.8689675,3.2513442
-35.772644,2.8967192,3.3006444
-35.758324,2.9356408,3.3649383
-35.756706,2.9672327,3.419271
-35.771763,2.989614,3.4612083
-35.778164,3.0163367,3.508937
-35.78411,3.043016,3.5565696
-35.793404,3.0676947,3.601513
-35.81681,3.0849566,3.6366348
-35.835342,3.1045866,3.674913
-35.835793,3.1330924,3.7248592
-35.855164,3.1519523,3.7621279
-35.87813,3.1689353,3.7969732
-35.950207,3.1620896,3.8009071
-36.059494,3.1378274,3.7825608
-36.068077,3.1620474,3.8271685
-36.12394,3.163867,3.8429723
-36.208572,3.1525536,3.8421602
-36.26704,3.1537757,3.857657
-36.329582,3.1533942,3.8713245
-36.41485,3.1430554,3.8726254
-36.489826,3.1377988,3.8806624
-36.541313,3.1433113,3.9024985
-36.57802,3.1554706,3.9328136
-36.63513,3.1588423,3.9523118
-36.708775,3.155356,3.96353
-36.806602,3.1419718,3.9628403
-36.850628,3.1517653,3.9909916
-36.939682,3.1429386,3.9965599
-36.99624,3.1479802,4.0193486
-37.057823,3.1511836,4.0401306
-37.146477,3.143717,4.048318
-37.248917,3.1312132,4.0508547
-37.27754,3.1484795,4.089278
-37.40081,3.1286736,4.083889
-37.442142,3.1413555,4.1173153
-37.522053,3.1393204,4.1336546
-37.621937,3.130084,4.1419587
-37.75326,3.1095657,4.137659
-37.88067,3.0912752,4.1365433
-37.98926,3.080644,4.144787
-38.130505,3.0586977,4.140686
-38.28801,3.0317082,4.1315804
-38.405514,3.0199354,4.140313
-38.542732,3.0018287,4.14256
-38.68032,2.9843614,4.1461935
-38.84496,2.9583015,4.1410785
-39.027054,2.9272175,4.1313295
-39.212418,2.8960938,4.1224837
-39.39209,2.8679624,4.11782
-39.518303,2.8586035,4.1340923
-39.7106,2.828198,4.1287794
-39.926987,2.791071,4.117458
-40.119545,2.7628632,4.11658
-40.353554,2.7225597,4.104302
-40.547234,2.6963038,4.1076565
-40.775223,2.6604452,4.1023793
-40.973587,2.6350052,4.10882
-41.198135,2.6026783,4.1095533
-41.433376,2.5683846,4.1096454
-41.71907,2.5203729,4.097782
-41.96668,2.4852176,4.0999594
-42.230648,2.4466684,4.1003785
-42.53802,2.3970785,4.0920115
-42.87974,2.339437,4.0780444
-43.229843,2.2813754,4.065805
-43.48443,2.2519073,4.0816298
-43.792,2.2092052,4.0872087
-44.212082,2.1375499,4.0692115
-44.674675,2.0568247,4.0460434
-45.074276,1.9954846,4.0425067
-45.53623,1.9199581,4.029622
-45.93768,1.8627424,4.0350266
-46.51172,1.7633779,4.008669
-46.999664,1.6891007,4.0064
-47.636246,1.5802162,3.9801536
-48.18461,1.496762,3.9780798
-48.89176,1.3774285,3.9525666
-49.398468,1.3105228,3.9712205
-15.690338,1.5293775,2.8117113
-16.086128,1.6034384,2.8483472
-16.260525,1.6104124,2.815847
-16.439247,1.6196244,2.7866225
-16.978567,1.745322,2.8841243
-17.052053,1.7235,2.8238811
-17.35246,1.7761815,2.8456993
-17.601631,1.8136883,2.8522773
-17.744537,1.8170831,2.8221087
-18.566616,2.0508008,3.0510063
-18.753376,2.0730119,3.0452352
-19.04509,2.1325057,3.0827694
-19.194298,2.1440856,3.0668793
-19.402206,2.1771493,3.0764384
-19.557625,2.192738,3.0667162
-19.719664,2.211557,3.0614748
-19.875156,2.228899,3.0552392
-19.937231,2.2127635,3.0101614
-19.963985,2.1836665,2.9499125
-19.969597,2.1465201,2.880096
-20.093647,2.1540012,2.8638325
-20.214886,2.1610425,2.8475623
-20.468279,2.2198582,2.8946657
-20.540894,2.2096655,2.8586888
-19.02799,1.573365,2.0549498
-20.951626,2.295992,2.9190798
-21.095852,2.316508,2.922565
-21.190962,2.3178713,2.9028134
-21.27091,2.3134484,2.8761926
-21.413223,2.3352783,2.882841
-21.5285,2.346616,2.8768334
-21.629427,2.3525069,2.8643756
-21.768757,2.3753762,2.8739085
-21.878078,2.3861187,2.8684998
-21.991161,2.3991144,2.8664017
-22.11768,2.4186945,2.873218
-22.207357,2.4226122,2.8602672
-22.291224,2.4243631,2.8448257
-22.322905,2.4027534,2.7992334
-22.283964,2.3485813,2.7111092
-22.31741,2.327307,2.6659284
-22.355907,2.308337,2.6238532
-22.29012,2.2398903,2.5164456
-21.391512,1.7714591,1.8779917
-21.428804,1.7467446,1.8262982
-22.218138,2.0895677,2.2655792
-22.248629,2.0650449,2.2158785
-22.267227,2.0344548,2.1580696
-22.27335,1.9973197,2.0914307
-22.260363,1.9500599,2.0110397
-22.242933,1.8999112,1.9265914
-22.209118,1.8405857,1.8295007
-22.192097,1.7892234,1.7430544
-22.389433,1.8508701,1.8111162
-22.343536,1.7838163,1.7032619
-22.398193,1.7701821,1.668654
-22.401812,1.7287102,1.5957656
-22.41271,1.6907651,1.5276856
-22.417042,1.6487262,1.4538841
-22.389765,1.58834,1.3544931
-22.369335,1.5309606,1.2590995
-22.391901,1.497515,1.196991
-22.364182,1.4344611,1.0933933
-22.365732,1.3876674,1.0124359
-22.375113,1.3449101,0.93707657
-22.366539,1.2908309,0.8456831
-22.356215,1.234911,0.7515621
-22.3798,1.1989808,0.68564224
-22.389727,1.1541848,0.60712385
-22.375462,1.0936377,0.50612354
-32.496445,1.5332048,0.52630854
-32.518032,1.5916305,0.6211333
-32.50773,1.7054005,0.80220985
-32.50747,1.7967713,0.94828033
-32.534683,1.8369398,1.0145583
-32.492737,1.9930329,1.2612214
-32.529625,2.0119693,1.2943954
-32.519806,2.1064715,1.4450488
-32.511448,2.195167,1.5865803
-32.50539,2.2770505,1.717443
-32.512505,2.335795,1.8123279
-32.523422,2.3868153,1.895196
-32.528774,2.4444067,1.9882112
-32.570984,2.4465032,1.9952798
-32.585133,2.4888089,2.0646148
-32.62653,2.4915705,2.0728102
-32.643356,2.5283244,2.1335764
-32.71598,2.488348,2.0759144
-32.721165,2.5398257,2.1594582
-32.780758,2.5748134,2.2217574
-32.53992,2.9351668,2.7804132
-32.552845,2.967339,2.8337684
-32.59148,2.9670737,2.8372922
-32.63222,2.9644322,2.8372436
-32.662647,2.9743304,2.8564959
-32.633774,3.0536716,2.982163
-32.666508,3.0596023,2.9953356
-32.687893,3.0784433,3.0283022
-32.728218,3.0756547,3.0282483
-32.770424,3.0710268,3.0254674
-32.788956,3.0924997,3.0625634
-32.81161,3.1090975,3.0922422
-32.83349,3.1262171,3.1227384
-32.859234,3.13899,3.146648
-32.889458,3.1469626,3.1633034
-32.91956,3.1550107,3.180122
-32.950977,3.161685,3.1949077
-32.981815,3.168923,3.2106009
-33.017475,3.1714375,3.2192068
-33.049145,3.1778877,3.2338228
-33.09934,3.166748,3.2219696
-33.133568,3.1710324,3.2334661
-33.171352,3.1720877,3.24017
-33.210724,3.171838,3.2449899
-33.2533,3.1688776,3.2458243
-33.29388,3.1679423,3.2497888
-33.3324,3.1690154,3.256846
-33.370956,3.1702085,3.264163
-33.411175,3.1701202,3.269649
-33.453102,3.1687648,3.273332
-33.495674,3.1670823,3.2766232
-33.534424,3.1687794,3.2850332
-33.574326,3.169675,3.292337
-33.61712,3.1683996,3.2965088
-33.661144,3.1663492,3.2996335
-33.70528,3.1644483,3.3030796
-33.74893,3.1631513,3.3075218
-33.792675,3.1620016,3.312282
-33.839478,3.158738,3.314036
-33.88641,3.1556373,3.3161435
-33.931667,3.1540482,3.3205824
-33.978844,3.151271,3.3233924
-34.03228,3.144199,3.3200412
-34.07172,3.1475468,3.3320317
-34.116135,3.1474771,3.3391342
-34.15748,3.1497653,3.3497715
-34.19442,3.1552658,3.3651667
-34.25615,3.143796,3.3560672
-34.27392,3.1626778,3.391014
-34.352104,3.1407084,3.3670335
-34.39438,3.1433175,3.3786821
-34.441906,3.1426158,3.3856754
-34.48358,3.145949,3.3985791
-34.52127,3.1519876,3.4154558
-34.55021,3.163685,3.4405036
-34.609947,3.1559253,3.4378705
-34.644836,3.1640422,3.4579926
-34.68509,3.1688933,3.4735565
-34.736988,3.1667476,3.4793124
-34.787617,3.1656294,3.4866633
-34.811222,3.180911,3.517274
-34.854176,3.184647,3.5316815
-34.894306,3.1901784,3.5487204
-34.93865,3.1933794,3.5625992
-34.98442,3.1959176,3.5756712
-35.025196,3.2014642,3.593059
-35.063046,3.2087665,3.6129904
-35.781715,2.8377821,3.1088657
-35.783184,2.8691428,3.1636157
-35.753292,2.9171963,3.241313
-35.756424,2.9467351,3.2933745
-35.753105,2.9793732,3.3496323
-35.76188,3.0052238,3.3965359
-35.769455,3.0314326,3.4438996
-35.778843,3.056434,3.4895911
-35.800682,3.0748143,3.5262895
-35.81538,3.0967033,3.5677567
-35.825123,3.1208959,3.6123252
-35.842922,3.1408625,3.6512017
-35.85112,3.1654058,3.696216
-35.903954,3.1680002,3.7119331
-35.996616,3.1516242,3.702602
-36.0591,3.150234,3.7134652
-36.07993,3.1688018,3.750885
-36.150337,3.1641057,3.7577329
-36.24954,3.1464598,3.747857
-36.282066,3.1599762,3.7790546
-36.340885,3.1615863,3.794845
-36.446495,3.1424541,3.7839541
-36.50156,3.1464458,3.8033319
-36.5241,3.1649482,3.841556
-36.58637,3.166083,3.8575778
-36.64787,3.1678214,3.8745918
-36.76375,3.1466298,3.8627052
-36.80985,3.1556334,3.8894796
-36.8849,3.1526625,3.9013295
-36.976746,3.1431127,3.9052234
-37.02535,3.1517825,3.932221
-37.062107,3.1654,3.9655309
-37.205746,3.1361732,3.9459975
-37.245926,3.1489615,3.9787705
-37.29528,3.1582139,4.007347
-37.416145,3.1397836,4.0023937
-37.46214,3.1509101,4.0337706
-37.568096,3.1392894,4.0379047
-37.645046,3.1392014,4.056322
-37.700455,3.1475163,4.0850725
-37.839935,3.1249397,4.0774345
-37.878918,3.139957,4.114726
-37.9701,3.1361341,4.1300907
-38.096474,3.1201544,4.131711
-38.21441,3.107876,4.1382027
-38.366142,3.0843782,4.1323547
-38.522785,3.060059,4.126302
-38.62313,3.055995,4.143981
-38.818855,3.019998,4.126169
-38.944744,3.0086691,4.1369276
-39.09686,2.9892776,4.139351
-39.293377,2.9561105,4.127359
-39.447304,2.9379723,4.132816
-39.640434,2.908041,4.1262627
-39.867638,2.8683496,4.110218
-40.0647,2.8395004,4.106957
-40.233177,2.8206887,4.115369
-40.476875,2.7795691,4.101273
-40.675556,2.753607,4.104272
-40.92059,2.7147436,4.095068
-41.10285,2.6960282,4.107787
-41.367527,2.6539412,4.0979013
-41.558067,2.6350157,4.112688
-41.804543,2.600944,4.1135573
-42.119392,2.548709,4.0980687
-42.416496,2.5032809,4.0910306
-42.75166,2.4488933,4.0771813
-43.0606,2.4036424,4.0739965
-43.39088,2.3542855,4.068847
-43.67501,2.3192172,4.0789094
-43.979454,2.2802715,4.087187
-44.432487,2.2038217,4.063664
-44.931072,2.1180696,4.0347934
-45.35145,2.0552664,4.0291896
-45.774654,1.9940696,4.0276985
-46.256683,1.9204166,4.018438
-46.755943,1.8451514,4.0110435
-47.328712,1.7546122,3.9945016
-47.890316,1.6699502,3.9866009
-48.513332,1.5736814,3.973404
-49.192245,1.4676332,3.9569798
-16.011654,1.71229,2.8708134
-16.100346,1.6918268,2.8092933
-16.328512,1.7145548,2.795382
-16.83569,1.8252988,2.879622
-16.03579,1.5281615,2.5134172
-17.456676,1.9312153,2.9266167
-17.505062,1.9026904,2.860558
-17.670513,1.9122243,2.8378973
-17.853582,1.9283919,2.8236017
-18.600971,2.1328661,3.027114
-18.943405,2.2064893,3.0826273
-19.111486,2.2231421,3.0732965
-19.285345,2.242691,3.0681386
-19.467552,2.266098,3.0683365
-19.624626,2.2817428,3.0601287
-19.779554,2.2974868,3.0527396
-19.907902,2.3045785,3.0356169
-19.946426,2.2798731,2.9805474
-19.974903,2.25148,2.921093
-20.015896,2.227608,2.8672276
-20.144175,2.2362707,2.8535109
-20.26617,2.2432396,2.8382292
-20.493908,2.2910864,2.8742661
-20.661007,2.3170846,2.8839931
-20.755371,2.3158243,2.860197
-20.907974,2.3378596,2.8661475
-21.05078,2.3569133,2.8689432
-21.183874,2.372913,2.8684268
-21.309025,2.3864605,2.8653016
-21.445454,2.4053283,2.8694997
-21.559849,2.415898,2.8635292
-21.684658,2.4314482,2.8644457
-21.812336,2.4489372,2.868362
-21.929737,2.4628048,2.8680372
-22.059797,2.4828029,2.8761911
-22.178795,2.4987888,2.8795567
-22.235931,2.488296,2.8483806
-22.293169,2.4780085,2.8176508
-22.352905,2.4690044,2.7887998
-22.279507,2.3998528,2.679791
-22.356663,2.3985753,2.6613736
-22.36181,2.3643382,2.5988765
-21.22296,1.7952168,1.8144803
-21.258175,1.7690029,1.7603536
-21.356907,1.7729621,1.747272
-22.206783,2.1393323,2.2283797
-22.24738,2.1197207,2.1852565
-22.265995,2.0892687,2.127356
-22.271362,2.05198,2.0600486
-22.266739,2.009277,1.9852152
-22.25002,1.9599295,1.9010906
-22.280622,1.8924282,1.7757988
-22.336224,1.8792653,1.7418432
-22.360151,1.8494616,1.6847463
-22.411808,1.8342142,1.648077
-22.402178,1.78595,1.5650973
-22.434916,1.7601438,1.513659
-22.407284,1.7009077,1.4150152
-22.390118,1.6466246,1.3231974
-22.377542,1.5941515,1.2337999
-22.396519,1.5588777,1.1687546
-22.365927,1.4947584,1.062532
-22.372387,1.4511619,0.9854603
-22.379637,1.4074786,0.90820026
-22.36548,1.3505461,0.8118429
-22.371702,1.3049872,0.731719
-22.376709,1.2580907,0.6495991
-22.386662,1.2135935,0.5708747
-22.37579,1.1556306,0.4725833
-32.496735,1.5854454,0.5116987
-32.517662,1.6443715,0.60846853
-32.49402,1.7806182,0.8274436
-32.52903,1.8086958,0.87538147
-32.532135,1.8904536,1.008112
-32.48813,2.0480816,1.2605076
-32.53014,2.0582204,1.2800832
-32.511368,2.1660602,1.4537158
-32.504337,2.2513561,1.5917106
-32.51767,2.3020482,1.6751394
-32.500607,2.3972127,1.8285122
-32.515636,2.4411774,1.901268
-32.525585,2.4911642,1.983469
-32.565956,2.4958098,1.9944439
-32.570343,2.5512934,2.0852528
-32.610023,2.556059,2.096488
-32.644875,2.5674345,2.118143
-32.67952,2.5788903,2.1399722
-32.727573,2.5724783,2.133893
-32.53308,2.980302,2.7828155
-32.578712,2.971634,2.7730484
-32.59858,2.9946969,2.8128223
-32.629925,3.0034947,2.8303928
-32.659035,3.0148242,2.8519478
-32.66806,3.0492601,2.9094596
-32.65195,3.111541,3.010191
-32.68786,3.1136189,3.017404
-32.720253,3.119695,3.0308795
-32.76279,3.1146812,3.0272307
-32.79469,3.1214366,3.0418782
-32.8192,3.1360102,3.0686603
-32.841125,3.1530392,3.0992637
-32.86739,3.165288,3.122511
-32.89721,3.173751,3.1399574
-32.928802,3.180372,3.1546144
-32.95837,3.1889856,3.1723871
-33.001945,3.1838603,3.169098
-33.02942,3.1945539,3.190177
-33.074646,3.1882558,3.1852484
-33.11,3.1915596,3.1951199
-33.145847,3.194495,3.2044926
-33.185795,3.1937768,3.208352
-33.22426,3.1945903,3.2146301
-33.26591,3.1927207,3.216895
-33.306072,3.192383,3.22158
-33.34523,3.1931026,3.2279544
-33.384434,3.1939447,3.2345943
-33.42368,3.19491,3.2415023
-33.46846,3.1913958,3.2417064
-33.511166,3.1898694,3.2450166
-33.553402,3.1889412,3.2493238
-33.595158,3.1886082,3.2546196
-33.640404,3.1856847,3.2561045
-33.68175,3.1860864,3.262693
-33.724316,3.1857195,3.2682166
-33.768707,3.1841435,3.2720213
-33.813198,3.182718,3.2761521
-33.857784,3.181443,3.2806091
-33.906067,3.1776469,3.281406
-33.952682,3.1753528,3.2845573
-33.998196,3.174106,3.2893748
-34.04565,3.1716917,3.2925673
-34.091366,3.1707628,3.2980747
-34.134056,3.1721785,3.3071628
-34.172386,3.1767879,3.3210683
-34.235374,3.1645765,3.3102388
-34.277653,3.166892,3.3209767
-34.33665,3.158139,3.3155403
-34.372623,3.165072,3.3332796
-34.41829,3.165696,3.341855
-34.4673,3.1643467,3.3476558
-34.50848,3.1682653,3.3612666
-34.571606,3.15837,3.354858
-34.596172,3.173139,3.3844728
-34.644096,3.1732836,3.39291
-34.694126,3.1723456,3.3999043
-34.733326,3.1782408,3.4168987
-34.76629,3.1879873,3.4395351
-34.824024,3.1829867,3.44103
-34.858276,3.1921632,3.4630322
-34.89381,3.2006226,3.4840822
-34.953205,3.1953564,3.4856033
-34.98443,3.206522,3.5107155
-35.020485,3.214951,3.5319996
-35.74883,2.836181,3.0041456
-35.767803,2.8582015,3.0461736
-35.77189,2.888188,3.099454
-35.75354,2.9299855,3.1693158
-35.753494,2.9613638,3.2244096
-35.755104,2.991484,3.2776794
-35.759888,3.0195813,3.3280673
-35.7694,3.0449066,3.3745518
-35.782234,3.0682702,3.4182873
-35.79165,3.0931597,3.464127
-35.811253,3.1126664,3.5025086
-35.827496,3.13372,3.5430408
-35.840324,3.1562955,3.58567
-35.85509,3.1777327,3.6267333
-35.922882,3.1733298,3.632533
-36.0406,3.145361,3.6064968
-36.05507,3.1672053,3.6484423
-36.117844,3.166202,3.6595068
-36.179146,3.166182,3.6721015
-36.26113,3.156929,3.672502
-36.311543,3.1625223,3.6930547
-36.39711,3.1524463,3.6928735
-36.506252,3.1323476,3.6796865
-36.51423,3.1576247,3.7269688
-36.562305,3.1651614,3.750832
-36.613567,3.1714652,3.7732272
-36.75141,3.140864,3.7475014
-36.791466,3.152646,3.7775602
-36.843727,3.1593766,3.80118
-36.91084,3.1601186,3.8172326
-37.0046,3.1502075,3.8198166
-37.043587,3.163107,3.851997
-37.168655,3.1414022,3.8401442
-37.20932,3.1541128,3.872518
-37.270077,3.1589737,3.8950918
-37.37063,3.1485322,3.898632
-37.426403,3.155952,3.9249506
-37.52478,3.1472714,3.9314058
-37.63282,3.1354623,3.9343884
-37.679283,3.1473215,3.9670215
-37.781666,3.1385672,3.974521
-37.84015,3.1464648,4.0027785
-37.93764,3.140407,4.014318
-38.041424,3.1325912,4.024153
-38.085106,3.1466882,4.060736
-38.190876,3.139034,4.071523
-38.30214,3.130019,4.0811653
-38.397755,3.1269827,4.098354
-38.45365,3.137951,4.132365
-38.586697,3.1230843,4.136542
-38.784225,3.0874372,4.1173277
-38.906506,3.0778081,4.128948
-39.068462,3.0558672,4.1271133
-39.209305,3.0416598,4.134826
-39.40455,3.0108304,4.1245537
-39.532608,3.002365,4.1402025
-39.709824,2.9791906,4.1402082
-39.912956,2.9489927,4.1334114
-40.12943,2.9158716,4.124488
-40.323685,2.8907053,4.125291
-40.54042,2.8598952,4.1210775
-40.759575,2.8295894,4.1185594
-41.003227,2.793342,4.110983
-41.23924,2.7606819,4.108477
-41.504524,2.7209673,4.1000032
-41.753826,2.6872678,4.099154
-41.983284,2.660495,4.1067047
-42.313824,2.6070392,4.0888987
-42.584587,2.5717864,4.091002
-42.97759,2.5050225,4.063903
-43.259174,2.4702303,4.0700116
-43.51222,2.4444947,4.0864305
-43.863617,2.3944757,4.0814924
-44.25544,2.3359904,4.070838
-44.70868,2.2640586,4.0502863
-45.107155,2.2084315,4.047331
-45.59473,2.1328683,4.029136
-46.01595,2.0762954,4.0307517
-46.58277,1.9867446,4.0066032
-47.083153,1.9162421,4.0023904
-47.649544,1.8328826,3.9907637
-48.33294,1.7253327,3.9630966
-48.934402,1.6404402,3.9583764
-16.077366,1.8250647,2.854496
-16.239864,1.826463,2.8181143
-16.72371,1.9253936,2.8923798
-16.967709,1.9542623,2.8895688
-17.386951,1.9946711,2.8675094
-17.580536,2.0115323,2.854086
-17.74226,2.0192912,2.8309245
-18.54583,2.2343733,3.052495
-18.76048,2.2632613,3.057436
-18.979828,2.29492,3.0666723
-19.154095,2.312868,3.06046
-19.346497,2.3378658,3.0635366
-19.51891,2.3571749,3.0605607
-19.68557,2.3754704,3.0571036
-19.807076,2.3790286,3.0362563
-19.924034,2.3815918,3.0146823
-19.947681,2.3516536,2.953199
-19.97612,2.3233044,2.8937316
-20.035244,2.305968,2.8481474
-20.189356,2.323522,2.8467922
-20.362755,2.3490775,2.8562183
-20.509872,2.365844,2.8551564
-20.65654,2.3832757,2.855538
-20.801903,2.4010465,2.8569388
-20.938332,2.416212,2.8555484
-21.10216,2.4428256,2.8695517
-21.209087,2.448044,2.8563046
-21.333355,2.4607096,2.8532057
-21.483078,2.4843032,2.8649478
-21.61562,2.501837,2.8692627
-21.734468,2.5145376,2.8676672
-21.839779,2.5222998,2.8599353
-21.968586,2.5404701,2.8664875
-22.072424,2.548851,2.8603816
-22.182478,2.5604568,2.8589835
-22.249298,2.5540097,2.8335805
-22.292774,2.5376194,2.7949014
-22.32925,2.5181797,2.752182
-22.314909,2.476067,2.6785822
-22.326746,2.4452424,2.6203175
-22.29084,2.3924348,2.5318117
-20.112707,1.3542256,1.0842061
-21.239258,1.8296254,1.721674
-21.208637,1.7723825,1.6244087
-21.346703,1.7943492,1.6371927
-22.219383,2.1690853,2.1429439
-22.257298,2.1480112,2.0978236
-22.260357,2.1098332,2.0287557
-22.254196,2.0666835,1.9526219
-22.223082,2.0105553,1.8580585
-22.219362,1.9674537,1.7817435
-22.262094,1.9475088,1.7382135
-22.36172,1.9568281,1.7364287
-22.373608,1.921063,1.6705923
-22.391281,1.8879626,1.6085358
-22.42271,1.8618512,1.5564914
-22.419594,1.8170152,1.4775591
-22.417301,1.7720532,1.3983512
-22.40143,1.7190695,1.3074651
-22.397293,1.6718416,1.2247739
-22.374104,1.6133182,1.1255884
-22.372545,1.5661693,1.0427828
-22.366941,1.516079,0.95559883
-22.373455,1.4723039,0.8775377
-22.38355,1.4300637,0.80166245
-22.379925,1.379194,0.71307373
-22.371773,1.3249063,0.61935997
-22.388496,1.2848384,0.54648066
-22.32608,1.1960161,0.4015932
-32.53836,1.5520835,0.35391855
-32.514736,1.6927588,0.58324146
-32.505707,1.8017623,0.761601
-32.530785,1.8473432,0.83815145
-32.516678,1.9575953,1.0183625
-32.543583,1.9955163,1.0825887
-32.53836,2.0843244,1.2282996
-32.51663,2.1961162,1.4107065
-32.53064,2.247938,1.4970746
-32.535004,2.3127499,1.6041827
-32.515285,2.4114964,1.7654443
-32.50081,2.4990423,1.9087048
-32.53949,2.5066304,1.9243007
-32.546185,2.5596063,2.0123148
-32.585167,2.565814,2.0257745
-32.61068,2.5904698,2.068665
-32.641922,2.606742,2.0982332
-32.67471,2.620605,2.1240067
-32.734882,2.6544433,2.185379
-32.797596,2.629707,2.1500254
-32.64849,3.0584955,2.848371
-32.686184,3.0596263,2.8539643
-32.668617,3.1232617,2.9582362
-32.691326,3.1403925,2.9890943
-32.72469,3.14552,3.001069
-32.75532,3.1536188,3.0177717
-32.791676,3.155563,3.0248437
-32.82849,3.1571345,3.0313926
-32.860718,3.1635818,3.0456572
-32.892384,3.1705887,3.0608487
-32.924892,3.1767282,3.0747313
-32.958748,3.1815333,3.0865774
-32.993034,3.1859596,3.0978885
-33.028744,3.1890697,3.107202
-33.067894,3.188996,3.1116118
-33.101616,3.194194,3.12431
-33.137295,3.197617,3.1343026
-33.17499,3.199281,3.141623
-33.2194,3.195023,3.1398163
-33.260326,3.1941545,3.1433597
-33.296608,3.1975713,3.153624
-33.335526,3.1987934,3.1605582
-33.376617,3.1983006,3.1649156
-33.422104,3.1942794,3.163908
-33.462837,3.1945174,3.1695657
-33.504177,3.1944308,3.1748047
-33.54503,3.1949313,3.1810303
-33.588737,3.1933029,3.1840682
-33.635376,3.1895676,3.183967
-33.671894,3.1940746,3.1965952
-33.711834,3.1960053,3.2053504
-33.7605,3.1913722,3.2041593
-33.80817,3.1877997,3.2046957
-33.863068,3.1790776,3.197494
-33.90573,3.1798298,3.2048378
-33.94785,3.1811624,3.213153
-33.990005,3.1826317,3.2217665
-34.0383,3.1798723,3.2240644
-34.086727,3.1772816,3.2267303
-34.134045,3.1757286,3.2310743
-34.185837,3.1713157,3.2312183
-34.225853,3.1752698,3.2440753
-34.284225,3.1669145,3.2385263
-34.329456,3.1677527,3.2469125
-34.394028,3.1559782,3.2365198
-34.427208,3.1652284,3.2577176
-34.48178,3.1606364,3.2583303
-34.50502,3.1764338,3.2894397
-34.57559,3.1621144,3.275814
-34.607277,3.172692,3.2993197
-34.674328,3.1613362,3.2904072
-34.698532,3.1767256,3.3212028
-34.74693,3.17733,3.3302245
-34.77489,3.1904125,3.3577337
-34.829475,3.187632,3.3619862
-34.871048,3.192782,3.3780084
-34.90702,3.2013087,3.3990655
-34.952003,3.2047033,3.4127092
-34.984303,3.2154765,3.4372091
-35.0278,3.219948,3.4526167
-35.06201,3.2297368,3.47584
-35.768127,2.8691516,2.963355
-35.764126,2.9037232,3.023747
-35.75876,2.9385812,3.0844736
-35.765896,2.9663036,3.1348696
-35.769604,2.9955328,3.1873913
-35.77574,3.023154,3.2375674
-35.77768,3.052648,3.2903767
-35.79925,3.0717413,3.3283472
-35.809254,3.096577,3.3744845
-35.826374,3.1175983,3.4152064
-35.84542,3.137499,3.4543567
-35.866436,3.1562967,3.491971
-35.910908,3.1635666,3.513445
-35.9869,3.1557813,3.513988
-36.046112,3.1564293,3.5265317
-36.0875,3.165748,3.5513053
-36.16163,3.159876,3.5551386
-36.242245,3.1514082,3.5556288
-36.284454,3.160966,3.5812068
-36.359856,3.1555934,3.586409
-36.46573,3.1369753,3.5737457
-36.516056,3.1436636,3.5959582
-36.53178,3.1657033,3.639175
-36.617386,3.1572433,3.6411104
-36.658653,3.1683228,3.669702
-36.79262,3.1400418,3.6455126
-36.816025,3.159215,3.6853695
-36.884304,3.1596098,3.7002206
-36.99472,3.1429343,3.6926265
-37.033524,3.156166,3.725027
-37.116215,3.1517208,3.734239
-37.20493,3.1452937,3.7411532
-37.240227,3.1604743,3.776638
-37.362804,3.141501,3.7677736
-37.43686,3.1420703,3.784717
-37.48896,3.1514032,3.8132348
-37.583508,3.1447854,3.8214498
-37.652653,3.1482067,3.8428621
-37.7321,3.1480906,3.860032
-37.848625,3.1347098,3.860723
-37.905075,3.1438484,3.8902473
-38.018597,3.1326208,3.8944654
-38.07854,3.1411085,3.923721
-38.166313,3.1399965,3.941302
-38.28219,3.1295013,3.947678
-38.32988,3.1431627,3.984154
-38.462814,3.1278343,3.985477
-38.495415,3.147142,4.029338
-38.67572,3.1170912,4.013879
-38.736664,3.127574,4.0477457
-38.84832,3.121682,4.0623894
-38.907402,3.133365,4.098287
-39.036304,3.1229,4.108442
-39.15288,3.1170168,4.1245327
-39.357132,3.0842776,4.110099
-39.49873,3.0721264,4.1203094
-39.670547,3.0514724,4.1215105
-39.860996,3.0261278,4.1182547
-40.07932,2.9935052,4.1077857
-40.280003,2.9673529,4.1056333
-40.503204,2.9357252,4.098466
-40.69211,2.9152863,4.104702
-40.93302,2.8809888,4.0968843
-41.14041,2.8575287,4.1019983
-41.349197,2.8348088,4.109001
-41.606674,2.7997565,4.1041193
-41.84527,2.7712972,4.107532
-42.14126,2.728642,4.0975885
-42.43334,2.6886878,4.092072
-42.77482,2.6373274,4.0766788
-43.05431,2.604036,4.0813246
-43.367302,2.563639,4.0805607
-43.652714,2.531972,4.0901575
-44.056686,2.472047,4.0741863
-44.47867,2.4099026,4.058544
-44.965157,2.3342881,4.0328336
-45.356934,2.2843294,4.0339
-45.763767,2.2329001,4.036064
-46.24288,2.166612,4.0274305
-46.770744,2.091584,4.0141296
-47.32077,2.014354,4.0023365
-47.888214,1.9361784,3.993349
-48.475986,1.8565419,3.9869056
-49.20233,1.749428,3.961729
-15.897382,1.9002748,2.8478346
-16.083956,1.9070616,2.8179502
-16.288563,1.9200497,2.7960715
-16.754356,2.0112352,2.8656898
-17.128387,2.0778434,2.9089432
-17.323427,2.0926144,2.8931074
-17.563267,2.1221032,2.8955822
-17.634785,2.1009405,2.8388205
-17.857561,2.1272233,2.8392391
-18.54123,2.3003364,3.0179605
-18.904339,2.3755624,3.0809865
-19.034304,2.377773,3.0564103
-19.19252,2.389844,3.044508
-19.401737,2.4195886,3.0551543
-19.545837,2.428822,3.0411806
-19.69931,2.441974,3.032711
-19.87521,2.4636018,3.0355482
-19.922958,2.4420605,2.9844918
-19.951836,2.4140015,2.9252863
-19.954224,2.3765254,2.8540945
-20.110344,2.3934844,2.8527923
-20.223763,2.3959563,2.833404
-20.412601,2.4264128,2.8507595
-20.548494,2.4385574,2.8450017
-20.694254,2.455112,2.845542
-20.832756,2.4697735,2.8441525
-20.976767,2.4873052,2.8470836
-21.129578,2.509044,2.8561435
-21.25158,2.5197597,2.8510942
-21.38663,2.5362556,2.8542266
-21.513721,2.5503879,2.8546815
-21.647041,2.5677392,2.859941
-21.768309,2.5810103,2.8601594
-21.888357,2.5944786,2.8610792
-21.981768,2.5976496,2.8483744
-22.097038,2.610403,2.849103
-22.192408,2.6154401,2.8396277
-22.265694,2.6115744,2.818193
-22.29541,2.5892777,2.771481
-22.279722,2.5471675,2.6973119
-22.328693,2.532951,2.6618652
-22.329329,2.4973726,2.5966902
-22.324245,2.4588673,2.5273461
-20.127995,1.4273374,1.061513
-21.03248,1.7939475,1.5591469
-22.228016,2.3033116,2.2621408
-22.24316,2.2721145,2.2026587
-22.254194,2.2387078,2.140017
-22.185835,2.1671007,2.0228324
-22.235142,2.1511114,1.9849029
-22.22985,2.1085732,1.9089894
-22.220787,2.0636685,1.829576
-22.22385,1.9828255,1.6833935
-22.381111,2.020813,1.723876
-22.395111,1.9864433,1.6596913
-22.387596,1.9405665,1.5787153
-22.410984,1.9102988,1.5204315
-22.410833,1.8672972,1.4435134
-22.415094,1.8261235,1.3691998
-22.383354,1.7649755,1.2654476
-22.370707,1.713345,1.1755304
-22.332687,1.6469722,1.0637121
-22.36392,1.6182444,1.0074091
-22.356234,1.5673137,0.9181948
-22.373287,1.5297904,0.84880257
-22.362524,1.4757993,0.75485754
-22.381798,1.4385388,0.68576384
-22.392818,1.3959959,0.6087518
-22.383493,1.3407946,0.51272535
-32.576096,1.5309901,0.22429037
-32.50905,1.7493529,0.58297634
-32.507,1.8447957,0.7415056
-32.532063,1.8899951,0.81829405
-32.510742,2.0112417,1.01863
-32.54784,2.031853,1.0554323
-32.533638,2.134326,1.2251248
-32.518692,2.2341163,1.3903608
-32.55007,2.2586513,1.433495
-32.53868,2.3472526,1.5804548
-32.51596,2.449554,1.7495036
-32.503803,2.5328357,1.8876481
-32.5401,2.5438724,1.9088583
-32.5401,2.6057482,2.0122862
-32.585373,2.603087,2.0114112
-32.603264,2.63787,2.071054
-32.625916,2.6652944,2.1188202
-32.653954,2.6849105,2.1540084
-32.718834,2.7116132,2.2042904
-32.76454,2.7080548,2.2022858
-32.561867,3.0566666,2.7699485
-32.59128,3.067738,2.791234
-32.634514,3.062487,2.786376
-32.706753,3.0241892,2.7286305
-32.69482,3.0826256,2.8259602
-32.722343,3.0954318,2.8501906
-32.701847,3.1608331,2.9585433
-32.73093,3.1707683,2.9781795
-32.762512,3.1779175,2.9934082
-32.794884,3.184198,3.0072975
-32.826714,3.1910357,3.0221233
-32.868595,3.187574,3.0206003
-32.90361,3.1913064,3.0305963
-32.935287,3.1984234,3.0460272
-32.970207,3.2023437,3.0564313
-33.005577,3.2058954,3.0663075
-33.043854,3.2067533,3.0719752
-33.083652,3.2063339,3.0756888
-33.115036,3.2139137,3.0921226
-33.165474,3.2040193,3.0810037
-33.200397,3.2085848,3.0928059
-33.236313,3.2123294,3.1033735
-33.273247,3.2152631,3.1127248
-33.326977,3.2036934,3.0993338
-33.364594,3.2064342,3.1085396
-33.406498,3.2056565,3.1122923
-33.44957,3.204109,3.1149206
-33.49001,3.204959,3.121386
-33.529945,3.2063868,3.1288323
-33.57492,3.2039042,3.130249
-33.61834,3.2029142,3.1340857
-33.652794,3.209195,3.149334
-33.699734,3.205805,3.1495981
-33.745667,3.2034616,3.1515894
-33.792305,3.2008343,3.1532354
-33.841415,3.196609,3.1525044
-33.885376,3.1964989,3.158249
-33.926437,3.198718,3.1676826
-33.96752,3.2010682,3.177402
-34.018913,3.196183,3.1760554
-34.06744,3.1936417,3.1784315
-34.112408,3.193852,3.1851435
-34.164883,3.1890712,3.1842952
-34.206924,3.1917403,3.1949787
-34.257164,3.189016,3.1975021
-34.31071,3.1843524,3.1971798
-34.361244,3.1819954,3.2005
-34.41191,3.1798198,3.2042136
-34.45817,3.1807582,3.2127743
-34.519497,3.1722584,3.2071276
-34.570576,3.1706445,3.212059
-34.60722,3.17832,3.2311473
-34.653767,3.1799216,3.241147
-34.701035,3.181274,3.2508783
-34.756454,3.1778865,3.2535949
-34.793007,3.186101,3.2738528
-34.83425,3.191588,3.290102
-34.88372,3.192368,3.2994075
-34.929104,3.1957347,3.3126898
-34.96334,3.2056556,3.3358316
-34.99184,3.21886,3.3639169
-35.01732,3.2337184,3.3945017
-35.04824,3.2454758,3.420537
-35.082565,3.2553527,3.4438553
-35.749046,2.9214315,2.9610748
-35.763683,2.945586,3.0066466
-35.76482,2.9766982,3.0624099
-35.76977,3.0054216,3.114624
-35.777145,3.0325534,3.1644773
-35.7833,3.060023,3.2147899
-35.800858,3.0813708,3.2561808
-35.812824,3.1053724,3.3014212
-35.82062,3.1312346,3.3493361
-35.851376,3.1454723,3.380478
-35.865227,3.16797,3.4235454
-35.927536,3.1667914,3.4326844
-36.019875,3.1515105,3.421853
-36.063293,3.1600473,3.4452567
-36.115925,3.1643636,3.4627733
-36.1888,3.159465,3.467382
-36.272827,3.1498275,3.4655223
-36.32492,3.1552207,3.4851022
-36.3999,3.150486,3.4906096
-36.484592,3.1418161,3.4908476
-36.51855,3.156022,3.5232797
-36.576332,3.1598341,3.5413365
-36.618046,3.170823,3.5695128
-36.726685,3.1532664,3.55837
-36.813057,3.145814,3.5615196
-36.867897,3.1520476,3.5837379
-36.9448,3.1493275,3.593885
-37.027615,3.144568,3.6015148
-37.076786,3.153901,3.6285486
-37.17144,3.1450992,3.6312208
-37.249725,3.1433284,3.6436977
-37.290558,3.1566792,3.676724
-37.411724,3.1388164,3.6681814
-37.45337,3.1523235,3.7018175
-37.50921,3.160494,3.728507
-37.635384,3.142315,3.7206364
-37.677727,3.1561825,3.7553282
-37.81218,3.1361024,3.7457838
-37.86565,3.1464238,3.776321
-37.95086,3.1454313,3.7923903
-38.050003,3.139861,3.802885
-38.135483,3.13964,3.8206263
-38.2428,3.1321723,3.829454
-38.292767,3.145143,3.864647
-38.409115,3.135491,3.8714576
-38.48797,3.139176,3.8954926
-38.575657,3.1402407,3.9165654
-38.689938,3.1328864,3.9275439
-38.785828,3.1321635,3.9471886
-38.902275,3.1252234,3.9596078
-38.965416,3.1360033,3.9941306
-39.091076,3.127145,4.00511
-39.17661,3.131551,4.032611
-39.35125,3.1086495,4.0278287
-39.4253,3.1176333,4.061721
-39.54272,3.1137338,4.0807314
-39.653942,3.1122785,4.103139
-39.82534,3.0934901,4.105915
-40.018143,3.069354,4.1033497
-40.200478,3.0493302,4.1064386
-40.386917,3.029125,4.110221
-40.581142,3.0077252,4.1135883
-40.825607,2.973297,4.103395
-41.070744,2.9400606,4.0957828
-41.28411,2.916899,4.100498
-41.55459,2.8794327,4.090788
-41.781097,2.8552418,4.0968065
-42.012756,2.830915,4.10389
-42.35428,2.7791402,4.0832806
-42.6555,2.7396936,4.077433
-43.00345,2.6899974,4.06269
-43.28547,2.6588464,4.0688467
-43.558624,2.6314213,4.080363
-43.89558,2.5897794,4.079275
-44.308987,2.5314255,4.0637083
-44.789764,2.4592202,4.0371456
-45.14914,2.4184184,4.0435905
-45.64057,2.3487058,4.02488
-46.04442,2.3019016,4.030548
-46.60379,2.2218728,4.008235
-47.069656,2.1659336,4.011229
-47.722363,2.071083,3.982615
-48.378414,1.9790945,3.960751
-49.038704,1.8897831,3.945506
-49.484493,1.8497427,3.976173
-16.066713,2.0321944,2.8652973
-16.23554,2.033623,2.8310037
-16.72881,2.128656,2.9081182
-16.838985,2.1158454,2.8591971
-17.286701,2.2022612,2.9297485
-17.45874,2.209795,2.907145
-17.54005,2.1910381,2.8533254
-17.71809,2.2018373,2.8359962
-17.925468,2.2225504,2.8316536
-18.722393,2.4270177,3.0560446
-18.89475,2.4411066,3.0466213
-19.09256,2.464183,3.0492082
-19.265793,2.4805026,3.044107
-19.42086,2.4918866,3.0334616
-19.614433,2.5167062,3.0406013
-19.743122,2.5211544,3.0223966
-19.879486,2.528822,3.00885
-19.926353,2.5069113,2.9574766
-19.946495,2.4759104,2.8943863
-20.017502,2.462353,2.8541617
-20.154446,2.4720778,2.844818
-20.312626,2.4900396,2.8468876
-20.454836,2.503196,2.8431797
-20.594074,2.5160656,2.8396235
-20.73377,2.5298724,2.8378415
-20.915573,2.5599937,2.8585386
-21.036474,2.5685306,2.8507447
-21.166355,2.581098,2.848855
-21.321907,2.6041713,2.8617492
-21.452568,2.6186056,2.8633895
-21.552769,2.6219385,2.850244
-21.845531,2.7014904,2.9425306
-22.051289,2.7485878,2.9910097
-22.11832,2.7413874,2.9648247
-22.20589,2.7427716,2.9508076
-22.251625,2.727427,2.91367
-22.278025,2.7041373,2.8654943
-22.273994,2.6680026,2.7992668
-22.317379,2.6515622,2.7607856
-22.279068,2.6002204,2.6729336
-22.319254,2.582112,2.6321244
-22.342184,2.5564723,2.580659
-20.15696,1.556056,1.1346436
-20.186296,1.5226991,1.0679922
-22.210194,2.3881123,2.2947893
-22.231838,2.3602872,2.2398753
-22.259377,2.3349795,2.1886148
-22.264893,2.299285,2.1223106
-22.267958,2.2620726,2.0537477
-22.256369,2.2175028,1.9743905
-22.221224,2.1610732,1.8775697
-22.20837,2.1146524,1.7952304
-22.15341,2.0469995,1.6815534
-22.240738,2.0487907,1.6699653
-22.407423,2.049638,1.6434379
-22.401274,2.0049016,1.5634608
-22.405495,1.9649537,1.4905128
-22.401686,1.9203455,1.4105563
-22.410315,1.881732,1.3394718
-22.395845,1.8303564,1.2492247
-22.489178,1.8363845,1.245019
-22.407625,1.7476273,1.0984769
-22.35905,1.6755044,0.9766569
-22.358387,1.6288877,0.8931184
-22.376095,1.5919917,0.82421017
-22.370132,1.5412192,0.73424053
-22.374813,1.4958565,0.65239
-22.389277,1.4555821,0.57821846
-22.384699,1.4036298,0.486207
-32.51963,1.7755475,0.5303321
-32.546497,1.8204434,0.60756063
-32.51643,1.9600787,0.8409481
-32.518677,2.0405014,0.9766369
-32.54345,2.081258,1.0469537
-32.51953,2.1980422,1.2424002
-32.52612,2.2628353,1.3521972
-32.522552,2.3408315,1.4836578
-32.536865,2.3892248,1.5664053
-32.52543,2.4738655,1.7086625
-32.52224,2.5436528,1.8264513
-32.541954,2.578627,1.8870678
-32.546177,2.6340823,1.9812589
-32.604023,2.6144903,1.9524479
-32.607727,2.6684618,2.0441957
-32.64478,2.676767,2.061171
-32.649963,2.726301,2.145619
-32.701035,2.715869,2.1320262
-32.731255,2.7321138,2.1620908
-32.512093,3.1027093,2.7737522
-32.557076,3.0949314,2.7643666
-32.59212,3.0992486,2.7747583
-32.62629,3.1046133,2.7869062
-32.672516,3.0962691,2.7768073
-32.692303,3.1179864,2.8156428
-32.71979,3.1307201,2.839899
-32.694458,3.2006876,2.9570475
-32.73841,3.194539,2.9506783
-32.76919,3.2026432,2.967476
-32.799393,3.2112918,2.985196
-32.83082,3.2186093,3.0008035
-32.863518,3.2246056,3.0143209
-32.903145,3.2237046,3.0167508
-32.95372,3.2122447,3.0022187
-32.99984,3.205596,2.9955392
-33.039406,3.2055693,2.9996066
-33.07757,3.207047,3.0061622
-33.09897,3.224259,3.0380654
-33.155975,3.2085123,3.0170765
-33.181126,3.222217,3.043438
-33.241188,3.2045362,3.0195432
-33.257442,3.226148,3.0586643
-33.321114,3.2060938,3.0311723
-33.35327,3.2138324,3.0482082
-33.394333,3.2140012,3.0532155
-33.440815,3.2098112,3.051352
-33.47232,3.2183087,3.0697756
-33.52663,3.2081525,3.0585856
-33.54763,3.2253184,3.0909057
-33.586655,3.227885,3.10008
-33.629623,3.227479,3.1046152
-33.69758,3.2078393,3.0787935
-33.716938,3.226212,3.113215
-33.769367,3.219235,3.1076274
-33.819122,3.2146268,3.1058884
-33.844444,3.2284403,3.1332593
-33.907936,3.214164,3.116489
-33.950977,3.2152338,3.1239653
-33.992264,3.217734,3.13377
-34.04447,3.2126577,3.1317887
-34.10359,3.2030756,3.1228757
-34.145157,3.2060487,3.1337042
-34.18364,3.2112725,3.1481252
-34.257065,3.1929836,3.1260076
-34.302658,3.1939101,3.133947
-34.343876,3.1979218,3.1467714
-34.40361,3.1899695,3.1411333
-34.444942,3.194293,3.154633
-34.526447,3.1730947,3.1287847
-34.553677,3.186854,3.1570702
-34.62999,3.1698904,3.1380825
-34.66837,3.1769466,3.156219
-34.700687,3.1877842,3.180232
-34.75566,3.1849267,3.18332
-34.78985,3.1947842,3.2059817
-34.817104,3.2087564,3.2349868
-34.892044,3.194783,3.2214518
-34.932945,3.2010338,3.2388725
-34.960625,3.2149508,3.2680144
-35.00204,3.2210357,3.285334
-35.035694,3.2315788,3.309482
-35.063557,3.2453463,3.3385587
-35.103287,3.2525609,3.3578115
-35.08149,3.2932289,3.4274201
-35.71883,2.9796636,2.965713
-35.754974,2.9920976,2.9939609
-35.766228,3.0176196,3.041819
-35.782875,3.0400753,3.0850916
-35.79767,3.06329,3.1294942
-35.812057,3.086499,3.173884
-35.82233,3.1115725,3.221027
-35.83889,3.133266,3.263163
-35.85358,3.1557064,3.3064022
-35.8762,3.1740885,3.3436794
-35.976013,3.1551094,3.326253
-36.013714,3.1664727,3.3534698
-36.066624,3.170698,3.370366
-36.138054,3.1664596,3.3751016
-36.232155,3.1521077,3.365388
-36.27213,3.1631384,3.3926554
-36.340157,3.1615255,3.401794
-36.42483,3.1527784,3.4008803
-36.51374,3.1426373,3.398232
-36.536285,3.162167,3.4382558
-36.60478,3.1616309,3.4497285
-36.66217,3.1661954,3.4686503
-36.78958,3.1411796,3.4458709
-36.812534,3.1610036,3.4867902
-36.879833,3.162259,3.5016317
-36.98961,3.1462984,3.492556
-37.031036,3.1589,3.523746
-37.107666,3.1573594,3.5353622
-37.21498,3.143931,3.5307436
-37.2464,3.1611404,3.5688305
-37.37247,3.1413066,3.5559983
-37.424667,3.150845,3.5838985
-37.477615,3.1602554,3.6117811
-37.60965,3.1398563,3.599269
-37.658493,3.151453,3.630602
-37.746254,3.1487422,3.642775
-37.84184,3.1435952,3.6519876
-37.883762,3.15843,3.6882777
-38.036194,3.1336346,3.6719074
-38.06521,3.1536307,3.7155209
-38.192455,3.1390603,3.713583
-38.264587,3.1443784,3.7382655
-38.328022,3.1529908,3.7675114
-38.47433,3.133624,3.7605891
-38.55279,3.1379447,3.784914
-38.651485,3.135866,3.8012943
-38.708,3.1481645,3.8364692
-38.86521,3.127832,3.8302913
-38.9475,3.1325393,3.856485
-39.07251,3.123986,3.8663054
-39.149582,3.131197,3.8963804
-39.2875,3.119761,3.9035616
-39.359276,3.1294422,3.9374452
-39.48861,3.1218612,3.9504056
-39.61637,3.1154218,3.9653234
-39.734386,3.1125374,3.9851143
-39.79715,3.1265044,4.025713
-39.9499,3.1144824,4.035491
-40.095665,3.1052809,4.0493193
-40.19682,3.1095204,4.0796585
-40.313595,3.109827,4.1058507
-40.558353,3.0751278,4.091989
-40.776146,3.04922,4.0894537
-40.977837,3.028883,4.094354
-41.175343,3.0107594,4.102764
-41.4643,2.9694593,4.086194
-41.71774,2.939086,4.0832605
-41.960587,2.9128458,4.0861907
-42.201153,2.8885033,4.0924644
-42.510654,2.8480601,4.082652
-42.845345,2.803053,4.0696487
-43.201572,2.7546,4.054848
-43.45302,2.7335954,4.070679
-43.794685,2.692259,4.066923
-44.20056,2.637571,4.0514975
-44.60644,2.5851233,4.0406694
-45.024635,2.5320573,4.031598
-45.448498,2.4799867,4.0259724
-45.895187,2.4250863,4.020141
-46.37815,2.3645587,4.0116515
-46.93106,2.291339,3.9942107
-47.415092,2.2360246,3.9967651
-47.981674,2.165714,3.9887257
-48.562817,2.09541,3.9843102
-49.2337,2.0096297,3.9700632
-15.829231,2.0984616,2.838066
-16.07296,2.1185176,2.8265514
-16.272133,2.127553,2.802825
-16.75371,2.2166536,2.877491
-17.041824,2.253861,2.8907518
-17.338184,2.2950654,2.910245
-17.547392,2.3127048,2.9017649
-17.650217,2.3002715,2.856556
-17.800968,2.3024695,2.8301706
-18.05952,2.3377612,2.8463364
-18.725533,2.4982314,3.023178
-18.932869,2.5222073,3.0279503
-19.107483,2.5371892,3.0219827
-19.286993,2.5546582,3.019946
-19.427006,2.5605729,3.0035667
-19.58797,2.5739326,2.9974895
-19.713287,2.5765884,2.9779382
-19.841042,2.5806668,2.960741
-19.911682,2.5664241,2.919639
-19.931004,2.5351782,2.85603
-20.051647,2.5381768,2.8384385
-20.214533,2.5562756,2.841662
-20.360504,2.5694304,2.83879
-20.505201,2.5829442,2.8369398
-20.66062,2.6010637,2.8419127
-20.80698,2.6168313,2.8442187
-20.937557,2.627711,2.8403077
-21.06607,2.6385517,2.8367991
-21.332722,2.7012515,2.905818
-21.698889,2.8030176,3.0303373
-21.787926,2.8025842,3.013092
-21.886017,2.806035,3.0015917
-21.978916,2.8079765,2.9882793
-22.057562,2.804812,2.9680324
-22.121298,2.7961051,2.9401503
-22.203148,2.7948506,2.9230719
-22.252184,2.780738,2.8878493
-22.292427,2.7631404,2.8477483
-22.33291,2.7456632,2.807908
-22.327623,2.7091508,2.7406673
-22.307713,2.6660988,2.6638718
-22.312584,2.6330628,2.6014915
-22.361029,2.6184437,2.5659018
-22.40093,2.6001954,2.5251188
-20.93577,1.9212525,1.5161719
-22.224731,2.4501245,2.2768855
-22.245523,2.4220986,2.2214742
-22.257446,2.3898535,2.1598358
-22.276117,2.3604078,2.1023188
-22.282194,2.3248997,2.0357966
-22.259785,2.2757077,1.9488521
-22.220015,2.217652,1.8485312
-22.119946,2.1299493,1.7036405
-20.288712,1.1541903,0.20933151
-22.295362,2.0924513,1.6065216
-22.39441,2.1004376,1.6053414
-22.425219,2.074612,1.5532398
-22.405067,2.0226736,1.4615574
-22.412193,1.9840443,1.3899717
-22.39172,1.930619,1.295795
-22.402588,1.8929086,1.2254715
-22.38258,1.8383675,1.1293612
-22.426388,1.817316,1.0844498
-22.35497,1.7336378,0.943418
-22.363472,1.6923988,0.86739016
-22.381145,1.6557443,0.7983818
-22.373737,1.6046188,0.7070017
-22.376997,1.5588212,0.62376595
-22.401745,1.5247309,0.5586138
-22.320604,1.4289277,0.39762115
-32.52228,1.8199275,0.5045805
-32.534798,1.8889918,0.62317324
-32.502644,2.0301247,0.8622484
-32.519505,2.0852246,0.9573784
-32.545776,2.1231682,1.023829
-32.51282,2.2529418,1.2436295
-32.554977,2.2619956,1.2617998
-32.526752,2.3772638,1.4572077
-32.53192,2.4388204,1.5629287
-32.53268,2.5046575,1.6757421
-32.521072,2.5858839,1.8141336
-32.539352,2.6224773,1.8781433
-32.560677,2.6537542,1.9333019
-32.576683,2.6912982,1.9988847
-32.596928,2.7220943,2.053244
-32.63379,2.73035,2.0701714
-32.67612,2.7315164,2.0753775
-32.70786,2.7461789,2.1030307
-32.751244,2.7461262,2.1063237
-32.644352,2.9293644,2.4133282
-32.522503,3.1247683,2.740139
-32.555176,3.1318555,2.7550192
-32.590588,3.135716,2.764606
-32.625134,3.1406162,2.77596
-32.65753,3.1479607,2.791397
-32.720753,3.121114,2.7504683
-32.736572,3.1469674,2.7965446
-32.770542,3.1527221,2.8095098
-32.81192,3.1506426,2.8096237
-32.76201,3.244016,2.9668093
-32.811512,3.2326796,2.9517198
-32.847633,3.2353957,2.9598002
-32.883293,3.2386777,2.968862
-32.91847,3.2425203,2.9788976
-32.952194,3.2478397,2.9914036
-33.01312,3.227151,2.9613924
-33.05186,3.2281568,2.9669805
-33.090153,3.2297354,2.973566
-33.133415,3.2268867,2.9729881
-33.1818,3.2196507,2.9653292
-33.220833,3.2211614,2.972011
-33.263977,3.219188,2.9730878
-33.303112,3.220946,2.9803066
-33.336548,3.227748,2.9957833
-33.374104,3.2310686,3.00566
-33.413773,3.2327209,3.0128937
-33.458298,3.230504,3.013928
-33.503487,3.2279925,3.0145664
-33.542797,3.230481,3.0233684
-33.58929,3.2273784,3.023212
-33.6337,3.2261853,3.0262227
-33.669792,3.2316864,3.0400972
-33.725662,3.2220662,3.0297022
-33.770966,3.2208893,3.0329924
-33.80542,3.228075,3.0497885
-33.8363,3.2379396,3.0709343
-33.9116,3.2152698,3.0400343
-33.95142,3.218991,3.051509
-33.99601,3.2194266,3.057808
-34.02504,3.2310488,3.0820336
-34.08782,3.2190523,3.068677
-34.129574,3.222048,3.0793104
-34.178116,3.2205596,3.0828967
-34.229256,3.2175672,3.084196
-34.270542,3.221424,3.0964527
-34.332615,3.211716,3.087329
-34.396263,3.2014208,3.0774183
-34.443607,3.202079,3.0849295
-34.503902,3.1946971,3.079875
-34.541107,3.2022502,3.098442
-34.586716,3.2046251,3.1089458
-34.648808,3.1970263,3.103908
-34.71712,3.1860366,3.093708
-34.735092,3.2058482,3.1317954
-34.76949,3.2156706,3.1543102
-34.84702,3.2001019,3.1373463
-34.883488,3.2090402,3.1586728
-34.917107,3.2196653,3.1826835
-34.95541,3.2276325,3.2026343
-34.989464,3.2380648,3.22647
-35.023384,3.2485936,3.250515
-35.055054,3.2603812,3.2765594
-35.11341,3.2575924,3.2802467
-35.10083,3.2934258,3.3433385
-35.736908,2.9821084,2.87472
-35.739006,3.0128622,2.930935
-35.755726,3.035594,2.9748669
-35.771324,3.0587032,3.0193744
-35.788715,3.0806847,3.0621667
-35.80573,3.102673,3.1049743
-35.82162,3.1250374,3.1483536
-35.83862,3.1466644,3.1906204
-35.84328,3.1741724,3.241745
-35.905365,3.1735039,3.2505174
-35.98269,3.1658118,3.2489276
-36.05725,3.1598842,3.2501903
-36.104538,3.1671984,3.2714028
-36.17404,3.1643133,3.2775588
-36.240627,3.163129,3.286429
-36.301918,3.1646836,3.2995338
-36.37731,3.1601496,3.3038182
-36.494427,3.1374073,3.2815228
-36.506676,3.1617408,3.3286839
-36.550144,3.172244,3.3555937
-36.608593,3.1763697,3.3733006
-36.75405,3.1435196,3.3373637
-36.7985,3.1544242,3.3653855
-36.867798,3.1550274,3.3786192
-36.95903,3.1468623,3.3794117
-37.01561,3.1534102,3.401639
-37.072983,3.1598406,3.4238563
-37.16393,3.1530087,3.4272957
-37.226326,3.1580036,3.4478598
-37.287083,3.1638925,3.4698753
-37.416687,3.1432545,3.454576
-37.443546,3.1629276,3.4965
-37.533665,3.1584814,3.5046263
-37.62147,3.1553729,3.5149212
-37.693443,3.1586041,3.5343385
-37.818764,3.1424944,3.527153
-37.874035,3.152644,3.556704
-38.013607,3.1325793,3.544837
-38.05702,3.1476376,3.5816226
-38.116554,3.1570892,3.6108766
-38.25529,3.139107,3.6030383
-38.30803,3.1516154,3.636973
-38.42831,3.1412127,3.640213
-38.492317,3.1504679,3.670258
-38.589455,3.1488907,3.6860642
-38.699883,3.1433976,3.6970305
-38.805252,3.1401238,3.7113485
-38.90021,3.1407413,3.731182
-39.02979,3.1307468,3.7374997
-39.10729,3.1378953,3.7666268
-39.234634,3.129793,3.7763162
-39.32651,3.13331,3.8014636
-39.430977,3.133398,3.8225837
-39.567,3.1244578,3.8326464
-39.66455,3.1277122,3.858685
-39.7757,3.127399,3.8806376
-39.915966,3.1191282,3.893126
-40.014687,3.1235619,3.9219644
-40.148056,3.118566,3.9396067
-40.277058,3.1154745,3.9601598
-40.427284,3.107113,3.974884
-40.527252,3.113349,4.007874
-40.655754,3.1122737,4.0325556
-40.804676,3.106338,4.0520535
-40.921413,3.109693,4.0831766
-41.12445,3.0909705,4.089066
-41.39858,3.0549312,4.075902
-41.600754,3.0388246,4.086977
-41.864014,3.0083547,4.0827265
-42.15318,2.972866,4.0741663
-42.415844,2.9455004,4.07616
-42.708218,2.9123275,4.073107
-43.046467,2.8697286,4.0612974
-43.37609,2.8310394,4.055533
-43.650635,2.807043,4.067265
-44.01476,2.7638025,4.060148
-44.439514,2.7087212,4.0426908
-44.872864,2.6540425,4.0280538
-45.28621,2.6061792,4.0228395
-45.691803,2.5622551,4.0239754
-46.104866,2.5188982,4.0280457
-46.6653,2.4463341,4.0060234
-47.168373,2.3888943,4.0019484
-47.706047,2.3269916,3.9967132
-48.440224,2.227808,3.9600496
-49.021614,2.1634362,3.9599285
-15.635468,2.1824942,2.8256311
-16.058647,2.2475173,2.8706703
-16.15285,2.2270865,2.8117533
-16.417078,2.2529752,2.8110046
-17.116085,2.3563542,2.8782134
-17.325888,2.37192,2.868105
-17.51252,2.3820338,2.8518844
-17.679777,2.387557,2.8305078
-17.847668,2.3941116,2.8111405
-18.0918,2.4239297,2.8227944
-18.729317,2.5720863,2.9907446
-18.865122,2.573471,2.9677057
-19.054293,2.591758,2.967607
-19.177988,2.5909414,2.9427643
-19.311302,2.5937102,2.923184
-19.464735,2.6034794,2.9135275
-19.564934,2.5971112,2.8825865
-19.682674,2.5968282,2.8602715
-19.78888,2.5933552,2.8340101
-19.955217,2.6101694,2.8359728
-20.104527,2.6222463,2.8320045
-20.25603,2.6358771,2.83072
