x,y,z
-28.264105,3.2126853,2.7129989
-28.302063,3.2145514,2.7140508
-28.338985,3.215095,2.7128758
-28.375235,3.214786,2.710281
-28.412956,3.2169714,2.7120242
-28.449394,3.2173457,2.7106972
-28.486069,3.2183022,2.7104177
-28.52268,3.2193608,2.7103605
-28.558943,3.2200396,2.7096934
-28.595423,3.2213016,2.7100759
-28.633167,3.2250807,2.7148466
-28.669474,3.2265484,2.7156754
-28.704683,3.2261782,2.7133756
-28.739866,3.2259026,2.7112813
-28.775019,3.2257226,2.7093945
-28.810854,3.2270968,2.7102337
-28.845694,3.2266204,2.7079177
-28.881414,3.2281873,2.709177
-28.915743,3.2269237,2.7055802
-28.951141,3.2281935,2.7064085
-28.986061,3.2285802,2.7057505
-29.020538,3.2280817,2.703599
-29.056957,3.232577,2.7101374
-29.091526,3.232756,2.7092419
-29.126064,3.233027,2.7085457
-29.15968,3.2309303,2.7037854
-29.194351,3.2318738,2.7043343
-29.228643,3.2319243,2.703374
-29.264029,3.2355163,2.7085958
-29.297302,3.2327893,2.7028956
-29.331802,3.2340977,2.7042365
-29.366108,3.2350037,2.7049165
-29.400505,3.2364943,2.7066517
-29.434458,3.2365913,2.7060056
-29.469748,3.2422242,2.7150102
-29.503119,3.240519,2.7113132
-29.537516,3.2433622,2.7155528
-29.571512,3.244808,2.717404
-29.605457,3.2463424,2.7194476
-29.638884,3.245483,2.717369
-29.672316,3.2447095,2.715479
-29.705431,3.242033,2.710318
-29.738224,3.236955,2.7010188
-29.770994,3.2309651,2.6901708
-29.803835,3.2245598,2.6786366
-29.836939,3.2192335,2.6690125
-29.869556,3.2080152,2.6491814
-29.903196,3.2053452,2.644249
-29.93471,3.1743658,2.590128
-29.965525,3.1210396,2.4971824
-29.99908,3.095195,2.4520564
-30.030241,2.9941752,2.2762375
-30.055592,2.5961533,1.5839591
-41.25859,1.2725971,0.2696023
-41.232487,1.3337915,0.38131857
-41.282814,1.4120283,0.5372591
-41.23444,1.4805074,0.65963745
-41.25118,1.5220244,0.7410965
-41.24444,1.5725188,0.83603144
-41.180443,1.6449347,0.9637356
-41.238117,1.669209,1.0191474
-41.264988,1.705342,1.0923572
-41.255707,1.7549825,1.1856542
-41.26631,1.7966666,1.2670474
-41.227016,1.8565423,1.3752632
-41.252773,1.8918252,1.4470568
-41.219967,1.9481792,1.5497761
-41.239307,1.9851649,1.6239777
-41.178425,2.0504117,1.7393475
-41.176712,2.0940356,1.8230209
-41.181942,2.1348739,1.9025822
-41.195053,2.1726913,1.9777312
-41.272884,2.1882782,2.0209389
-41.277237,2.228795,2.1000156
-41.39693,2.2306967,2.124032
-41.425545,2.2630737,2.1916642
-41.228638,2.4891999,2.5972352
-41.14778,2.5538945,2.7092695
-41.234127,2.5664372,2.7488708
-41.34527,2.5717869,2.7788658
-41.42704,2.5864377,2.8219686
-41.336964,2.6522892,2.9350128
-41.423325,2.665585,2.9764614
-41.528465,2.6737716,3.0113235
-41.66788,2.6726084,3.0340428
-41.783955,2.6787257,3.0669856
-41.89733,2.6861145,3.102044
-41.99707,2.6977684,3.1431413
-42.112244,2.7056236,3.1796389
-42.252106,2.7073367,3.2085943
-42.39025,2.7101746,3.2395616
-42.52481,2.7146082,3.2731314
-42.669567,2.71702,3.3046718
-42.83568,2.7146463,3.3307567
-42.96122,2.7233658,3.371481
-43.096947,2.7300973,3.4102478
-43.220585,2.7404337,3.454049
-43.29752,2.7626941,3.51301
-43.420925,2.774025,3.558968
-43.449596,2.80839,3.633263
-43.54351,2.827416,3.6892738
-43.584488,2.8590422,3.7606258
-44.433372,2.7062964,3.615549
-44.455257,2.7447429,3.697197
-44.454792,2.788066,3.7844973
-44.457466,2.8304799,3.8706818
-44.451897,2.8744776,3.95859
-44.46757,2.9137034,4.041071
-44.500797,2.949127,4.119373
-44.684566,2.9533353,4.163793
-45.17677,2.89539,4.142331
-45.6662,2.840683,4.127036
-46.172005,2.7853725,4.1138544
-46.617195,2.74465,4.1186123
-47.136414,2.6920223,4.1138134
-47.681664,2.6372285,4.1098804
-48.303303,2.5710583,4.097968
-48.948326,2.5039124,4.0888596
-49.609013,2.437375,4.084278
-50.26883,2.374511,4.087234
-51.02984,2.2973628,4.0812526
-51.99172,2.1895285,4.0525875
-52.76699,2.1185925,4.0626416
-53.90853,1.9904499,4.0286646
-54.943386,1.8859653,4.022238
-1.3514538,1.5012953,3.647873
-1.392456,1.4285657,3.4885807
-1.5088291,1.3678923,3.3402119
-1.6397476,1.3099625,3.194991
-1.7012863,1.2409537,3.0401611
-1.7268276,1.1659188,2.8798761
-1.7456818,1.0895851,2.7183762
-1.760809,1.012404,2.5560389
-1.8129578,0.9415643,2.4000425
-1.7760735,0.8546636,2.2278452
-1.8226814,0.7825098,2.0706024
-1.8017979,0.69774723,1.9002361
-1.8573723,0.6269553,1.7445455
-1.8793297,0.5496967,1.5820403
-1.8832169,0.4686973,1.4154301
-1.3569584,0.28270912,1.132101
-3.230276,0.5739546,1.3823714
-1.9040661,0.22550297,0.9147701
-2.3659573,0.23756504,0.8548331
-7.648201,0.8537252,1.1486778
-7.8057404,0.82103634,1.0545788
-8.44883,0.9022553,1.1037412
-8.842436,0.92809105,1.0858793
-9.061848,0.91427493,1.0192847
-9.0161495,0.8371155,0.8724122
-9.664927,0.93003225,0.944736
-9.698738,0.8735337,0.8256397
-9.960575,0.8743799,0.78162766
-11.153444,1.1143184,1.0535932
-11.76421,1.2110052,1.140698
-11.187801,1.0003707,0.82035017
-11.161968,0.93158937,0.68783665
-11.199245,0.8791878,0.5772257
-12.404583,1.1440568,0.8974395
-12.396681,1.0828059,0.7772503
-13.62104,1.3642149,1.1273198
-13.656664,1.3184962,1.030797
-12.66564,0.9798436,0.52798367
-14.390438,1.4178708,1.1039085
-14.072332,1.2707047,0.8667135
-14.028721,1.202074,0.7387328
-14.312176,1.2305417,0.7477999
-15.557649,1.4999528,1.0720558
-15.403505,1.4001477,0.9015093
-15.297697,1.3139856,0.74993134
-15.1925955,1.2268801,0.5965085
-15.420847,1.2454395,0.5959072
-15.289195,1.148576,0.42793465
-22.954565,2.9578435,2.745049
-23.053112,2.966655,2.7477365
-23.147398,2.9742126,2.7487063
-23.248375,2.985195,2.7553
-23.348179,2.9962702,2.7622948
-23.446045,3.0070899,2.7691355
-23.532778,3.013531,2.7692876
-23.660446,3.0389268,2.799724
-23.712963,3.0309513,2.7774262
-23.785923,3.032563,2.7705092
-23.86998,3.0397158,2.772604
-23.94402,3.042636,2.7681236
-24.02529,3.04939,2.7699552
-24.095179,3.051136,2.7639294
-24.16857,3.0549436,2.761374
-24.243935,3.0601206,2.7611866
-24.316868,3.0645134,2.7598996
-24.391735,3.0702846,2.7610002
-24.461311,3.0737963,2.7586036
-24.534248,3.0794148,2.7597737
-24.60125,3.082369,2.7567687
-24.67229,3.087806,2.7579465
-24.73817,3.0909133,2.7554736
-24.805248,3.0950208,2.7547703
-24.868645,3.097506,2.7515488
-24.93186,3.1002297,2.748846
-24.991476,3.1012936,2.7435436
-25.054342,3.104485,2.7418537
-25.12039,3.109828,2.7438293
-25.181503,3.1127298,2.741911
-25.235111,3.1116047,2.7334661
-25.29921,3.116883,2.735701
-25.356503,3.1185033,2.7320065
-25.41234,3.1195478,2.7274642
-25.46869,3.1211863,2.724009
-25.531961,3.1273732,2.7282133
-25.587957,3.1294346,2.725675
-25.64063,3.129705,2.7202554
-25.699476,3.134159,2.7219048
-25.751247,3.1344116,2.7166462
-25.810335,3.1396813,2.7198634
-25.866737,3.1435494,2.720842
-25.919289,3.1451826,2.718176
-25.97593,3.1498537,2.720696
-26.025764,3.1502254,2.7160964
-26.074894,3.150356,2.711174
-26.120384,3.1481776,2.702446
-26.175772,3.153184,2.7058935
-26.223982,3.153402,2.7013612
-26.280718,3.1600366,2.707737
-26.32523,3.1580877,2.6997075
-26.37139,3.1575403,2.694116
-26.424751,3.1626215,2.6981254
-26.47623,3.1666217,2.7003918
-26.524776,3.1686778,2.6994443
-26.57155,3.1696198,2.696683
-26.613358,3.1668725,2.6877227
-26.666897,3.1736789,2.6950712
-26.715954,3.177235,2.6969752
-26.763268,3.1796622,2.6970325
-26.811478,3.1831112,2.698905
-26.856438,3.1841187,2.6966844
-26.900276,3.1844,2.6932907
-26.944527,3.185257,2.6909432
-26.987682,3.1853788,2.6874037
-27.031742,3.1865134,2.6856604
-27.077642,3.1895487,2.6872363
-27.122911,3.1922925,2.6883793
-27.166132,3.19341,2.686799
-27.210663,3.1959956,2.6877995
-27.252262,3.1960523,2.6845188
-27.295628,3.1980217,2.6845841
-27.340237,3.2014694,2.6872544
-27.381994,3.2023675,2.6855984
-27.424105,3.2038438,2.6849942
-27.463917,3.2031944,2.6807842
-27.504976,3.20402,2.6791697
-27.546375,3.2054226,2.6786084
-27.585983,3.2051346,2.6751804
-27.62637,3.2058742,2.6735802
-27.670778,3.2112982,2.6801343
-27.711748,3.213204,2.680664
-27.751812,3.2143166,2.6798725
-27.791786,3.215549,2.6793413
-27.83089,3.2159784,2.6774702
-27.871841,3.2188303,2.6798487
-27.911907,3.2208812,2.6808915
-27.949266,3.219807,2.6765609
-27.988422,3.22116,2.6764908
-28.02821,3.223559,2.678288
-28.06682,3.2246761,2.6779084
-28.10744,3.2287085,2.6826468
-28.143108,3.2263105,2.6762466
-28.179121,3.224479,2.6708732
-28.217115,3.225564,2.6706223
-28.256334,3.22864,2.6738887
-28.294788,3.230888,2.6757593
-28.332197,3.2318304,2.6754007
-28.368917,3.2319326,2.6736197
-28.4068,3.234032,2.6753693
-28.443693,3.2348158,2.6748662
-28.481106,3.2366536,2.6762476
-28.518143,3.2381206,2.6770263
-28.555101,3.2396917,2.6780305
-28.591978,3.2413666,2.6792593
-28.629574,3.244579,2.6832204
-28.665745,3.2455034,2.6832242
-28.700832,3.24461,2.6800847
-28.73665,3.2452507,2.6796713
-28.772661,3.2464695,2.680313
-28.808603,3.2477877,2.681169
-28.843319,3.2467945,2.6780138
-28.87825,3.246375,2.6759033
-28.912718,3.245083,2.6723008
-28.94804,3.2458167,2.6722903
-28.98352,3.2471297,2.673335
-29.017725,3.2456298,2.6694827
-29.053896,3.2490728,2.674345
-29.089382,3.2511575,2.6768622
-29.124052,3.2513928,2.6761718
-29.158867,3.2522073,2.676536
-29.193636,3.2531142,2.6770997
-29.228687,3.2550886,2.6795793
-29.263504,3.2566683,2.6814032
-29.297644,3.2563875,2.6799936
-29.331472,3.255218,2.6770568
-29.365448,3.2546248,2.675171
-29.399824,3.25559,2.6760616
-29.434286,3.2571344,2.6780095
-29.469183,3.2607317,2.6836061
-29.503033,3.2604966,2.682496
-29.537428,3.2628043,2.6858974
-29.571644,3.264711,2.68863
-29.605497,3.2652333,2.688962
-29.639046,3.264369,2.6868873
-29.6726,3.2635903,2.6849995
-29.70616,3.262899,2.6833005
-29.738827,3.256386,2.671381
-29.771233,3.247,2.6544337
-29.804235,3.2406507,2.6428704
-29.83727,3.2333992,2.6297498
-29.870226,3.2237656,2.6124668
-29.90359,3.2161875,2.5988388
-29.935263,3.1845276,2.5428076
-29.96701,3.1420915,2.4678178
-30.0004,3.111079,2.4129896
-30.032888,3.0387032,2.2852974
-30.057873,2.6313548,1.5672698
-41.192604,1.4254827,0.37742567
-41.161896,1.4871006,0.49060297
-41.223194,1.5109394,0.5450926
-41.200275,1.5683601,0.6515722
-41.254898,1.5945873,0.7098379
-41.200092,1.6634407,0.8336978
-41.20855,1.7070122,0.9185581
-41.211327,1.7523801,1.0061121
-41.280083,1.772479,1.0550942
-41.260864,1.8255126,1.1542659
-41.269783,1.8676059,1.236721
-41.21957,1.930923,1.3511801
-41.23939,1.9681878,1.4261699
-41.18459,2.0318341,1.5407419
-41.22233,2.0620332,1.6050177
-41.16468,2.1254222,1.7188311
-41.17562,2.164345,1.7960143
-41.18421,2.2037983,1.8739481
-41.178432,2.2478142,1.95857
-41.20803,2.2796488,2.0251908
-41.249226,2.3075476,2.08608
-41.343723,2.3180485,2.1216612
-41.376465,2.348826,2.1869903
-41.40962,2.379393,2.2520647
-41.444935,2.4092038,2.3160992
-41.457855,2.4459338,2.3901305
-41.19796,2.566421,2.5838957
-41.152267,2.619596,2.680769
-41.247498,2.6297853,2.7164755
-41.4681,2.6031032,2.7004685
-41.46907,2.6421916,2.7776103
-41.59021,2.6461287,2.8055668
-41.559757,2.694108,2.8951788
-41.710327,2.6903048,2.9129605
-41.798855,2.704634,2.9562416
-41.905365,2.714323,2.993466
-42.009125,2.7252176,3.0327044
-42.136497,2.7301702,3.0642633
-42.263935,2.7356925,3.0970592
-42.410652,2.7367232,3.1243196
-42.515297,2.7494087,3.1676407
-42.684254,2.7460003,3.1900816
-42.85898,2.7419744,3.2123852
-42.984005,2.7512755,3.2527728
-43.13033,2.755864,3.287548
-43.26464,2.764074,3.3275723
-43.360764,2.7820997,3.3806696
-43.45389,2.801206,3.4355092
-43.5571,2.8182952,3.4881783
-43.61512,2.846268,3.5548348
-44.452778,2.6960905,3.401404
-44.458015,2.738623,3.488216
-44.448452,2.7842534,3.5787425
-44.44953,2.8272653,3.6659927
-44.45849,2.8683593,3.7508879
-44.465878,2.909627,3.8359585
-44.478355,2.9496574,3.919548
-44.50739,2.9861186,3.9990017
-44.543533,3.0210946,4.0768385
-44.786755,3.0143132,4.1075826
-45.02637,3.009477,4.1417437
-45.383297,2.9828649,4.153116
-45.91579,2.9242473,4.1315346
-46.43108,2.8717804,4.119484
-46.936737,2.8238838,4.11514
-47.422028,2.782439,4.120381
-48.031956,2.7209373,4.107761
-48.65072,2.6611187,4.100393
-49.262764,2.6057794,4.1011333
-49.972954,2.5366995,4.0921044
-50.633675,2.4798174,4.099112
-51.648136,2.3671925,4.0577335
-52.36186,2.3095222,4.0734425
-53.481964,2.1898122,4.0377264
-54.47377,2.0964918,4.0325985
-1.4500237,1.6854076,3.586361
-1.3910141,1.5977137,3.4136386
-1.6676712,1.4826789,3.124949
-1.7125874,1.4109368,2.9677334
-1.7283401,1.3344111,2.8058877
-1.7461929,1.258034,2.6441793
-1.7680893,1.182143,2.4829693
-1.7746067,1.1034379,2.3188076
-1.9925499,1.0612888,2.1937037
-1.9440002,0.9728837,2.0194407
-1.8069553,0.8679633,1.8265982
-1.7949963,0.784786,1.6571856
-1.9316101,0.72877574,1.5183325
-3.1687088,0.8806212,1.6182108
-1.8203773,0.5445008,1.1586218
-3.4313774,0.775126,1.3566866
-4.307274,0.8698282,1.4015856
-4.5234814,0.8372891,1.2982445
-6.513794,0.88394094,1.0581503
-6.6996613,0.8530836,0.9643841
-7.07127,0.8640475,0.92479706
-8.2782955,1.064137,1.1303883
-7.6864014,0.8625748,0.81989765
-9.050629,1.1074293,1.090497
-9.047609,1.041295,0.9572959
-8.996294,0.963356,0.8083191
-9.676083,1.0599134,0.8920679
-9.716328,1.0051134,0.7751045
-11.060253,1.2708304,1.0918646
-9.696032,0.8700385,0.50669336
-11.894865,1.3592548,1.1348224
-11.106852,1.0989046,0.7391076
-11.116846,1.0396159,0.6187105
-10.854141,0.9085336,0.39823008
-12.373968,1.2483883,0.83627415
-12.387878,1.193265,0.7239814
-13.5496025,1.4500906,1.0531416
-12.773659,1.1807194,0.6382389
-14.535146,1.5599799,1.11763
-14.191355,1.4083445,0.8698158
-14.212379,1.3594103,0.7694602
-15.372326,1.6433725,1.1535678
-15.358543,1.5876288,1.0453029
-15.4075,1.5502064,0.9637952
-15.456122,1.5126488,0.8821778
-15.221981,1.3883443,0.672318
-15.299739,1.3587246,0.60216856
-15.373512,1.3280089,0.5305705
-15.198496,1.2184224,0.34113407
-15.236718,1.1756198,0.25129414
-22.923044,2.9971218,2.7007809
-23.038303,3.0122564,2.7145138
-23.125645,3.0163858,2.7108688
-23.231441,3.0288155,2.720776
-23.324389,3.0363762,2.7230887
-23.420094,3.0456662,2.7284098
-23.517736,3.05637,2.7362418
-23.600468,3.0610518,2.7345366
-23.7065,3.0766342,2.750722
-23.78254,3.0793092,2.7461476
-23.859123,3.0826325,2.742794
-23.933992,3.0855696,2.7389727
-24.013113,3.0908954,2.7392192
-24.088268,3.0947893,2.7372866
-24.16025,3.0975728,2.7336888
-24.233492,3.101348,2.7318702
-24.300688,3.1025639,2.725985
-24.372057,3.106186,2.724205
-24.443926,3.110448,2.7236261
-24.514847,3.11463,2.7230601
-24.584824,3.118726,2.7224946
-24.646807,3.1190777,2.7158456
-24.707949,3.1192935,2.7090888
-24.778023,3.124532,2.710813
-24.847153,3.1296723,2.7125106
-24.903637,3.128378,2.7035909
-24.964819,3.1299062,2.6994934
-25.025837,3.1316612,2.6958885
-25.089392,3.1351538,2.6953096
-25.16012,3.143059,2.70226
-25.216549,3.1432374,2.6963477
-25.269545,3.1417046,2.687652
-25.336914,3.1488163,2.693623
-25.39225,3.1492355,2.6884184
-25.4507,3.1517909,2.6869202
-25.508974,3.15456,2.6858835
-25.563236,3.1551943,2.6813312
-25.620539,3.1579843,2.6805258
-25.670746,3.156643,2.6728005
-25.730236,3.1614134,2.6755486
-25.77959,3.1600397,2.6679382
-25.83563,3.1632237,2.6681728
-25.890266,3.1658072,2.6674757
-25.941105,3.1661701,2.6630754
-25.994228,3.1683223,2.6618137
-26.0472,3.1706607,2.6609545
-26.101187,3.1739972,2.661891
-26.149141,3.1734397,2.6562347
-26.197006,3.173041,2.6509242
-26.249386,3.1760929,2.6516132
-26.305584,3.182217,2.6576657
-26.357014,3.185227,2.6584496
-26.399872,3.1821764,2.6488714
-26.448812,3.1838493,2.6474957
-26.49872,3.1865234,2.6479216
-26.54629,3.187686,2.6458106
-26.59212,3.1877415,2.6418562
-26.642134,3.191328,2.6440744
-26.689322,3.1929631,2.6429882
-26.735334,3.193902,2.6407628
-26.781235,3.1949902,2.6388607
-26.828564,3.197511,2.6395102
-26.874218,3.1988997,2.63826
-26.920763,3.2012968,2.638826
-26.967163,3.2038462,2.6397219
-27.01194,3.2052455,2.638681
-27.056602,3.2067883,2.6379504
-27.0997,3.2071657,2.6352472
-27.144138,3.2089877,2.6351233
-27.187511,3.2100744,2.6337748
-27.229847,3.2104182,2.6311846
-27.275784,3.2144182,2.6350398
-27.31472,3.2119367,2.6276226
-27.354992,3.2108982,2.622777
-27.402323,3.217087,2.6306386
-27.44548,3.2194233,2.631813
-27.487644,3.2210011,2.6317139
-27.528414,3.2213647,2.6295385
-27.568684,3.2214024,2.6268415
-27.610134,3.222909,2.6267734
-27.652302,3.225443,2.6285615
-27.691504,3.2249427,2.6250691
-27.734251,3.2286332,2.628995
-27.776054,3.2315485,2.63161
-27.816166,3.232771,2.6312962
-27.858484,3.236848,2.6360617
-27.898376,3.2383137,2.6362758
-27.935572,3.2366924,2.631092
-27.979702,3.2438934,2.641518
-28.016748,3.2424972,2.6368237
-28.054127,3.241666,2.6331687
-28.092518,3.2423244,2.6321874
-28.132551,3.2454057,2.6355338
-28.169418,3.2444346,2.6317616
-28.207914,3.245888,2.6323185
-28.246647,3.2479167,2.6339383
-28.28368,3.2477283,2.6316772
-28.320036,3.2467093,2.6279855
-28.357296,3.2471926,2.6269965
-28.395704,3.2496543,2.6295543
-28.43519,3.2541018,2.6356778
-28.47103,3.2530272,2.6320515
-28.50685,3.2520502,2.628636
-28.542648,3.2511704,2.6254315
-28.580612,3.254163,2.6291409
-28.61846,3.2572644,2.6330862
-28.656187,3.2604728,2.6372643
-28.694561,3.2652104,2.6442008
-28.73028,3.2653108,2.6429367
-28.765713,3.265033,2.6410375
-28.800879,3.264375,2.6384988
-28.83695,3.2657168,2.639556
-28.871145,3.2633402,2.6340322
-28.906464,3.2634408,2.6329541
-28.941319,3.26268,2.6303782
-28.97824,3.2667997,2.6365318
-29.013609,3.2676666,2.6369295
-29.04834,3.267189,2.6349673
-29.082859,3.2663226,2.632348
-29.11774,3.2665083,2.63164
-29.152767,3.267269,2.631991
-29.189121,3.2719755,2.6394172
-29.224503,3.2743714,2.6427588
-29.258997,3.2744493,2.6420016
-29.293774,3.2755837,2.6431646
-29.328054,3.2753603,2.6419392
-29.363026,3.2776453,2.645226
-29.397783,3.279539,2.64785
-29.43234,3.2810402,2.649808
-29.466347,3.2806938,2.648501
-29.500694,3.2818906,2.6499844
-29.534883,3.2826924,2.650796
-29.568928,3.2830975,2.6509337
-29.603144,3.2845628,2.6529994
-29.636936,3.2841733,2.651784
-29.670635,3.2833846,2.6498885
-29.704178,3.2817092,2.646441
-29.736776,3.2737906,2.6318665
-29.770111,3.2698505,2.6244345
-29.803158,3.2630713,2.6119595
-29.836136,3.254426,2.59618
-29.869122,3.2439134,2.5770917
-29.902716,3.2373843,2.5651584
-29.93501,3.2124076,2.520268
-29.966446,3.1650715,2.435419
-29.999844,3.1324456,2.3769073
-30.033237,3.0798967,2.2827954
-30.058,2.6765785,1.5613542
-41.10125,1.5411372,0.3985443
-41.21407,1.5444059,0.42008114
-41.219376,1.590693,0.51006556
-41.197224,1.6472917,0.616292
-41.23644,1.6795065,0.68391705
-41.2035,1.739203,0.79482317
-41.206238,1.7846832,0.88324356
-41.20653,1.8306694,0.97238874
-41.222504,1.8704321,1.0517468
-41.217934,1.9174278,1.1423411
-41.236645,1.9555562,1.2190819
-41.23552,2.000534,1.3064127
-41.190865,2.0605154,1.4168258
-41.17286,2.1104364,1.511539
-41.177612,2.1519697,1.5932531
-41.165543,2.1989279,1.6832099
-41.179886,2.2365015,1.7587485
-41.348244,2.2223306,1.7556272
-41.162132,2.3262877,1.9319305
-41.20544,2.3535132,1.9917016
-41.268223,2.37444,2.0420756
-41.28135,2.4113677,2.1165833
-41.34954,2.4306862,2.1647677
-41.377365,2.4627848,2.2321405
-41.42221,2.4895253,2.2916002
-41.457016,2.519345,2.3556986
-41.472866,2.554824,2.4281778
-41.13888,2.6943128,2.6529894
-41.265152,2.6957061,2.6750932
-41.473442,2.6738515,2.6638331
-41.56278,2.6873496,2.7043996
-41.6368,2.705538,2.751987
-41.663933,2.7371166,2.818973
-41.69599,2.7672482,2.8839326
-42.27042,2.648848,2.7381902
-42.040462,2.7515635,2.9067998
-42.16462,2.757902,2.9390678
-42.328903,2.7542202,2.9577632
-42.4697,2.757485,2.9867005
-42.582226,2.7686908,3.0271149
-42.694702,2.780391,3.0686002
-42.85683,2.7801185,3.094131
-42.988686,2.7881374,3.1315236
-43.154793,2.7883842,3.1589217
-43.28768,2.7974572,3.1987872
-43.409412,2.809788,3.2434926
-43.513367,2.8268244,3.2948794
-43.55365,2.85904,3.366581
-43.615,2.8864572,3.4321399
-44.429333,2.7440717,3.2782989
-44.432358,2.7870877,3.3660073
-44.439434,2.8290036,3.4522567
-44.449646,2.8700583,3.5373793
-44.462082,2.9104815,3.6216888
-44.47675,2.9502928,3.7052279
-44.48702,2.9908936,3.7897377
-44.546177,3.0213456,3.8618774
-44.731735,3.0264547,3.903706
-44.957466,3.024473,3.9379435
-45.183365,3.023582,3.9745457
-45.389275,3.0276675,4.018046
-45.668236,3.0188751,4.047705
-45.900333,3.0202694,4.0903726
-46.205757,3.0092971,4.120308
-46.75376,2.9558926,4.1047416
-47.205154,2.9226685,4.114219
-47.76082,2.8734994,4.108948
-48.34166,2.8229318,4.105276
-49.037056,2.7559676,4.087728
-49.686974,2.7003155,4.085814
-50.3671,2.643134,4.086142
-51.22276,2.5611725,4.0659037
-52.03391,2.4908297,4.062151
-52.92638,2.4120777,4.055355
-54.069695,2.2995787,4.02263
-1.4409657,1.7711785,3.339747
-1.587698,1.7142005,3.1966248
-1.7313232,1.6572964,3.0543442
-1.7303066,1.5785842,2.890152
-1.7460537,1.5022264,2.7283425
-1.7619514,1.4257004,2.5663376
-1.7731476,1.3482089,2.4032621
-1.7952003,1.2722831,2.241877
-1.8096447,1.1948984,2.0788631
-1.7904015,1.1115179,1.9089785
-1.8569927,0.9620595,1.5888433
-0.31069183,0.6031809,1.0922337
-2.082819,0.84111714,1.3031182
-3.2760735,0.9815235,1.4043798
-3.5482693,0.9549546,1.3067541
-4.2291546,1.0078163,1.3086319
-4.632757,1.0104499,1.2508192
-4.4984436,0.90904045,1.0634732
-5.9059315,1.1150465,1.2669449
-5.8270054,1.0271585,1.0990386
-6.4317245,1.0793316,1.112196
-6.496092,1.0218022,0.98456717
-9.068712,1.2393131,1.034172
-9.045116,1.1688614,0.8945341
-9.616695,1.2350647,0.9425378
-9.664545,1.1821432,0.8279648
-10.910404,1.4127431,1.1080914
-11.060278,1.3273234,0.91284084
-11.983593,1.4936988,1.111618
-12.435427,1.4331269,0.92272663
-12.3791065,1.3605404,0.7849302
-13.408409,1.5721982,1.0599213
-14.592092,1.6745527,1.0936656
-14.566369,1.6143987,0.9770355
-14.262609,1.4750938,0.7420955
-15.555043,1.7393932,1.0857515
-15.410849,1.6460199,0.9200859
-15.330942,1.570332,0.78067493
-15.193637,1.4764619,0.6132517
-15.428044,1.4941521,0.615674
-15.367184,1.4223547,0.4816332
-15.187776,1.3128345,0.28930235
-15.231234,1.2717264,0.20187664
-22.882196,3.0330982,2.6502843
-22.967756,3.0353518,2.6441007
-23.0625,3.0418365,2.6450467
-23.154587,3.0477421,2.6452508
-23.254906,3.0576348,2.6522236
-23.363321,3.0715756,2.6661024
-23.453583,3.078365,2.6683917
-23.538944,3.0835307,2.668181
-23.664314,3.106815,2.6982293
-23.71865,3.0992954,2.6773276
-23.793325,3.1011245,2.6720977
-23.87379,3.1059785,2.6720629
-23.959942,3.1139016,2.677322
-24.037615,3.118386,2.6769967
-24.103996,3.11798,2.6686234
-24.178291,3.1216636,2.6672435
-24.251625,3.12529,2.6659107
-24.324005,3.1288533,2.66461
-24.391844,3.1305754,2.6603398
-24.457355,3.13149,2.654831
-24.527681,3.135159,2.6541004
-24.593542,3.1369436,2.6503057
-24.662031,3.1404247,2.6495085
-24.725418,3.1416266,2.6449618
-24.788641,3.143066,2.6409307
-24.849628,3.1436417,2.635538
-24.909788,3.144075,2.6300058
-24.973885,3.146952,2.6287503
-25.033731,3.1478367,2.6241984
-25.09544,3.1500635,2.6220436
-25.159632,3.1540215,2.622961
-25.21831,3.1552022,2.6192207
-25.276833,3.156597,2.615943
-25.33585,3.1585844,2.613782
-25.392107,3.1592581,2.6094522
-25.446941,3.1593642,2.6042333
-25.51059,3.165064,2.6087575
-25.56384,3.1648052,2.6030874
-25.62453,3.1693997,2.605896
-25.677498,3.1695309,2.6010714
-25.731588,3.1706302,2.5980062
-25.799677,3.1809754,2.6110702
-25.828365,3.166282,2.5807433
-25.903893,3.182208,2.603695
-25.941706,3.1737309,2.584293
-25.988548,3.1713593,2.5755754
-26.041836,3.1735573,2.5748897
-26.103743,3.1819847,2.5851593
-26.17056,3.1942825,2.6022859
-26.219706,3.194655,2.5986667
-26.256762,3.186636,2.5804281
-26.325577,3.2016191,2.6025257
-26.36422,3.1951172,2.5870667
-26.412365,3.1957278,2.5841322
-26.458199,3.194844,2.5786405
-26.495232,3.1874735,2.561809
-26.543152,3.1885264,2.559833
-26.595764,3.1934931,2.5648122
-26.651337,3.2011538,2.5746102
-26.690891,3.196408,2.5626178
-26.811197,3.221085,2.5990915
-26.986864,3.220849,2.5852966
-27.031786,3.2222068,2.5844946
-27.082857,3.229304,2.5939221
-27.310131,3.244246,2.6055427
-27.35539,3.2479331,2.6092792
-27.394262,3.2456222,2.602395
-27.437065,3.2473824,2.602806
-27.513763,3.2424572,2.5887213
-27.635706,3.243462,2.5828953
-27.720871,3.2495089,2.5888538
-27.876247,3.2473636,2.575858
-26.891052,1.9305573,0.21108055
-26.954762,1.9386032,0.22239447
-27.014992,1.9427483,0.2267847
-27.076077,1.9484413,0.23401833
-28.111282,3.252281,2.572215
-28.158268,3.2644858,2.5922065
-27.245682,1.9496427,0.22759724
-27.298231,1.9450018,0.21651316
-27.350178,1.9395795,0.20407629
-28.391317,3.2779355,2.6057
-28.571333,3.2732246,2.5893555
-28.641237,3.2685611,2.5780516
-28.021236,1.9673295,0.22626638
-28.108576,2.0328732,0.3426609
-28.155922,2.0229862,0.322927
-28.217833,2.0424213,0.3562112
-28.267452,2.03752,0.34558392
-28.905338,3.295991,2.6186213
-28.352144,1.9954762,0.26617718
-28.973154,3.2902408,2.6059837
-28.462181,2.0087667,0.28698826
-29.035439,3.2710838,2.5692163
-29.069935,3.2692134,2.5648198
-28.610422,1.9906292,0.24970675
-29.142536,3.2752576,2.5738373
-28.710127,1.980118,0.2279377
-28.75796,1.9688551,0.20624304
-29.251753,3.2884007,2.5950117
-29.288599,3.295209,2.6065373
-29.324657,3.3002074,2.614821
-28.966036,1.9732845,0.20954514
-29.018265,1.9760504,0.21349907
-29.429333,3.30621,2.6235776
-29.120928,1.9762452,0.21187735
-29.17268,1.9784617,0.2149806
-29.530336,3.300084,2.6106362
-29.564243,3.2990153,2.6081486
-29.327023,1.9840035,0.22256851
-29.633205,3.3029084,2.6142054
-29.427343,1.9761863,0.20698166
-29.701578,3.305237,2.6175508
-29.732111,3.2834303,2.5775938
-29.763048,3.260731,2.5360413
-29.797237,3.2588174,2.5322328
-29.830563,3.2492824,2.5146236
-29.864573,3.2441676,2.5050669
-29.89835,3.2352822,2.4886975
-29.932915,3.2337155,2.4856415
-29.96406,3.1801493,2.3882322
-29.997204,3.138715,2.312871
-30.031511,3.1002555,2.2429385
-30.057219,2.722699,1.5575018
-41.07563,1.6301849,0.37945557
-41.209175,1.6256623,0.38736105
-41.20076,1.6769242,0.48607445
-41.192204,1.7277033,0.5839114
-41.217594,1.7650714,0.6599932
-41.245625,1.8012202,0.7341118
-41.2256,1.8550022,0.83658504
-41.196365,1.9115715,0.9434004
-41.220524,1.9481044,1.0180111
-41.265625,1.9769096,1.0802965
-41.195488,2.046567,1.207654
-41.2351,2.0767677,1.2721128
-41.18703,2.1373117,1.3846493
-41.17402,2.185077,1.4768038
-41.17875,2.226358,1.5586448
-41.164955,2.2735257,1.649672
-41.16054,2.3171256,1.7350073
-41.324627,2.3051493,1.7335649
-41.21808,2.381706,1.8702607
-41.198734,2.4292176,1.961525
-41.255455,2.452194,2.0147467
-41.30234,2.4783428,2.0729742
-41.347992,2.5049007,2.1319199
-41.376675,2.5366611,2.1989079
-41.411007,2.5666182,2.2631793
-41.360504,2.6218255,2.365848
-41.398956,2.6501622,2.427628
-41.413105,2.6855583,2.5001144
-41.518997,2.6943734,2.53268
-41.567917,2.7198384,2.5904484
-41.64775,2.736685,2.6354895
-42.432404,2.5582685,2.3911896
-42.37925,2.614501,2.4960814
-42.36745,2.6589007,2.5833235
-41.919327,2.819589,2.8406138
-42.017197,2.8328903,2.881544
-42.166782,2.833104,2.9038048
-42.539837,2.7765281,2.8446593
-42.70137,2.7758975,2.867134
-42.787983,2.7948623,2.91813
-42.912987,2.8046296,2.9563365
-43.077583,2.8052723,2.9820824
-43.27746,2.79821,2.9975944
-43.390663,2.8128114,3.0440679
-43.485214,2.8322706,3.0976686
-43.560028,2.8566613,3.1583858
-43.611233,2.8866851,3.227059
-43.713417,2.9052927,3.2803464
-44.41577,2.7907267,3.1540484
-44.42505,2.8323731,3.2402596
-44.434628,2.8737812,3.3261228
-44.45677,2.912341,3.4081936
-44.482124,2.9501398,3.489296
-44.50597,2.988187,3.5707674
-44.558655,3.020269,3.6445842
-44.724,3.0297604,3.6896858
-44.947422,3.0284977,3.721859
-45.200607,3.0225265,3.7491016
-45.416794,3.0249662,3.787941
-45.67714,3.0200887,3.818747
-45.8725,3.028665,3.8671436
-46.115906,3.0293374,3.906918
-46.418167,3.0205607,3.9365945
-46.676384,3.0211713,3.9787889
-46.94535,3.0211773,4.021547
-47.22219,3.0211637,4.0656238
-47.601845,3.0050845,4.0929193
-48.147804,2.9632137,4.0934153
-48.654778,2.930617,4.1070366
-49.384247,2.864796,4.0874496
-50.064285,2.8106854,4.0843973
-50.754116,2.758637,4.0873494
-51.612915,2.6843803,4.07144
-52.43389,2.6203442,4.07088
-53.473373,2.5284228,4.047664
-54.499672,2.443902,4.037942
-1.8266735,2.1368988,3.6569877
-1.6276817,1.8763723,3.1395636
-1.6891193,1.8069777,2.984877
-1.7261753,1.7340295,2.8265562
-1.739914,1.6574824,2.6643467
-1.7460232,1.5795579,2.5005593
-1.7717667,1.5044734,2.3399558
-1.9549847,1.4544456,2.2084703
-1.9468327,1.3739879,2.0420098
-1.8004398,1.2702844,1.8476954
-1.800724,1.190156,1.6810098
-1.8688202,1.1213298,1.5280242
-1.1254597,0.91123414,1.2007375
-3.1000118,1.1777158,1.4650478
-3.3065567,1.137119,1.3508778
-3.899006,1.1679244,1.328578
-4.4627533,1.1964993,1.3059812
-4.632946,1.1537919,1.1931849
-5.991804,1.3394115,1.3803463
-5.8809032,1.2468476,1.2054882
-6.300619,1.2580543,1.1684074
-9.208715,1.4547966,1.1593814
-9.107855,1.3687305,0.99751425
-9.685619,1.3688264,0.91692924
-10.7899685,1.5567768,1.1465654
-11.058912,1.438045,0.86768436
-12.16761,1.6438642,1.1335583
-12.360605,1.5185537,0.853096
-13.293135,1.6968179,1.0875659
-12.937397,1.3788853,0.4932766
-14.740123,1.8075318,1.1170173
-14.58951,1.714195,0.94909334
-14.311325,1.5841789,0.72434664
-15.368796,1.8260276,1.0711584
-15.393954,1.7820683,0.9796057
-15.481661,1.755877,0.9156141
-15.236711,1.6332731,0.7017722
-15.183862,1.5650611,0.5720396
-15.314251,1.5506253,0.52633524
-15.194386,1.46134,0.36328173
-15.219634,1.4150248,0.26756
-22.780748,3.042044,2.5631118
-22.901464,3.057607,2.5797873
-22.978518,3.0562024,2.5682878
-23.067913,3.0602274,2.5660543
-23.174896,3.072031,2.577085
-23.252846,3.0723016,2.568903
-23.362131,3.0862544,2.5839667
-23.470915,3.1006787,2.6000524
-23.54876,3.1023707,2.5947971
-23.668776,3.1229658,2.6217566
-23.75351,3.1287267,2.6237578
-23.813244,3.123752,2.607648
-23.888575,3.1260893,2.604103
-23.954807,3.1246493,2.5942478
-24.03933,3.132,2.5995383
-24.122057,3.1390095,2.6044025
-24.19718,3.1429017,2.604074
-24.272781,3.1474395,2.6049867
-24.329416,3.1432009,2.5909429
-24.39173,3.141972,2.5821724
-24.481657,3.1547325,2.5976262
-24.523067,3.1437554,2.5722604
-24.601833,3.1517913,2.5798182
-24.676771,3.1583514,2.584961
-24.744469,3.1616082,2.584507
-24.812637,3.1654866,2.5852427
-25.174858,3.1707616,2.5605116
-25.19357,3.1490486,2.5171914
-25.384592,3.1942914,2.5860057
-25.540009,3.1892872,2.562316
-26.061008,3.2238178,2.5828524
-26.3443,3.217066,2.5470757
-26.365946,3.1979778,2.5092893
-26.636206,3.224927,2.539536
-26.659105,3.2068114,2.5037036
-26.744724,3.2386842,2.557465
-27.13771,3.235824,2.5248017
-27.288446,3.2574308,2.5555215
-27.342514,3.2691522,2.5740457
-27.381088,3.266318,2.5663352
-27.42229,3.2662032,2.5635805
-27.466024,3.2688274,2.5658264
-27.503193,3.2650332,2.5565042
-27.54461,3.2657237,2.5553393
-27.625113,3.2652771,2.54983
-27.693739,3.252476,2.5220747
-27.716745,3.23335,2.4851475
-27.790749,3.2720253,2.5531874
-27.859291,3.2600756,2.527278
-27.913412,3.2779405,2.557715
-26.894224,1.9834497,0.20119476
-26.955706,1.9886246,0.20771694
-28.027218,3.2750478,2.546588
-28.10439,3.2756116,2.5438962
-28.145409,3.2794542,2.5490966
-27.247765,2.0009272,0.21654272
-27.302528,1.9994428,0.2112875
-28.253109,3.2712264,2.5289083
-28.330229,3.2739916,2.5306754
-28.373049,3.2821755,2.5440364
-28.42383,3.2452033,2.4734259
-28.461412,3.245412,2.472313
-28.494469,3.2383533,2.4579463
-28.631617,3.2833824,2.5361624
-28.675108,3.2962098,2.5583377
-28.023672,2.0198066,0.22021055
-28.74633,3.2943823,2.552496
-28.139872,2.0389225,0.25163555
-28.183119,2.019841,0.21496153
-28.249422,2.0475123,0.2639966
-28.299984,2.0436265,0.25525904
-28.929829,3.3041048,2.5646515
-28.40499,2.0446784,0.25409412
-28.459015,2.0491648,0.2608466
-29.024286,3.2763205,2.5106726
-29.057766,3.2711227,2.5001864
-28.609219,2.0357676,0.23211241
-28.656866,2.024812,0.21070766
-28.707335,2.0210395,0.20252848
-29.245554,3.302098,2.552785
-28.862757,2.0218403,0.20050716
-29.319908,3.3170118,2.5787
-29.35754,3.3272257,2.596775
-29.392305,3.3285477,2.598545
-29.428703,3.336122,2.611836
-29.121048,2.0268438,0.20477772
-29.495197,3.3287916,2.5971956
-29.529783,3.3304763,2.599751
-29.596182,3.3217576,2.5827265
-29.630177,3.3208537,2.5806108
-29.660774,3.3014781,2.5445514
-29.696644,3.3102627,2.560309
-29.727243,3.2872324,2.5175786
-29.759594,3.272373,2.4899006
-29.79357,3.2671242,2.47993
-29.828068,3.265299,2.476286
-29.86255,3.2630854,2.4719563
-29.896145,3.250942,2.4493852
-29.930737,3.2474718,2.4427996
-29.962502,3.2011375,2.3573709
-29.995554,3.1567874,2.2756171
-30.029959,3.1177685,2.2037015
-30.056252,2.7666,1.5573912
-41.193142,1.7022808,0.36051893
-41.111492,1.7810726,0.50567436
-41.29156,1.759906,0.48514652
-41.22736,1.831001,0.6173725
-41.2416,1.8721621,0.7000408
-41.204384,1.9317892,0.8130379
-41.22849,1.9685612,0.88838243
-41.214016,2.0188797,0.9858947
-41.246685,2.0520482,1.055305
-41.223072,2.104709,1.1564851
-41.163387,2.1692274,1.2768006
-41.19976,2.2001595,1.3424578
-41.200287,2.2430818,1.4275346
-41.16202,2.2985644,1.5327988
-41.19994,2.3283143,1.5965195
-41.188858,2.373951,1.6857595
-41.185513,2.4166722,1.7702446
-41.232914,2.4429016,1.8283668
-41.1809,2.500388,1.936254
-41.219433,2.5290546,1.9982514
-41.306114,2.542913,2.036911
-41.333523,2.5750632,2.1045823
-41.35869,2.6077778,2.1731644
-41.35267,2.649602,2.2560182
-41.39341,2.6774104,2.3169374
-41.47257,2.6941156,2.360673
-41.555115,2.7101228,2.4035215
-41.622433,2.7307155,2.4536505
-41.55148,2.7900138,2.5634303
-41.616108,2.811248,2.614636
-42.39639,2.6381783,2.3696628
-42.411427,2.6754851,2.446793
-42.430378,2.71158,2.522077
-41.91545,2.8872414,2.8075867
-42.038727,2.8943322,2.8384614
-42.28933,2.8695061,2.8220558
-42.708412,2.803646,2.745492
-42.875023,2.8030183,2.7668343
-43.013462,2.81013,2.8001037
-43.184124,2.8100786,2.8233228
-43.290524,2.826228,2.870706
-43.43836,2.8330374,2.9048867
-43.560345,2.8465521,2.9492202
-43.570885,2.8861692,3.0313578
-43.66176,2.9074314,3.0873227
-44.35671,2.7941523,2.953041
-44.423275,2.823294,3.0218616
-44.43231,2.8651018,3.1085925
-44.44915,2.9050622,3.192729
-44.459743,2.9462175,3.2785168
-44.48762,2.9836197,3.3591409
-44.52157,3.0197287,3.438058
-44.713127,3.0239854,3.4740624
-44.917133,3.0266957,3.508748
-45.174522,3.019938,3.5316749
-45.36461,3.0274925,3.5745153
-45.64731,3.0183394,3.5963202
-45.88831,3.018446,3.631311
-46.065315,3.031551,3.6839938
-46.351646,3.0256386,3.713294
-46.58636,3.0303967,3.7572746
-46.87316,3.027151,3.7923574
-47.13801,3.029144,3.835196
-47.459023,3.0229003,3.869257
-47.769676,3.0200157,3.9088802
-48.03984,3.0253484,3.9597435
-48.384796,3.0199277,3.999347
-48.65711,3.0277843,4.055995
-49.18344,2.9973524,4.0704937
-49.822517,2.952389,4.071493
-50.498615,2.9052138,4.0734897
-51.299744,2.8431237,4.063033
-52.159767,2.7767208,4.0524626
-53.01416,2.715646,4.05235
-54.091297,2.627993,4.0299964
-1.8160019,2.2223694,3.4154005
-1.5142479,2.1045082,3.2081451
-1.6413593,2.0437634,3.0629864
-1.6734619,1.9701338,2.9037695
-1.7027359,1.8960214,2.7440734
-1.731144,1.8216836,2.5841699
-1.7509041,1.74595,2.422657
-1.766922,1.6694846,2.2602649
-1.923008,1.6144204,2.1240268
-1.7674274,1.5110216,1.928586
-1.8316956,1.361748,1.608191
-1.3502827,1.201971,1.338942
-1.2727242,1.1070933,1.1514969
-3.2314167,1.3598752,1.418488
-3.5694466,1.3415778,1.3357677
-4.1271267,1.3637466,1.3083596
-4.622694,1.3776476,1.2720861
-4.462929,1.2744017,1.0788178
-5.942814,1.4741492,1.2993565
-5.9385986,1.4024882,1.1514883
-6.1020126,1.2201176,0.75324535
-6.6855793,1.2652864,0.771173
-6.7428303,1.2065837,0.6427617
-9.104446,1.5596373,1.0672603
-9.111444,1.4970622,0.9376764
-9.085791,1.4271574,0.7972965
-9.640009,1.4834828,0.84266996
-11.116062,1.6284814,0.9538493
-11.05484,1.5544691,0.8100872
-12.278099,1.7805417,1.119565
-12.407164,1.6975164,0.9340296
-13.142437,1.8196373,1.0921803
-11.656891,1.3975496,0.41520023
-12.95698,1.5495007,0.5652437
-12.944857,1.4892142,0.44430304
-14.684348,1.8380289,0.9415984
-15.299938,1.9519992,1.0985041
-15.500692,1.9562654,1.0831151
-15.407491,1.88009,0.94018507
-15.341364,1.8105118,0.8074541
-15.214842,1.7229521,0.6456466
-15.456251,1.7399518,0.651494
-15.3800745,1.6658118,0.51099443
-15.195378,1.5587616,0.31698322
-15.2258415,1.514173,0.22370577
-22.766201,3.0561023,2.462926
-22.826675,3.0471737,2.439036
-22.958199,3.0670907,2.4648023
-23.02848,3.062899,2.4493427
-23.14041,3.0761802,2.4641194
-23.221851,3.077444,2.458363
-23.320679,3.086453,2.4661427
-23.426718,3.0991232,2.480445
-23.52092,3.1073506,2.487239
-23.632065,3.123524,2.5080023
-23.68348,3.1140847,2.4844222
-24.092657,3.1716716,2.5575943
-24.251734,3.1830795,2.5647702
-24.482386,3.1998036,2.5758243
-24.561985,3.2076187,2.5837064
-24.692213,3.2101042,2.5766344
-24.852629,3.198135,2.538929
-24.942215,3.1819284,2.4995432
-24.902637,3.0954993,2.335373
-25.21881,3.1731157,2.4586282
-25.405716,3.183125,2.462347
-25.442627,3.1721077,2.438035
-25.54078,3.197878,2.4797487
-25.655134,3.1684928,2.4139123
-25.931612,3.2439713,2.53749
-26.025436,3.2388804,2.5205035
-26.088097,3.247155,2.5316472
-26.352047,3.2258365,2.4714065
-26.333994,3.1774797,2.3801537
-26.226122,3.0238879,2.0940113
-26.58168,3.2197835,2.4438386
-26.698067,3.2381823,2.471127
-26.793247,3.2412903,2.470786
-26.831562,3.2356117,2.4574814
-26.886625,3.2062163,2.397997
-26.962906,3.2330332,2.4442453
-26.887302,3.128756,2.2505813
-26.889229,3.0901039,2.1769733
-26.939724,3.0940168,2.1813498
-27.012426,3.1184196,2.2233562
-27.007395,3.0721855,2.135857
-27.35429,3.274871,2.5004053
-27.398478,3.2771747,2.5022845
-27.483437,3.279176,2.5013838
-27.570482,3.284296,2.5063963
-27.605354,3.278146,2.4929204
-27.647621,3.2799313,2.4941006
-27.61651,3.156034,2.261438
-27.639824,3.1350877,2.220695
-27.630236,3.0759022,2.1093636
-27.88786,3.2805033,2.4833045
-27.977686,3.2456796,2.4134655
-28.117933,3.2754066,2.4633336
-27.25606,2.0602913,0.2110858
-27.312986,2.0618987,0.21173811
-28.223259,3.2614918,2.4327383
-28.262268,3.262443,2.432961
-28.327093,3.1871417,2.2888107
-28.357176,3.1734285,2.261911
-27.699558,2.0644953,0.20165062
-27.7581,2.0714638,0.2126522
-27.972584,2.0703528,0.20330477
-28.025742,2.0698667,0.2006936
-28.080067,2.0718203,0.20266342
-28.135471,2.0762227,0.20923519
-28.18931,2.0780172,0.21100187
-28.2444,2.0827255,0.21823645
-28.303278,2.095896,0.24127054
-28.677904,2.7909625,1.5339046
-28.95009,3.3003972,2.4814076
-28.982195,3.2917988,2.4644642
-28.510447,2.0927854,0.2299943
-29.042208,3.2632256,2.409452
-29.07023,3.2427638,2.3704672
-29.091263,3.2028167,2.2951846
-29.149134,3.2597473,2.4004936
-29.066671,2.8101926,1.5607314
-29.098959,2.7813141,1.5060468
-29.136555,2.766983,1.4785147
-29.355442,3.3485665,2.5626245
-29.023365,2.0866077,0.2076788
-29.074854,2.087992,0.20940542
-29.12516,2.085294,0.20355606
-29.49635,3.3607965,2.5831928
-29.41704,2.8837473,1.6923137
-29.459988,2.8950634,1.712884
-29.503117,2.9088466,1.7380953
-29.544094,2.9138167,1.7468896
-29.658325,3.3144464,2.494451
-29.692736,3.3132272,2.491808
-29.724312,3.2942078,2.4559512
-29.755608,3.2700825,2.4105825
-29.79041,3.2677007,2.4058428
-29.82475,3.2611666,2.393375
-29.859655,3.25849,2.3881383
-29.89431,3.2526023,2.3769298
-29.929338,3.2496326,2.3711996
-29.962275,3.215147,2.3066244
-29.995497,3.1698906,2.2219524
-30.03017,3.1313202,2.1497955
-41.01654,1.8487554,0.439641
-41.125484,1.8544412,0.46244717
-41.27253,1.8464916,0.46234608
-41.263374,1.8965397,0.56066275
-41.239433,1.9514301,0.6670723
-41.199707,2.011346,0.7818284
-41.23446,2.0441675,0.85086584
-41.183647,2.106793,0.96994114
-41.25265,2.1271791,1.0181065
-41.27481,2.1637373,1.0934062
-41.212776,2.2285342,1.2157712
-41.183876,2.281404,1.3180819
-41.185154,2.3237205,1.402751
-41.18146,2.3673103,1.4894738
-41.199066,2.4036527,1.5641637
-41.16664,2.4557276,1.6647515
-41.176872,2.4937894,1.7421775
-41.196762,2.5285904,1.8142347
-41.21781,2.56286,1.8854213
-41.24522,2.595032,1.9531922
-41.274734,2.6264608,2.0197787
-41.355133,2.6427011,2.061788
-41.396084,2.6707776,2.123087
-41.408573,2.7070875,2.1977062
-41.470604,2.729025,2.2492356
-41.553555,2.7452025,2.2916746
-41.70011,2.7439265,2.3064666
-41.720825,2.7780607,2.3779263
-42.30851,2.657771,2.204772
-41.60782,2.8874273,2.5857406
-41.6166,2.9238145,2.6605268
-41.69312,2.9422553,2.7071657
-41.73699,2.9693973,2.7675714
-42.56181,2.797174,2.518065
-42.682423,2.8076298,2.5540457
-42.806683,2.817709,2.5897765
-42.992973,2.813111,2.6033144
-43.05616,2.8392918,2.6644678
-43.22537,2.84028,2.6874266
-43.399395,2.840965,2.710435
-43.482407,2.8636906,2.7672133
-43.571632,2.8852692,2.8224964
-43.64859,2.9099464,2.882656
-44.33251,2.799327,2.7420774
-44.411266,2.8259795,2.8066611
-44.422523,2.8675332,2.8933597
-44.44156,2.9072564,2.9773622
-44.4628,2.9463987,3.0605292
-44.48157,2.985956,3.1443148
-44.505394,3.0243697,3.226469
-44.684307,3.031391,3.2639232
-44.90206,3.0315402,3.2922854
-45.155094,3.0258622,3.313251
-45.377144,3.0274525,3.3453035
-45.630768,3.0241416,3.3714018
-45.76747,3.0439909,3.4302979
-46.05867,3.035974,3.451715
-46.26894,3.044119,3.496138
-46.608635,3.0301893,3.5118155
-46.828827,3.0389926,3.559083
-47.09329,3.0412164,3.5985966
-47.381042,3.0408,3.6357846
-47.7433,3.029386,3.6600332
-47.973587,3.0414898,3.7158704
-48.349037,3.0312877,3.7445865
-48.67834,3.030317,3.7865214
-49.03019,3.0274923,3.8276925
-49.394913,3.0244732,3.8702836
-49.757935,3.0235515,3.9171376
-50.12407,3.0239952,3.9673772
-50.498184,3.0251224,4.020232
-51.074783,2.9994135,4.0442147
-51.84481,2.9497912,4.0442443
-52.692276,2.8936422,4.0411677
-53.637985,2.828809,4.0332794
-54.677254,2.7566874,4.0229015
-2.041628,2.3293223,3.2129717
-1.671236,2.1259246,2.829071
-1.7269077,2.0554738,2.6737728
-1.7348003,1.9783697,2.5104227
-1.7565117,1.9030259,2.3492303
-1.9778938,1.8566556,2.2248569
-1.9879398,1.7798312,2.0622396
-1.7768974,1.6693046,1.8557372
-1.8031445,1.5939045,1.6944237
-1.815031,1.5160995,1.5299358
-1.8425713,1.4405613,1.3684502
-1.2887211,1.2702842,1.078538
-3.229725,1.5095079,1.3466349
-4.0571117,1.5719678,1.3784351
-4.5181637,1.5761199,1.3322487
-5.323513,1.6425648,1.375238
-6.7010536,1.4013982,0.71201515
-9.048304,1.6683075,0.99259615
-9.724161,1.6817918,0.9426818
-9.734501,1.6214273,0.8168988
-11.058544,1.7258244,0.8812504
-11.044525,1.6628942,0.7533474
-12.388824,1.9097121,1.1091576
-13.011072,1.9429286,1.1075053
-12.361834,1.7335446,0.7505212
-12.951963,1.6500831,0.51424503
-13.896448,1.8333488,0.78503084
-14.979988,2.0583444,1.1259003
-14.840179,1.9710593,0.9630356
-15.348363,2.0537434,1.0764127
-15.439569,2.0279129,1.0139074
-15.49024,1.9913712,0.9340415
-15.264653,1.8789866,0.7296295
-15.18417,1.8050208,0.58786726
-15.282553,1.7804725,0.5275054
-15.171902,1.6966615,0.36911392
-15.218222,1.6569767,0.28370762
-22.519386,3.010296,2.2709231
-22.900383,3.0931225,2.4002862
-22.988056,3.0953934,2.3966703
-23.155743,3.0981739,2.386766
-23.290129,3.121168,2.4201794
-23.37809,3.1256087,2.4210129
-23.506645,3.1477516,2.4533448
-23.574215,3.1446166,2.4410672
-23.658167,3.1488886,2.4420457
-23.719484,3.1436937,2.42632
-24.091042,3.183357,2.4722953
-24.654224,3.2325475,2.5217204
-24.672823,3.2104385,2.4767156
-24.726274,3.075692,2.2078872
-24.696932,3.026198,2.113194
-24.70183,2.994527,2.0507717
-25.2421,3.1936817,2.3988333
-25.43557,3.1741717,2.3462076
-25.50311,3.1136844,2.2233458
-25.48771,3.0695457,2.1384788
-25.443085,2.9700475,1.9479866
-26.050737,3.2589254,2.4673862
-26.228271,3.173587,2.2900062
-26.22795,3.0633554,2.076624
-26.63747,3.2619133,2.4351163
-26.683323,3.261447,2.4314294
-26.707466,3.2440393,2.3963633
-26.767393,3.2179282,2.3424263
-26.806446,3.2121565,2.32902
-26.819883,3.1850684,2.2760243
-26.862732,3.1823428,2.26833
-26.866924,3.1465816,2.1992059
-26.883408,3.1207285,2.1485057
-26.893856,3.0890296,2.086915
-27.386692,3.2983649,2.4632955
-27.471554,3.299686,2.4615707
-26.987396,2.7684896,1.4662366
-27.456055,3.0618181,2.006247
-27.572067,3.1405988,2.1518207
-27.608482,3.1335878,2.136747
-27.622757,3.1014626,2.074614
-28.029678,3.2427607,2.3276954
-28.075708,3.25106,2.3417387
-28.122456,3.2608333,2.3585944
-27.322973,2.1206086,0.21242905
-28.197046,3.255929,2.3464317
-27.432995,2.119698,0.20663166
-27.487282,2.1185808,0.20255136
-27.543638,2.1207418,0.20468807
-27.602833,2.1275403,0.21560526
-28.333443,3.1682892,2.1745133
-28.370035,3.163668,2.1644936
-28.408934,3.1627402,2.1614628
-27.817043,2.1235723,0.2010107
-28.540752,3.2523787,2.3280272
-27.927914,2.1294699,0.2088275
-27.981977,2.1306148,0.2093978
-28.036947,2.133722,0.21371269
-28.088594,2.1310806,0.20722008
-28.493315,2.80232,1.4729261
-28.194464,2.1312134,0.20457745
-28.250134,2.1371922,0.21448088
-28.302061,2.1360254,0.21093225
-28.665865,2.7998521,1.4637508
-28.711529,2.805241,1.4728866
-28.461124,2.1411386,0.21679163
-28.511263,2.1368625,0.20752096
-29.021196,3.2412624,2.294239
-29.034801,3.1832664,2.1837888
-29.084488,3.2144856,2.2420454
-29.119022,3.20765,2.2283711
-28.924805,2.1396556,0.2046547
-28.976143,2.140271,0.20496988
-29.224447,2.8116188,1.4748607
-29.080086,2.1470008,0.21611977
-29.13008,2.1438518,0.20941973
-29.180239,2.1412952,0.2038765
-29.42002,2.9268641,1.6907005
-29.462654,2.9371126,1.7096066
-29.505693,2.9507291,1.7349253
-29.545647,2.950984,1.7349672
-29.43356,2.1411457,0.20062017
-29.690077,3.322192,2.4373336
-29.720882,3.296848,2.389011
-29.755924,3.2957902,2.3867178
-29.790606,3.2920275,2.3793244
-29.824692,3.2827606,2.361526
-29.859617,3.279173,2.3545122
-29.894405,3.2733428,2.343274
-29.92976,3.2727315,2.341948
-29.962706,3.2372253,2.2745237
-29.996027,3.1920006,2.1887054
-30.030912,3.155723,2.119863
-41.130764,1.9268119,0.42672777
-41.193787,1.9500959,0.47937727
-41.26951,1.9689059,0.52436686
-41.232506,2.0279765,0.63905907
-41.263145,2.0625606,0.7113676
-41.171486,2.1394517,0.8565397
-41.170746,2.1839945,0.94585085
-41.199055,2.2182844,1.0175204
-41.22181,2.2542763,1.0921164
-41.164528,2.3165927,1.211679
-41.179893,2.3543031,1.2891083
-41.18113,2.3963435,1.3738856
-41.161316,2.4447722,1.4694557
-41.170334,2.4835925,1.5486541
-41.189766,2.5188894,1.6218696
-41.20434,2.5554984,1.6972928
-41.21229,2.593909,1.7757301
-41.23338,2.6281006,1.8470597
-41.2591,2.660753,1.9158163
-41.302536,2.6880758,1.9756951
-41.345585,2.7155206,2.0358367
-41.41359,2.7358167,2.084175
-41.519077,2.745679,2.1153731
-41.64307,2.7508159,2.1390004
-41.753075,2.7603958,2.1702237
-41.809086,2.7851868,2.2266517
-41.76438,2.8372204,2.3277435
-41.60376,2.9195156,2.4780045
-41.65693,2.944299,2.534289
-41.69274,2.9736822,2.598124
-41.69844,3.010756,2.6744285
-41.737816,3.0391102,2.7366695
-41.819305,3.0569768,2.7821631
-42.93212,2.821351,2.4229608
-43.02253,2.8409908,2.4731898
-43.143776,2.8535714,2.5124474
-43.310738,2.8558733,2.5357928
-43.471493,2.8604403,2.5631557
-43.54505,2.8858361,2.6235723
-43.647804,2.9048276,2.6741805
-43.766113,2.9207432,2.7202873
-44.406925,2.8219042,2.5894713
-44.42972,2.861213,2.6730433
-44.42399,2.9065373,2.7658334
-44.452988,2.9442484,2.84696
-44.473015,2.9837751,2.9308767
-44.50275,3.0212018,3.011642
-44.67852,3.0290575,3.0481758
-44.85344,3.0379226,3.0867696
-45.169037,3.020016,3.08631
-45.31221,3.0370913,3.138372
-45.59553,3.028137,3.152861
-45.828022,3.0301633,3.184276
-46.057873,3.0338314,3.2188663
-46.24214,3.0469036,3.2677312
-46.551514,3.0385063,3.2867413
-46.79337,3.043553,3.3258529
-47.054543,3.0464535,3.3628573
-47.32264,3.049477,3.4010234
-47.671722,3.040306,3.4234548
-47.964386,3.042187,3.462328
-48.240845,3.0481424,3.5078707
-48.610237,3.0407348,3.5366745
-48.97711,3.0356028,3.5700302
-49.319107,3.0361366,3.6123567
-49.68463,3.0348573,3.6538105
-50.086403,3.0300827,3.6924024
-50.497246,3.0260339,3.7337146
-50.90644,3.024302,3.7797947
-51.24459,3.0345106,3.842461
-51.76464,3.0216053,3.8787174
-52.198975,3.0228062,3.9343448
-52.679546,3.0201452,3.987588
-53.321304,2.9992738,4.02225
-54.284893,2.9413607,4.0182805
-2.0679665,2.348324,2.8168244
-1.7057171,2.2238522,2.5925546
-1.7292423,2.1489663,2.4317589
-1.7441216,2.0727713,2.2692442
-1.7727966,1.9983253,2.109065
-1.783123,1.9211547,1.9452186
-1.8072433,1.7666669,1.6172113
-1.8620872,1.616019,1.2945023
-3.192133,1.7444897,1.4238992
-3.2476368,1.6769588,1.2762485
-3.90312,1.7068155,1.2699375
-4.410635,1.7156692,1.2352333
-5.160837,1.7679007,1.2661171
-5.4130974,1.7390437,1.1793456
-6.0626144,1.7803776,1.1981435
-6.524973,1.7921023,1.1745954
-7.3317757,1.8680809,1.2496824
-7.4503307,1.822839,1.1429615
-9.020699,1.8588467,1.0566425
-9.010914,1.7934852,0.92165184
-9.93902,1.9157271,1.0813584
-10.192772,1.9060664,1.0355349
-10.994442,1.8930693,0.9276805
-11.073992,1.850894,0.83231544
