x,y,z
-25.932587,3.224668,4.0181355
-25.975338,3.224721,4.0083094
-26.030354,3.2331004,4.0090814
-26.089243,3.2444305,4.0137653
-26.13773,3.249131,4.010288
-26.18876,3.2558506,4.009532
-26.218946,3.2484708,3.991046
-26.273731,3.2583032,3.9945533
-26.33946,3.2762456,4.008602
-26.376047,3.273945,3.9969885
-26.419119,3.2764447,3.9916387
-26.469181,3.2842627,3.9932635
-26.52544,3.296982,4.0013742
-26.574419,3.3047218,4.0032434
-26.615635,3.3069532,3.9981406
-26.660517,3.3121853,3.9970586
-26.708353,3.3199692,3.9994378
-26.750444,3.3236184,3.9965804
-26.788137,3.324051,3.9896486
-26.830025,3.3279867,3.987413
-26.886242,3.343685,4.0007396
-26.923586,3.3445551,3.9947562
-26.9662,3.3499331,3.9948192
-27.005726,3.3530204,3.9919865
-27.040485,3.3523242,3.9842634
-27.083307,3.3586206,3.9859033
-27.11278,3.3537307,3.9728167
-27.137196,3.3444767,3.9539933
-27.159504,3.333296,3.9326515
-27.19762,3.3360891,3.9300098
-27.257767,3.358962,3.9543347
-27.288908,3.3560648,3.9443254
-27.343422,3.3748293,3.9634714
-27.353392,3.3525605,3.9276152
-27.397352,3.3620515,3.9345248
-27.414158,3.3459082,3.906979
-27.47621,3.3733933,3.938405
-27.509193,3.3731647,3.9325259
-27.542658,3.373549,3.9275587
-27.562881,3.3607492,3.9047782
-27.591866,3.3566966,3.8939207
-27.62189,3.3537521,3.8846362
-27.663734,3.3632514,3.8923922
-27.697079,3.3641224,3.8884819
-27.735662,3.3707879,3.8925781
-27.76979,3.3729157,3.8905644
-27.79866,3.3694317,3.880941
-27.82105,3.3587341,3.8614736
-27.852365,3.358006,3.8557522
-27.88457,3.3584166,3.851673
-27.917627,3.3599732,3.8492491
-27.973259,3.388443,3.8840528
-28.004591,3.3886786,3.880007
-28.032854,3.3853111,3.8710492
-28.060299,3.3809628,3.860793
-28.0802,3.3671439,3.8374581
-28.110355,3.3661094,3.8319018
-28.14338,3.368887,3.8317113
-28.18443,3.382433,3.8465836
-28.219162,3.3881037,3.8505957
-28.249802,3.3885305,3.8473783
-28.275732,3.3826087,3.8353677
-28.301756,3.3767514,3.8234963
-28.328627,3.3720365,3.8132732
-28.374931,3.3954377,3.8424723
-28.410084,3.4033377,3.850074
-28.44035,3.4043128,3.8480468
-28.47092,3.4059174,3.8469696
-28.502481,3.40924,3.8483746
-28.531538,3.4088483,3.8446252
-28.557865,3.4041781,3.8349152
-28.566286,3.3701067,3.7838235
-28.531212,3.2622256,3.6286163
-28.523447,3.1967938,3.5331402
-28.528708,3.1515348,3.4660769
-28.528996,3.0957987,3.3841667
-28.491768,2.9701643,3.2033086
-28.509998,2.9417176,3.1598563
-28.527332,2.9105284,3.1125274
-28.537542,2.8644407,3.0440822
-28.527596,2.7768638,2.9167442
-28.54673,2.7439535,2.866928
-28.548462,2.6739233,2.764381
-28.506517,2.5089257,2.5267572
-28.520391,2.4564126,2.448936
-28.530802,2.393867,2.3568168
-28.535849,2.316245,2.2431946
-28.569437,2.300996,2.2184167
-28.539734,2.1345706,1.9781108
-28.546677,2.048912,1.8528619
-28.563196,1.9827628,1.7554154
-28.558735,1.8589284,1.5755615
-28.54778,1.7108691,1.3609934
-28.55633,1.6075222,1.2102327
-38.002483,0.6820364,0.77925396
-37.96023,0.7641432,0.9009423
-37.983818,0.801496,0.96619034
-37.90102,0.90789557,1.1177697
-37.903225,0.9575467,1.1980848
-37.91577,0.9999201,1.269247
-37.926193,1.0431271,1.3413877
-37.902596,1.1071405,1.4391742
-37.872887,1.1740079,1.5402489
-37.872097,1.2221029,1.6180182
-37.900757,1.2516546,1.6729794
-37.880383,1.310502,1.7637062
-37.90491,1.341732,1.8206472
-37.954586,1.3578196,1.8592553
-37.96277,1.3981946,1.9273286
-37.9199,1.4676888,2.0303707
-38.003944,1.4633515,2.0445776
-38.018505,1.4989038,2.1067472
-38.049046,1.5251055,2.1577606
-38.89189,1.2837121,1.9789944
-38.94198,1.302115,2.023038
-37.962288,1.8618793,2.6936812
-37.919296,1.9235878,2.7852268
-37.936626,1.9533362,2.8397865
-37.95823,1.9806588,2.8915706
-37.96115,2.0172362,2.9538937
-37.983418,2.0437481,3.0047483
-37.971638,2.0869787,3.0744562
-37.99938,2.110287,3.1216788
-38.01869,2.1375825,3.1734056
-38.018105,2.1742818,3.2355795
-38.04464,2.1976576,3.282948
-38.04546,2.2330856,3.343607
-38.078583,2.2530317,3.387268
-38.104813,2.2761285,3.4344468
-38.13401,2.297754,3.4800925
-38.167046,2.317555,3.5238523
-38.21231,2.331797,3.5617728
-38.259895,2.345068,3.5988317
-38.357758,2.336174,3.6126828
-38.42543,2.341025,3.641427
-38.5117,2.3380527,3.6623197
-38.59381,2.3372743,3.6858978
-38.69219,2.329934,3.7031188
-38.780453,2.3273573,3.7256985
-38.896294,2.3136668,3.7374363
-38.98998,2.3097742,3.7596464
-39.129616,2.28749,3.7639341
-39.26704,2.2669044,3.7706633
-39.397865,2.2497506,3.7815175
-39.543846,2.227278,3.7878833
-39.627995,2.2300234,3.8195167
-39.748173,2.2190447,3.838375
-39.835922,2.2212307,3.8704524
-39.992653,2.1973574,3.878337
-41.453,1.6797047,3.424087
-41.454178,1.7208309,3.4983444
-41.444035,1.7658615,3.5760965
-41.44486,1.8064685,3.649643
-41.45495,1.843394,3.7197628
-41.47259,1.8773634,3.7872014
-41.477104,1.9158623,3.8586617
-41.486477,1.9523818,3.9283152
-41.464474,1.9996893,4.0072765
-41.466328,2.038279,4.0785184
-41.670017,2.007203,4.090668
-41.872322,1.9777235,4.1054506
-42.196896,1.9081385,4.088366
-42.42234,1.8735528,4.102019
-42.71454,1.8181583,4.100376
-43.05178,1.7497089,4.0903096
-43.368683,1.6898043,4.089244
-43.757744,1.6085882,4.0738645
-44.19525,1.5142732,4.051209
-44.587444,1.4367418,4.044232
-44.964775,1.3660767,4.045102
-45.416836,1.2745697,4.033505
-45.84381,1.1932886,4.032482
-46.441643,1.0629764,4.000123
-46.925415,0.97012043,3.9980268
-47.51014,0.8502295,3.9812202
-48.0708,0.7406976,3.9756918
-48.775497,0.59275913,3.9494338
-49.380543,0.47730112,3.9492798
-13.836901,1.1803017,3.9870281
-13.62385,1.065759,3.8428211
-15.173097,1.4779563,4.090537
-15.611109,1.5629869,4.1009293
-15.949124,1.619914,4.0926843
-16.330124,1.6920364,4.098631
-16.564331,1.7204463,4.072446
-17.349428,1.8397987,4.0311666
-17.689438,1.9080067,4.044586
-18.148727,2.0174801,4.0952067
-18.345377,2.0424209,4.0762634
-18.548046,2.0704463,4.0612144
-18.76487,2.1043863,4.052606
-19.00935,2.1490264,4.0548286
-19.286686,2.2064655,4.070037
-19.489883,2.239633,4.0649414
-19.690746,2.2731333,4.061365
-19.878479,2.3030987,4.0557103
-20.144646,2.362401,4.0785503
-20.344572,2.3992317,4.081795
-20.478788,2.4130836,4.0643463
-20.625202,2.4321744,4.0526705
-20.865253,2.4871821,4.0765724
-21.076107,2.5326395,4.0925364
-21.182213,2.5393462,4.0715666
-21.308376,2.5543294,4.0593624
-21.4903,2.5917437,4.070257
-21.612217,2.606647,4.0594773
-21.749508,2.6283336,4.056222
-21.888134,2.6513503,4.0550528
-22.0125,2.6694012,4.0495014
-22.13308,2.6866093,4.043719
-22.291954,2.7203345,4.055792
-22.35526,2.715172,4.0278406
-22.550732,2.7659473,4.0593247
-22.646763,2.7757297,4.048214
-22.770508,2.797934,4.0508704
-22.887922,2.8181434,4.0519934
-22.993177,2.8337348,4.04869
-23.119873,2.8594196,4.056896
-23.196886,2.8637223,4.042286
-23.292871,2.876963,4.037875
-23.399326,2.8955212,4.0398073
-23.516113,2.9194784,4.0482597
-23.608631,2.9329247,4.0454926
-23.688604,2.9410346,4.0371394
-23.774887,2.9525652,4.0330133
-23.830126,2.9497628,4.012971
-23.942638,2.9748025,4.0249662
-24.023323,2.985094,4.0205464
-24.099768,2.9937644,4.0146074
-24.220589,3.0248952,4.0350204
-24.268663,3.0204196,4.0145435
-24.384619,3.0504684,4.034606
-24.45285,3.0569599,4.027533
-24.520126,3.0633297,4.020596
-24.592676,3.0728154,4.01762
-24.675064,3.0879006,4.0215993
-24.737854,3.0931065,4.0141325
-24.822731,3.1104953,4.02151
-24.891968,3.1199856,4.019741
-24.964012,3.1314237,4.0206017
-25.03881,3.144833,4.0241385
-25.085505,3.1430497,4.0094976
-25.165062,3.159966,4.017845
-25.224174,3.165801,4.012941
-25.291996,3.1769714,4.0148153
-25.353668,3.1850076,4.013087
-25.40709,3.1885772,4.0060625
-25.48948,3.2095757,4.020867
-25.524412,3.2028217,4.0014353
-25.59537,3.217894,4.0093756
-25.652405,3.224976,4.0075736
-25.716358,3.2366633,4.011766
-25.76025,3.2362974,4.0009975
-25.81112,3.2405062,3.9961567
-25.871628,3.2511153,3.999608
-25.94159,3.2682,4.0115128
-25.978077,3.2641225,3.9966877
-26.026924,3.2682426,3.9924533
-26.07904,3.2747989,3.9915051
-26.139772,3.2874334,3.9985504
-26.192142,3.2948656,3.9991019
-26.245651,3.3034105,4.0012693
-26.29231,3.3075888,3.99796
-26.332254,3.3073492,3.9890616
-26.380653,3.3132374,3.988262
-26.43473,3.3234696,3.9932892
-26.48598,3.3320546,3.9963424
-26.530605,3.3361795,3.9937134
-26.572557,3.3385963,3.9889784
-26.602423,3.3322506,3.972826
-26.665565,3.350935,3.9897947
-26.698444,3.347208,3.977326
-26.70482,3.3232093,3.9380608
-26.747753,3.3272257,3.9359956
-26.793594,3.3337798,3.9374373
-26.837448,3.3390656,3.9373262
-26.878159,3.3421087,3.9343479
-26.922321,3.3481822,3.9355462
-26.933372,3.32736,3.9007752
-26.979801,3.3356056,3.9050858
-27.027176,3.344993,3.911075
-27.062267,3.3443158,3.9036217
-27.098467,3.344729,3.8977346
-27.12672,3.3383927,3.8827999
-27.161762,3.3380373,3.8760433
-27.1868,3.328912,3.857455
-27.235577,3.341124,3.8679724
-27.28134,3.351036,3.875499
-27.32578,3.3601193,3.8820255
-27.348652,3.3494031,3.8615835
-27.397068,3.3627527,3.874168
-27.416904,3.3491898,3.8499494
-27.457708,3.355783,3.8534708
-27.486534,3.3509161,3.8413224
-27.52202,3.3527026,3.838412
-27.5514,3.3485181,3.827345
-27.578833,3.3423834,3.813644
-27.611767,3.3419247,3.807862
-27.6661,3.3640406,3.833469
-27.69874,3.3638365,3.8282378
-27.728012,3.360138,3.8182235
-27.758263,3.35755,3.8098192
-27.79645,3.3638148,3.813826
-27.818811,3.352632,3.793571
-27.84137,3.3414958,3.773415
-27.871317,3.338713,3.764988
-27.905285,3.3406978,3.7633057
-27.944004,3.3485231,3.769898
-27.99076,3.3664072,3.790718
-28.017847,3.360893,3.7787628
-28.04924,3.360697,3.7743468
-28.073927,3.3521776,3.7582703
-28.103699,3.3500395,3.7512398
-28.143635,3.3611844,3.7630348
-28.184107,3.3735223,3.776618
-28.21994,3.380167,3.782246
-28.25093,3.3805523,3.7790923
-28.273048,3.3687901,3.7587767
-28.301435,3.3656006,3.7506642
-28.33508,3.3699636,3.7533407
-28.373373,3.3813834,3.766131
-28.40308,3.3806045,3.7616487
-28.436691,3.3858128,3.7657595
-28.470863,3.3921995,3.771626
-28.498325,3.3884578,3.7631154
-28.528212,3.3885643,3.7601542
-28.551401,3.3779473,3.741922
-28.556444,3.337071,3.680428
-28.52724,3.2370675,3.5342278
-28.525412,3.1802752,3.4497972
-28.529724,3.1320996,3.3776646
-28.487501,2.9989352,3.183505
-28.511433,2.981072,3.1547499
-28.529266,2.9512389,3.1088214
-28.52098,2.8705697,2.989778
-28.52958,2.819342,2.913022
-28.526278,2.74231,2.7990713
-28.558054,2.733241,2.782999
-28.507856,2.5533257,2.5205956
-28.52576,2.510084,2.4551697
-28.528906,2.4326851,2.3404245
-28.528982,2.3447309,2.2103744
-28.565563,2.336197,2.1950636
-28.537716,2.175734,1.9600725
-28.53615,2.0703726,1.8046494
-28.54706,1.9903846,1.6858854
-28.566813,1.9286475,1.5935268
-28.550245,1.7681,1.3579531
-28.553501,1.6518102,1.1864176
-38.007504,0.6365366,0.5644107
-38.033085,0.67445874,0.63107204
-38.0329,0.72907114,0.71915483
-37.95112,0.83657885,0.87484217
-37.97257,0.87504363,0.9418807
-37.950462,0.941134,1.0440784
-37.913948,1.0154207,1.1564665
-37.93004,1.0553374,1.2250566
-37.94898,1.0930107,1.2907791
-37.872982,1.1890025,1.4298763
-37.950016,1.1896877,1.4489169
-37.871445,1.2850463,1.5866432
-37.899376,1.3149087,1.6422129
-37.897804,1.3620517,1.7192898
-37.87134,1.4232435,1.8136587
-37.904713,1.4486992,1.8636642
-37.95318,1.4652772,1.9027996
-38.01477,1.4743667,1.9328814
-37.987522,1.5338638,2.0247731
-37.998978,1.5708542,2.089015
-38.04052,1.6334565,2.2036
-38.054066,1.6682787,2.2651358
-37.87969,2.0015054,2.7797437
-37.932266,2.0130124,2.8130717
-37.949894,2.042215,2.8672104
-37.96547,2.0722072,2.9222631
-37.97658,2.1041584,2.979569
-37.989594,2.1348996,3.0354476
-37.999702,2.166788,3.0926166
-38.017395,2.1947613,3.1452875
-38.03384,2.2231233,3.1984024
-38.051476,2.2507157,3.250646
-38.042473,2.2905238,3.316607
-38.07395,2.3112273,3.3610973
-38.101826,2.3335185,3.4074326
-38.129364,2.3558702,3.4539003
-38.161568,2.376043,3.4980378
-38.206005,2.390736,3.5362797
-38.25947,2.4015214,3.5704365
-38.323746,2.4077356,3.5998712
-38.414165,2.4029026,3.6177216
-38.485207,2.4067895,3.6453013
-38.566444,2.4066422,3.668922
-38.665672,2.3993187,3.6853633
-38.75564,2.396341,3.7068377
-38.879246,2.3799624,3.7148185
-38.976414,2.3750322,3.7352524
-39.104015,2.3583083,3.7440796
-39.204132,2.3532622,3.7654595
-39.363647,2.3252223,3.7641158
-39.471184,2.318468,3.7849832
-39.60431,2.302327,3.7970705
-39.694603,2.303349,3.826818
-39.81052,2.2950275,3.847879
-39.9204,2.2895594,3.8723326
-41.429245,1.7632003,3.395846
-41.438347,1.8011055,3.4672575
-41.45046,1.8376651,3.5373483
-41.46292,1.873878,3.6070857
-41.481136,1.907819,3.6746912
-41.48173,1.9478426,3.7479024
-41.48625,1.9862027,3.8195024
-41.47209,2.0308042,3.8966541
-41.47543,2.0690022,3.967904
-41.476387,2.1077616,4.0395703
-41.512367,2.1344426,4.100612
-41.773964,2.0857658,4.0968204
-42.006924,2.0480638,4.1040545
-42.27904,1.9988518,4.1030927
-42.55278,1.9506683,4.104759
-42.83366,1.9017458,4.1076164
-43.202248,1.826586,4.091093
-43.53754,1.7640262,4.087127
-43.93319,1.6846244,4.0721807
-44.324318,1.6089017,4.062816
-44.70337,1.5390921,4.0606875
-45.155376,1.4494607,4.046304
-45.62073,1.3584459,4.034109
-46.11824,1.2606077,4.020287
-46.639565,1.1586607,4.0071335
-47.181946,1.053602,3.9956112
-47.798355,0.93048763,3.9756665
-48.466408,0.7962997,3.952859
-49.112343,0.67208457,3.9416986
-49.794846,0.54140043,3.931275
-13.703142,1.2287457,3.9198737
-15.183682,1.6084328,4.147475
-15.247288,1.579947,4.071807
-15.886664,1.7229469,4.130395
-15.994729,1.7099204,4.069705
-17.356224,1.953579,4.081172
-17.647749,2.0038834,4.0805407
-17.8676,2.032885,4.063463
-18.138477,2.0796003,4.063162
-18.471905,2.1483223,4.0839224
-18.720148,2.1908793,4.0834885
-18.953133,2.2297635,4.081272
-19.180046,2.26793,4.079817
-19.39546,2.303478,4.0773196
-19.603058,2.3375661,4.0747485
-19.814611,2.3742175,4.075801
-20.008457,2.4058747,4.073366
-20.244862,2.4537435,4.08754
-20.431236,2.4851093,4.0871773
-20.597439,2.5102518,4.0818195
-20.774769,2.540407,4.0823073
-20.900105,2.5523958,4.065811
-21.07652,2.5840945,4.069647
-21.26649,2.621944,4.080638
-21.37314,2.6292548,4.061725
-21.489265,2.6407475,4.04763
-21.703018,2.6907341,4.0737343
-21.791348,2.6929493,4.051498
-21.909103,2.7072258,4.0422807
-22.070698,2.7396684,4.052749
-22.158403,2.7432957,4.033576
-22.33708,2.784418,4.0547533
-22.463625,2.8052468,4.055107
-22.543686,2.8075106,4.036066
-22.733332,2.856134,4.067712
-22.79332,2.8511062,4.041746
-22.958843,2.8914528,4.065878
-23.041206,2.8969815,4.0523715
-23.163626,2.920404,4.059119
-23.217989,2.9146137,4.033819
-23.345545,2.941567,4.04552
-23.40799,2.9401033,4.025737
-23.525654,2.9639463,4.034943
-23.612448,2.97441,4.029433
-23.700634,2.9860067,4.025606
-23.816246,3.0109158,4.037511
-23.86647,3.005762,4.015134
-23.994257,3.0377033,4.036104
-24.034565,3.0284886,4.0095596
-24.153439,3.0574927,4.028024
-24.246218,3.074538,4.0329213
-24.300545,3.0731437,4.016379
-24.388012,3.0885372,4.020012
-24.463343,3.098361,4.0173626
-24.534523,3.1065092,4.013013
-24.643652,3.1345916,4.0329556
-24.676247,3.123697,4.0062437
-24.755264,3.137186,4.009224
-24.863136,3.1664672,4.031766
-24.900908,3.159045,4.009879
-24.97979,3.1739225,4.0154843
-25.052288,3.1858373,4.0177555
-25.10946,3.1897657,4.010436
-25.170242,3.1960027,4.0061903
-25.247965,3.2121067,4.014453
-25.292755,3.2100494,4.000336
-25.362556,3.2225084,4.0045605
-25.407173,3.2208405,3.991287
-25.488163,3.2406306,4.005225
-25.536865,3.2419457,3.9961023
-25.603481,3.2541847,4.001008
-25.66193,3.261952,4.0004663
-25.715195,3.2669182,3.996556
-25.773258,3.2751372,3.996993
-25.829699,3.2827125,3.9968088
-25.887335,3.291388,3.9982362
-25.941275,3.2980893,3.9973154
-25.983297,3.2974806,3.9871116
-26.044477,3.3094556,3.9933755
-26.092422,3.3132057,3.9891467
-26.136177,3.3144495,3.9818
-26.187254,3.3207936,3.9812636
-26.238152,3.327333,3.9811497
-26.282228,3.3295383,3.9755023
-26.314344,3.3237228,3.9594164
-26.362236,3.3289528,3.9580088
-26.407372,3.3325295,3.954563
-26.4427,3.3293786,3.9423227
-26.495985,3.3392534,3.9475105
-26.513386,3.323418,3.918584
-26.565166,3.3326836,3.9232223
-26.617964,3.3430786,3.9295373
-26.638762,3.3298268,3.904282
-26.689423,3.339138,3.9094062
-26.704296,3.3213334,3.8781412
-26.740158,3.3195987,3.8685858
-26.800138,3.336937,3.8849342
-26.845953,3.3435783,3.886973
-26.873177,3.335599,3.869286
-26.904636,3.3310409,3.8563125
-26.93439,3.3251355,3.8415778
-26.970583,3.324611,3.8342607
-27.038324,3.35077,3.863552
-27.067339,3.3447456,3.8489454
-27.104332,3.3456054,3.843857
-27.126158,3.3334265,3.8209267
-27.159828,3.3315563,3.8122368
-27.20448,3.3395946,3.8173044
-27.254362,3.3527088,3.8295155
-27.294222,3.3571355,3.8298426
-27.319525,3.348348,3.8119488
-27.365597,3.3589573,3.821045
-27.40355,3.362276,3.8201296
-27.441387,3.3657207,3.819487
-27.475515,3.365792,3.8142338
-27.504007,3.360457,3.8015082
-27.532064,3.3546968,3.7882466
-27.558704,3.3475003,3.7730293
-27.594322,3.349461,3.7707133
-27.634735,3.3565967,3.775756
-27.68364,3.373005,3.7939491
-27.712605,3.3687363,3.7831488
-27.745863,3.3691363,3.778995
-27.780006,3.37066,3.7765055
-27.810852,3.3687034,3.7691722
-27.830767,3.3545108,3.7445803
-27.856792,3.3470416,3.7295456
-27.893167,3.3515005,3.7314868
-27.930292,3.357109,3.7351499
-27.965525,3.3607657,3.7361255
-28.00836,3.3738782,3.7506495
-28.039457,3.3730922,3.745469
-28.063437,3.3635325,3.7278323
-28.088818,3.3555932,3.7125502
-28.126123,3.3628953,3.7191114
-28.175676,3.3865786,3.7492156
-28.206497,3.38627,3.74507
-28.238464,3.3876286,3.7433815
-28.25499,3.3679802,3.7115955
-28.27834,3.3573318,3.6927571
-28.314575,3.364736,3.699926
-28.361282,3.387638,3.7294965
-28.389734,3.3846712,3.7219038
-28.422852,3.3886993,3.7244582
-28.451643,3.3864288,3.7179904
-28.488047,3.3959866,3.7286701
-28.516071,3.3928213,3.7210336
-28.547806,3.3956232,3.7220883
-28.569284,3.3818803,3.699244
-28.526253,3.2601314,3.5198636
-28.524405,3.2037742,3.4351397
-28.524977,3.1494913,3.3533683
-28.48641,3.0238621,3.1678934
-28.511253,3.0077314,3.1414165
-28.526726,2.973778,3.0890446
-28.519014,2.8948174,2.971149
-28.529032,2.8466868,2.8980813
-28.520172,2.7593782,2.767881
-28.544506,2.7350914,2.7295146
-28.525164,2.6198123,2.5583682
-28.521973,2.5332735,2.4290628
-28.527935,2.462474,2.3226833
-28.521809,2.3615246,2.1721768
-28.544334,2.3206954,2.1095319
-28.543013,2.2223122,1.9626584
-28.533915,2.100222,1.7809935
-28.53858,2.005459,1.6392655
-28.567003,1.9656196,1.5779943
-28.544838,1.7920246,1.32058
-37.999176,0.64442897,0.4539466
-37.98191,0.7114768,0.5591459
-38.02149,0.7397404,0.61347294
-37.98382,0.8185413,0.7337265
-37.931034,0.90591264,0.8648362
-37.955093,0.94236755,0.92958355
-37.963997,0.9880855,1.0063057
-37.93308,1.0583365,1.1145878
-37.86373,1.1515019,1.2520795
-37.940094,1.1530759,1.2717152
-37.875305,1.2413123,1.4023824
-37.92312,1.259927,1.4439015
-37.87589,1.3354895,1.5579052
-37.89734,1.3691161,1.6184525
-37.878296,1.4262087,1.7086344
-37.87066,1.4758661,1.7892609
-37.90476,1.5008378,1.8387694
-37.95323,1.5174525,1.8778825
-37.962135,1.5564237,1.9449964
-38.009193,1.5736322,1.9850116
-38.016243,1.612989,2.052575
-37.98266,1.6741858,2.1470194
-38.035954,1.6873708,2.1821747
-38.086796,1.7019548,2.219203
-38.14942,1.7518752,2.318941
-37.97264,1.9642541,2.6341782
-37.950745,2.0142245,2.7135525
-37.92879,2.063591,2.7920036
-37.95114,2.0903175,2.8433847
-37.986595,2.110411,2.8869505
-37.969822,2.15591,2.9604926
-38.000443,2.1779873,3.0064287
-37.99527,2.2170875,3.072277
-38.014553,2.2441902,3.1240892
-38.028538,2.2735922,3.178566
-38.04614,2.3010843,3.230835
-38.042824,2.3380055,3.293891
-38.072662,2.3594546,3.3392377
-38.09805,2.3828375,3.3868456
-38.124744,2.4055276,3.4337234
-38.155266,2.4264305,3.4786582
-38.19133,2.4448447,3.5209002
-38.254837,2.4513457,3.5500607
-38.309856,2.4617145,3.583743
-38.384205,2.4640105,3.608808
-38.461964,2.4651804,3.6329737
-38.552536,2.4613392,3.6520705
-38.64237,2.4582396,3.67239
-38.7426,2.451312,3.689043
-38.85247,2.440985,3.7025762
-38.942696,2.4391198,3.7255712
-39.092804,2.4138756,3.724527
-39.193813,2.408833,3.7452683
-39.303673,2.4008336,3.7634616
-39.47586,2.3693445,3.7581496
-39.553772,2.374897,3.7914324
-39.654533,2.3721104,3.8166776
-39.80044,2.352887,3.825986
-39.893524,2.3540592,3.85634
-40.02751,2.3406212,3.8727822
-41.44464,1.8613997,3.4351673
-41.469276,1.8933632,3.5009928
-41.480885,1.9298425,3.5712018
-41.485657,1.9685183,3.6434698
-41.46731,2.015008,3.723023
-41.46093,2.0569475,3.7981172
-41.46933,2.093499,3.8680978
-41.48173,2.1284766,3.9365954
-41.492706,2.1637464,4.005342
-41.48581,2.2047586,4.079199
-41.681606,2.1788645,4.093743
-41.914516,2.1419637,4.099873
-42.196747,2.0904922,4.094883
-42.464973,2.0450993,4.0968943
-42.756042,1.9940194,4.0958433
-43.0395,1.9469646,4.1000447
-43.40999,1.8746345,4.085367
-43.79172,1.8010087,4.0721292
-44.235092,1.7109501,4.04837
-44.575943,1.6541183,4.0537753
-44.95688,1.587326,4.053809
-45.487907,1.4787457,4.024655
-45.909393,1.4049449,4.0253286
-46.455242,1.2978854,4.0044947
-47.004333,1.1930208,3.98919
-47.55095,1.0919602,3.9805894
-48.11016,0.9904797,3.9757137
-48.830032,0.84809566,3.9470453
-49.537342,0.713197,3.9288106
-50.216705,0.58976483,3.9234648
-50.95375,0.45482826,3.9159641
-13.810217,1.4042363,3.9954643
-13.49198,1.2635949,3.8286467
-15.169863,1.6905828,4.1029406
-15.471869,1.7306695,4.081895
-15.876335,1.8022892,4.088267
-16.755997,1.9304144,4.050371
-17.213535,2.0264206,4.086908
-17.4603,2.0602405,4.07275
-17.708405,2.095828,4.0616803
-18.043558,2.1601634,4.0775733
-18.339088,2.2138667,4.086051
-18.552116,2.2427862,4.0739245
-18.747284,2.2670817,4.0588474
-19.010532,2.3147626,4.0665507
-19.234764,2.351048,4.065184
-19.410252,2.3722959,4.050944
-19.618893,2.4057095,4.0493073
-19.830584,2.4413574,4.051025
-20.047075,2.479886,4.056755
-20.255722,2.5169468,4.062281
-20.43147,2.543643,4.0587373
-20.66214,2.5908847,4.0766573
-20.866158,2.6299517,4.0876493
-20.995764,2.6432228,4.073612
-21.103851,2.6492934,4.0528965
-21.280655,2.681363,4.0595136
-21.460392,2.715587,4.069313
-21.543873,2.7145154,4.0431647
-21.714779,2.7471914,4.052957
-21.856312,2.7695818,4.0527353
-21.940063,2.7702968,4.0300884
-22.136326,2.8156495,4.055825
-22.233366,2.8228583,4.0413013
-22.346567,2.8370516,4.034847
-22.52032,2.87641,4.0565233
-22.624151,2.8882866,4.048768
-22.767715,2.9171536,4.060354
-22.855598,2.923691,4.047724
-22.955982,2.935951,4.041917
-23.061981,2.9511638,4.0399075
-23.191965,2.9773011,4.050787
-23.257946,2.97649,4.0315313
-23.400423,3.0094922,4.051339
-23.449434,3.0020828,4.025223
-23.582706,3.0324807,4.043107
-23.6307,3.0252833,4.0178223
-23.743435,3.0477383,4.027419
-23.816568,3.052694,4.016944
-23.92527,3.0745573,4.0267467
-24.029467,3.0950127,4.0353594
-24.087349,3.0941937,4.019065
-24.195667,3.117764,4.032197
-24.250038,3.1159906,4.0153217
-24.343296,3.1334205,4.021841
-24.42747,3.1469755,4.0240536
-24.501099,3.1558022,4.0208554
-24.587032,3.1712387,4.0260315
-24.66326,3.1823,4.026189
-24.722927,3.1853342,4.016759
-24.804863,3.2001972,4.0221806
-24.876469,3.2101922,4.0218863
-24.921837,3.2067642,4.005147
-24.994587,3.2181025,4.0070214
-25.06933,3.2309694,4.011093
-25.13097,3.2371917,4.0070868
-25.192429,3.2436628,4.00362
-25.26115,3.2545152,4.00593
-25.324417,3.2627463,4.0051627
-25.37715,3.2653954,3.9975042
-25.438564,3.2732759,3.9967213
-25.503408,3.2835088,3.9991772
-25.556402,3.2872434,3.9935007
-25.629435,3.303072,4.003621
-25.673449,3.3021495,3.992314
-25.728815,3.3082392,3.9902546
-25.782587,3.3136857,3.9875443
-25.833382,3.3176131,3.9830303
-25.876347,3.3169637,3.9726865
-25.90467,3.307321,3.9506636
-25.953852,3.3108766,3.9460864
-26.00771,3.31769,3.9459677
-26.07024,3.330443,3.953888
-26.07486,3.3058295,3.9124353
-26.121656,3.308721,3.9075356
-26.197094,3.3309639,3.928586
-26.238815,3.3311377,3.9204004
-26.283777,3.3337054,3.9155436
-26.291937,3.3111715,3.8771107
-26.34084,3.3166876,3.8764124
-26.401852,3.331021,3.8877587
-26.452255,3.3383005,3.8897672
-26.492268,3.3384452,3.8822641
-26.511356,3.323567,3.8544722
-26.558308,3.329004,3.8543477
-26.615063,3.3420153,3.864689
-26.656044,3.3436427,3.8596554
-26.697552,3.345878,3.855567
-26.709137,3.3253553,3.8203776
-26.751286,3.3282714,3.8173928
-26.790325,3.328982,3.811488
-26.845942,3.34304,3.824099
-26.881763,3.3416872,3.8155813
-26.915226,3.3385487,3.8046818
-26.937109,3.3259819,3.7807846
-26.977018,3.3282766,3.7775707
-27.043041,3.3527644,3.8053484
-27.077442,3.351067,3.7968297
-27.114069,3.351407,3.7912374
-27.133993,3.3373504,3.7655997
-27.154161,3.3233263,3.7400322
-27.228508,3.3575163,3.7821465
-27.261078,3.3549237,3.7728033
-27.301672,3.3597708,3.7740054
-27.320938,3.3451238,3.7478323
-27.347282,3.3369048,3.7307558
-27.390886,3.345036,3.7368455
-27.453812,3.3721242,3.7698903
-27.474392,3.3587806,3.7457986
-27.51284,3.3628838,3.7465053
-27.536201,3.3521519,3.726214
-27.562214,3.3439698,3.709591
-27.589817,3.3373554,3.6952496
-27.658064,3.3730235,3.7413125
-27.694008,3.375722,3.7404633
-27.73127,3.3800504,3.7420292
-27.76093,3.3764005,3.7322545
-27.788782,3.3708034,3.719747
-27.816256,3.364771,3.7066674
-27.83976,3.3542218,3.6871452
-27.864786,3.345255,3.6699376
-27.89788,3.345562,3.6661358
-27.94092,3.3577693,3.679574
-27.979372,3.3649843,3.6859093
-28.02822,3.3852081,3.7111444
-28.045668,3.3673968,3.6814618
-28.057272,3.3418431,3.640576
-28.098686,3.3536124,3.653808
-28.134996,3.3592877,3.658296
-28.185402,3.383819,3.6902642
-28.215733,3.3824568,3.6847048
-28.243748,3.3780446,3.674766
-28.265759,3.3653278,3.6527772
-28.292862,3.3594723,3.6408262
-28.329258,3.366822,3.648199
-28.375973,3.389554,3.6781273
-28.408613,3.3924136,3.6791158
-28.439405,3.3927283,3.6764479
-28.468433,3.3904846,3.670094
-28.499176,3.3909693,3.6677942
-28.530882,3.3931336,3.6680198
-28.55923,3.3900719,3.6606364
-28.550522,3.3258352,3.563428
-28.529547,3.2385473,3.432248
-28.50327,3.138793,3.2826018
-28.50201,3.0789578,3.1915855
-28.511597,3.036185,3.1256514
-28.528246,3.0046504,3.0762653
-28.534029,2.9516284,2.9951825
-28.52823,2.8743439,2.8782454
-28.522139,2.7931764,2.755496
-28.52751,2.7313144,2.661203
-28.558275,2.7185473,2.6394782
-28.524323,2.5701022,2.4170218
-28.527197,2.493413,2.3006325
-28.521326,2.3938775,2.150343
-28.527714,2.3170128,2.0335727
-28.553156,2.2802927,1.976294
-28.534157,2.1364424,1.7600775
-28.535465,2.0343251,1.605681
-28.555065,1.9724498,1.5109844
-28.552263,1.8494525,1.3254619
-37.967632,0.730777,0.4542451
-37.950745,0.7967739,0.55899334
-37.979954,0.83151555,0.6220341
-37.931713,0.91617227,0.75123215
-37.912018,0.9810958,0.8540249
-37.93799,1.0160005,0.9170456
-37.97238,1.0452392,0.9726229
-37.923286,1.1262324,1.0961113
-37.86498,1.2116058,1.2250009
-37.90677,1.2345085,1.2720513
-37.892094,1.2914011,1.3633895
-37.89212,1.3386991,1.442112
-37.94163,1.3561006,1.4820762
-37.899097,1.4274297,1.5916839
-37.873444,1.487881,1.6870141
-37.89862,1.5182798,1.7436185
-37.890217,1.5675025,1.8242812
-37.942307,1.5820398,1.86064
-37.967453,1.6116438,1.9162645
-37.935337,1.6725948,2.0115614
-37.978004,1.6918342,2.054021
-38.028698,1.7066953,2.0910811
-38.03366,1.7460957,2.1590104
-38.126442,1.7385001,2.168229
-38.139732,1.7731366,2.2302976
-37.92615,2.0430794,2.6391191
-37.95894,2.065072,2.6849422
-37.862003,2.1511786,2.8087206
-37.9403,2.1500669,2.8264122
-37.953403,2.1809514,2.8829522
-37.97561,2.2071998,2.9339066
-37.987766,2.238059,2.9903917
-37.997818,2.2696521,3.0477219
-38.00331,2.3030987,3.1072097
-38.01966,2.3312206,3.1603656
-38.036385,2.3589664,3.2130775
-38.037086,2.3937778,3.274036
-38.02981,2.4318361,3.3386836
-38.090584,2.43926,3.3678088
-38.117237,2.4618995,3.4146624
-38.147717,2.4827778,3.4595575
-38.184586,2.500842,3.501329
-38.22372,2.5179389,3.5421205
-38.29804,2.5201676,3.5663114
-38.3546,2.5301492,3.5994945
-38.429737,2.5325875,3.6245117
-38.51513,2.5311306,3.6455507
-38.61001,2.5262053,3.663166
-38.7162,2.5171943,3.6767607
-38.808815,2.514153,3.6973429
-38.928337,2.5009234,3.707376
-39.01951,2.4994297,3.730569
-39.15603,2.4808016,3.7359695
-39.28418,2.4661474,3.746265
-39.42401,2.4477537,3.7532916
-39.529045,2.4432158,3.7754688
-39.622734,2.4434078,3.803062
-39.75008,2.4316254,3.8188376
-39.851933,2.4298048,3.845418
-39.973434,2.4213662,3.8658385
-41.446186,1.9305949,3.40411
-41.462753,1.9653664,3.4727983
-41.481495,1.9991951,3.5405607
-41.461033,2.046454,3.6214342
-41.46061,2.086402,3.6950178
-41.474976,2.1210408,3.763421
-41.487923,2.1559794,3.8321
-41.484882,2.1960528,3.9055839
-41.49402,2.2318277,3.9749603
-41.483418,2.2738328,4.050026
-41.57303,2.283183,4.0952415
-41.821487,2.2421744,4.095674
-42.054913,2.2073176,4.1031175
-42.34519,2.155985,4.0975466
-42.614014,2.1129432,4.1010165
-42.87513,2.0737653,4.1095147
-43.2214,2.0102448,4.09911
-43.629143,1.9302933,4.07728
-44.012806,1.8598356,4.0659814
-44.446102,1.7770147,4.0472355
-44.79054,1.7224464,4.0540075
-45.23622,1.6407421,4.0417795
-45.723473,1.5497725,4.0254683
-46.19966,1.4646711,4.017043
-46.725143,1.3685706,4.003753
-47.28309,1.2665226,3.9898548
-47.869816,1.1598022,3.9766226
-48.478767,1.0504124,3.9657922
-49.17469,0.9213536,3.9458218
-49.888374,0.7915435,3.9305491
-50.678062,0.6460123,3.9102297
-51.47709,0.5024979,3.8972616
-13.676815,1.4682841,3.922237
-13.312262,1.3166046,3.7434998
-15.348853,1.833015,4.1021485
-16.748158,2.0545373,4.093093
-17.05936,2.1034274,4.090787
-17.344727,2.1463547,4.085203
-17.586779,2.1778085,4.071187
-17.942127,2.2451246,4.090958
-18.184742,2.279776,4.083159
-18.475601,2.3308003,4.0919147
-18.700422,2.3627155,4.0846176
-18.961365,2.4073734,4.09065
-19.142056,2.427733,4.075098
-19.39167,2.47146,4.0830455
-19.580538,2.496693,4.0744853
-19.800701,2.5333552,4.0781956
-20.014803,2.5692573,4.0824018
-20.203018,2.597633,4.0802984
-20.397923,2.6293664,4.082616
-20.58777,2.6604798,4.085376
-20.685825,2.6606257,4.057454
-20.86855,2.6911077,4.0613465
-21.07383,2.7307,4.0756993
-21.24825,2.760419,4.080798
-21.346107,2.763306,4.0584607
-21.505533,2.7892969,4.061195
-21.696957,2.828103,4.0784907
-21.767715,2.822834,4.049193
-21.904827,2.8429868,4.0478487
-22.044142,2.864773,4.048974
-22.150942,2.8748064,4.0378428
-22.317982,2.9089313,4.0539236
-22.404291,2.9122667,4.0364914
-22.552256,2.9405835,4.047485
-22.66802,2.9568636,4.0456085
-22.770657,2.9684772,4.0389757
-22.92989,3.0038867,4.059987
-22.980183,2.9951808,4.031102
-23.125769,3.026517,4.048644
-23.188473,3.023758,4.0272913
-23.313034,3.0476704,4.0373144
-23.40378,3.0577874,4.031727
-23.500916,3.0711932,4.0304084
-23.596085,3.084302,4.0291624
-23.699177,3.1014867,4.0331783
-23.803528,3.1198673,4.039073
-23.870747,3.1220784,4.025994
-23.965488,3.1372085,4.0287733
-24.026707,3.1374273,4.013877
-24.118473,3.1521792,4.0169086
-24.231554,3.1775424,4.0332947
-24.284996,3.17529,4.0162582
-24.353521,3.1805058,4.008621
-24.45512,3.2021418,4.021573
-24.524734,3.2087822,4.0163116
-24.605131,3.2211485,4.0184593
-24.659477,3.2209811,4.005229
-24.756474,3.2426,4.019574
-24.802757,3.2390234,4.0025253
-24.889801,3.256617,4.012432
-24.95119,3.2614493,4.006467
-25.017754,3.269331,4.0046105
-25.081066,3.275879,4.0012918
-25.153988,3.2879367,4.005274
-25.212364,3.2925882,3.9999888
-25.273571,3.2991042,3.9973156
-25.32198,3.2989006,3.98615
-25.399094,3.3149352,3.9962513
-25.456024,3.3201306,3.9925034
-25.479965,3.3068547,3.9647918
-25.501204,3.291966,3.9350126
-25.577488,3.3089786,3.9472349
-25.660542,3.3305254,3.9657128
-25.663977,3.305489,3.9228687
-25.712496,3.3071613,3.9154127
-25.778526,3.3196778,3.9225333
-25.841448,3.3307517,3.9279556
-25.881817,3.3283162,3.9155254
-25.881376,3.3005369,3.8692365
-25.942593,3.311286,3.8746696
-26.019234,3.3322957,3.894128
-26.05401,3.3269608,3.8782718
-26.092876,3.3243701,3.8662205
-26.103617,3.3034027,3.829338
-26.184553,3.3288708,3.8556042
-26.231224,3.332037,3.8517458
-26.281052,3.3376033,3.8513029
-26.303347,3.3245628,3.8255315
-26.338139,3.3201017,3.8115702
-26.409576,3.3414445,3.8331797
-26.457561,3.3467965,3.832988
-26.504747,3.3518715,3.8325539
-26.517216,3.3320582,3.7978163
-26.555603,3.3309884,3.789062
-26.618713,3.348401,3.806084
-26.66544,3.3540962,3.8069928
-26.70407,3.3539543,3.799894
-26.719673,3.3363256,3.7684636
-26.75478,3.3335922,3.7578897
-26.801197,3.3398356,3.7599888
-26.861591,3.3574839,3.7782364
-26.898155,3.356584,3.770565
-26.922497,3.3459063,3.7492013
-26.94816,3.336229,3.729292
-26.99394,3.3432093,3.7329879
-27.053095,3.3617692,3.7532115
-27.089388,3.3614793,3.746863
-27.121746,3.3579557,3.7360063
-27.138166,3.3406103,3.7055469
-27.163628,3.3309803,3.6860976
-27.222202,3.3508573,3.7088194
-27.266394,3.3583763,3.7140408
-27.305075,3.361196,3.7126489
-27.327372,3.3490524,3.6898932
-27.366512,3.3525743,3.6896653
-27.394724,3.3459458,3.6749363
-27.455128,3.3703136,3.7048936
-27.494291,3.374743,3.7062755
-27.523333,3.3694339,3.6936917
-27.54602,3.3577724,3.6719823
-27.57087,3.3481402,3.653243
-27.610857,3.3539786,3.6569648
-27.67171,3.3818817,3.692799
-27.704033,3.3805444,3.686326
-27.741484,3.3848128,3.6880732
-27.775105,3.3851852,3.6842341
-27.806849,3.3836474,3.6776824
-27.831364,3.3741302,3.6595497
-27.854261,3.3626463,3.6385827
-27.883528,3.3583026,3.6280928
-27.922417,3.36521,3.6341324
-27.967987,3.3803873,3.6523838
-28.005562,3.3865466,3.657517
-28.037521,3.3861825,3.6531534
-28.060368,3.3746433,3.6324239
-28.09035,3.3718753,3.6246352
-28.118345,3.3666184,3.6132374
-28.142452,3.3562803,3.594397
-28.201923,3.3924627,3.6442504
-28.231297,3.3895614,3.63653
-28.257278,3.3820753,3.622086
-28.277403,3.3663425,3.595481
-28.307413,3.3641672,3.5889783
-28.35086,3.3813572,3.6112356
-28.393188,3.397653,3.6322699
-28.426693,3.4015422,3.634982
-28.458698,3.403436,3.634799
-28.48995,3.4043732,3.633256
-28.520147,3.4038224,3.6295595
-28.548353,3.4001963,3.6213403
-28.56821,3.3829327,3.5928469
-28.530361,3.269049,3.4202766
-28.493404,3.152256,3.243188
-28.504211,3.1136048,3.1826196
-28.51883,3.0802364,3.1299305
-28.525906,3.0319874,3.0549874
-28.530834,2.977843,2.9711943
-28.52646,2.9039304,2.8577657
-28.524502,2.8315144,2.7465081
-28.502151,2.7157335,2.5701842
-28.553604,2.7436378,2.6092377
-28.533133,2.6244354,2.427639
-28.52512,2.5259528,2.2770238
-28.52344,2.4364645,2.139833
-28.503635,2.302262,1.9353619
-28.548733,2.3093827,1.943294
-28.527225,2.1609473,1.717258
-28.546337,2.1023629,1.626339
-28.54272,1.9843872,1.445971
-28.577293,1.9570754,1.4021249
-37.922733,0.77263737,0.37182045
-37.92262,0.8275547,0.46265268
-37.9551,0.8603482,0.52338934
-37.951187,0.916389,0.61558294
-37.885662,1.0111029,0.7598152
-37.919746,1.0410404,0.8165026
-37.936096,1.0818422,0.8878107
-37.950348,1.1234622,0.96017647
-37.9164,1.1942124,1.0713964
-37.93734,1.2304723,1.1364307
-37.89194,1.3062944,1.2539992
-37.974525,1.3046381,1.2686386
-37.883476,1.4058123,1.4193707
-37.947327,1.4148221,1.4482002
-37.85556,1.5139604,1.5955896
-37.89145,1.5383985,1.6446428
-37.886715,1.5857038,1.723618
-37.871586,1.638236,1.8092775
-37.87846,1.6778469,1.8780026
-37.933,1.6908121,1.9121909
-37.947006,1.7259209,1.9750867
-38.00853,1.7350776,2.004591
-38.037483,1.7617738,2.056754
-38.07285,1.784903,2.1043997
-38.13916,1.7917459,2.13139
-38.209267,1.7968402,2.156376
-39.334656,1.4444389,1.8144622
-37.887352,2.1948388,2.7669435
-37.93328,2.2097883,2.8040032
-37.9559,2.2359328,2.8549695
-37.9669,2.267407,2.912488
-37.985435,2.2950785,2.9653354
-37.989,2.3295035,3.026391
-38.00092,2.3597574,3.082336
-38.017246,2.3877606,3.1355448
-38.034767,2.4150245,3.1878662
-38.05597,2.44046,3.238011
-38.074306,2.4670131,3.2895045
-38.086433,2.4961126,3.344019
-38.11473,2.5179887,3.3900208
-38.143536,2.5395715,3.4357433
-38.178722,2.558374,3.4782982
-38.22289,2.5733876,3.5165687
-38.264324,2.589603,3.5563736
-38.358913,2.5839446,3.571272
-38.422207,2.5915394,3.6016798
-38.501644,2.5928283,3.625206
-38.58712,2.5920486,3.64675
-38.67611,2.5902703,3.6675572
-38.782444,2.5821054,3.6816692
-38.89331,2.572731,3.694944
-39.009605,2.5618472,3.7070904
-39.10524,2.559446,3.7290506
-39.206215,2.5554843,3.749772
-39.34678,2.5372434,3.7556195
-39.505302,2.5131516,3.755931
-39.592804,2.5159361,3.7855592
-39.690052,2.5155706,3.8122911
-39.798897,2.511494,3.8356242
-39.90608,2.5085356,3.8606644
-40.040154,2.4966474,3.877069
-41.433044,2.0480988,3.4489393
-41.44181,2.085168,3.5200171
-41.460835,2.118519,3.5873241
-41.46942,2.1552336,3.6579905
-41.47565,2.192516,3.7291737
-41.47315,2.2324467,3.8028822
-41.46276,2.2746646,3.8786898
-41.45539,2.315572,3.9530873
-41.478527,2.346418,4.017821
-41.459923,2.39037,4.094886
-41.696354,2.3541183,4.097428
-41.915844,2.3244362,4.107424
-42.185707,2.2805219,4.1058617
-42.4581,2.2373629,4.1066523
-42.761784,2.186345,4.1022024
-43.084846,2.1312983,4.0961623
-43.41152,2.0770197,4.092861
-43.827755,1.9985824,4.0711393
-44.234825,1.9251701,4.0563803
-44.61103,1.8628352,4.0534854
-45.02572,1.7918012,4.0460267
-45.508274,1.7042537,4.0281434
-45.949547,1.6307731,4.0246744
-46.520416,1.5245731,3.998877
-46.995102,1.4474227,3.9992476
-47.53723,1.355006,3.99154
-48.2127,1.2306323,3.9642286
-48.865936,1.1158266,3.9487271
-49.50628,1.0079677,3.9429255
-50.303703,0.8638656,3.9168077
-51.081802,0.7290535,3.9029675
-51.974606,0.5701773,3.8791323
-52.821243,0.42754197,3.8726368
-13.76021,1.6378682,3.991953
-13.4447975,1.5032897,3.8257117
-15.120812,1.9048822,4.098882
-15.4986925,1.9616008,4.094939
-15.907709,2.0290258,4.1025457
-16.186268,2.0622633,4.0833654
-16.584152,2.1307545,4.0967135
-16.82125,2.15552,4.0739145
-17.698067,2.286338,4.065979
-17.92288,2.3130531,4.051181
-18.296892,2.3860736,4.0812097
-18.564663,2.428847,4.084763
-18.75174,2.4482245,4.0674334
-18.950388,2.4722123,4.05564
-19.174221,2.505229,4.0538187
-19.371931,2.531177,4.046276
-19.601025,2.5683336,4.051029
-19.818563,2.6030478,4.054603
-20.01376,2.6316564,4.053172
-20.227386,2.6675026,4.060229
-20.420555,2.6977174,4.062623
-20.632912,2.7355614,4.0740123
-20.827566,2.7685888,4.0814757
-20.92789,2.7700462,4.0565076
-21.077963,2.7894108,4.051156
-21.271116,2.8248663,4.063884
-21.428219,2.8485894,4.064894
-21.481686,2.83577,4.0268087
-21.707592,2.886051,4.058303
-21.799376,2.888303,4.0378017
-21.915512,2.9000685,4.0283227
-22.099268,2.937917,4.048641
-22.199871,2.9453015,4.0354943
-22.325352,2.9627652,4.0342526
-22.48061,2.9925046,4.0476227
-22.570868,2.9977324,4.033574
-22.721714,3.0274057,4.0481715
-22.789257,3.024715,4.025872
-22.954468,3.0617604,4.0502796
-23.029226,3.062985,4.0333824
-23.14605,3.0818982,4.0376854
-23.21458,3.0814142,4.0194855
-23.360027,3.1135778,4.0405126
-23.4273,3.113505,4.0235457
-23.52937,3.1286645,4.025199
-23.608763,3.134609,4.0161333
-23.71268,3.1517022,4.0209503
-23.803905,3.1638248,4.0201354
-23.886665,3.1727023,4.015715
-23.990334,3.19147,4.0238185
-24.066853,3.1985338,4.017867
-24.130268,3.1999912,4.005247
-24.222485,3.2151291,4.00994
-24.320734,3.2336717,4.019273
-24.38435,3.2364426,4.009157
-24.453386,3.2421253,4.002955
-24.53328,3.2534294,4.004139
-24.607393,3.2623954,4.0026536
-24.677359,3.2697487,3.9993877
-24.753332,3.2804909,4.000725
-24.808918,3.2814398,3.9897478
-24.899048,3.3002038,4.0019603
-24.970366,3.309931,4.002812
-25.018566,3.3081079,3.9889112
-25.048542,3.2969391,3.9629803
-25.049263,3.2703018,3.9168887
-25.159966,3.3021176,3.9474523
-25.18938,3.2909393,3.9218426
-25.266449,3.3057406,3.9306095
-25.256794,3.2733042,3.87709
-25.345352,3.2950726,3.8954725
-25.404205,3.3008127,3.8928266
-25.453442,3.3014293,3.8835282
-25.47806,3.288152,3.8557708
-25.550238,3.3023815,3.8650122
-25.604227,3.3064694,3.8608398
-25.67367,3.3199954,3.869586
-25.675808,3.2937787,3.824748
-25.72115,3.2933183,3.8148317
-25.808912,3.3189442,3.8405504
-25.842112,3.3116643,3.8216786
-25.895336,3.3169127,3.8200233
-25.91901,3.303862,3.7934427
-25.981579,3.3154907,3.8008175
-26.017544,3.3104522,3.7854347
-26.085709,3.3264337,3.7991605
-26.110224,3.3142753,3.7741709
-26.155418,3.31578,3.7681713
-26.208395,3.3227339,3.7698712
-26.254648,3.3254666,3.7658486
-26.29884,3.3270345,3.7603297
-26.311445,3.3069234,3.7246141
-26.369074,3.3181167,3.7327604
-26.413105,3.3201072,3.7281585
-26.458923,3.323605,3.7257938
-26.512094,3.332693,3.7314343
-26.532192,3.3179343,3.7035518
-26.580196,3.323699,3.7047305
-26.626802,3.3287244,3.7049923
-26.674454,3.334835,3.7069216
-26.723719,3.3424993,3.7111897
-26.737045,3.3226528,3.676392
-26.770807,3.3185484,3.6640625
-26.837395,3.3405628,3.6891541
-26.870361,3.3362803,3.6767812
-26.916029,3.342382,3.6793776
-26.927263,3.320505,3.641892
-26.980213,3.3329608,3.6538057
-27.028358,3.3418407,3.6607103
-27.061808,3.3385887,3.650228
-27.09968,3.3392348,3.645455
-27.1293,3.3328605,3.6306047
-27.163326,3.3303874,3.62147
-27.21235,3.341429,3.632032
-27.264801,3.3560123,3.6478715
-27.294298,3.3500786,3.633978
-27.328554,3.3485727,3.6265965
-27.359188,3.34378,3.61449
-27.388346,3.3376157,3.6004386
-27.436256,3.3495483,3.6129327
-27.472376,3.3504238,3.6093416
-27.51238,3.3553286,3.6117435
-27.542946,3.3510404,3.6007314
-27.563885,3.3369956,3.5754251
-27.602297,3.3407464,3.576353
-27.65808,3.3629193,3.6045327
-27.690893,3.3615093,3.5980449
-27.732012,3.3691401,3.6049862
-27.762415,3.3654532,3.5952764
-27.799173,3.3688402,3.5961032
-27.81976,3.3543277,3.570469
-27.847666,3.3478742,3.5568194
-27.876106,3.3419943,3.5440702
-27.906778,3.3387065,3.5352263
-27.949783,3.3501458,3.5483665
-28.000454,3.3713465,3.5761523
-28.026657,3.3633232,3.5604725
-28.059925,3.3640006,3.5578246
-28.085096,3.3545928,3.5401707
-28.12828,3.3682,3.556982
-28.14415,3.346682,3.5213046
-28.19745,3.3743455,3.5593295
-28.226181,3.3698773,3.5492992
-28.248985,3.3572578,3.527083
-28.280876,3.357045,3.5235343
-28.314913,3.3600194,3.524838
-28.357067,3.3749857,3.5442514
-28.391123,3.3787005,3.5468183
-28.425756,3.3835554,3.5511694
-28.460928,3.389554,3.5573158
-28.488243,3.3836884,3.5456266
-28.521902,3.3877962,3.5490446
-28.553823,3.3893936,3.5487347
-28.575207,3.3738208,3.5225167
-28.497826,3.1916995,3.244276
-28.50485,3.147095,3.1739779
-28.515226,3.1066532,3.1099615
-28.51734,3.0498734,3.0211554
-28.527887,3.0061982,2.9521885
-28.528343,2.941917,2.8519201
-28.523546,2.8648744,2.7322164
-28.496847,2.7416923,2.5423164
-28.525593,2.723715,2.512258
-28.557295,2.7110996,2.4903936
-28.517035,2.5471869,2.2382536
-28.531847,2.4935849,2.1539369
-28.498768,2.331889,1.9048872
-28.53288,2.3138392,1.874671
-28.541162,2.2350311,1.7518258
-28.537724,2.1241133,1.5799417
-28.537802,2.0157485,1.4118781
-28.569939,1.9822195,1.358048
-28.589184,1.9133792,1.2502961
-37.939106,0.82749987,0.32668066
-37.91766,0.89600134,0.4371276
-37.933945,0.93905616,0.5122981
-37.93727,0.98984957,0.59807205
-37.93695,1.0422511,0.68595934
-37.92951,1.0983815,0.77884626
-37.907227,1.1628926,0.8830433
-37.93932,1.1931062,0.94032
-37.87446,1.2818561,1.0771737
-37.93238,1.2954364,1.1117635
-37.869873,1.3806391,1.2433286
-37.94169,1.385473,1.2661581
-37.877495,1.4697149,1.3959827
-37.89237,1.5070515,1.4625282
-37.939915,1.5253534,1.503582
-37.897614,1.5943441,1.6123457
-37.906044,1.6339505,1.6817541
-37.868866,1.6983321,1.7839546
-37.89272,1.7283573,1.8404784
-37.96299,1.7329769,1.8635292
-37.98536,1.7635493,1.920897
-38.02002,1.7873347,1.9693809
-38.08306,1.7960792,1.9982872
-38.10649,1.8256209,2.054449
-38.187527,1.8252492,2.071824
-38.22258,1.8486989,2.120267
-37.92926,2.1539755,2.5842328
-37.983467,2.2032619,2.6828618
-37.890873,2.2846363,2.8037252
-37.954773,2.291049,2.829977
-37.96174,2.3242288,2.8899117
-37.98829,2.3480642,2.9381604
-38.000725,2.3782291,2.9943013
-38.011055,2.4091034,3.0512943
-38.0217,2.4395776,3.1077633
-38.036774,2.4678407,3.1614952
-38.04564,2.4986236,3.2182913
-38.070526,2.5221868,3.266293
-38.0619,2.5600705,3.3316226
-38.12172,2.5683813,3.3613048
-38.15473,2.5882027,3.4049673
-38.18829,2.607762,3.4484043
-38.230827,2.6235826,3.4875078
-38.27822,2.6374652,3.5244684
-38.366146,2.6350024,3.5424547
-38.430355,2.642484,3.5723968
-38.515858,2.6417284,3.5930548
-38.603157,2.6406603,3.6137218
-38.683662,2.6426458,3.6382656
-38.80565,2.6289864,3.645352
-38.89415,2.6287768,3.6682248
-39.020103,2.6148202,3.6760402
-39.117584,2.6122031,3.6971211
-39.2248,2.606447,3.7151709
-39.36993,2.5873303,3.7190022
-39.489914,2.578151,3.7344298
-39.56594,2.5853758,3.7682753
-39.68267,2.5784276,3.7871695
-39.78002,2.578884,3.8145719
-39.8899,2.5754206,3.8382792
-40.030293,2.561973,3.8519993
-40.140476,2.559571,3.878007
-41.455734,2.1509566,3.4829307
-41.469368,2.1860752,3.5522132
-41.46982,2.2253656,3.6257396
-41.463326,2.2666545,3.7011952
-41.464394,2.3051813,3.7737522
-41.469437,2.342177,3.8447027
-41.486717,2.375067,3.9115558
-41.4797,2.4154375,3.9857073
-41.45829,2.4599695,4.063737
-41.574314,2.4619493,4.100961
-41.814926,2.4266424,4.103647
-42.046864,2.3952794,4.1114564
-42.306194,2.357054,4.1143327
-42.61538,2.3056247,4.106762
-42.93654,2.252468,4.099561
-43.235172,2.2075958,4.1017485
-43.591545,2.1479757,4.092884
-44.049103,2.0619378,4.063444
-44.447803,1.9948802,4.0532045
-44.78724,1.9463462,4.061172
-45.255615,1.8646526,4.043896
-45.688286,1.7951868,4.039754
-46.245926,1.6949573,4.013848
-46.75088,1.6117029,4.0051928
-47.256943,1.5309682,4.0020027
-47.809753,1.44105,3.9953647
-48.46956,1.3270922,3.974681
-49.228233,1.1920671,3.9433098
-49.7772,1.113148,3.957775
-50.63085,0.96275616,3.926015
-51.469067,0.82084274,3.9064646
-52.45602,0.64809203,3.8725352
-53.3526,0.5020976,3.863688
-13.70565,1.7171319,3.9423351
-13.291569,1.5585732,3.753377
-15.211179,2.014709,4.0841947
-15.752283,2.1134005,4.119304
-15.925889,2.1156774,4.073512
-16.350159,2.1874504,4.0904465
-16.359148,2.1465712,4.008731
-17.53856,2.3530517,4.0706754
-17.903149,2.4181366,4.092544
-18.129507,2.444824,4.0799127
-18.31102,2.4594502,4.0569444
-18.577118,2.5003624,4.0606604
-18.857233,2.5470293,4.071583
-19.107166,2.5860672,4.076506
-19.360992,2.6277351,4.0854845
-19.569324,2.656631,4.082914
-19.724293,2.669815,4.0653806
-19.92623,2.698829,4.065041
-20.129433,2.7293954,4.0674086
-20.293205,2.7482443,4.0585346
-20.471916,2.7729206,4.056696
-20.651041,2.7987442,4.0570164
-20.864605,2.8371985,4.0718756
-21.017586,2.8562875,4.066816
-21.185312,2.8813055,4.0690126
-21.277937,2.881164,4.0443296
-21.474972,2.9181545,4.0612836
-21.607738,2.9335153,4.0550594
-21.735767,2.9479098,4.0483875
-21.885395,2.9708436,4.0519943
-21.964607,2.9688554,4.027919
-22.130045,2.999134,4.041192
-22.260132,3.0172033,4.0411696
-22.340487,3.0172346,4.020813
-22.542383,3.064026,4.0553956
-22.62474,3.0660515,4.038375
-22.76009,3.0891159,4.046547
-22.841179,3.0916505,4.030961
-22.957012,3.1083927,4.0326715
-23.061445,3.1212382,4.030217
-23.174007,3.1379755,4.0329075
-23.255074,3.142476,4.0212536
-23.384562,3.167432,4.0348454
-23.453436,3.1678696,4.0189934
-23.570427,3.1889496,4.028793
-23.661285,3.199616,4.026226
-23.734558,3.2032223,4.0152683
-23.813435,3.2096388,4.0080976
-23.918274,3.2278943,4.016055
-23.994198,3.2339668,4.009128
-24.065878,3.238544,4.000605
-24.151924,3.2500048,4.0010767
-24.237675,3.2618392,4.0023594
-24.31912,3.272197,4.0020885
-24.384365,3.2754686,3.9930406
-24.438374,3.273773,3.9778345
-24.504967,3.2783024,3.9708555
-24.587893,3.291044,3.9747632
-24.623592,3.2813435,3.949779
-24.674969,3.2793999,3.9350228
-24.755732,3.2922432,3.9398112
-24.809202,3.2919238,3.92759
-24.837309,3.2790089,3.8989284
-24.889246,3.2782578,3.8864293
-24.971476,3.293379,3.8951688
-25.033705,3.2986152,3.8910382
-25.031925,3.2704628,3.8425171
-25.14418,3.3026803,3.874817
-25.199247,3.3050344,3.8674042
-25.239416,3.2995734,3.8496342
-25.25317,3.2797277,3.8125348
-25.355679,3.3089216,3.8419023
-25.403023,3.3080354,3.8307576
-25.46043,3.3130496,3.8277938
-25.460197,3.2854204,3.7804065
-25.531876,3.2989905,3.7894058
-25.597525,3.3095424,3.794496
-25.646656,3.3107853,3.7869782
-25.665533,3.2942295,3.7550354
-25.73557,3.3083572,3.7655735
-25.80386,3.3219306,3.775567
-25.831875,3.3112202,3.752016
-25.871672,3.3078134,3.7387009
-25.921665,3.3109465,3.7346225
-25.993809,3.3284144,3.7507548
-26.050762,3.3367107,3.754249
-26.072836,3.3227537,3.7266226
-26.089178,3.304935,3.6935883
-26.140657,3.310217,3.6931825
-26.205013,3.324438,3.7055697
-26.246325,3.3235545,3.696735
-26.2818,3.3188455,3.6825728
-26.307726,3.3076138,3.6592088
-26.366167,3.3190835,3.6682653
-26.433115,3.3370187,3.686729
-26.462759,3.3288443,3.668017
-26.494375,3.322097,3.651411
-26.530378,3.318593,3.6395311
-26.60913,3.3468356,3.6734252
-26.649061,3.3468416,3.66685
