x,y,z
-33.04283,1.3585587,3.0260482
-33.080494,1.3640692,3.0403843
-33.126118,1.3572211,3.0430536
-33.167145,1.3577154,3.052884
-27.098852,1.2371573,2.8634677
-27.146976,1.2456927,2.862403
-27.192492,1.2504535,2.8578506
-27.237919,1.2553508,2.8535953
-27.28086,1.2564471,2.8457947
-27.322985,1.2563527,2.836978
-27.36432,1.2550609,2.8271317
-27.41411,1.2683885,2.831759
-27.460646,1.2765927,2.831541
-27.509277,1.2889056,2.835534
-27.546299,1.2808435,2.8196201
-27.591412,1.2874637,2.818316
-27.636766,1.294882,2.8179612
-27.682692,1.3037658,2.8192177
-27.729156,1.3141203,2.822095
-27.7751,1.3239493,2.824617
-27.820875,1.3339169,2.8274412
-27.868128,1.3473654,2.8338962
-27.911255,1.3529277,2.8326473
-27.953005,1.3559346,2.82899
-27.99595,1.3617427,2.8282738
-28.038792,1.3676751,2.8278275
-28.083038,1.3770936,2.8310251
-28.124151,1.3799098,2.8277373
-28.166372,1.3855369,2.8274121
-28.208494,1.391284,2.8273468
-28.251635,1.3998537,2.8302698
-28.29435,1.4078717,2.8327804
-28.336115,1.4139822,2.8335028
-28.37513,1.4134343,2.8276181
-28.416471,1.419096,2.8281507
-28.454676,1.4167264,2.8206644
-28.496372,1.4239709,2.823063
-28.537216,1.4292927,2.8236408
-28.578674,1.4367704,2.8265462
-28.62092,1.4470906,2.8324814
-28.66209,1.4548037,2.8358955
-28.699833,1.452393,2.8291035
-28.740814,1.4603276,2.8329983
-28.782072,1.4697447,2.838542
-28.82175,1.474488,2.8394318
-28.861147,1.4786544,2.8398533
-28.900848,1.484298,2.8419132
-28.939894,1.4879928,2.8420954
-28.979588,1.4945376,2.845325
-29.018646,1.4991302,2.846671
-29.057959,1.5052028,2.8496604
-29.095863,1.5058815,2.8472176
-29.133438,1.5052836,2.843573
-29.172224,1.5102909,2.845817
-29.21092,1.5154014,2.8482876
-29.24911,1.5185483,2.8488464
-29.285097,1.5107651,2.8382354
-29.324797,1.5223851,2.8477721
-29.362585,1.5244529,2.8475575
-29.400217,1.5259287,2.8468428
-29.437931,1.5281935,2.8470564
-29.475706,1.5312471,2.8481984
-29.513031,1.5316362,2.8466916
-29.550625,1.5341954,2.8475432
-29.587908,1.5347781,2.846458
-29.625423,1.5375323,2.847733
-29.662891,1.5403843,2.8492198
-29.700377,1.5440259,2.851635
-29.737541,1.5449955,2.851389
-29.774921,1.5488317,2.8542256
-29.811863,1.5479152,2.8522387
-29.848959,1.5491724,2.8526158
-29.885822,1.5470603,2.8496017
-29.92265,1.5436566,2.8453536
-29.967958,1.735137,3.0436625
-30.003798,1.7471933,3.0557122
-30.039635,1.7669694,3.0758867
-30.075167,1.7882254,3.0977044
-30.110035,1.7783704,3.0872974
-30.145073,1.7727656,3.0814085
-30.180151,1.774878,3.08364
-30.21527,1.7722273,3.0810237
-30.250462,1.7682803,3.0771627
-30.285055,1.7852223,3.0951076
-30.320038,1.7856145,3.0959578
-30.355824,1.7694609,3.0797224
-30.391008,1.7686484,3.0795279
-30.426346,1.7658482,3.0773706
-30.461575,1.7652183,3.0775695
-30.496874,1.7639856,3.0772467
-30.53232,1.7614598,3.075684
-30.566713,1.7701037,3.085814
-30.60215,1.7677588,3.0846443
-30.63731,1.7682734,3.086543
-30.67315,1.763345,3.0829034
-30.709896,1.7522871,3.073019
-30.745077,1.7537711,3.0762362
-30.780855,1.7511997,3.075358
-30.816027,1.752866,3.078971
-30.852203,1.7484081,3.0763512
-30.888817,1.7419755,3.0717988
-30.923145,1.7487485,3.0810037
-30.959343,1.745264,3.079712
-30.99519,1.7439437,3.0807624
-31.031204,1.7420275,3.081306
-31.066956,1.7415838,3.0834746
-31.103647,1.7371049,3.0815926
-31.1409,1.7306614,3.0777993
-31.178097,1.7250061,3.0749326
-31.214876,1.7215121,3.0744028
-31.251364,1.7194896,3.0754976
-31.288988,1.7134488,3.0725775
-31.326529,1.7081962,3.0705838
-31.406404,1.554421,2.9164472
-31.461586,1.4940469,2.8583522
-31.499643,1.494046,2.8622646
-31.538553,1.4914117,2.8635988
-31.57838,1.4861515,2.8623705
-31.617634,1.4830472,2.8634696
-31.659,1.4739153,2.8585439
-31.699352,1.4683061,2.8573413
-31.737886,1.4682527,2.8619232
-31.774954,1.4723809,2.870874
-31.814472,1.4698122,2.8731332
-31.859169,1.4537814,2.8618622
-31.896797,1.4568655,2.8701143
-31.937862,1.4512446,2.8696704
-31.982851,1.4362688,2.8599033
-32.02252,1.4349449,2.8640776
-32.063637,1.4303534,2.8650832
-32.105705,1.4238558,2.8643036
-32.148773,1.415458,2.8617535
-32.18928,1.4132414,2.865559
-32.23014,1.4104657,2.868935
-32.275105,1.3990786,2.8638177
-32.32185,1.384475,2.85564
-32.364967,1.3780518,2.855805
-32.404587,1.3791106,2.8635807
-32.44353,1.3816128,2.8729205
-32.491257,1.3668761,2.8652377
-32.530964,1.3682773,2.873756
-32.571007,1.3691223,2.8818507
-32.610336,1.3714051,2.8914976
-32.650715,1.3718045,2.8994093
-32.6922,1.3703287,2.905604
-32.731857,1.3722782,2.91531
-32.771114,1.3749974,2.9259038
-32.81072,1.3771632,2.9360785
-32.85146,1.3774619,2.9445548
-32.893383,1.3759022,2.9513502
-32.93335,1.3777466,2.9616122
-32.97491,1.3770797,2.9695606
-33.01567,1.3778403,2.9790392
-33.053535,1.3832912,2.9932065
-33.095093,1.3829708,3.001906
-33.135387,1.3847241,3.0127535
-33.17738,1.3839893,3.0213375
-33.222435,1.3788333,3.025815
-33.263184,1.3802955,3.0368137
-33.30481,1.38058,3.0468254
-33.37476,1.3403039,3.0182157
-26.944715,1.241159,2.8387923
-26.984743,1.2361984,2.8241878
-27.035498,1.2475159,2.8256311
-27.081005,1.2512221,2.819809
-27.126022,1.2544155,2.8136458
-27.172623,1.2603428,2.81033
-27.210598,1.2527401,2.7938461
-27.270294,1.280447,2.812347
-27.330322,1.3096685,2.832591
-27.376617,1.3168607,2.8312492
-27.421246,1.3215737,2.8276095
-27.466923,1.3283873,2.8262148
-27.532284,1.3701618,2.85982
-27.563065,1.3516386,2.8335166
-27.605024,1.352946,2.8271132
-27.649815,1.3596513,2.8262544
-27.69589,1.3691332,2.8283353
-27.743189,1.3814013,2.8333788
-27.787542,1.3885157,2.8334064
-27.831097,1.3944342,2.8323827
-27.873882,1.3991516,2.8302922
-27.914955,1.4006667,2.82511
-27.959826,1.4102886,2.8282638
-28.002014,1.4147098,2.8263016
-28.043194,1.4172487,2.822569
-28.086746,1.4252498,2.8245177
-28.129263,1.4313705,2.8247018
-28.172253,1.4389534,2.8265162
-28.21396,1.4439783,2.825863
-28.255575,1.4491215,2.8254662
-28.297922,1.4563985,2.827386
-28.339058,1.4611056,2.8268142
-28.38037,1.4666014,2.8271832
-28.42184,1.4728882,2.8284955
-28.46269,1.4779418,2.8286753
-28.505182,1.4878378,2.833963
-28.545563,1.4924471,2.8339496
-28.586569,1.4991994,2.8362713
-28.62653,1.5033567,2.8360467
-28.666412,1.5076232,2.8360586
-28.704897,1.5079293,2.8321042
-28.74444,1.5117326,2.8318806
-28.78516,1.5197201,2.836112
-28.825535,1.5271411,2.8398843
-28.864992,1.5319526,2.8410769
-28.904362,1.5368702,2.8425026
-28.943455,1.5412138,2.843451
-28.982468,1.5456631,2.8446302
-29.020704,1.547488,2.8431973
-29.060081,1.5541942,2.846959
-29.098038,1.5555408,2.8452601
-29.135653,1.55562,2.8423524
-29.175074,1.564007,2.8482199
-29.213766,1.5697637,2.8514614
-29.251238,1.5701447,2.8492088
-29.288296,1.5685678,2.8450198
-29.326143,1.5711999,2.8453374
-29.363943,1.5739317,2.8458714
-29.40169,1.5767627,2.8466206
-29.439163,1.5783195,2.846147
-29.477236,1.584095,2.8502002
-29.514711,1.5865355,2.8508735
-29.551579,1.5849504,2.847437
-29.588558,1.5841475,2.8449254
-29.625381,1.5820644,2.8411794
-29.66277,1.5848911,2.8426886
-29.70053,1.591944,2.848743
-29.737974,1.5970309,2.8528433
-29.774918,1.5973971,2.8520966
-29.811693,1.595792,2.8493862
-29.848776,1.5984132,2.8512206
-29.88577,1.6004422,2.8525395
-29.92362,1.6197903,2.8721642
-29.96705,1.7756681,3.0353775
-30.003672,1.8117664,3.0728421
-30.038969,1.8210838,3.0822654
-30.073475,1.7953427,3.0549393
-30.108831,1.8131111,3.0734477
-30.143858,1.8061578,3.06607
-30.178919,1.8103225,3.0704813
-30.214064,1.8049283,3.0649447
-30.249363,1.7968681,3.056707
-30.284798,1.7888992,3.048666
-30.31763,1.847861,3.1110682
-30.353554,1.8242221,3.08676
-30.387842,1.8358119,3.0995708
-30.423397,1.825448,3.0894175
-30.458254,1.826884,3.0917616
-30.49326,1.826344,3.0921307
-30.528526,1.8231406,3.0898037
-30.563572,1.822782,3.0905657
-30.598478,1.8238897,3.0929675
-30.63409,1.8188963,3.0890708
-30.669357,1.817435,3.0889812
-30.704744,1.8153777,3.0883698
-30.740557,1.8106642,3.0850797
-30.77604,1.8087926,3.0848708
-30.810898,1.8111329,3.0891752
-30.846527,1.8087583,3.0886455
-30.881836,1.8085356,3.0904708
-30.91728,1.8077183,3.0917792
-30.953932,1.8008251,3.0868425
-30.990011,1.7974563,3.0856962
-31.026152,1.794183,3.0847578
-31.062351,1.7910056,3.0840278
-31.098452,1.7886076,3.084218
-31.13492,1.7849388,3.0831919
-31.171453,1.7813678,3.0823784
-31.209087,1.773799,3.0775151
-31.246674,1.7670157,3.073585
-31.284561,1.7596536,3.069171
-31.322388,1.7530777,3.0656915
-31.363455,1.7357142,3.0511413
-31.45284,1.5559032,2.8683705
-31.49234,1.5504622,2.8665829
-31.530449,1.5498846,2.8699484
-31.572716,1.5365143,2.8602066
-31.611633,1.5341158,2.8619351
-31.64945,1.5352099,2.8673863
-31.69078,1.5262501,2.862588
-31.72914,1.5261998,2.8670979
-31.76923,1.5215228,2.8669648
-31.809153,1.5176315,2.8677664
-31.84889,1.5145254,2.8695006
-31.88895,1.5108547,2.8707805
-31.930689,1.5032578,2.8681664
-31.972286,1.4964528,2.866499
-32.01317,1.4917817,2.8671489
-32.054417,1.4865544,2.867364
-32.096924,1.478764,2.8651009
-32.139862,1.4704287,2.8624244
-32.182045,1.4642241,2.8620596
-32.22495,1.4568057,2.8606029
-32.26611,1.4535146,2.8634758
-32.307014,1.4510064,2.8672752
-32.347973,1.4486129,2.871325
-32.38996,1.4443412,2.87361
-32.43404,1.4362085,2.8721437
-32.477577,1.4295328,2.8722963
-32.520546,1.4243093,2.8740592
-32.567112,1.4126012,2.8694606
-32.6089,1.410279,2.874434
-32.65579,1.3988476,2.8704348
-32.700676,1.3915114,2.870695
-32.7442,1.3869398,2.8738713
-32.7897,1.3792148,2.8740587
-32.828438,1.3834248,2.8862658
-32.872944,1.3779223,2.8889637
-32.912434,1.3810475,2.9003582
-32.949093,1.3888466,2.9164982
-32.987247,1.3941333,2.9302692
-33.029015,1.3936682,2.938501
-33.073284,1.3894284,2.9431648
-33.11595,1.3879142,2.9506598
-33.15568,1.3910542,2.9628568
-33.192787,1.398179,2.979076
-33.234146,1.3989525,2.9892201
-33.275055,1.4004877,3.0002475
-33.318626,1.398284,3.0077877
-33.360893,1.3981354,3.0174727
-33.40089,1.4013114,3.0305176
-33.4496,1.3924563,3.0321054
-33.533867,1.3352785,2.9874287
-26.839859,1.2494965,2.8212333
-26.877365,1.2403986,2.802267
-26.923319,1.2435777,2.7954874
-26.970074,1.2481794,2.7902713
-27.01717,1.2535663,2.7859998
-27.058254,1.2500758,2.7731142
-27.150654,1.326096,2.8391929
-27.196943,1.3320143,2.836073
-27.244343,1.3400171,2.8351936
-27.289997,1.3455713,2.832045
-27.331192,1.3441172,2.8220558
-27.376305,1.3492851,2.8188286
-27.42363,1.3584981,2.8198137
-27.469275,1.3652463,2.8184934
-27.533146,1.404161,2.8496952
-27.566097,1.3896286,2.8273025
-27.616009,1.4053252,2.8355093
-27.659199,1.4093649,2.8321137
-27.700191,1.4095857,2.8249974
-27.741863,1.4112382,2.8194647
-27.786236,1.4182813,2.819543
-27.8325,1.429416,2.823936
-27.877573,1.4387095,2.8266144
-27.920202,1.4435055,2.82486
-27.96434,1.4517376,2.826757
-28.006443,1.45612,2.824864
-28.048462,1.4606221,2.8232327
-28.091305,1.4672394,2.8239074
-28.13343,1.4726493,2.823482
-28.176043,1.4795115,2.8246899
-28.218243,1.4858308,2.8254771
-28.259762,1.4909348,2.8251486
-28.301186,1.496155,2.8250742
-28.341702,1.499485,2.8231788
-28.384802,1.509628,2.8284602
-28.428501,1.521909,2.8360968
-28.467669,1.5229044,2.832178
-28.509542,1.5313983,2.836163
-28.551506,1.5406847,2.8411055
-28.587852,1.5346045,2.8302011
-28.628458,1.5407467,2.8321238
-28.668951,1.5470018,2.8342934
-28.70845,1.5506699,2.8338895
-28.748524,1.5564716,2.835835
-28.787027,1.557651,2.8330755
-28.828552,1.5690844,2.8411527
-28.866913,1.5704763,2.8388543
-28.90601,1.574682,2.8396168
-28.94689,1.5857751,2.8477168
-28.983606,1.582052,2.8404045
-29.023348,1.5899687,2.845416
-29.060923,1.589839,2.8420963
-29.099798,1.595248,2.8447084
-29.137314,1.5953181,2.8418226
-29.175886,1.6002524,2.8441653
-29.214222,1.6046088,2.846013
-29.253038,1.611793,2.8509579
-29.290922,1.6149912,2.8518143
-29.32823,1.6155596,2.8500085
-29.365524,1.6162252,2.8484135
-29.403503,1.6210859,2.8513556
-29.440504,1.6205809,2.8487425
-29.47677,1.6153874,2.84128
-29.514616,1.6205425,2.84486
-29.551805,1.6216929,2.844316
-29.588972,1.6229396,2.8439808
-29.62636,1.6263363,2.8460283
-29.663687,1.6298304,2.848287
-29.700668,1.6306827,2.8478556
-29.737825,1.6336849,2.8498082
-29.77487,1.6360991,2.8512435
-29.81187,1.6386085,2.8528876
-29.848494,1.6364164,2.8496528
-29.885191,1.6350031,2.8473487
-29.92443,1.6816802,2.8961406
-29.967495,1.8333819,3.0564275
-30.003061,1.8466744,3.0700555
-30.03816,1.8511429,3.0744267
-30.072723,1.8310091,3.0528007
-30.107716,1.8198805,3.0408263
-30.142916,1.8198173,3.0406895
-30.17827,1.7972083,3.0167346
-30.213322,1.8192761,3.0402741
-30.248474,1.8215415,3.0429077
-30.28494,1.7820611,3.0013647
-30.318605,1.8277149,3.0502157
-30.351835,1.8665919,3.091971
-30.386585,1.8678405,3.0939188
-30.421541,1.8657515,3.0924282
-30.456686,1.8616965,3.088953
-30.491846,1.8584185,3.086402
-30.527061,1.8552308,3.0840487
-30.562057,1.8548744,3.0847964
-30.596838,1.856663,3.0879145
-30.63175,1.8571713,3.0897765
-30.666656,1.8577702,3.091833
-30.701738,1.8570905,3.092639
-30.737127,1.8544502,3.0914717
-30.772253,1.8539531,3.0926723
-30.80739,1.8535466,3.09407
-30.843227,1.8491342,3.091339
-30.879143,1.8448155,3.0888124
-30.914627,1.8433223,3.0893726
-30.950935,1.8378296,3.0858183
-30.986925,1.8344789,3.08463
-31.022833,1.8319051,3.0843673
-31.059385,1.8267019,3.0814419
-31.094631,1.8277228,3.085174
-31.130993,1.8240736,3.0840983
-31.168255,1.8171227,3.0796623
-31.204605,1.8143499,3.0797267
-31.241896,1.8082798,3.0764408
-31.279663,1.8009548,3.0719523
-31.315094,1.802547,3.0769238
-31.358706,1.7757788,3.052308
-31.445175,1.6063151,2.8785791
-31.492546,1.5745182,2.849135
-31.530903,1.5732846,2.851779
-31.568417,1.5748544,2.857462
-31.606358,1.5751734,2.8619504
-31.646133,1.5701988,2.8610396
-31.686,1.5653353,2.8603692
-31.724031,1.5659649,2.8655324
-31.764277,1.5606449,2.8646312
-31.802855,1.560139,2.8688512
-31.84505,1.5503421,2.863562
-31.885317,1.5460305,2.8640885
-31.925394,1.5425014,2.8655524
-31.966633,1.536407,2.8644924
-32.007145,1.5324359,2.865757
-32.05001,1.523237,2.8617644
-32.090714,1.5194986,2.8635335
-32.132378,1.5138772,2.8634977
-32.171124,1.5150273,2.8705492
-32.215393,1.5043209,2.8655658
-32.258595,1.4964015,2.8635874
-32.299713,1.4932506,2.86663
-32.342182,1.4875674,2.8672209
-32.387722,1.4760563,2.8620133
-32.430782,1.4699681,2.862485
-32.471912,1.467963,2.8672523
-32.51378,1.4647565,2.8709354
-32.55816,1.4570663,2.870213
-32.601612,1.4514799,2.8717728
-32.65095,1.4355273,2.8630114
-32.69689,1.4262826,2.861198
-32.74188,1.4191415,2.8616662
-32.786236,1.4134421,2.8637414
-32.82801,1.4124396,2.8706827
-32.873314,1.4056971,2.8720145
-32.921883,1.3938911,2.8684464
-32.962677,1.3952208,2.8781648
-33.00548,1.3934245,2.8849044
-33.047096,1.3936937,2.8938441
-33.08913,1.3934352,2.902398
-33.12614,1.4010358,2.918878
-33.169415,1.399075,2.926021
-33.211014,1.3998129,2.935976
-33.253044,1.4000278,2.945557
-33.292,1.4048476,2.959805
-33.333115,1.4065759,2.9711485
-33.375114,1.4071455,2.9814997
-33.4194,1.4046524,2.9890065
-33.461887,1.4048362,2.9992795
-33.504383,1.405144,3.0098214
-33.561028,1.3865757,3.002225
-26.769049,1.2467644,2.772766
-26.811762,1.2444737,2.7603254
-26.862036,1.2531159,2.7588854
-26.94458,1.3090658,2.8047142
-26.988094,1.3091745,2.7952342
-27.049992,1.3369012,2.8134995
-27.110998,1.3642082,2.831602
-27.16278,1.3782585,2.836657
-27.2102,1.3860528,2.835619
-27.253407,1.387557,2.8284183
-27.300995,1.3962786,2.8286452
-27.345255,1.3999825,2.8239703
-27.388657,1.4025238,2.8182702
-27.439333,1.4174986,2.8253293
-27.495455,1.4423668,2.842628
-27.535402,1.440141,2.832571
-27.57981,1.4458318,2.8307095
-27.624474,1.4523063,2.8298016
-27.668299,1.4576094,2.8278475
-27.712378,1.4636953,2.8268418
-27.75843,1.4738364,2.8301477
-27.803274,1.4821527,2.831738
-27.843246,1.4814188,2.8241673
-27.888195,1.4906487,2.8269906
-27.933304,1.5006711,2.8307848
-27.975988,1.5062187,2.8301082
-28.019514,1.5138683,2.8317475
-28.062279,1.5203254,2.8322945
-28.107664,1.532856,2.839285
-28.149542,1.5382438,2.8390098
-28.191025,1.5430894,2.8383055
-28.233276,1.5500424,2.839929
-28.274555,1.5551248,2.8397384
-28.315737,1.5603242,2.8398013
-28.357363,1.5669711,2.841508
-28.396744,1.5684066,2.8378959
-28.43531,1.56795,2.8324203
-28.477432,1.5769408,2.836968
-28.518398,1.5833802,2.838972
-28.557547,1.5852535,2.836308
-28.598312,1.591919,2.8388023
-28.64058,1.6033888,2.8464813
-28.680382,1.6082745,2.8473592
-28.719873,1.6125987,2.8477678
-28.759712,1.6183755,2.8498287
-28.798399,1.6208997,2.848576
-28.836424,1.6215103,2.845416
-28.874432,1.6222217,2.8424745
-28.915678,1.6344883,2.851882
-28.952429,1.6313634,2.8451066
-28.991932,1.6384547,2.8492718
-29.030956,1.6443036,2.8522367
-29.068014,1.6428263,2.847539
-29.105743,1.6441491,2.8459249
-29.144861,1.6516604,2.8510003
-29.181265,1.6477706,2.8440614
-29.219042,1.6500695,2.843813
-29.257475,1.6558554,2.8473911
-29.29486,1.6569989,2.8461342
-29.331577,1.6548486,2.8414717
-29.368694,1.654829,2.8391857
-29.407446,1.6644108,2.8472557
-29.444359,1.663908,2.8446727
-29.482435,1.6709759,2.8502812
-29.51939,1.6713469,2.8488426
-29.556896,1.6758933,2.8519754
-29.594322,1.6805389,2.855321
-29.631004,1.6798384,2.8530555
-29.66869,1.6880817,2.8604646
-29.705524,1.6896152,2.8608003
-29.741549,1.6830716,2.8525915
-29.778864,1.6902435,2.8591743
-29.81472,1.6804788,2.8477173
-29.851881,1.6871607,2.8539844
-29.888842,1.6925766,2.8590002
-29.929186,1.7642138,2.9351053
-29.970644,1.889144,3.0684652
-30.006096,1.9050925,3.0851083
-30.04004,1.8754444,3.0529628
-30.074553,1.8492923,3.0246582
-30.109846,1.8573277,3.033112
-30.145,1.8640893,3.0403
-30.179487,1.9473252,3.1295934
-30.214302,1.9194837,3.0998697
-30.250423,1.8576376,3.033783
-30.286772,1.8211188,2.9949603
-30.320694,1.8583343,3.0352936
-30.354527,1.8847241,3.0641136
-30.388268,1.9050624,3.0865374
-30.422028,1.9200315,3.1032991
-30.456873,1.9173682,3.1012607
-30.491592,1.9168389,3.1016078
-30.526196,1.9177608,3.1036067
-30.560991,1.9167295,3.1036124
-30.596031,1.9137454,3.1016269
-30.630884,1.9128945,3.1020246
-30.66601,1.9100921,3.1004333
-30.700634,1.9114628,3.103405
-30.736217,1.9061239,3.0993018
-30.771688,1.9022381,3.0968552
-30.806131,1.9052389,3.1018662
-30.841219,1.9042535,3.1027193
-30.87681,1.9006443,3.1008725
-30.913229,1.8930583,3.0948877
-30.948853,1.8903179,3.0941772
-30.983004,1.8951263,3.101613
-31.019096,1.8905373,3.0991383
-31.054972,1.8873994,3.098312
-31.091372,1.8823268,3.0955348
-31.127378,1.8793814,3.095127
-31.163105,1.8778827,3.0963626
-31.200247,1.8710756,3.0920663
-31.23608,1.86977,3.0937195
-31.273232,1.863838,3.0905728
-31.31068,1.8573341,3.086934
-31.351965,1.8381376,3.069975
-31.426632,1.7087023,2.936562
-31.485052,1.6394088,2.867034
-31.522081,1.6415429,2.8731556
-31.561487,1.6363883,2.871696
-31.601213,1.6306722,2.8697643
-31.64104,1.6250665,2.8680725
-31.680029,1.6222496,2.8694391
-31.720762,1.6148567,2.8661137
-31.757183,1.6196082,2.8756695
-31.803127,1.599081,2.8588138
-31.839874,1.6033764,2.8681273
-31.880514,1.5977709,2.8671837
-31.920448,1.5942776,2.868577
-31.9632,1.5842445,2.863266
-31.999958,1.5889516,2.8734713
-32.038364,1.5897717,2.8797326
-32.081135,1.5807524,2.8758726
-32.12496,1.5698736,2.8702207
-32.164436,1.5690446,2.8751497
-32.205788,1.5643616,2.8762054
-32.24691,1.5604565,2.878201
-32.287792,1.5573268,2.8811312
-32.331978,1.5477326,2.8775187
-32.375347,1.5402436,2.876227
-32.41717,1.5361638,2.8785925
-32.460777,1.5289278,2.8778496
-32.50521,1.5205128,2.8760452
-32.552956,1.5063477,2.8685007
-32.589874,1.5125706,2.8819928
-32.632866,1.5078063,2.8843675
-32.677788,1.4999139,2.8836975
-32.72621,1.4863081,2.8773646
-32.774868,1.472857,2.871367
-32.817997,1.4692814,2.8755732
-32.86548,1.4587152,2.8728423
-32.911568,1.4508824,2.8730488
-32.955795,1.4464173,2.8768187
-33.007404,1.4304924,2.869194
-33.052307,1.4256675,2.8729334
-33.102703,1.4126341,2.8685894
-33.14322,1.4151435,2.8800087
-33.18328,1.4184053,2.8923125
-33.225025,1.4192235,2.9023066
-33.267643,1.4188864,2.9112906
-33.312485,1.4154913,2.9173822
-33.35784,1.4115968,2.9231372
-33.401012,1.4110115,2.9323306
-33.44329,1.4118185,2.9430485
-33.488804,1.4083266,2.949677
-33.530647,1.4100184,2.961566
-33.577667,1.4049087,2.966928
-33.616188,1.4112515,2.9836712
-33.688877,1.3731928,2.957203
-26.64744,1.246423,2.7297888
-26.68499,1.2362156,2.7091246
-26.799072,1.3317897,2.7945905
-26.86438,1.3616729,2.814639
-26.903854,1.3558035,2.7989798
-26.949558,1.3588953,2.7924805
-26.996933,1.3646598,2.7888432
-27.062206,1.3972309,2.81252
-27.11761,1.4160504,2.8225188
-27.171434,1.4331465,2.8309808
-27.221657,1.4453187,2.8346348
-27.274517,1.4621258,2.843203
-27.313803,1.4579849,2.8305578
-27.354332,1.4558733,2.8201108
-27.411736,1.4814866,2.8382387
-27.46174,1.4957213,2.8448977
-27.537418,1.5539186,2.8969998
-27.535059,1.4801605,2.8133597
-27.586897,1.4986854,2.8249197
-27.630743,1.5037925,2.8227901
-27.67593,1.5116212,2.8236275
-27.723806,1.5247769,2.8301473
-27.768658,1.5328848,2.8315902
-27.809925,1.5346205,2.826552
-27.854868,1.5436401,2.829239
-27.898647,1.5508375,2.830174
-27.939024,1.5516319,2.8245616
-27.98098,1.555809,2.8226166
-28.02317,1.5607612,2.8216176
-28.065575,1.5664899,2.8215704
-28.10909,1.5749669,2.8245468
-28.150953,1.5802863,2.8243442
-28.191832,1.5837512,2.8223214
-28.23437,1.5912831,2.824717
-28.275637,1.5963004,2.8245935
-28.31764,1.603415,2.8268166
-28.358696,1.6086679,2.8272042
-28.398586,1.6113906,2.825038
-28.43868,1.6148844,2.8238125
-28.478958,1.6191528,2.8235316
-28.519403,1.624197,2.8241982
-28.560238,1.6306818,2.8265238
-28.601427,1.6386116,2.8305144
-28.641775,1.6446607,2.8326287
-28.681332,1.6488254,2.8328557
-28.720142,1.651098,2.8311825
-28.759981,1.656811,2.8333015
-28.798876,1.6599641,2.8328018
-28.838116,1.6645582,2.8339615
-28.878454,1.6732721,2.839653
-28.917482,1.6780834,2.8412824
-28.955301,1.6789815,2.83883
-28.993818,1.6826608,2.8394728
-29.031738,1.6844323,2.8381777
-29.06945,1.6856327,2.83638
-29.107626,1.688947,2.8369646
-29.145422,1.6910195,2.8363233
-29.18348,1.694536,2.8373475
-29.221615,1.6988273,2.8393173
-29.258827,1.6991813,2.837151
-29.296162,1.7003057,2.8359203
-29.333597,1.7022016,2.835631
-29.3726,1.7129598,2.8450198
-29.409883,1.7150557,2.8451638
-29.447683,1.720623,2.8491664
-29.483688,1.7154899,2.841704
-29.520576,1.7158506,2.8402863
-29.557735,1.7183337,2.841268
-29.594849,1.7209132,2.8424616
-29.632408,1.7276456,2.8482566
-29.669388,1.7304196,2.8498712
-29.7061,1.731261,2.8494935
-29.743254,1.7369328,2.854457
-29.77977,1.7366111,2.853026
-29.816448,1.738414,2.8540006
-29.853476,1.7457278,2.8610568
-29.889368,1.736887,2.8506894
-29.931433,1.8412349,2.9632468
-29.97118,1.9341884,3.0635676
-30.006449,1.9473221,3.0773726
-30.040377,1.9198997,3.0472565
-30.0755,1.9311798,3.0592446
-30.110249,1.9249353,3.0523062
-30.145164,1.9594316,3.089693
-30.179737,1.958786,3.089027
-30.214233,1.9636495,3.0944376
-30.249208,1.9455676,3.0750365
-30.284292,1.9336736,3.0624514
-30.32099,1.8880041,3.0133076
-30.354904,1.9135475,3.041552
-30.387144,1.9601662,3.092753
-30.422146,1.9540493,3.0868258
-30.456789,1.9541166,3.0877047
-30.491432,1.9542725,3.0887766
-30.526073,1.9545176,3.0900412
-30.56085,1.9534991,3.0900326
-30.595722,1.9518943,3.089487
-30.630302,1.9530842,3.0920672
-30.665209,1.9516597,3.0919127
-30.699865,1.9523523,3.0941482
-30.735004,1.9497573,3.0929222
-30.770813,1.9432037,3.0875149
-30.805752,1.9428189,3.088881
-30.8407,1.9425247,3.0904427
-30.875656,1.9423215,3.0922027
-30.910366,1.9435568,3.0956144
-30.947052,1.934777,3.0883145
-30.982092,1.9348505,3.0906734
-31.018,1.9309771,3.0888762
-31.05368,1.9285445,3.088737
-31.090498,1.9215014,3.083734
-31.126148,1.9199326,3.0847344
-31.162498,1.9157729,3.0830498
-31.198236,1.9143939,3.0844607
-31.235432,1.9077468,3.0803165
-31.27164,1.9052212,3.080709
-31.309042,1.898776,3.077003
-31.34558,1.8957784,3.077105
-31.404776,1.818013,2.9972453
-31.481907,1.6870296,2.8606782
-31.52077,1.6831582,2.8603525
-31.559706,1.6793926,2.8602562
-31.599163,1.674401,2.8589687
-31.636873,1.6748433,2.863595
-31.677414,1.6674051,2.8599367
-31.716156,1.6653969,2.8621845
-31.755684,1.6615026,2.8625436
-31.795284,1.6577177,2.8631387
-31.834444,1.6553676,2.8653774
-31.87365,1.6531241,2.867848
-31.913174,1.6503286,2.8698535
-31.956059,1.639715,2.8637128
-31.99857,1.6305482,2.8592405
-32.03752,1.630074,2.864079
-32.07591,1.6310222,2.870535
-32.119946,1.6195793,2.8640633
-32.16388,1.6089268,2.85857
-32.204918,1.6049657,2.8602495
-32.245716,1.6017768,2.8628702
-32.286583,1.5987024,2.8657403
-32.32491,1.6009729,2.87433
-32.366848,1.5961664,2.8756433
-32.414925,1.5797474,2.8649836
-32.457825,1.5738976,2.8655028
-32.499447,1.5707746,2.869
-32.54254,1.5651746,2.87006
-32.587173,1.5571082,2.8687072
-32.630497,1.5517666,2.8703284
-32.673553,1.5471995,2.8728948
-32.718567,1.539532,2.872407
-32.762962,1.5332906,2.8735433
-32.81132,1.5207477,2.8683524
-32.85639,1.5141418,2.8694324
-32.89802,1.5134463,2.8767262
-32.943283,1.5071058,2.8783817
-32.991505,1.4964275,2.8757668
-33.03827,1.488456,2.8760858
-33.087677,1.4768059,2.8728313
-33.135605,1.4678605,2.8725052
-33.182835,1.4603367,2.873797
-33.22631,1.4586678,2.8811793
-33.27639,1.447633,2.8792586
-33.324894,1.4392874,2.8802342
-33.36996,1.4361427,2.8866186
-33.41374,1.4350221,2.8951907
-33.45571,1.4365454,2.9065614
-33.50138,1.4331725,2.9131837
-33.546646,1.4305651,2.920734
-33.59623,1.4224732,2.9229922
-33.644516,1.4164121,2.9274554
-33.690987,1.4129944,2.9347134
-33.744358,1.4010262,2.933703
-26.750828,1.3737395,2.78479
-26.8078,1.3912809,2.7925997
-26.85951,1.4021347,2.7938256
-26.91147,1.4137843,2.7960582
-26.974665,1.4419293,2.8153467
-27.021719,1.4476566,2.811933
-27.07081,1.4566796,2.8120685
-27.126102,1.4753273,2.822278
-27.16933,1.4764576,2.8146534
-27.231567,1.5068498,2.8373756
-27.289194,1.5311205,2.8540196
-27.335104,1.5377975,2.8526669
-27.374516,1.5344307,2.8410482
-27.414364,1.5318091,2.830327
-27.46276,1.5433445,2.8344707
-27.53082,1.58829,2.8736334
-27.557798,1.5649526,2.8417435
-27.60038,1.567961,2.837472
-27.645456,1.5755897,2.8381815
-27.690031,1.5827115,2.838513
-27.734114,1.5893233,2.8384557
-27.776672,1.5934854,2.835966
-27.820868,1.601001,2.8371515
-27.86492,1.6086493,2.838623
-27.90783,1.6144848,2.838323
-27.95161,1.6223927,2.8403573
-27.993952,1.6278324,2.8399186
-28.035557,1.6320932,2.8383646
-28.07832,1.6390786,2.839837
-28.11942,1.6429291,2.8381114
-28.160744,1.6475489,2.8373342
-28.202858,1.6542463,2.838904
-28.244558,1.6604116,2.8400378
-28.285856,1.6660411,2.8407307
-28.328434,1.6750674,2.845189
-28.37003,1.6822481,2.8478065
-28.41069,1.687577,2.8485675
-28.450726,1.6917055,2.8481631
-28.490423,1.6952865,2.847293
-28.529299,1.6970003,2.8445325
-28.56789,1.6981597,2.84129
-28.609074,1.7066872,2.846108
-28.649633,1.7140105,2.8497524
-28.68756,1.7141707,2.8457828
-28.727465,1.720391,2.848475
-28.767252,1.726722,2.8514085
-28.808392,1.7378058,2.8596091
-28.845652,1.7370601,2.8551145
-28.890663,1.7623181,2.8789358
-28.93195,1.7764118,2.8907847
-28.966995,1.7693367,2.8797622
-28.999432,1.752363,2.8580709
-29.036898,1.7534499,2.85611
-29.074335,1.7546356,2.8543644
-29.111582,1.7552538,2.8521066
-29.148966,1.7566371,2.8507876
-29.186625,1.759454,2.851139
-29.224962,1.7657123,2.8553534
-29.262054,1.7667255,2.8539515
-29.299395,1.7691727,2.8542209
-29.337461,1.7757347,2.8590941
-29.37479,1.7790508,2.8605266
-29.411936,1.7817945,2.8614402
-29.448582,1.781955,2.8596296
-29.485218,1.7822108,2.8580246
-29.522348,1.7859159,2.8603005
-29.559124,1.7877045,2.8605814
-29.59604,1.790931,2.8625402
-29.632648,1.7922404,2.8625011
-29.66923,1.7936444,2.8626666
-29.705425,1.7917838,2.859352
-29.742107,1.7947204,2.8614016
-29.778913,1.7997689,2.865871
-29.815414,1.8022234,2.8675952
-29.85163,1.8014102,2.8658319
-29.88777,1.799345,2.862793
-29.930397,1.9171166,2.9914975
-29.96839,1.9778233,3.0576386
-30.003656,1.9928777,3.0737286
-30.037424,1.9636099,3.041212
-30.072344,1.968076,3.0458589
-30.107218,1.9759974,3.0543985
-30.141962,1.9893923,3.0690498
-30.176477,2.002203,3.0831547
-30.210781,2.0144293,3.0967097
-30.245052,2.01934,3.1023211
-30.28224,1.9334967,3.0083036
-30.317776,1.9231167,2.9973097
-30.350468,1.9727044,3.0522962
-30.382381,2.021023,3.10597
-30.417196,2.0142663,3.0992355
-30.451668,2.013652,3.0993423
-30.486206,2.012455,3.098905
-30.52077,2.0113466,3.0986605
-30.55494,2.01436,3.103035
-30.589283,2.0154445,3.1053867
-30.624174,2.0119164,3.102775
-30.65939,2.0064654,3.0981517
-30.694149,2.005134,3.0981436
-30.72864,2.0059056,3.1005363
-30.763224,2.006096,3.102387
-30.798466,2.002353,3.100029
-30.833662,1.9993732,3.0986052
-30.868063,2.0011742,3.10251
-30.902946,2.0003858,3.1036787
-30.938248,1.9976811,3.1028523
-30.973877,1.9937322,3.1007662
-31.009724,1.9892097,3.098157
-31.044903,1.9881234,3.0993986
-31.08073,1.9844582,3.0979295
-31.117111,1.9788878,3.0944862
-31.15326,1.9747498,3.092709
-31.188793,1.9733741,3.0940442
-31.224892,1.9700949,3.0934114
-31.26124,1.9662471,3.0922637
-31.29766,1.962498,3.0913305
-31.334349,1.9581828,3.089889
-31.375563,1.9393604,3.072826
-31.470097,1.7514913,2.8727307
-31.507877,1.7502902,2.8751636
-31.546782,1.7458787,2.8742337
-31.58532,1.7428973,2.8749647
-31.62438,1.738698,2.874497
-31.663284,1.7352681,2.8749733
-31.70274,1.7306237,2.87426
-31.742285,1.7260902,2.8737836
-31.782421,1.7203486,2.8721285
-31.821373,1.71801,2.8742537
-31.860638,1.7151208,2.8759055
-31.900772,1.7103713,2.87568
-31.941,1.7057331,2.875699
-31.982159,1.6992435,2.8738613
-32.022293,1.6954901,2.8750777
-32.0625,1.6918492,2.8765383
-32.103672,1.6863627,2.8761563
-32.145256,1.6803424,2.8753352
-32.18726,1.6737905,2.874082
-32.229702,1.6667106,2.872404
-32.270355,1.6636543,2.8751307
-32.30977,1.6633091,2.8808584
-32.351517,1.6585357,2.8820229
-32.392685,1.6551778,2.8848166
-32.434948,1.6499987,2.8858204
-32.480442,1.6391342,2.880972
-32.523304,1.6335659,2.8818512
-32.56699,1.6268373,2.8816547
-32.60971,1.6221681,2.8837628
-32.65363,1.615699,2.8841286
-32.696922,1.6106436,2.8861213
-32.74335,1.6005979,2.8830485
-32.78649,1.5964468,2.886282
-32.83128,1.5898724,2.887138
-32.87817,1.5802495,2.8849826
-32.92644,1.568866,2.8811688
-32.97288,1.5608113,2.8809752
-33.01741,1.5560703,2.8843675
-33.063698,1.5489328,2.8854418
-33.113075,1.5375171,2.8822784
-33.16009,1.530045,2.883348
-33.20854,1.5208313,2.8827991
-33.258476,1.5098875,2.880659
-33.309933,1.497225,2.8769488
-33.36251,1.4834797,2.872332
-33.41442,1.4711604,2.8693686
-33.46563,1.4602604,2.8680425
-33.510536,1.4582448,2.8759055
-33.56018,1.4501517,2.8777862
-33.61282,1.4384975,2.876264
-33.66087,1.4332087,2.8813467
-33.709988,1.4268363,2.8855205
-33.7558,1.4249365,2.8943534
-26.694553,1.3893552,2.7616305
-26.757856,1.4146094,2.7774
-26.81251,1.4289141,2.782188
-26.870968,1.4490013,2.7931342
-26.9206,1.4574502,2.792314
-26.987267,1.4904077,2.816988
-27.030716,1.4910846,2.8085332
-27.08102,1.5019147,2.8107486
-27.145157,1.5336213,2.8348384
-27.208324,1.5649321,2.8587766
-27.263489,1.585134,2.8713894
-27.308064,1.5897515,2.8679318
-27.349718,1.5900788,2.8601356
-27.39135,1.5905254,2.8525991
-27.437677,1.5987005,2.853311
-27.482687,1.605113,2.8523283
-27.526808,1.6103902,2.8503022
-27.56554,1.6068809,2.83915
-27.611755,1.6162353,2.8417106
-27.65303,1.6174271,2.8357878
-27.695715,1.6212947,2.8328328
-27.73974,1.62785,2.832869
-27.783638,1.6345365,2.83319
-27.82534,1.6374986,2.829688
-27.867315,1.6412239,2.8271322
-27.912884,1.6521564,2.832406
-27.958906,1.6645188,2.8393621
-28.001476,1.6705635,2.8397079
-28.042343,1.6734974,2.8368564
-28.083769,1.6778426,2.8356438
-28.126637,1.6855483,2.8381739
-28.168457,1.6914318,2.8388805
-28.211048,1.6993856,2.8419495
-28.251753,1.7035599,2.841075
-28.29294,1.709152,2.8418584
-28.334019,1.7148614,2.8428955
-28.371168,1.7115471,2.834293
-28.413168,1.7200944,2.8386478
-28.463898,1.7510073,2.8673954
-28.50334,1.7545795,2.8666344
-28.552462,1.7838283,2.8939
-28.594957,1.7968307,2.9036603
-28.623129,1.7712052,2.8714938
-28.665716,1.7850785,2.882434
-28.7076,1.797761,2.892211
-28.743488,1.793442,2.883555
-28.7816,1.7958066,2.8823023
-28.823238,1.8094885,2.8935375
-28.850306,1.7770755,2.8544488
-28.888666,1.7803893,2.8545456
-28.924833,1.7765336,2.8468943
-28.979048,1.8362978,2.9091334
-29.012417,1.8240635,2.8925314
-29.041239,1.7940166,2.8564467
-29.078573,1.7951925,2.854744
-29.115713,1.7958035,2.8525243
-29.15347,1.7991679,2.8534398
-29.191616,1.8046262,2.8567667
-29.22922,1.8081927,2.858121
-29.266329,1.8098636,2.857491
-29.303404,1.8116322,2.8570724
-29.340181,1.8121667,2.8553953
-29.377562,1.8161275,2.857603
-29.41404,1.8155215,2.8548732
-29.450748,1.8163443,2.8538203
-29.488073,1.821264,2.8573985
-29.525208,1.8256154,2.8604536
-29.561596,1.8253908,2.8585496
-29.598251,1.8272645,2.8590674
-29.635366,1.833241,2.8642287
-29.67137,1.8306284,2.8599825
-29.708055,1.8341241,2.862599
-29.744349,1.834372,2.8617191
-29.78123,1.8414009,2.8684525
-29.81745,1.8418369,2.8679805
-29.853703,1.8430364,2.8684545
-29.89027,1.8496816,2.8750648
-29.932665,1.966176,3.0035982
-29.970526,2.0279088,3.0715232
-30.005365,2.0368633,3.081015
-30.039597,2.0298414,3.0728784
-30.073156,1.9813993,3.0188837
-30.108244,1.9986537,3.0378647
-30.143019,2.0106423,3.0510998
-30.177599,2.0207121,3.0622997
-30.211937,2.034887,3.078147
-30.24634,2.036429,3.0800729
-30.28094,2.0313654,3.0747657
-30.315516,2.0290692,3.0726209
-30.34877,2.0536323,3.1003604
-30.382912,2.0561945,3.1037893
-30.417559,2.0508149,3.0985055
-30.451992,2.04954,3.097868
-30.486217,2.0510292,3.100387
-30.520546,2.0512683,3.1016154
-30.555012,2.050259,3.1015534
-30.589796,2.0466664,3.0987253
-30.624323,2.0458364,3.0990515
-30.658693,2.0464315,3.1010504
-30.69315,2.0464478,3.1025033
-30.727901,2.0445507,3.101935
-30.76238,2.044745,3.103774
-30.797626,2.040361,3.1006484
-30.83307,2.035404,3.0969892
-30.86739,2.0372033,3.1008902
-30.901936,2.037759,3.1035132
-30.937809,2.031748,3.0989866
-30.973373,2.0278294,3.09687
-31.008144,2.0279946,3.0993547
-31.042917,2.0282507,3.102036
-31.078785,2.0239482,3.0997963
-31.115383,2.0170875,3.0948439
-31.151098,2.014306,3.0944848
-31.186867,2.0116203,3.0943317
-31.222511,2.009692,3.0951133
-31.259491,2.0032256,3.0910163
-31.2964,1.9975226,3.0878658
-31.333218,1.9925816,3.0856586
-31.37094,1.9850993,3.0807776
-31.45771,1.8226454,2.9064684
-31.508167,1.7812154,2.864842
-31.544638,1.7840943,2.8717928
-31.582645,1.7824588,2.873917
-31.620459,1.7815831,2.8769803
-31.65877,1.7794952,2.8788328
-31.697853,1.7755415,2.878768
-31.73751,1.7703848,2.8775105
-31.776,1.7686148,2.880052
-31.81712,1.7604043,2.875718
-31.857597,1.7542739,2.8737679
-31.895756,1.7541366,2.8784328
-31.937517,1.7456207,2.874145
-31.9769,1.7430921,2.8764606
-32.015762,1.7419748,2.8804173
-32.053482,1.7435651,2.8874092
-32.102234,1.721225,2.868744
-32.142864,1.7172067,2.8699555
-32.181717,1.7171922,2.8755932
-32.22058,1.7172828,2.8814607
-32.26138,1.7136023,2.8834043
-32.303886,1.706811,2.8821478
-32.345856,1.7014344,2.8825412
-32.387592,1.6968238,2.8838863
-32.429764,1.6916916,2.884808
-32.472733,1.6853988,2.884633
-32.51794,1.6753876,2.8806472
-32.5601,1.6712766,2.8830757
-32.60271,1.6666496,2.8850932
-32.64726,1.6589563,2.884009
-32.692326,1.6507616,2.882544
-32.736027,1.6452508,2.8840628
-32.77944,1.640506,2.8865352
-32.822174,1.6371596,2.8906212
-32.87132,1.6238055,2.8843498
-32.914272,1.6207278,2.889018
-32.959736,1.6139901,2.8900032
-33.00863,1.6023493,2.8860302
-33.05397,1.596529,2.888297
-33.100266,1.5895922,2.8895593
-33.147552,1.5815451,2.889833
-33.196724,1.5711439,2.8878384
-33.243008,1.5652752,2.890708
-33.292957,1.5545607,2.888742
-33.346695,1.5390291,2.8820038
-33.39616,1.5298934,2.882043
-33.44717,1.519058,2.8805232
-33.501625,1.5040562,2.8749328
-33.553528,1.4929476,2.8735304
-33.60705,1.4801612,2.8706164
-33.66368,1.4638634,2.8643427
-33.71914,1.4496045,2.860362
-33.785625,1.4220526,2.8431563
-26.657473,1.437298,2.7646084
-26.712555,1.4511042,2.768773
-26.771084,1.4700208,2.7784443
-26.820135,1.4768052,2.775742
-26.885324,1.505991,2.796536
-26.945093,1.5286038,2.81074
-27.010643,1.560111,2.834478
-27.061245,1.5713537,2.8372617
-27.110779,1.5815153,2.8390965
-27.176306,1.6155326,2.8661866
-27.222733,1.6223056,2.8648524
-27.274427,1.637357,2.8724127
-27.318878,1.6419239,2.869081
-27.359997,1.641602,2.860721
-27.401901,1.6426551,2.85395
-27.444954,1.6457186,2.8494477
-27.51437,1.6918104,2.8908787
-27.535448,1.6598079,2.849351
-27.574818,1.6575665,2.8396149
-27.619427,1.6643064,2.8396025
-27.663904,1.6711814,2.8398824
-27.711142,1.6832762,2.8459072
-27.754593,1.689152,2.8454146
-27.797577,1.6945198,2.8445153
-27.839415,1.6980984,2.8418279
-27.881517,1.7024369,2.8400903
-27.924532,1.7088184,2.840693
-27.963146,1.7069926,2.8325558
-28.005657,1.7129743,2.8329878
-28.048367,1.7197225,2.8343854
-28.100628,1.7465453,2.8577175
-28.153332,1.7754748,2.8835273
-28.201305,1.7955494,2.899889
-28.236797,1.7892964,2.8877244
-28.274412,1.7876596,2.880693
-28.311758,1.7854753,2.8731723
-28.34885,1.7827425,2.8651562
-28.391167,1.7924337,2.8708472
-28.429022,1.7918575,2.865417
-28.465038,1.7868311,2.855216
-28.503181,1.7871037,2.8509321
-28.545568,1.7985542,2.8590426
-28.583088,1.7977383,2.8537917
-28.630663,1.8244374,2.8789454
-28.66888,1.8264601,2.8770614
-28.704775,1.822046,2.868188
-28.743177,1.8249238,2.8674622
-28.782602,1.8311813,2.870582
-28.821697,1.8368926,2.8732152
-28.859245,1.838119,2.870998
-28.89676,1.8394456,2.8689976
-28.935987,1.8467865,2.8737707
-28.975262,1.8548934,2.8795085
-29.019848,1.8828549,2.9073982
-29.045776,1.8431134,2.8602357
-29.083817,1.8475718,2.8622408
-29.121113,1.8494952,2.8615355
-29.158207,1.850857,2.8603082
-29.195574,1.8536372,2.8607645
-29.233032,1.8571773,2.8621712
-29.27028,1.860156,2.8630586
-29.307196,1.8619103,2.8626823
-29.343815,1.8624377,2.8610396
-29.380417,1.863061,2.8596053
-29.417473,1.8664286,2.8613353
-29.454578,1.8705568,2.864018
-29.491283,1.8727942,2.8646898
-29.527843,1.874464,2.8648276
-29.564178,1.8749025,2.8636885
-29.600946,1.878753,2.8664656
-29.636059,1.8700848,2.8553324
-29.673409,1.8794367,2.8644652
-29.708658,1.8709507,2.8537269
-29.74609,1.8831537,2.8662558
-29.782106,1.8821621,2.8641052
-29.81862,1.8872464,2.8688617
-29.854563,1.885776,2.8663702
-29.891119,1.8937092,2.874516
-29.934675,2.0321171,3.0290408
-29.971415,2.0755174,3.0771718
-30.006004,2.0817564,3.083733
-30.039595,2.0568097,3.0554152
-30.073624,2.0319486,3.0272827
-30.108553,2.0504305,3.047853
-30.14309,2.0337315,3.0290585
-30.177855,2.0264375,3.020906
-30.212044,2.0638201,3.0629535
-30.247244,2.033414,3.0290666
-30.281221,2.0556662,3.0543284
-30.315454,2.062701,3.0626163
-30.349192,2.0771406,3.0792975
-30.382395,2.09632,3.1013803
-30.417088,2.088981,3.0938253
-30.450779,2.0963602,3.1028605
-30.485374,2.091859,3.0986733
-30.519165,2.0967524,3.1051035
-30.553493,2.0957515,3.1050239
-30.587841,2.0948396,3.1051354
-30.622532,2.0913603,3.1024675
-30.657373,2.0873077,3.0992527
-30.69192,2.086001,3.099205
-30.726097,2.0874376,3.1023197
-30.760462,2.0876358,3.1041422
-30.795048,2.0865972,3.1046772
-30.830004,2.083661,3.1031852
-30.86611,2.0748563,3.0952406
-30.90059,2.0754166,3.097848
-30.9372,2.0654814,3.0888433
-30.970093,2.0741606,3.1006966
-31.007767,2.0604513,3.0876884
-31.041466,2.0653417,3.0955052
-31.076025,2.0663567,3.0990992
-31.111221,2.0648222,3.0999508
-31.146955,2.061403,3.098806
-31.183798,2.054127,3.0934772
-31.21862,2.0548522,3.0971398
-31.254549,2.0517216,3.09662
-31.291494,2.0454001,3.0926647
-31.327377,2.0431225,3.0932994
-31.369995,2.01928,3.0701609
-31.44721,1.8880062,2.928317
-31.501888,1.8330617,2.8711762
-31.538412,1.8352728,2.8773623
-31.576035,1.8343072,2.880145
-31.614607,1.8308284,2.8802643
-31.653011,1.8281085,2.881332
-31.690746,1.8274508,2.8847814
-31.729248,1.824939,2.8863
-31.768566,1.820579,2.8859015
-31.810823,1.8091738,2.8778882
-31.850904,1.8037415,2.8765574
-31.88784,1.8062117,2.8840022
-31.92723,1.802943,2.8852744
-31.965563,1.8023751,2.889614
-31.987228,1.8394349,2.935141
-32.0329,1.8222313,2.9215221
-32.060055,1.8458333,2.9524975
-32.11665,1.8063064,2.914854
-32.1634,1.7888715,2.9014287
-32.211403,1.769655,2.8862314
-32.25847,1.7531629,2.8741536
-32.299625,1.7490065,2.8755894
-32.34087,1.7449687,2.8772826
-32.382195,1.7410498,2.879233
-32.4236,1.7372501,2.881443
-32.46752,1.7291048,2.8791046
-32.51018,1.7236407,2.8797936
-32.549717,1.7240272,2.8869014
-32.59035,1.7226186,2.8922038
-32.633617,1.7168858,2.8930073
-32.678875,1.7081158,2.8907094
-32.723534,1.7007504,2.8900619
-32.77181,1.687839,2.8836594
-32.81405,1.6851687,2.8883166
-32.858337,1.6794748,2.8899026
-32.902336,1.6745443,2.8924446
-32.948875,1.6659827,2.8912945
-32.99062,1.665082,2.898395
-33.03658,1.6580503,2.899169
-33.084793,1.6480417,2.8969707
-33.134476,1.6363194,2.893146
-33.183502,1.6260023,2.890975
-33.228325,1.6220512,2.8956423
-33.275455,1.615139,2.8973703
-33.324963,1.605283,2.8961987
-33.37374,1.5968232,2.8966618
-33.42728,1.5823591,2.8910713
-33.478287,1.5717659,2.8896952
-33.529484,1.5613418,2.8886852
-33.587524,1.5425112,2.8791995
-33.633404,1.539779,2.886508
-33.707993,1.5011964,2.857182
-26.677074,1.5032661,2.766931
-26.740425,1.5279193,2.782868
-26.803339,1.5528018,2.7992988
-26.861233,1.5717902,2.8097734
-26.909735,1.578716,2.8077374
-26.96839,1.5999258,2.820981
-27.016937,1.6078,2.8203168
-27.087181,1.6466596,2.8527293
-27.142067,1.6647806,2.8633704
-27.190224,1.6738064,2.8645225
-27.240738,1.6867051,2.869979
-27.285603,1.6916959,2.867157
-27.331596,1.6986892,2.866631
-27.36813,1.6914935,2.8510294
-27.414768,1.6999948,2.8524084
-27.463215,1.7117682,2.8574715
-27.542585,1.7737904,2.9169111
-27.537178,1.6994014,2.8292933
-27.587162,1.714719,2.8386302
-27.631268,1.7207627,2.8380914
-27.676353,1.7288284,2.8398905
-27.716936,1.72946,2.8337555
-27.760345,1.7352612,2.833373
-27.80188,1.7380271,2.8298202
-27.843695,1.7415459,2.8272176
-27.884413,1.7432811,2.822795
-27.926758,1.7483096,2.8221016
-27.969328,1.7540975,2.8223715
-28.035744,1.8071611,2.8746681
-28.071304,1.8004985,2.861586
-28.102585,1.784982,2.8388577
-28.151016,1.8047123,2.855033
-28.196373,1.8188338,2.8651867
-28.23555,1.820271,2.8614817
-28.276428,1.8256686,2.8622708
-28.318336,1.8337533,2.8661575
-28.358694,1.8387437,2.8667455
-28.397036,1.8393397,2.8625798
-28.4383,1.8471317,2.8665147
-28.474693,1.8434248,2.8577957
-28.513704,1.8462734,2.8564687
-28.556166,1.8582847,2.8654575
-28.59595,1.8639467,2.8675017
-28.633467,1.863888,2.8632803
-28.667698,1.8548477,2.8491368
-28.70527,1.8549805,2.8453317
-28.741495,1.8513145,2.8373828
-28.780806,1.8568466,2.8398294
-28.819798,1.8618369,2.8417811
-28.857048,1.861722,2.8381214
-28.895088,1.8643143,2.8376017
-28.950506,1.9257333,2.9032383
-28.986786,1.9246557,2.8988562
-29.024714,1.9295542,2.9012904
-29.049665,1.8868182,2.8502426
-29.086798,1.8879638,2.8486328
-29.124231,1.8905158,2.848709
-29.161133,1.8912027,2.846787
-29.198013,1.8919859,2.8450742
-29.235167,1.8941777,2.8450522
-29.272131,1.8958113,2.844502
-29.309603,1.9001694,2.8471293
-29.346989,1.9046268,2.8499722
-29.383171,1.9032671,2.846342
-29.419725,1.9039733,2.8451452
-29.456486,1.906091,2.845644
-29.493523,1.9102798,2.848587
-29.529774,1.9099562,2.8465214
-29.566214,1.9110441,2.8461509
-29.602987,1.9148629,2.8489728
-29.639853,1.9200962,2.8534994
-29.675846,1.9188311,2.8507562
-29.712072,1.9196382,2.850459
-29.748213,1.9198785,2.849616
-29.784586,1.9228518,2.8519711
-29.820848,1.9252603,2.8537807
-29.856918,1.9257812,2.8535461
-29.893864,1.9402633,2.869258
-29.937773,2.086282,3.0344186
-29.973724,2.116168,3.0678387
-30.008186,2.120384,3.072204
-30.042532,2.1233668,3.075261
-30.0768,2.1251168,3.0770087
-30.111012,2.1249728,3.0766969
-30.145224,2.122934,3.0743232
-30.179441,2.1249483,3.076643
-30.213655,2.1250677,3.0769024
-30.247766,2.12924,3.0818558
-30.281872,2.131517,3.084746
-30.316475,2.12133,3.0735736
-30.349651,2.1422784,3.0978465
-30.38374,2.1421745,3.0983047
-30.418291,2.1355555,3.0914564
-30.45239,2.136289,3.0930462
-30.486479,2.13711,3.0948262
-30.520998,2.1333988,3.0915546
-30.555517,2.1304376,3.0892277
-30.58979,2.1302047,3.090087
-30.624315,2.1280823,3.0888948
-30.658966,2.12539,3.0871506
-30.69339,2.1247652,3.0878425
-30.72773,2.124888,3.0894732
-30.76249,2.1224663,3.0883155
-30.797075,2.1214519,3.0888438
-30.831799,2.1198697,3.0888238
-30.86558,2.123638,3.0949483
-30.90173,2.1150057,3.0871463
-30.936298,2.1150107,3.0892034
-30.971708,2.1111665,3.087008
-31.006031,2.1126661,3.090941
-31.041843,2.1076968,3.0876694
-31.077595,2.103479,3.0853457
-31.112614,2.1026318,3.0869193
-31.148327,2.0992587,3.0857458
-31.18463,2.0940194,3.0825715
-31.221033,2.0888786,3.0796118
-31.256977,2.0857964,3.0790682
-31.2926,2.0841167,3.0802007
-31.32826,2.0825317,3.0815387
-31.367004,2.071267,3.0721226
-31.440228,1.9533284,2.9432883
-31.503082,1.8734148,2.8573332
-31.539139,1.8769383,2.8649726
-31.57605,1.8779569,2.8699093
-31.614342,1.875179,2.870709
-31.652931,1.8718572,2.8710103
-31.69159,1.8686421,2.8715415
-31.730064,1.8661797,2.8730245
-31.768848,1.8631768,2.8740163
-31.806917,1.8622172,2.8773932
-31.84714,1.8562012,2.8752637
-31.885036,1.8560984,2.8798156
-31.928766,1.8425822,2.8696094
-31.946444,1.8889885,2.925888
-31.995338,1.8641105,2.9033265
-32.03321,1.8644087,2.9087481
-32.0657,1.8763418,2.9271173
-32.10379,1.8761914,2.9322486
-32.153397,1.852499,2.9115753
-32.200584,1.8347149,2.897573
-32.24616,1.8209064,2.8880973
-32.279545,1.8314328,2.9054632
-32.318092,1.8318648,2.9118567
-32.364765,1.8171651,2.901814
-32.39589,1.8317795,2.9239507
-32.450184,1.80404,2.899959
-32.500004,1.7853391,2.8860154
-32.552326,1.763015,2.8683085
-32.591145,1.7648225,2.8770032
-32.633663,1.7604413,2.8791003
-32.678905,1.7517872,2.8767066
-32.723167,1.7451544,2.8766508
-32.77066,1.733644,2.8714771
-32.814045,1.7291663,2.8740458
-32.857918,1.7241931,2.876224
-32.90149,1.7199762,2.8793588
-32.946377,1.7140222,2.880775
-32.99014,1.7100706,2.8844848
-33.04154,1.695085,2.8765502
-33.085136,1.6920359,2.8815355
-33.126225,1.6928256,2.8907514
-33.17167,1.6875634,2.8936677
-33.225147,1.671356,2.885129
-33.27312,1.6633217,2.8854446
-33.32125,1.6554406,2.8860931
-33.366795,1.6513884,2.8909497
-33.409657,1.6511445,2.8999705
-33.460934,1.6400461,2.8977346
-33.51477,1.6260736,2.8926792
-33.56076,1.6226146,2.8988218
-33.632835,1.5865526,2.8711104
-33.675842,1.5876827,2.8824286
-33.75278,1.5472696,2.8507414
-26.628622,1.543926,2.7582388
-26.686085,1.5602863,2.7656322
-26.74841,1.5835009,2.7805328
-26.812172,1.609364,2.798502
-26.875929,1.6360662,2.8176208
-26.925606,1.644741,2.8177104
-26.984526,1.6663811,2.8318725
-27.030205,1.6705122,2.8274584
-27.098127,1.7059984,2.8569312
-27.149841,1.7196634,2.8631606
-27.195747,1.7255147,2.8611393
-27.243217,1.7339694,2.8620877
-27.295527,1.7499712,2.871378
-27.345894,1.7636776,2.8783665
-27.38869,1.7664149,2.8736053
-27.435833,1.7760947,2.8765416
-27.472506,1.7697871,2.862197
-27.534233,1.803359,2.891533
-27.549196,1.7624385,2.83958
-27.602022,1.7826176,2.8545828
-27.641766,1.7817378,2.8466592
-27.684822,1.7865982,2.8451629
-27.727413,1.7909598,2.8432546
-27.770983,1.7973285,2.8436923
-27.816183,1.8069694,2.8478818
-27.860504,1.8154907,2.8509808
-27.900908,1.8172147,2.8466973
-27.939587,1.8158982,2.8391628
-27.969028,1.7969961,2.8122196
-28.039673,1.8578675,2.874002
-28.069044,1.8391871,2.8475394
-28.110321,1.8440351,2.847354
-28.151808,1.8496368,2.8481336
-28.19076,1.8502707,2.8434925
-28.228203,1.8478293,2.8355236
-28.266836,1.8480363,2.8306246
-28.30431,1.8457963,2.8230934
-28.339851,1.8391831,2.8107605
-28.384264,1.853126,2.8216033
-28.427343,1.8646421,2.8298588
-28.48282,1.9070523,2.8730078
-28.2436,1.2162712,2.0906134
-28.291716,1.2268412,2.097485
-28.327093,1.2047603,2.0676618
-28.353,1.1563692,2.008202
-28.37108,1.0841694,1.9218569
-28.729542,1.9681194,2.9171638
-28.76708,1.9703226,2.915925
-28.801744,1.964231,2.9053917
-28.83735,1.9608121,2.8979783
-28.874653,1.9626603,2.896637
-28.910112,1.9587808,2.888895
-28.94757,1.9614727,2.8887143
-28.983839,1.9603741,2.884326
-29.026876,1.9833827,2.9074712
-29.054283,1.9506674,2.8672915
-29.089788,1.9465978,2.8598056
-29.125854,1.9445696,2.8547397
-29.165775,1.9582527,2.867693
-29.20237,1.9590249,2.8660245
-29.238941,1.9598932,2.8645644
-29.275488,1.9608576,2.8633132
-29.31201,1.9619176,2.862269
-29.348766,1.9643786,2.862924
