x,y,z
-23.023205,3.280884,3.7988038
-23.175835,3.3103218,3.824207
-23.218044,3.2982373,3.793364
-23.299604,3.3015542,3.7837954
-23.411734,3.3173075,3.7916489
-23.434063,3.2980533,3.751449
-23.527557,3.3073058,3.7508807
-23.58957,3.3043108,3.7335567
-23.631927,3.29352,3.7055192
-23.728111,3.3051353,3.709042
-23.834482,3.3215842,3.7196932
-23.85167,3.300952,3.6783104
-23.921389,3.3026638,3.668613
-24.047731,3.329196,3.6944213
-24.046875,3.301036,3.6426497
-24.147907,3.317555,3.6547418
-24.199602,3.3127172,3.636516
-24.256792,3.3105483,3.622273
-24.299088,3.3018427,3.5987563
-24.396648,3.3186793,3.6123104
-24.478281,3.3287497,3.616352
-24.484955,3.304083,3.5700912
-24.583935,3.323018,3.5874214
-24.65575,3.3295908,3.5869746
-24.67958,3.3133025,3.553206
-24.72628,3.3081493,3.5358438
-24.814987,3.323964,3.5495033
-24.886845,3.3319461,3.5518527
-24.887962,3.3045719,3.5020423
-24.993595,3.3303134,3.531036
-25.03915,3.3258176,3.5153575
-25.106594,3.3329105,3.5170698
-25.116486,3.3100338,3.4741735
-25.206831,3.3298335,3.495183
-25.26367,3.3322418,3.4903483
-25.296844,3.322052,3.4667087
-25.340776,3.3178115,3.4520988
-25.438225,3.3435144,3.4828138
-25.480429,3.3389254,3.4679646
-25.512213,3.3285446,3.444427
-25.557266,3.3258038,3.4325523
-25.607786,3.3264127,3.425878
-25.669119,3.33362,3.4293861
-25.712582,3.3305984,3.417419
-25.729761,3.3119535,3.3816357
-25.802114,3.3266237,3.3969393
-25.85346,3.3289466,3.393466
-25.921822,3.3421059,3.406783
-25.927563,3.3164735,3.3604918
-25.981283,3.3209379,3.36063
-26.053555,3.337625,3.3797908
-26.086246,3.3292162,3.3602705
-26.123503,3.3238256,3.3454876
-26.163324,3.3202283,3.3335629
-26.221964,3.3293922,3.3415704
-26.28405,3.3413174,3.3540163
-26.333431,3.3449988,3.3537464
-26.361198,3.3339512,3.3305664
-26.423193,3.3469079,3.3449922
-26.480593,3.3571038,3.3552375
-26.537683,3.367518,3.3659544
-26.549355,3.34531,3.3255396
-26.595007,3.3478026,3.3239818
-26.643446,3.3526287,3.3261938
-26.695751,3.3606834,3.333602
-26.728867,3.354473,3.3185897
-26.758068,3.3452804,3.2989154
-26.786844,3.3357198,3.2787027
-26.836441,3.3426018,3.2845984
-26.892452,3.3549876,3.299334
-26.927263,3.3506627,3.2876353
-26.956669,3.3419724,3.269051
-26.98782,3.3347008,3.252769
-27.03027,3.336951,3.2517176
-27.090553,3.354671,3.2754378
-27.134153,3.358604,3.2772613
-27.166725,3.3531597,3.2641678
-27.190132,3.339619,3.238161
-27.22799,3.338894,3.2327213
-27.29843,3.3680198,3.2752423
-27.33088,3.3630245,3.2631216
-27.367315,3.361798,3.257111
-27.393023,3.3505342,3.2350092
-27.432392,3.3522758,3.2338858
-27.481169,3.3634167,3.247985
-27.526339,3.3714752,3.257205
-27.56894,3.3773575,3.2629967
-27.592976,3.364688,3.2388787
-27.635857,3.3712742,3.2459383
-27.670008,3.369079,3.2388582
-27.713457,3.3768692,3.248013
-27.748795,3.3763096,3.2437053
-27.782797,3.3744354,3.237321
-27.809963,3.3650713,3.218823
-27.841505,3.3605223,3.2081861
-27.877256,3.3608215,3.205482
-27.922377,3.3722057,3.220883
-27.96233,3.3780026,3.2272625
-27.992525,3.3724196,3.215157
-28.018084,3.3611484,3.1938143
-28.04851,3.3557086,3.1820197
-28.085506,3.3585494,3.1837955
-28.12653,3.36682,3.1945071
-28.16694,3.3747382,3.2047129
-28.197998,3.3706517,3.1953368
-28.221199,3.355949,3.1686153
-28.257786,3.3593144,3.1715283
-28.288334,3.3544908,3.1610699
-28.336063,3.3741953,3.1909003
-28.375214,3.3823094,3.201789
-28.40421,3.375825,3.1887598
-28.431692,3.3669534,3.1718454
-28.460941,3.3606071,3.1591177
-28.493746,3.3597586,3.1554723
-28.540989,3.382218,3.1902432
-28.577406,3.3880177,3.1976619
-28.61128,3.389962,3.1987824
-28.63608,3.3766174,3.1747475
-28.664286,3.368789,3.1598377
-28.700714,3.3754635,3.1688943
-28.730412,3.370283,3.1584353
-28.771666,3.386641,3.183588
-28.806501,3.391636,3.1900334
-28.837618,3.3897233,3.1851144
-28.859287,3.3688493,3.1488805
-28.890898,3.367579,3.1450944
-28.926544,3.3749335,3.1556249
-28.963142,3.3849065,3.1705446
-28.99542,3.385925,3.170689
-29.024796,3.3804758,3.1601634
-29.052137,3.3700526,3.1414323
-29.081566,3.3642392,3.130375
-29.112719,3.3625445,3.126186
-29.147995,3.3715637,3.1398091
-29.18417,3.383725,3.158699
-29.215076,3.382297,3.1550865
-29.245462,3.3794258,3.1491194
-29.27315,3.3685014,3.1298175
-29.303558,3.3652701,3.1233273
-29.336575,3.3702612,3.130538
-29.37237,3.3850222,3.1540327
-29.404993,3.3902004,3.1616507
-29.439316,3.4021,3.1804895
-29.463724,3.3778486,3.1392536
-29.493347,3.372037,3.1287165
-29.525066,3.3744793,3.131948
-29.557884,3.3821201,3.1438732
-29.592175,3.397528,3.1687708
-29.622404,3.3951092,3.1640425
-29.651888,3.3886693,3.152657
-29.681696,3.3833272,3.1431384
-29.712488,3.383189,3.142322
-29.743355,3.3836432,3.1425338
-29.773973,3.3826377,3.1403537
-29.806257,3.3940334,3.1588726
-29.836632,3.392162,3.1553307
-29.866875,3.3888268,3.1493893
-29.896233,3.375805,3.1273441
-29.926466,3.369538,3.116593
-29.957952,3.3782578,3.130857
-29.989483,3.3911731,3.1521554
-30.020155,3.3933716,3.155632
-30.050533,3.3894763,3.148992
-30.080986,3.3851452,3.141664
-30.111338,3.3675165,3.1122098
-30.14215,3.3643703,3.106935
-30.172995,3.3664472,3.1104074
-30.203396,3.387637,3.1457777
-30.234112,3.3836982,3.1393008
-30.2649,3.3803535,3.133854
-30.295626,3.3796601,3.1328654
-30.327244,3.3661902,3.1106238
-30.357992,3.367714,3.1134114
-30.387768,3.3795953,3.1334991
-30.417532,3.3889809,3.1494646
-30.447493,3.394845,3.1596003
-30.4785,3.39154,3.1544986
-30.510878,3.3790762,3.1341786
-30.542473,3.373885,3.126017
-30.574032,3.3698037,3.1197472
-30.602016,3.386828,3.1486645
-30.631908,3.391616,3.1572409
-30.6619,3.395455,3.1642756
-30.692244,3.3973215,3.168064
-30.72472,3.3895438,3.1558418
-30.757994,3.3792973,3.1395578
-30.789001,3.3793662,3.140481
-30.817114,3.3907518,3.1602674
-30.846214,3.3976095,3.1725569
-30.877188,3.3973975,3.1731286
-30.908031,3.3977761,3.1747231
-30.94404,3.38143,3.1485653
-30.978506,3.3712976,3.1327848
-31.008179,3.3765168,3.1425538
-31.033913,3.392985,3.1710396
-31.062881,3.399356,3.1827898
-31.093586,3.4007268,3.1862774
-31.12947,3.3884995,3.1672459
-31.164873,3.3784041,3.151804
-31.193386,3.3861072,3.1659265
-31.221739,3.393878,3.1801958
-31.250797,3.399698,3.1912675
-31.279966,3.4050848,3.2016587
-31.311996,3.4040012,3.2013717
-31.346655,3.397474,3.1921191
-31.386051,3.3815072,3.1672997
-31.417492,3.3827171,3.1709538
-31.44163,3.398535,3.198803
-31.471094,3.403394,3.2085643
-31.50179,3.4058285,3.2143593
-31.534344,3.4048512,3.2145605
-31.576864,3.3860307,3.1853585
-31.606644,3.390731,3.1950345
-31.636917,3.3945136,3.2032356
-31.661572,3.407797,3.2271361
-31.694609,3.4067683,3.2274837
-31.729836,3.4023707,3.2223334
-31.771408,3.3882046,3.201161
-31.80987,3.3795967,3.1892009
-31.83988,3.384393,3.1993432
-31.862606,3.4000719,3.2274065
-31.893671,3.4030406,3.2346168
-31.926401,3.4036448,3.2379885
-31.958466,3.4053168,3.2431617
-32.00315,3.3895197,3.2197409
-32.041477,3.3831244,3.2118063
-32.059364,3.4045436,3.2494793
-32.08966,3.4090037,3.2594075
-32.119892,3.4135425,3.2695065
-32.154987,3.4118814,3.2695146
-32.205166,3.3915248,3.2390447
-32.23635,3.3954017,3.2482243
-32.267097,3.3998418,3.2583666
-32.291363,3.412027,3.2811756
-32.32272,3.415656,3.2900763
-32.365585,3.406017,3.2774282
-32.414577,3.3898604,3.2542605
-32.451286,3.3881223,3.2546177
-32.477356,3.3983376,3.2744455
-32.498028,3.4142802,3.303597
-32.52674,3.4212954,3.3182907
-32.560688,3.4227383,3.323998
-32.601868,3.4167733,3.31777
-32.6478,3.4062655,3.3042698
-32.694958,3.3949847,3.2896094
-32.73355,3.3927164,3.2895918
-32.76516,3.397536,3.3010736
-32.79672,3.4024427,3.3127427
-32.823868,3.4115915,3.3312898
-32.86308,3.4092875,3.3314514
-32.901905,3.407568,3.3326235
-32.94732,3.4000173,3.3245034
-32.980354,3.404046,3.335043
-33.00979,3.4113574,3.350895
-33.041176,3.4169273,3.3640037
-33.086018,3.4108076,3.3584714
-33.12318,3.411617,3.3640938
-33.17259,3.4021873,3.353447
-33.197636,3.4135833,3.376093
-33.22465,3.4232428,3.3960047
-33.260242,3.4258285,3.404706
-33.298042,3.4267445,3.4108171
-33.33644,3.4273362,3.4164848
-33.36816,3.4333534,3.4308205
-33.40717,3.4337344,3.4362874
-45.437126,0.64928246,0.46128368
-45.42677,0.7101946,0.5747857
-45.515812,0.7367401,0.64342976
-45.36801,0.8432472,0.8158183
-45.37565,0.89646864,0.91883373
-45.363033,0.9559891,1.0298352
-45.34857,1.0156057,1.1407847
-45.35,1.0695913,1.2444258
-45.29094,1.1424608,1.3717346
-45.371704,1.1704593,1.4424949
-45.293633,1.2481391,1.5753331
-45.311237,1.2954144,1.6700974
-45.32992,1.3421161,1.7641344
-45.411106,1.3697541,1.8348894
-45.325283,1.4473331,1.9664764
-45.403465,1.475688,2.0382695
-45.44576,1.5146751,2.1230583
-46.337006,1.3630497,2.02252
-46.453094,1.3838,2.0883985
-46.816475,1.3362627,2.075582
-47.072914,1.3201251,2.100676
-45.30555,1.8544998,2.7549043
-45.358654,1.8890197,2.8343916
-45.382458,1.9313498,2.9228182
-45.40936,1.9727345,3.0102253
-45.431915,2.0151308,3.0987973
-45.450096,2.0585098,3.1884665
-45.458256,2.1042595,3.2806964
-45.50519,2.1401289,3.3623352
-45.53843,2.1793993,3.4477386
-45.600334,2.211647,3.5259104
-45.733635,2.2268867,3.5868015
-45.912216,2.2319572,3.6380215
-46.09838,2.2360897,3.689271
-46.378674,2.2193613,3.7208195
-46.76313,2.1803274,3.7321148
-47.027054,2.1704586,3.7738953
-47.249115,2.1712089,3.827352
-48.869446,1.8667438,3.5955358
-48.899162,1.9153049,3.7003102
-48.898376,1.9702871,3.8110108
-48.90737,2.022959,3.9195395
-48.898243,2.0791965,4.0311575
-49.26287,2.0587094,4.076476
-49.92269,1.9805665,4.075436
-50.632034,1.8961203,4.0736217
-51.600475,1.7647178,4.038591
-52.397884,1.6715901,4.040647
-53.4182,1.5403132,4.0187817
-54.590157,1.3861058,3.9869108
-3.3867378,0.6884966,2.7376275
-4.2196007,0.7783413,2.732626
-6.166218,1.0986965,2.9458408
-7.0078106,1.2025216,2.9677444
-7.048319,1.1436999,2.839479
-7.5385857,1.1800113,2.803584
-8.2292595,1.2618973,2.8153963
-8.917553,1.347024,2.8344808
-9.38298,1.3867724,2.811636
-9.425722,1.334518,2.6971226
-9.460669,1.2804484,2.5808635
-9.518341,0.98019505,1.96807
-9.547037,0.92355275,1.8491535
-9.546579,0.859514,1.7219882
-9.491926,0.78151226,1.578908
-18.854565,3.024405,4.0255404
-18.189297,2.812948,3.7488565
-17.97052,2.716148,3.6041994
-19.921923,3.2038305,4.1544113
-20.03676,3.2019622,4.1267557
-20.23317,3.2232018,4.127541
-20.38058,3.2318106,4.1138387
-20.510384,3.2362,4.095613
-20.699154,3.2581415,4.0996237
-20.86652,3.2749343,4.098068
-20.94114,3.2654448,4.0643516
-21.126842,3.2892084,4.0727997
-21.149986,3.265243,4.0215693
-21.313465,3.2838244,4.024624
-21.347641,3.2636218,3.9786305
-21.547115,3.2947721,3.9989574
-21.555561,3.2671123,3.943853
-21.750612,3.2985578,3.9657934
-21.772594,3.2755876,3.9172063
-21.893587,3.2847064,3.910939
-21.974768,3.2814023,3.8886855
-22.062027,3.2804806,3.8698952
-22.189316,3.29341,3.8699422
-22.223213,3.2753477,3.828833
-22.385576,3.3013964,3.8473463
-22.41521,3.2823763,3.805378
-22.599966,3.317758,3.837557
-22.593586,3.2865357,3.7793517
-22.726093,3.304812,3.7890444
-22.825775,3.3119802,3.7839007
-22.854832,3.2938147,3.7440271
-22.984652,3.312942,3.7560525
-23.011322,3.2942488,3.7157655
-23.096928,3.2978158,3.7067075
-23.19904,3.308135,3.7074213
-23.224337,3.2893438,3.667409
-23.385708,3.3236609,3.7026334
-23.4308,3.313151,3.674735
-23.49817,3.3116496,3.659799
-23.55238,3.3051453,3.6379094
-23.647326,3.3154435,3.6402817
-23.664923,3.294427,3.597878
-23.785366,3.3161108,3.6171494
-23.844166,3.3126407,3.600377
-23.891727,3.3046374,3.5771837
-23.98713,3.3173409,3.5842853
-24.047274,3.315312,3.5701518
-24.110508,3.3149047,3.55856
-24.194843,3.324154,3.561336
-24.254644,3.3229017,3.5488863
-24.269262,3.3014455,3.5067458
-24.368587,3.3186176,3.5218325
-24.44664,3.3266037,3.523572
-24.477684,3.3130589,3.493475
-24.570656,3.3287835,3.5071259
-24.615404,3.3220897,3.4875016
-24.689617,3.3297548,3.4895186
-24.709534,3.311366,3.45257
-24.805872,3.3305464,3.4722533
-24.87348,3.3360877,3.471613
-24.892147,3.317359,3.4344134
-24.963978,3.3255622,3.4380841
-25.020197,3.326171,3.430399
-25.093721,3.3360531,3.4369807
-25.112087,3.3174067,3.4002018
-25.201069,3.3361378,3.4206157
-25.266716,3.3429928,3.4230676
-25.306595,3.3362546,3.4048066
-25.329618,3.3203654,3.3725467
-25.41452,3.3387065,3.3930874
-25.480822,3.34726,3.3987355
-25.52402,3.3431404,3.3849354
-25.55416,3.331684,3.3598537
-25.599483,3.329011,3.3484597
-25.663086,3.3372223,3.3540955
-25.717651,3.3404956,3.3521886
-25.72922,3.3183217,3.3106813
-25.805012,3.3347733,3.3295603
-25.859875,3.3390067,3.3294911
-25.911276,3.3414154,3.3266826
-25.941702,3.3309684,3.3037887
-25.98391,3.3279684,3.2926598
-26.045351,3.3374362,3.3012624
-26.098207,3.341778,3.3019156
-26.138866,3.3384457,3.290553
-26.165707,3.3260975,3.264996
-26.223888,3.3346808,3.2726564
-26.285498,3.3459997,3.2847862
-26.344925,3.356296,3.2954288
-26.35414,3.3322024,3.2514634
-26.425396,3.3513,3.276322
-26.475773,3.3562257,3.278728
-26.543774,3.3741374,3.3019886
-26.553566,3.3503454,3.2586775
-26.61347,3.3630633,3.27384
-26.652157,3.3604836,3.2645965
-26.70518,3.3688452,3.2729912
-26.739151,3.3630707,3.2587686
-26.77149,3.3560874,3.242653
-26.796646,3.3435094,3.2175727
-26.846397,3.3502817,3.2237387
-26.901957,3.3620722,3.2381077
-26.938133,3.3586195,3.2279449
-26.963009,3.3459764,3.2029657
-27.00678,3.3489306,3.2032862
-27.048298,3.3502486,3.2010336
-27.105938,3.3655562,3.2215686
-27.152271,3.371668,3.2272758
-27.183525,3.3649023,3.21212
-27.20624,3.3505547,3.1846619
-27.252329,3.3570466,3.191193
-27.310625,3.3750334,3.2165632
-27.348276,3.3745964,3.211966
-27.389767,3.3779235,3.213581
-27.40658,3.3580663,3.177342
-27.446154,3.3597658,3.1764035
-27.50538,3.3808975,3.2073755
-27.541733,3.3801315,3.2025504
-27.588614,3.3901024,3.2154078
-27.609314,3.3738308,3.1852388
-27.649633,3.3775575,3.1879654
-27.698229,3.3902586,3.2055254
-27.739025,3.3951972,3.2103934
-27.774464,3.394654,3.206295
-27.806017,3.3899946,3.1954622
-27.827517,3.3741403,3.1661978
-27.860144,3.3705661,3.1572323
-27.899775,3.3751078,3.1617255
-27.94774,3.3897114,3.1829228
-27.98374,3.3907297,3.1817245
-28.014551,3.385677,3.1705265
-28.031082,3.3630843,3.1303015
-28.070644,3.3686547,3.1367817
-28.10852,3.372436,3.1403565
-28.148855,3.3796875,3.1497517
-28.187874,3.3856266,3.157031
-28.215921,3.3772562,3.1405864
-28.243767,3.3684695,3.1234827
-28.279783,3.3708534,3.1250005
-28.319462,3.3786635,3.1356077
-28.359587,3.387568,3.1480994
-28.396147,3.3917449,3.1527753
-28.417936,3.3741465,3.1211896
-28.442657,3.3604794,3.096181
-28.476755,3.3610117,3.0949001
-28.523418,3.3816776,3.1272964
-28.5614,3.3892856,3.1379519
-28.591164,3.3837721,3.1267266
-28.627409,3.3891354,3.1337314
-28.652397,3.3754263,3.1088753
-28.68436,3.3735871,3.1039147
-28.725878,3.3890963,3.1280499
-28.762188,3.3958483,3.137579
-28.796738,3.3997402,3.1423664
-28.827335,3.396302,3.134912
-28.856237,3.389471,3.1218047
-28.887705,3.387675,3.1171813
-28.921795,3.391431,3.1219172
-28.959003,3.4022512,3.138564
-28.991192,3.4027185,3.1378732
-29.020487,3.3967862,3.1264715
-29.047972,3.3864312,3.1076703
-29.07734,3.3801384,3.0957303
-29.109049,3.379424,3.093207
-29.140358,3.3777907,3.0891786
-29.181541,3.4023194,3.12922
-29.21275,3.4013762,3.1264448
-29.242537,3.3964944,3.1170769
-29.270357,3.3856518,3.0977058
-29.301231,3.383431,3.0928907
-29.332933,3.3838089,3.092493
-29.370905,3.404942,3.127118
-29.402596,3.4065108,3.1288166
-29.43027,3.3940253,3.1068568
-29.459713,3.3871622,3.0944095
-29.490467,3.3849225,3.0897975
-29.52274,3.3888328,3.0955987
-29.55455,3.3913112,3.0990248
-29.588512,3.4040046,3.119732
-29.620577,3.4091902,3.1278124
-29.650522,3.4043193,3.1189547
-29.679455,3.3934352,3.0999799
-29.70907,3.385159,3.085443
-29.739279,3.3794954,3.0753536
-29.77006,3.376956,3.0705771
-29.805424,3.4080358,3.122632
-29.836092,3.4071896,3.1207972
-29.866262,3.4018457,3.111401
-29.8962,3.3930178,3.0961542
-29.926432,3.385282,3.0827894
-29.95688,3.378132,3.0704498
-29.989582,3.4041421,3.1141896
-30.020277,3.4032607,3.1125216
-30.051048,3.4039843,3.113605
-30.081385,3.389514,3.0890436
-30.112165,3.3817394,3.0758376
-30.143152,3.3806639,3.0739923
-30.174091,3.3878143,3.0860891
-30.204689,3.403191,3.1121278
-30.23542,3.4033713,3.1125183
-30.266285,3.4005756,3.1079168
-30.29768,3.3897154,3.0897245
-30.328955,3.3845365,3.0811725
-30.360107,3.3824923,3.0779567
-30.390701,3.3871417,3.08609
-30.420015,3.4030578,3.1132984
-30.451212,3.3997235,3.108016
-30.48282,3.3939295,3.0986176
-30.515793,3.379581,3.0748086
-30.546787,3.3805606,3.076933
-30.577599,3.382636,3.0809445
-30.60666,3.3944318,3.10141
-30.634493,3.4113693,3.1305895
-30.665602,3.4101186,3.129095
-30.697292,3.4064155,3.1234994
-30.73205,3.38963,3.0958662
-30.763498,3.3886347,3.0949254
-30.793972,3.3917687,3.1009898
-30.821741,3.4050891,3.1242738
-30.851557,3.409886,3.1332135
-30.882141,3.4117281,3.1372075
-30.915705,3.4035609,3.1243668
-30.951204,3.3899434,3.102387
-30.983309,3.3880136,3.1001487
-31.012278,3.3957295,3.114201
-31.038986,3.4095473,3.138564
-31.067913,3.4163916,3.1512132
-31.099121,3.416783,3.1530342
-31.13554,3.40372,3.1322565
-31.171103,3.3937716,3.1167707
-31.201813,3.3964353,3.1225457
-31.229538,3.4061742,3.140255
-31.257055,3.415977,3.158101
-31.28859,3.4163675,3.1601648
-31.323793,3.408873,3.1490264
-31.361074,3.397502,3.1314292
-31.392653,3.3986664,3.1349277
-31.425459,3.3974328,3.1344428
-31.45001,3.4126441,3.1615834
-31.480417,3.4160242,3.168912
-31.509455,3.421954,3.180551
-31.553215,3.4008067,3.1468682
-31.58704,3.398537,3.1448684
-31.620108,3.3978398,3.145546
-31.644606,3.4119773,3.1710882
-31.672028,3.4207642,3.1877065
-31.707346,3.4163854,3.1823492
-31.743109,3.4116213,3.1764011
-31.783367,3.4001267,3.159266
-31.820457,3.3941245,3.151363
-31.846453,3.4052706,3.172123
-31.870583,3.4189017,3.1970534
-31.90377,3.4189966,3.1994495
-31.94141,3.41289,3.1915627
-31.986824,3.396267,3.1662288
-32.021095,3.395719,3.167719
-32.04544,3.4087527,3.1918406
-32.068798,3.4227936,3.2176595
-32.1029,3.4224873,3.2196727
-32.13706,3.4222786,3.2218971
-32.184536,3.405448,3.1966
-32.21706,3.407855,3.203279
-32.248405,3.411778,3.2125149
-32.274952,3.4214823,3.2313652
-32.303326,3.4288769,3.2464232
-32.341755,3.4245226,3.2420936
-32.394783,3.4037824,3.210754
-32.434124,3.3992376,3.206254
-32.462605,3.4070241,3.2221627
-32.486656,3.4195633,3.245943
-32.50786,3.434952,3.2744403
-32.539764,3.4387186,3.2838244
-32.57832,3.4355977,3.2819252
-32.62648,3.4228585,3.2642817
-32.680016,3.4052014,3.2386532
-32.720158,3.4015884,3.236174
-32.75436,3.4040885,3.2437859
-32.77816,3.4167888,3.268157
-32.80459,3.426786,3.2881303
-32.839066,3.4290798,3.295536
-32.88284,3.422822,3.2890253
-32.926815,3.4167132,3.2828379
-32.963005,3.418,3.2887926
-32.991146,3.4266217,3.306756
-33.02068,3.433961,3.322669
-33.059895,3.4328463,3.3248749
-33.116375,3.4170868,3.303361
-33.158043,3.4144833,3.3033142
-33.17913,3.4293702,3.3316965
-33.209587,3.4363048,3.3472195
-33.244274,3.439784,3.3571963
-33.280045,3.4424844,3.3659716
-33.32133,3.4408998,3.36789
-33.35382,3.44646,3.3814044
-33.41376,3.4307237,3.3606706
-45.385315,0.7087467,0.33208656
-45.36962,0.77137184,0.44864368
-45.38945,0.82143044,0.5481739
-45.48712,0.8451946,0.6125965
-45.290867,0.9663255,0.8066015
-45.36417,0.9975412,0.8808541
-45.377052,1.048388,0.98112154
-45.359043,1.1087885,1.0938277
-45.31518,1.1768229,1.2162709
-45.381504,1.2097354,1.292985
-45.350006,1.2729406,1.4088526
-45.27267,1.3495431,1.5415983
-45.309956,1.3906341,1.6287432
-45.30247,1.4449804,1.7327042
-45.323944,1.4903753,1.8252878
-45.327507,1.5407913,1.9241343
-45.372993,1.5788009,2.0075188
-45.44344,1.6096649,2.0822248
-46.686905,1.4731607,2.0726976
-46.879456,1.4750593,2.1167245
-47.01754,1.492326,2.1797142
-45.34856,1.9837973,2.7967935
-45.371395,2.0262716,2.885478
-45.388935,2.069962,2.9755821
-45.406754,2.1134152,3.0654154
-45.437965,2.153367,3.151309
-45.471405,2.1926978,3.2365837
-45.48452,2.2369168,3.3273478
-45.52524,2.2743287,3.410654
-45.580524,2.3082848,3.4903593
-45.679783,2.3320346,3.5593758
-45.850765,2.3395681,3.6117277
-46.025505,2.3470368,3.6649103
-46.28298,2.3366942,3.7006502
-46.536884,2.328446,3.739956
-46.88076,2.3017566,3.7621555
-47.10459,2.3028145,3.8138514
-47.396507,2.2904391,3.8537016
-48.889565,2.0269706,3.6535835
-48.883926,2.082745,3.7652636
-48.889015,2.1360464,3.8745031
-48.9049,2.1869628,3.9814916
-48.94902,2.2321255,4.0833063
-49.616516,2.1552327,4.0774508
-50.21927,2.0944152,4.089901
-51.051895,1.9930842,4.0719457
-51.988953,1.8766708,4.0470843
-52.972397,1.7567451,4.025803
-54.06463,1.6223323,3.9998808
-3.2433853,0.89468026,2.792449
-3.7829838,0.921299,2.7320623
-6.16988,1.309499,3.0186539
-6.964035,1.3971474,3.0293708
-7.029705,1.3433878,2.9059572
-7.044241,1.2793396,2.7725716
-8.119255,1.433326,2.859733
-8.651241,1.4799476,2.842945
-9.338221,1.5622027,2.8661823
-9.427954,1.5200374,2.7621956
-9.464912,1.4666257,2.6466203
-9.246788,1.3568745,2.470337
-7.681402,0.94431996,1.9621291
-8.62919,1.0914321,2.063167
-8.846106,1.0761294,1.987956
-9.308474,1.1189094,1.9792857
-9.528879,0.98005414,1.6567521
-9.567356,0.86110187,1.4118643
-9.522276,0.78510356,1.269701
-9.42079,0.694098,1.1091638
-18.828085,3.051217,3.9137664
-18.004692,2.8003044,3.5799036
-19.95335,3.2756472,4.1353865
-20.003746,3.256115,4.08687
-20.155357,3.2640836,4.072852
-20.20325,3.244447,4.0247936
-20.392923,3.2641973,4.0267267
-20.409994,3.236604,3.9691834
-20.617271,3.2628763,3.9806888
-20.730639,3.263369,3.9598272
-20.84297,3.2641144,3.9397416
-20.94796,3.2632508,3.9179964
-21.117487,3.2820768,3.922494
-21.14687,3.259707,3.873306
-21.345253,3.2887359,3.8923864
-21.345404,3.2579293,3.8324456
-21.540302,3.2875185,3.8534257
-21.5541,3.2612522,3.799903
-21.741055,3.2899916,3.8208685
-21.756866,3.2647395,3.7690868
-21.908792,3.2836967,3.777752
-21.964203,3.2717497,3.7445393
-22.11367,3.2912982,3.754942
-22.192398,3.2879012,3.7340999
-22.258978,3.280721,3.7082524
-22.397882,3.2987013,3.7177691
-22.415363,3.2752333,3.6696272
-22.589582,3.3068142,3.699038
-22.61573,3.2868147,3.6561332
-22.725296,3.2967775,3.6558042
-22.803265,3.2958617,3.6403413
-22.86766,3.2903237,3.6185107
-22.990742,3.3068552,3.6285405
-23.029,3.292258,3.594151
-23.119019,3.2973697,3.5883298
-23.2262,3.3095493,3.5930357
-23.240599,3.28635,3.54662
-23.435299,3.3337266,3.6031961
-23.423512,3.3006134,3.5425944
-23.510887,3.3068693,3.539711
-23.616665,3.3210566,3.5487714
-23.650143,3.3062878,3.5153785
-23.720804,3.3069215,3.5048738
-23.835352,3.3262558,3.5223527
-23.85057,3.3043394,3.4787164
-23.926422,3.3081808,3.473567
-24.035221,3.326654,3.490549
-24.055515,3.3072052,3.4508939
-24.146482,3.31883,3.4580517
-24.20596,3.3169696,3.4451094
-24.270782,3.3177824,3.4363632
-24.277699,3.2925348,3.388247
-24.403858,3.3219454,3.4232316
-24.502565,3.339507,3.4405217
-24.477877,3.299699,3.370429
-24.57697,3.318165,3.389451
-24.668781,3.333818,3.4044285
-24.675766,3.3088918,3.3572369
-24.732952,3.3083491,3.347609
-24.81958,3.322681,3.3610935
-24.884481,3.3266993,3.3588414
-24.923628,3.318019,3.337051
-24.991179,3.3239734,3.3380828
-25.04694,3.324216,3.3303847
-25.102589,3.324668,3.3231416
-25.13387,3.3124905,3.2962818
-25.207869,3.3231637,3.3052607
-25.283638,3.335284,3.316691
-25.316998,3.3247318,3.2926698
-25.36442,3.3219721,3.2809749
-25.431866,3.330591,3.2873273
-25.504513,3.3425865,3.2991729
-25.522154,3.323664,3.2622566
-25.585587,3.3310142,3.2670002
-25.646729,3.3374317,3.2704072
-25.68018,3.3278744,3.2485433
-25.720406,3.3223832,3.2332106
-25.776508,3.326592,3.2334275
-25.8357,3.3330142,3.2373004
-25.877718,3.3292053,3.2249298
-25.930721,3.3323996,3.2238607
-25.952105,3.315919,3.1913257
-26.003727,3.3186057,3.1896133
-26.057728,3.3231149,3.1909375
-26.127228,3.338082,3.2092261
-26.144577,3.3191311,3.172935
-26.199993,3.3254213,3.1774359
-26.271126,3.342712,3.1998477
-26.307076,3.3365335,3.1843963
-26.350931,3.3359003,3.1779976
-26.400707,3.339612,3.1787353
-26.461601,3.3515072,3.1928754
-26.503868,3.3505259,3.1861796
-26.55776,3.3581712,3.1936193
-26.576056,3.340035,3.1590934
-26.619965,3.34072,3.155324
-26.675161,3.350129,3.1659021
-26.729494,3.3593116,3.1762185
-26.763401,3.353152,3.1614914
-26.785738,3.3379903,3.1320453
-26.830866,3.3406842,3.131946
-26.878029,3.3452742,3.135046
-26.916927,3.343467,3.1277003
-26.961128,3.3461676,3.1278458
-26.990921,3.3371322,3.1087117
-27.020332,3.3277287,3.0890093
-27.08098,3.3449678,3.1133657
-27.124735,3.3482249,3.114717
-27.17748,3.359646,3.1296563
-27.200245,3.3448977,3.101336
-27.237207,3.3427343,3.0939026
-27.287432,3.3528123,3.1068459
-27.331512,3.3576622,3.1111917
-27.377335,3.3644655,3.1188612
-27.400093,3.3496773,3.0906825
-27.440071,3.351282,3.0898204
-27.49576,3.3684978,3.1150413
-27.528912,3.3639998,3.1041465
-27.576645,3.3742437,3.1179047
-27.600735,3.3607857,3.0921512
-27.641045,3.3639374,3.0941877
-27.681658,3.3676777,3.097272
-27.725147,3.374784,3.1060543
-27.764568,3.3778615,3.10816
-27.795855,3.3722363,3.0957341
-27.821812,3.3606377,3.073328
-27.859066,3.3616953,3.072195
-27.896238,3.3628647,3.0713034
-27.943705,3.3763342,3.0911422
-27.979778,3.3768122,3.0892081
-27.999113,3.3571496,3.0534296
-28.033388,3.3554366,3.0478878
-28.070665,3.3576021,3.0489292
-28.11192,3.3650904,3.0589957
-28.152578,3.3722353,3.0685477
-28.187984,3.3728495,3.0671391
-28.219435,3.3683238,3.0570989
-28.251991,3.3653123,3.0496554
-28.290052,3.3700416,3.0553403
-28.33132,3.3796785,3.0693812
-28.365362,3.3793654,3.066646
-28.397743,3.3767426,3.0600467
-28.42663,3.3689072,3.0446572
-28.458487,3.3654835,3.0367775
-28.489151,3.3602102,3.0258002
-28.541338,3.3893874,3.0733004
-28.572647,3.3857782,3.0652466
-28.604876,3.3837073,3.0598426
-28.635126,3.3783176,3.0488415
-28.664074,3.3705673,3.0338655
-28.697262,3.370204,3.0314784
-28.737093,3.3821437,3.0500555
-28.77347,3.3883364,3.0589137
-28.807112,3.3897371,3.0596676
-28.835955,3.381912,3.0447564
-28.862034,3.368261,3.019956
-28.890783,3.3595827,3.0036516
-28.933128,3.3795276,3.03616
-28.967072,3.3823557,3.0395503
-29.000257,3.3837976,3.0406213
-29.029964,3.3774245,3.0284023
-29.056686,3.363705,3.0036812
-29.08774,3.3599455,2.9959874
-29.121597,3.363204,3.0003104
-29.160088,3.378959,3.0260181
-29.192848,3.3804283,3.0273762
-29.223774,3.3770144,3.020432
-29.253386,3.369699,3.006855
-29.282986,3.3619576,2.9925833
-29.314346,3.3592718,2.986988
-29.347284,3.3616538,2.990097
-29.388105,3.3910794,3.0395055
-29.418863,3.3876634,3.0327835
-29.453745,3.3993218,3.0518937
-29.47669,3.366057,2.994162
-29.508312,3.3648682,2.9913545
-29.54135,3.3697703,2.9990144
-29.577585,3.3897974,3.0326138
-29.6087,3.3878646,3.0286522
-29.640244,3.3880193,3.0283012
-29.66917,3.3742003,3.0040512
-29.699371,3.3659744,2.9894137
-29.731619,3.3693786,2.9947386
-29.764515,3.3778934,3.0088592
-29.79747,3.388507,3.026618
-29.828348,3.3846233,3.019568
-29.859875,3.3858497,3.0213132
-29.890259,3.3760858,3.0042548
-29.92118,3.3699217,2.9934034
-29.952284,3.364339,2.983584
-29.984379,3.3724325,2.9972477
-30.016245,3.3801053,3.0102282
-30.047646,3.3808093,3.0112982
-30.078836,3.3745418,3.0004501
-30.110138,3.3658357,2.985457
-30.141666,3.3637583,2.9818673
-30.173216,3.364785,2.9836369
-30.204306,3.3860426,3.020132
-30.235628,3.385215,3.0187945
-30.266901,3.3859785,3.0202217
-30.299177,3.3691976,2.9916034
-30.330772,3.368111,2.9899335
-30.362478,3.3660986,2.986713
-30.393951,3.3671885,2.9888473
-30.423424,3.386976,3.0230703
-30.454926,3.3857071,3.0212321
-30.486073,3.3875365,3.0247421
-30.519121,3.3758729,3.0051646
-30.551914,3.3678174,2.9918098
-30.582644,3.3734112,3.001882
-30.612076,3.3856087,3.023303
-30.642376,3.3918545,3.0345607
-30.672537,3.398176,3.045982
-30.704617,3.3950467,3.041254
-30.739185,3.3814816,3.0186954
-30.771688,3.3780289,3.0134935
-30.802769,3.3806677,3.0187578
-30.83115,3.3933866,3.0413094
-30.862288,3.395177,3.0451908
-30.89499,3.3915548,3.0398498
-30.929007,3.3840292,3.0278735
-30.966042,3.367624,3.0007563
-30.99568,3.3752413,3.014759
-31.027515,3.3759613,3.017006
-31.054285,3.3911862,3.0440764
-31.085049,3.3945444,3.0509
-31.119116,3.3890452,3.0426326
-31.155653,3.3776908,3.0244102
-31.18672,3.3808105,3.0309463
-31.217943,3.3835151,3.03681
-31.244276,3.397669,3.0622444
-31.277014,3.3965707,3.0616903
-31.309582,3.3960545,3.06217
-31.343332,3.393163,3.058642
-31.378353,3.3879046,3.0511246
-31.412807,3.3842218,3.0463376
-31.44344,3.3884883,3.0551314
-31.469202,3.4021454,3.079945
-31.49854,3.4085124,3.092379
-31.536211,3.3993077,3.0783615
-31.575487,3.3877776,3.060443
-31.612314,3.3812447,3.0510755
-31.638062,3.3942902,3.0750203
-31.669281,3.3976681,3.0825725
-31.697521,3.4059792,3.098537
-31.731886,3.404182,3.0973816
-31.78006,3.3807156,3.0595226
-31.813288,3.3815646,3.062962
-31.844635,3.385396,3.0714984
-31.872704,3.3941226,3.0883622
-31.902903,3.3995502,3.0996737
-31.937689,3.398339,3.0997891
-31.969147,3.4020154,3.1082172
-32.017838,3.3818817,3.0764422
-32.045273,3.3914912,3.0949926
-32.07431,3.3987818,3.1096573
-32.10576,3.4028156,3.1188612
-32.13531,3.4093037,3.1322427
-32.185326,3.389837,3.101914
-32.221424,3.3884952,3.1022034
-32.257607,3.3872602,3.1027236
-32.282528,3.3997703,3.126421
-32.314735,3.403413,3.135232
-32.35173,3.401523,3.134791
-32.395752,3.3918033,3.121254
-32.44047,3.3817647,3.107256
-32.47124,3.3876903,3.1201038
-32.497257,3.3987994,3.141676
-32.517906,3.4155173,3.1726704
-32.554317,3.4151762,3.1751285
-32.591236,3.4144838,3.177054
-32.626884,3.4152822,3.1815267
-32.66664,3.4120607,3.1793385
-32.72253,3.3929644,3.1507263
-32.756264,3.3964221,3.1598225
-32.791378,3.398611,3.166853
-32.817505,3.4095204,3.1884494
-32.852535,3.4118905,3.1958733
-32.89967,3.4030843,3.1847749
-32.9461,3.3953424,3.175528
-32.982876,3.396735,3.1815162
-33.008183,3.4085274,3.2048006
-33.0449,3.4101124,3.2112064
-33.073475,3.4189248,3.229628
-33.13028,3.4034176,3.2078838
-33.173447,3.4000626,3.2063208
-33.20413,3.4074302,3.2225232
-33.236305,3.41356,3.2367272
-33.25767,3.4285383,3.2655478
-33.29555,3.4300127,3.2721725
-33.334557,3.4307356,3.2776217
-33.37362,3.4315825,3.2833414
-45.342693,0.824774,0.30696964
-45.338078,0.88306713,0.41828203
-45.356026,0.9334123,0.51853085
-45.39765,0.9757025,0.60771036
-45.33688,1.0510082,0.74197483
-45.366337,1.0965781,0.8355231
-45.38096,1.1466405,0.9351587
-45.33367,1.2157724,1.0603781
-45.311867,1.2762899,1.1737728
-45.405815,1.3008687,1.2391701
-45.289402,1.389319,1.3893709
-45.423386,1.4017558,1.4389505
-45.318123,1.4854262,1.5822148
-45.288067,1.5460553,1.6949377
-45.30767,1.5917993,1.7881794
-45.384613,1.6209769,1.8601213
-45.384777,1.6719737,1.9601827
-45.452538,1.7038112,2.0358377
-46.667343,1.5818934,2.0330534
-46.70661,1.6248775,2.125794
-46.916557,1.6235876,2.1648006
-45.315735,2.0865433,2.7646985
-45.366386,2.1218016,2.844799
-45.39322,2.1630447,2.9321656
-45.41944,2.204334,3.0196328
-45.43943,2.2470362,3.1087904
-45.4616,2.2890759,3.1971993
-45.466206,2.3351579,3.2902598
-45.516315,2.370368,3.3709416
-45.555527,2.408152,3.4546914
-45.62259,2.4395828,3.53152
-45.772686,2.4525044,3.5883183
-45.947365,2.460636,3.6406698
-46.18294,2.4562469,3.6804962
-46.443485,2.447636,3.7171059
-46.720505,2.4368274,3.7528362
-47.036083,2.4193244,3.7831879
-47.239822,2.4266071,3.8405533
-48.878662,2.1418045,3.605906
-48.893173,2.1932662,3.713601
-48.92331,2.2414722,3.8181195
-48.9093,2.2982476,3.9309382
-48.90992,2.3518944,4.0406294
-49.291206,2.3330662,4.0831842
-49.871567,2.2789655,4.0960917
-50.60131,2.2004242,4.090957
-51.574326,2.0816689,4.0555134
-52.397205,1.994955,4.0539036
-53.511818,1.8613577,4.018717
-54.509228,1.7540085,4.0125694
-3.0692654,1.0208952,2.697661
-5.6828365,1.4287531,3.0131793
-6.519945,1.5166421,3.0266185
-7.021595,1.5448964,2.984774
-7.0543957,1.4847593,2.8552427
-8.7667885,1.6310077,2.8159585
-9.386963,1.6959908,2.8265815
-9.366741,1.630722,2.6979022
-9.3971,1.5757465,2.5804176
-9.216175,1.3501296,2.1588364
-9.23707,1.2917325,2.0369282
-9.505779,1.0997715,1.5993338
-9.540014,1.0440941,1.4811811
-9.521828,0.9755931,1.3474193
-9.537329,0.9148755,1.2230463
-9.513771,0.8441925,1.0862641
-16.666595,2.577137,3.2054572
-17.53019,2.7540886,3.3970265
-18.831448,3.049137,3.7424016
-18.978573,3.0510898,3.7190413
-19.929173,3.2660859,3.9704235
-19.957499,3.2403445,3.9141831
-20.176239,3.266141,3.9251933
-20.26039,3.2562783,3.8903332
-20.374584,3.2550988,3.8672404
-20.504982,3.2590165,3.8513486
-20.67131,3.2738042,3.8504689
-20.69934,3.2497396,3.798078
-20.895731,3.2746267,3.8118234
-20.934715,3.254308,3.764988
-21.119553,3.2774744,3.7775679
-21.17022,3.2612782,3.7368898
-21.34535,3.28315,3.7488027
-21.371237,3.260013,3.6990662
-21.536827,3.2804055,3.7099104
-21.63416,3.2802193,3.6926074
-21.747133,3.2854943,3.6832952
-21.776016,3.2642183,3.6369505
-21.957531,3.2927384,3.66114
-21.987375,3.2722938,3.6163845
-22.14804,3.2955055,3.6339827
-22.173706,3.2741055,3.5882254
-22.337013,3.2996452,3.6100159
-22.384197,3.2860978,3.5759373
-22.538887,3.310192,3.5965185
-22.588522,3.2981586,3.5650806
-22.701702,3.3089392,3.5670638
-22.804409,3.3165803,3.5648065
-22.80529,3.2876391,3.5091162
-22.93203,3.3048654,3.5214381
-23.008318,3.3040452,3.5074668
-23.057962,3.2935424,3.4793472
-23.17706,3.3096504,3.4909558
-23.213451,3.2946188,3.45644
-23.36467,3.324342,3.4890122
-23.427874,3.3204226,3.4715295
-23.469929,3.3083541,3.4419403
-23.57597,3.3221135,3.4514513
-23.64135,3.3199806,3.4372015
-23.680218,3.307244,3.4070187
-23.779043,3.319481,3.4149404
-23.867153,3.327816,3.417183
-23.864899,3.298291,3.3617249
-23.982683,3.3199704,3.3847709
-24.047436,3.3194342,3.3739834
-24.099619,3.3136919,3.3553286
-24.177378,3.3194754,3.3546062
-24.249489,3.3231642,3.3508387
-24.261566,3.3000486,3.3056397
-24.375544,3.3233864,3.3327103
-24.452433,3.330368,3.3345847
-24.478443,3.313998,3.3001618
-24.571568,3.3293,3.31537
-24.6321,3.3296454,3.3073497
-24.668724,3.3187354,3.2817693
-24.653008,3.2823083,3.2160516
-24.823957,3.3375266,3.2949176
-24.864902,3.3293495,3.2739782
-24.884848,3.3106735,3.2364812
-24.962185,3.321133,3.245254
-25.022652,3.323393,3.2411714
-25.098663,3.3340747,3.25064
-25.107603,3.3099124,3.20467
-25.223513,3.342467,3.24937
-25.26004,3.3332446,3.2274485
-25.300156,3.3260286,3.2088094
-25.357641,3.3284714,3.2057629
-25.426659,3.3376415,3.2136664
-25.500832,3.3501656,3.227131
-25.508057,3.3251166,3.1800923
-25.565681,3.3287559,3.1794267
-25.633171,3.338462,3.1887064
-25.676373,3.3343353,3.175695
-25.725521,3.3338928,3.168746
-25.748322,3.3178213,3.136467
-25.820934,3.3319414,3.1533914
-25.869823,3.3320115,3.1475544
-25.916042,3.330654,3.1394763
-25.929665,3.3089662,3.09823
-26.008282,3.3284123,3.124349
-26.071264,3.338462,3.135229
-26.127056,3.3442838,3.1392946
-26.129395,3.315209,3.0860949
-26.195576,3.3282733,3.1022282
-26.264404,3.3436537,3.122314
-26.309206,3.3432045,3.1164198
-26.342539,3.3350322,3.0978441
-26.39203,3.3381827,3.0980444
-26.459053,3.3540328,3.1193614
-26.496958,3.3496153,3.1072173
-26.544159,3.3520417,3.1064882
-26.576847,3.344081,3.0885859
-26.617617,3.3421373,3.0807357
-26.671339,3.3500965,3.0894356
-26.717514,3.3527088,3.0893235
-26.759108,3.3520555,3.0838437
-26.783596,3.3382308,3.0564365
-26.823036,3.3360791,3.0485625
-26.886183,3.3530588,3.0727568
-26.919994,3.346878,3.0582862
-26.956524,3.3429651,3.0476627
-26.993591,3.3395958,3.0380054
-27.034815,3.3398366,3.034462
-27.090334,3.3524938,3.0518513
-27.134804,3.3561134,3.0541377
-27.160503,3.3435497,3.0292506
-27.206837,3.349188,3.035058
-27.247055,3.349656,3.0322223
-27.301804,3.363606,3.0522008
-27.345549,3.3679345,3.056024
-27.375307,3.3594244,3.0382147
-27.413681,3.3590677,3.0342321
-27.446407,3.3534262,3.021359
-27.504974,3.3731456,3.0514927
-27.546175,3.3763428,3.0537186
-27.576002,3.3683305,3.0369887
-27.621494,3.3763092,3.0474415
-27.655771,3.3730423,3.0388618
-27.706947,3.3876963,3.0607939
-27.748734,3.392911,3.0667534
-27.77515,3.3817286,3.0448613
-27.796783,3.3650787,3.0136814
-27.833544,3.3650694,3.0108805
-27.872274,3.3674805,3.0122576
-27.910889,3.3700097,3.0138903
-27.949387,3.372656,3.015778
-27.983883,3.3707652,3.0099673
-28.009949,3.3587089,2.9868207
-28.049828,3.363533,2.9925752
-28.086567,3.3647344,2.9921846
-28.129808,3.3744912,3.0064945
-28.16808,3.3782754,3.0106354
-28.208336,3.3850026,3.0198722
-28.223978,3.3588088,2.9727054
-28.260094,3.3600483,2.9726133
-28.297144,3.3628142,2.9751868
-28.343689,3.379456,3.0016427
-28.379038,3.380561,3.0014725
-28.408878,3.3736684,2.9875975
-28.44104,3.370189,2.9796262
-28.477867,3.3739643,2.9841743
-28.51335,3.3759322,2.9856596
-28.554674,3.3875923,3.0038824
-28.587822,3.3864145,3.0000463
-28.618397,3.3809974,2.9889421
-28.64739,3.3727658,2.97302
-28.675179,3.3621902,2.953084
-28.718422,3.379218,2.9808059
-28.757814,3.3900957,2.997973
-28.788477,3.3851047,2.987794
-28.82072,3.3831017,2.982809
-28.850788,3.376811,2.9704537
-28.881214,3.3710809,2.9590993
-28.916613,3.3756537,2.9655914
-28.955933,3.389104,2.9874802
-28.991814,3.39584,2.997807
-29.020016,3.385573,2.9787545
-29.048645,3.3758588,2.9606886
-29.07607,3.3627834,2.9368296
-29.107904,3.3600643,2.9309344
-29.146614,3.375097,2.9558268
-29.182539,3.3838594,2.9699059
-29.213776,3.3804302,2.9628987
-29.244898,3.3765883,2.9552102
-29.275097,3.3698692,2.9425669
-29.308313,3.3720996,2.9454775
-29.340994,3.3729377,2.946012
-29.377916,3.3881853,2.9715838
-29.413454,3.4000804,2.991385
-29.44203,3.3878412,2.9693413
-29.471537,3.3781435,2.9517374
-29.501879,3.3709927,2.9385862
-29.537197,3.3842354,2.9608808
-29.57251,3.3990648,2.9859753
-29.60523,3.4035747,2.993187
-29.634848,3.3932796,2.9747148
-29.665821,3.3890166,2.966755
-29.695927,3.379366,2.9494677
-29.727392,3.376748,2.9444337
-29.760857,3.387141,2.962047
-29.793713,3.3951366,2.975533
-29.825045,3.3927689,2.9710402
-29.855576,3.3830137,2.9537396
-29.886843,3.3783143,2.945262
-29.918396,3.3756862,2.9404192
-29.949928,3.3721428,2.9340205
-29.98293,3.390105,2.9650512
-30.014177,3.3832383,2.9529433
-30.046211,3.3919008,2.9678755
-30.07761,3.3856936,2.956983
-30.109135,3.3780713,2.943665
-30.14087,3.3775084,2.9426594
-30.172644,3.3740363,2.9366283
-30.204195,3.3851013,2.955914
-30.23581,3.3862782,2.9580374
-30.267487,3.3855426,2.9568706
-30.298925,3.3893735,2.9636784
-30.33223,3.3653836,2.9221463
-30.364319,3.3634021,2.918919
-30.39481,3.3789344,2.9461784
-30.425512,3.3890638,2.964078
-30.456268,3.3967812,2.9778147
-30.488937,3.388652,2.9640403
-30.523317,3.3701649,2.9322991
-30.555206,3.3706682,2.9336038
-30.585,3.3836782,2.9566784
-30.613583,3.4017277,2.9885402
-30.646149,3.397001,2.9808578
-30.678946,3.3918645,2.9725018
-30.711988,3.3863199,2.9634752
-30.749062,3.3640091,2.9253697
-30.77912,3.3730214,2.9417005
-30.809351,3.38062,2.9556093
-30.83769,3.3947253,2.9808435
-30.86764,3.4019713,2.9942017
-30.900608,3.3984215,2.9888577
-30.936089,3.3870606,2.9700012
-30.972023,3.375309,2.950511
-31.004686,3.3745048,2.9500513
-31.029634,3.3964405,2.9890552
-31.060179,3.4012017,2.9983087
-31.092617,3.4006314,2.9983559
-31.12845,3.391308,2.983274
-31.163574,3.3845413,2.9726672
-31.200275,3.3744438,2.956336
-31.224564,3.3948088,2.9927897
-31.257856,3.3932092,2.9912462
-31.288183,3.398539,3.0017328
-31.322414,3.3951612,2.99719
-31.360182,3.384568,2.9802122
-31.390034,3.391126,2.9929333
-31.421677,3.3938665,2.9990897
-31.451807,3.3996024,3.010457
-31.48082,3.4073524,3.0253348
-31.512259,3.4103281,3.0320005
-31.548409,3.4046814,3.0238214
-31.58932,3.3909316,3.0017095
-31.622877,3.3908134,3.0031648
-31.650558,3.4008977,3.0222487
-31.683205,3.4023902,3.0265536
-31.715855,3.4039707,3.0310502
-31.75299,3.39845,3.0233593
-31.797314,3.3820364,2.9969692
-31.832752,3.3801005,2.995553
-31.851496,3.4035394,3.0378165
-31.883253,3.4069996,3.0457468
-31.915953,3.4091177,3.0514088
-31.94664,3.4141705,3.0621495
-31.99797,3.3904183,3.0234861
-32.027466,3.3975704,3.0379238
-32.05824,3.4029074,3.0492802
-32.088215,3.4092638,3.06242
-32.120262,3.4128747,3.070891
-32.156315,3.4114125,3.070716
-32.208534,3.389934,3.0363393
-32.2431,3.3910608,3.040708
-32.27114,3.4002078,3.0588288
-32.2994,3.408954,3.076295
-32.33543,3.408485,3.0780597
-32.37273,3.4067333,3.077683
-32.423985,3.3893876,3.0507703
-32.459183,3.3906624,3.0556736
-32.484776,3.4026144,3.078806
-32.513103,3.411406,3.0965853
-32.54128,3.4202645,3.1145086
-32.575825,3.4223406,3.120934
-32.613026,3.4217827,3.1229334
-32.66324,3.408164,3.1028185
-32.704353,3.4042401,3.0992312
-32.74928,3.3968344,3.0898037
-32.782417,3.4012995,3.1005554
-32.8127,3.4085536,3.1160698
-32.84003,3.418574,3.1362991
-32.882507,3.4143481,3.1324835
-32.937737,3.3986688,3.1093974
-32.973827,3.4009812,3.116765
-32.99954,3.4127114,3.140058
-33.029037,3.420958,3.1575103
-33.070026,3.4191384,3.1580572
-33.123894,3.4064646,3.1404176
-33.170395,3.4005628,3.1342525
-33.19939,3.4096742,3.153366
-33.22403,3.4223402,3.1784754
-33.259068,3.4263716,3.1891413
-33.2973,3.4279087,3.1956825
-33.34803,3.4196422,3.1858888
-33.378246,3.4278996,3.203792
-45.30497,0.9326072,0.27514315
-45.328907,0.98103666,0.37308788
-45.33812,1.033983,0.47740364
-45.34298,1.087966,0.58310795
-45.360115,1.1376617,0.68272924
-45.31483,1.2066588,0.8092246
-45.379654,1.2407598,0.887012
-45.329697,1.3101304,1.0136747
-45.410103,1.3392282,1.0846796
-45.310028,1.4225996,1.2301469
-45.35337,1.4624124,1.3158269
-45.37459,1.5086327,1.410265
-45.271847,1.5905106,1.5527077
-45.319252,1.6283956,1.6357055
-45.321766,1.6789403,1.7356691
-45.33437,1.7263451,1.8313923
-45.409927,1.7561321,1.9038897
-45.48144,1.7871943,1.9782968
-45.56352,1.8155603,2.0494251
-46.67962,1.6762075,1.9785218
-46.7134,1.7206345,2.0731354
-46.75116,1.7639551,2.166421
-47.013,1.751189,2.189866
-45.367073,2.2106428,2.7986479
-45.394867,2.2516124,2.885767
-45.411766,2.2951083,2.9760084
-45.437378,2.3363752,3.0635571
-45.46332,2.3774652,3.1509361
-45.50748,2.4142475,3.233254
-45.51149,2.4602149,3.3265014
-45.557343,2.4965386,3.4084663
-45.610245,2.5313334,3.4888268
-45.714844,2.554879,3.556563
-45.908527,2.5595605,3.6035051
-46.100334,2.5655663,3.652893
-46.37518,2.5550241,3.68501
-46.663696,2.5430431,3.7170038
-47.002323,2.5222917,3.7411032
-47.16294,2.5391567,3.8069754
-47.491554,2.523379,3.8395066
-48.905434,2.2969508,3.6563873
-48.90188,2.3516934,3.7675924
-48.90813,2.404322,3.8765664
-48.926174,2.454554,3.9831252
-48.9832,2.4974895,4.082634
-49.602222,2.4386063,4.085451
-50.331,2.3634114,4.0768576
-51.16116,2.2742867,4.0600963
-52.04042,2.1811068,4.0450234
-53.086887,2.064167,4.014801
-54.178047,1.9453454,3.9899101
-3.1962929,1.2629013,2.8032484
-4.4868336,1.4157078,2.8760877
-6.0013237,1.61587,3.0047522
-6.9147415,1.7143571,3.0366983
-7.026945,1.6688681,2.9222536
-7.0135,1.6000326,2.7834177
-8.708532,1.7961783,2.8713408
-9.180586,1.8270807,2.8474455
-9.407772,1.8114059,2.7736197
-9.374142,1.7437749,2.6417985
-9.393074,1.6864991,2.5216198
-7.555094,1.2406723,1.949606
-9.194126,1.4585733,2.0945082
-9.229376,1.3402197,1.8483071
-9.532045,1.2185652,1.5483017
-9.5493965,1.1590815,1.4253364
-9.523718,1.0891848,1.2892056
-9.556957,1.0328887,1.1701484
-9.483126,0.9504528,1.0176411
-17.129013,2.7651186,3.3132243
-17.474348,2.8098507,3.3423405
-17.731817,2.834381,3.3464746
-18.927315,3.0999122,3.6691256
-18.947664,3.0689697,3.6038384
-18.963898,3.0368583,3.5370188
-19.954063,3.2628727,3.8166356
-19.986893,3.238174,3.7618837
-20.175528,3.2558193,3.7647042
-20.292034,3.2546613,3.7425728
-20.374966,3.244718,3.7088013
-20.557108,3.263072,3.7143598
-20.695578,3.2699854,3.7047234
-20.728905,3.2472768,3.654286
-20.909977,3.267724,3.6643834
-20.962204,3.2511222,3.622982
-21.139832,3.2721558,3.6349506
-21.221268,3.2651052,3.6076517
-21.347704,3.2721748,3.6007562
-21.479996,3.2817268,3.5978417
-21.535671,3.2679954,3.561863
-21.732155,3.299049,3.5907512
-21.749329,3.2738247,3.5386639
-21.889244,3.288282,3.544383
-21.962984,3.2818346,3.5199928
-22.030684,3.2736912,3.4933276
-22.17912,3.2928917,3.5071278
-22.221771,3.277088,3.4696589
-22.366898,3.2965133,3.4845476
-22.40107,3.2783165,3.443893
-22.573378,3.3085887,3.4756932
-22.604998,3.290052,3.4349022
-22.758593,3.3152583,3.4599214
-22.79026,3.2972105,3.4201903
-22.887136,3.303069,3.4166756
-22.980425,3.3081198,3.4122105
-23.000778,3.2863266,3.3671618
-23.159658,3.3169365,3.4020953
-23.20551,3.3052871,3.3728337
-23.25393,3.294746,3.3453736
-23.429932,3.3343103,3.3951187
-23.440796,3.3097153,3.3463979
-23.53176,3.3169994,3.3469744
-23.618416,3.3230524,3.3458834
-23.6402,3.3030424,3.3045006
-23.74566,3.3175461,3.3169265
-23.860935,3.3368094,3.3370705
-23.834862,3.2970834,3.265153
-23.958275,3.320692,3.2925148
-24.048306,3.3307247,3.298852
-24.06512,3.30933,3.255867
-24.138596,3.3127954,3.2521691
-24.227978,3.3237514,3.260507
-24.2498,3.3047833,3.2215843
-24.31902,3.307323,3.216879
-24.425072,3.327205,3.239966
-24.459152,3.314283,3.210947
-24.531528,3.3194172,3.210868
-24.607378,3.326615,3.214261
-24.656324,3.3213096,3.1977525
-24.701597,3.3143883,3.1787415
-24.80832,3.3378391,3.2087655
-24.859135,3.3342757,3.1954331
-24.886066,3.3189013,3.1630998
-24.94916,3.3218527,3.1604905
-25.013498,3.3257842,3.1596036
-25.07763,3.3299663,3.1592612
-25.096386,3.3106666,3.12082
-25.203846,3.3383358,3.1589885
-25.244333,3.330906,3.140077
-25.28904,3.3258631,3.1251388
-25.340633,3.3247502,3.1167197
-25.394878,3.3253422,3.1111956
-25.4687,3.3371964,3.1242843
-25.509743,3.3309543,3.107747
-25.565573,3.3333127,3.105453
-25.621906,3.336265,3.1042466
-25.67079,3.3351552,3.0964336
-25.705809,3.3260245,3.075436
-25.733114,3.3122933,3.0468655
-25.823435,3.336785,3.081749
-25.870012,3.3351884,3.073482
-25.91525,3.3329577,3.064241
-25.92561,3.3089693,3.0188365
-25.985468,3.3161535,3.0254035
-26.076246,3.3436432,3.0659857
-26.124178,3.3441005,3.0615716
-26.130238,3.3171992,3.011454
-26.186201,3.3231633,3.0163774
-26.265507,3.3452425,3.0484314
-26.30521,3.3410323,3.036501
-26.342543,3.3353024,3.0220737
-26.401745,3.3449464,3.033575
-26.4694,3.361024,3.0560198
-26.499462,3.350774,3.0341978
-26.544056,3.3510242,3.0301352
-26.575447,3.341798,3.010131
-26.627874,3.34819,3.016582
-26.6879,3.3606694,3.0334287
-26.727013,3.357732,3.0242577
-26.755667,3.3468547,3.0016747
-26.789948,3.3403006,2.9864626
-26.837248,3.3440905,2.988873
-26.897202,3.3583233,3.0091214
-26.933975,3.3543024,2.998402
-26.957668,3.339611,2.969552
-27.005499,3.3448544,2.9747133
-27.044395,3.3428876,2.9676461
-27.096985,3.3527868,2.9809012
-27.138193,3.3532734,2.9781523
-27.171349,3.3468876,2.9637055
-27.21345,3.3484924,2.9629803
-27.252028,3.3471494,2.9572663
-27.306465,3.3604918,2.9767847
-27.34669,3.361194,2.9747024
-27.383057,3.3584692,2.966794
-27.428734,3.3647535,2.9744124
-27.47419,3.37119,2.9823627
-27.52033,3.378674,2.9921813
-27.55364,3.3737512,2.9807076
-27.58789,3.3698182,2.9709792
-27.632257,3.3763518,2.9793382
-27.66168,3.367662,2.9614978
-27.71946,3.3889503,2.9954429
-27.756828,3.3891044,2.9929729
-27.785809,3.3802629,2.9750042
-27.809193,3.3651,2.9461331
-27.843828,3.3623276,2.9387197
-27.883266,3.3651528,2.9410415
-27.93203,3.3791263,2.9627304
-27.971077,3.3822165,2.9656262
-27.998127,3.37112,2.9439692
-28.026148,3.3610063,2.9240432
-28.06216,3.360687,2.9211483
-28.105442,3.369758,2.9346094
-28.144848,3.3743157,2.9402876
-28.190819,3.387853,2.9616294
-28.206781,3.3618383,2.9142346
-28.236702,3.3540773,2.8986092
-28.271818,3.353422,2.8953857
-28.322807,3.3754117,2.9316516
-28.362463,3.382051,2.9412422
-28.397112,3.3817413,2.938768
-28.422304,3.3673604,2.9117923
-28.452736,3.3605964,2.898128
-28.48722,3.3600664,2.8953772
-28.538872,3.387157,2.9409003
-28.57528,3.3906627,2.9452987
-28.60814,3.388561,2.9399405
-28.633484,3.3736732,2.9122658
-28.668438,3.3750699,2.9130917
-28.700378,3.3713033,2.9049249
-28.745176,3.3910842,2.938004
-28.779745,3.3927903,2.9394999
-28.811241,3.3888292,2.9311118
-28.840364,3.3801408,2.9144754
-28.867767,3.3676686,2.8912377
-28.900309,3.3653789,2.8858733
-28.943031,3.3848925,2.9187727
-28.977985,3.388597,2.9240012
-29.011322,3.3890123,2.9235
-29.039629,3.3778937,2.9027967
-29.071411,3.3745964,2.8958483
-29.102463,3.3694391,2.8856673
-29.13779,3.3750472,2.894424
-29.17534,3.3870773,2.9144993
-29.20599,3.381206,2.9031715
-29.23813,3.3793085,2.8988566
-29.267477,3.3692036,2.8801513
-29.298967,3.365024,2.8718905
-29.3353,3.376068,2.89043
-29.37252,3.3911264,2.9160714
-29.402834,3.3837872,2.902361
