x,y,z
-25.891539,3.0919144,2.7074132
-25.95079,3.098356,2.7123952
-26.007994,3.1037714,2.7157946
-26.063189,3.108146,2.7175775
-26.119364,3.1135519,2.7211704
-26.176487,3.1199977,2.7265887
-26.232782,3.1262293,2.731758
-26.28999,3.1335077,2.738768
-26.34579,3.140146,2.7448187
-26.398521,3.1448603,2.747768
-26.448812,3.1480534,2.7482734
-26.49561,3.148852,2.7448716
-26.542852,3.1502345,2.7425203
-26.592697,3.1539264,2.7441077
-26.64129,3.1569242,2.744618
-26.689194,3.1596518,2.7447567
-26.73642,3.1621046,2.744513
-26.782457,3.1638424,2.743147
-26.827854,3.1652925,2.7413712
-26.873135,3.1668901,2.739915
-26.919315,3.1695142,2.7402573
-26.965857,3.1727312,2.7416701
-27.009258,3.173445,2.7389398
-27.052074,3.173852,2.7357574
-27.096266,3.1757278,2.7351198
-27.142746,3.1799781,2.7385583
-27.185717,3.1812463,2.7370296
-27.2267,3.180854,2.7327566
-27.269484,3.1823866,2.731801
-27.31262,3.1845045,2.7319012
-27.35427,3.1854005,2.7299933
-27.396282,3.186878,2.7291322
-27.437744,3.1880298,2.7277799
-27.479113,3.1893096,2.7267036
-27.51995,3.1902583,2.7251244
-27.5607,3.1913304,2.723813
-27.602625,3.1939042,2.7251148
-27.644424,3.196607,2.7266974
-27.684042,3.1971316,2.7246256
-27.72318,3.1973112,2.7220206
-27.763853,3.1994598,2.7228284
-27.803232,3.2003381,2.7215233
-27.842918,3.2017975,2.7212663
-27.883278,3.204308,2.722859
-27.923141,3.2064726,2.7239156
-27.96104,3.2064137,2.7212205
-27.998886,3.2064636,2.7187614
-28.036316,3.2061517,2.7157326
-28.07299,3.205004,2.711318
-28.111034,3.2058468,2.7103653
-28.149694,3.207745,2.7112718
-28.188255,3.2097554,2.7124228
-28.227713,3.213302,2.7162614
-28.265081,3.2141118,2.7154503
-28.302063,3.2145514,2.7140508
-28.338043,3.2136633,2.7104135
-28.374926,3.2143083,2.7094588
-28.412653,3.2164922,2.7111998
-28.448801,3.216387,2.709046
-28.485779,3.2178218,2.70959
-28.522964,3.2198422,2.7111893
-28.558943,3.2200396,2.7096934
-28.594875,3.2203367,2.7084112
-28.629425,3.2183158,2.703174
-28.667383,3.222677,2.708994
-28.702385,3.2218173,2.7058458
-28.73812,3.2225065,2.7054152
-28.774044,3.2237794,2.706036
-28.809427,3.224178,2.7051892
-28.845694,3.2266204,2.7079177
-28.87893,3.2228239,2.6999002
-28.916403,3.2283883,2.7081141
-28.951355,3.2286823,2.7072544
-28.986893,3.230538,2.709138
-29.021345,3.230041,2.7069917
-29.055584,3.2291446,2.704193
-29.088676,3.2253935,2.696487
-29.125145,3.23057,2.704288
-29.157545,3.225029,2.6935582
-29.193836,3.2303972,2.7017741
-29.22798,3.2299538,2.6999574
-29.263868,3.2350237,2.7077408
-29.297764,3.2342699,2.7054644
-29.331951,3.234592,2.7050934
-29.365116,3.2315438,2.698913
-29.39942,3.2325375,2.6997838
-29.434587,3.237086,2.7068648
-29.469748,3.2422242,2.7150102
-29.50347,3.2420056,2.7138948
-29.537182,3.2418745,2.7129693
-29.570879,3.241831,2.7122326
-29.605158,3.2448535,2.7168603
-29.63879,3.2449858,2.7165065
-29.672054,3.2432187,2.7128882
-29.705755,3.2440214,2.7137733
-29.739498,3.245409,2.715713
-29.773127,3.2463872,2.716978
-29.806534,3.245959,2.7158356
-29.839941,3.2456174,2.71488
-29.8736,3.2478514,2.71844
-29.906975,3.2476816,2.7178588
-29.940422,3.2485943,2.7191958
-29.973776,3.248597,2.718987
-30.0071,3.248187,2.718099
-30.040268,3.2438753,2.7104611
-30.073704,3.2456298,2.7134104
-30.107079,3.2464733,2.7148118
-30.140432,3.2474034,2.7163997
-30.173752,3.2494152,2.7199063
-30.207064,3.2495193,2.7201319
-30.240356,3.2502074,2.7214093
-30.27352,3.253472,2.7272053
-30.306866,3.2523377,2.7253861
-30.339962,3.2552748,2.7306848
-30.373318,3.254311,2.7292376
-30.406656,3.2539318,2.7288423
-30.440435,3.2496548,2.7217097
-30.473494,3.2524352,2.726881
-30.506687,3.2538068,2.729642
-30.53964,3.2567558,2.73518
-30.573463,3.253822,2.7305303
-30.606697,3.2549527,2.7329822
-30.640364,3.2536855,2.7313037
-30.6734,3.2559812,2.7358541
-30.7068,3.2563763,2.7371378
-30.740097,3.2573538,2.739472
-30.773268,3.2589126,2.7428522
-30.807499,3.2560983,2.7386746
-30.840298,3.259316,2.7450094
-30.873564,3.2606378,2.7480888
-30.907093,3.2610564,2.7496386
-30.940918,3.2605743,2.7496624
-30.975376,3.2582061,2.7464528
-31.009441,3.2574098,2.7460103
-31.04322,3.2576897,2.7474723
-31.077017,3.2580576,2.7491264
-31.111523,3.256546,2.74756
-31.145187,3.2575848,2.750454
-31.178848,3.2587123,2.753539
-31.213665,3.2569826,2.7517152
-31.248945,3.2543676,2.7483983
-31.283703,3.253318,2.7478333
-31.31767,3.2543173,2.750856
-31.351425,3.2558951,2.754919
-31.386728,3.2541456,2.7532644
-31.420963,3.2549293,2.7560334
-31.455208,3.2558045,2.7590003
-31.490665,3.2543397,2.7579637
-31.524958,3.2553997,2.761331
-31.560772,3.2536418,2.7598734
-31.59589,3.2534356,2.761138
-31.631311,3.2528424,2.761776
-31.667862,3.250414,2.7592912
-31.702026,3.2524283,2.764515
-31.736744,3.2535706,2.7682748
-31.772621,3.2528834,2.7689233
-31.808556,3.2522953,2.7697892
-31.844244,3.2522874,2.771696
-31.879057,3.253813,2.776288
-31.916054,3.252089,2.7753305
-31.951866,3.2523785,2.777883
-31.989326,3.2503867,2.7765598
-32.026554,3.2489781,2.776287
-32.062187,3.2500489,2.7803183
-32.098183,3.2507439,2.7837505
-32.137665,3.246813,2.7792926
-32.17588,3.2448878,2.7783275
-32.210983,3.247312,2.7848668
-32.248253,3.2470121,2.7867837
-32.285576,3.2468197,2.7889328
-32.32408,3.2453306,2.7889128
-32.36381,3.2425537,2.7867422
-32.400578,3.2436252,2.791204
-32.43972,3.2420106,2.7911267
-32.48054,3.238657,2.7881331
-32.5215,3.2354283,2.7854114
-32.563404,3.231402,2.7813883
-32.60836,3.2242808,2.7721515
-32.66862,3.2007523,2.735042
-46.714676,0.8852906,0.42689228
-46.690083,0.9511056,0.5511937
-46.7277,0.9976857,0.64897823
-46.723473,1.0565135,0.7634802
-46.645634,1.1364644,0.9064512
-46.632095,1.1968818,1.022685
-46.601334,1.2617474,1.1447153
-46.68351,1.2941127,1.2232308
-46.65638,1.3571835,1.3426542
-46.66825,1.4089496,1.4469767
-46.69848,1.4554355,1.5443425
-46.614574,1.5325077,1.6815014
-46.577065,1.5963461,1.8010902
-46.577137,1.6497307,1.9069972
-46.685677,1.7277412,2.082127
-48.074394,1.5986643,2.0844135
-48.12076,1.64343,2.182756
-46.771,2.0196958,2.681336
-46.5782,2.116168,2.8383107
-46.63793,2.1527708,2.923233
-46.700912,2.1887276,3.0076118
-46.729366,2.232582,3.1014118
-46.820625,2.262395,3.1790996
-46.869736,2.301742,3.2680473
-47.016212,2.3200834,3.3334846
-47.15677,2.3403134,3.401732
-47.426895,2.333893,3.4412885
-47.715405,2.3250136,3.47958
-48.05494,2.3071632,3.5097551
-47.981354,2.3742838,3.6319685
-48.085503,2.4054532,3.7160206
-48.18633,2.4376452,3.8016467
-48.362885,2.4555948,3.8732934
-48.518944,2.4782283,3.9506025
-48.7221,2.4927254,4.020753
-49.87822,2.3326294,3.922843
-49.907784,2.383189,4.0326777
-49.932724,2.4345195,4.1433296
-50.64366,2.3652246,4.143465
-51.474506,2.278967,4.1329193
-52.348595,2.1897757,4.1252127
-53.299187,2.0924249,4.1162844
-54.357746,1.9823511,4.1030865
-4.9089737,1.9138076,3.8275185
-4.7379055,1.8159707,3.656835
-4.919359,1.77549,3.5384336
-5.052473,1.6573386,3.2686462
-5.155279,1.6047506,3.1406116
-5.186096,1.5397036,3.0005803
-5.2004337,1.4715848,2.857491
-5.2099743,1.4023848,2.7132597
-5.2263374,1.3342152,2.5700617
-5.256235,1.2683973,2.4293585
-5.268814,1.1991282,2.2849784
-5.5024414,1.1726134,2.1874485
-5.3181686,1.0646453,2.0006037
-5.3108234,0.99072194,1.8509364
-5.3237114,0.9205358,1.7053676
-5.3233356,0.8473525,1.5563045
-5.305023,0.7700691,1.4023547
-5.3848267,0.7131369,1.272109
-5.4028397,0.64302707,1.1265049
-5.615015,0.6150081,1.0313182
-5.581028,0.45894337,0.7215738
-8.218298,0.9832578,1.3081989
-8.830822,1.0570896,1.3477516
-9.198153,1.0771155,1.3227005
-9.510635,1.0860913,1.2853003
-9.740641,1.0768943,1.2261186
-9.971497,1.0689833,1.1695242
-10.074184,1.0306509,1.0746012
-10.21162,1.0012531,0.99164295
-10.443565,0.9961958,0.9410343
-10.644026,0.9842038,0.8821993
-11.782587,1.2157583,1.1469998
-11.1768055,0.99749064,0.81650877
-12.565924,1.3038573,1.1874561
-12.513746,1.2320566,1.0536027
-12.520039,1.1754317,0.94003963
-12.463766,1.1012604,0.80244684
-13.186207,1.2431438,0.9611187
-13.159975,1.1785274,0.837636
-13.1671715,1.1228814,0.7263961
-14.476468,1.4427009,1.138524
-14.4779625,1.3891742,1.03268
-14.56138,1.3594906,0.9603133
-14.556368,1.3035607,0.8510599
-15.387892,1.500288,1.1006112
-14.516461,1.1812658,0.61733675
-14.15813,1.0145183,0.34889603
-15.877567,1.4439244,0.91013384
-15.85186,1.3835866,0.796329
-15.774263,1.3058331,0.6569762
-16.95366,1.6392632,1.1184349
-16.970123,1.5954084,1.0303583
-16.270386,1.3110623,0.5880308
-16.386688,1.2978024,0.54386425
-16.445923,1.2654216,0.4716549
-16.279743,1.1548641,0.28320074
-18.016476,1.7100842,1.0883942
-17.544827,1.495137,0.7454815
-17.75085,1.5191059,0.7600107
-17.818157,1.4939752,0.70111895
-17.8583,1.4589891,0.6274643
-18.980064,1.7790749,1.0738058
-18.887535,1.6977458,0.9313054
-18.802326,1.6180198,0.7908802
-18.679527,1.5225706,0.6259737
-18.82579,1.531004,0.6204338
-18.864113,1.4974842,0.55056095
-18.649424,1.3625424,0.32385302
-18.672306,1.3213811,0.24181461
-25.534872,3.063178,2.609449
-25.622791,3.085361,2.6405277
-25.70758,3.1062999,2.6697097
-25.758957,3.106217,2.6639233
-25.816986,3.1107626,2.6659713
-25.874804,3.115519,2.668476
-25.937843,3.1241555,2.6775913
-25.995182,3.1293433,2.6810312
-26.050508,3.1335053,2.6828475
-26.107996,3.1395144,2.687868
-26.160563,3.1424193,2.6877594
-26.219923,3.1504934,2.6964564
-26.280144,3.1596193,2.7070332
-26.3372,3.1668754,2.7145567
-26.390034,3.1713982,2.7175555
-26.439867,3.1739984,2.7173872
-26.486773,3.1746552,2.714006
-26.533573,3.1754658,2.710959
-26.582443,3.178133,2.7111359
-26.629541,3.179684,2.7094932
-26.675982,3.1809618,2.7074585
-26.72495,3.1845407,2.7094126
-26.771128,3.186129,2.7080512
-26.817184,3.1878684,2.7070174
-26.862087,3.1888902,2.7048283
-26.906883,3.1900563,2.702952
-26.95308,3.1926754,2.7036257
-26.99714,3.1936948,2.701631
-27.039127,3.1930978,2.6969333
-27.082514,3.1939511,2.694779
-27.128212,3.1971478,2.6967049
-27.172802,3.1996078,2.6974335
-27.218199,3.203098,2.6999955
-27.257849,3.2013938,2.6936975
-27.301609,3.2038238,2.6945615
-27.34342,3.2046015,2.6926441
-27.387386,3.207751,2.6948686
-27.42588,3.205643,2.6880946
-27.469177,3.208606,2.690114
-27.508871,3.2080884,2.6861892
-27.55193,3.2113137,2.688778
-27.59189,3.211494,2.6861658
-27.633862,3.2140696,2.687746
-27.676939,3.2181437,2.6919742
-27.715801,3.2177784,2.688579
-27.755806,3.2189014,2.687811
-27.79612,3.220603,2.6880975
-27.836329,3.2224257,2.6886454
-27.873371,3.2206764,2.6830506
-27.914547,3.2241185,2.6865091
-27.95298,3.224441,2.6846056
-27.991348,3.2248752,2.6829443
-28.02929,3.2249548,2.6807141
-28.066465,3.2242103,2.6770973
-28.103954,3.2240374,2.674521
-28.142767,3.2258425,2.6754322
-28.182156,3.2286987,2.6782207
-28.220097,3.2297916,2.6779876
-28.258287,3.2314637,2.6788096
-28.295109,3.2313592,2.6765819
-28.332197,3.2318304,2.6754007
-28.370459,3.2342973,2.6777468
-28.4068,3.234032,2.6753693
-28.443398,3.234341,2.674037
-28.481396,3.2371285,2.6770782
-28.518997,3.239549,2.6795225
-28.553705,3.2373078,2.6738625
-28.589521,3.237069,2.6717434
-28.625834,3.237884,2.6715078
-28.662348,3.2392783,2.672328
-28.698023,3.2393348,2.6708498
-28.734158,3.2404485,2.6712623
-28.770712,3.2426233,2.673575
-28.806702,3.2439363,2.6744194
-28.842161,3.2443838,2.6737885
-28.87667,3.2429965,2.6699796
-28.9114,3.2421834,2.6672163
-28.946545,3.2424302,2.6663494
-28.983105,3.2461615,2.671636
-29.019138,3.249024,2.6754398
-29.0537,3.2485876,2.6734924
-29.086723,3.2443557,2.6649184
-29.12203,3.2460437,2.6667752
-29.157267,3.2478263,2.668839
-29.19209,3.248729,2.669394
-29.226698,3.2492363,2.6692934
-29.261267,3.2498355,2.6693907
-29.295492,3.2495484,2.6679688
-29.33029,3.2513068,2.670179
-29.364456,3.2512004,2.669147
-29.398605,3.2511837,2.6683092
-29.43325,3.253215,2.671113
-29.467825,3.2553382,2.6741152
-29.502682,3.2590253,2.6799064
-29.536537,3.258877,2.6789846
-29.570381,3.2588172,2.6782546
-29.604704,3.2613025,2.6820397
-29.638393,3.2609272,2.6808262
-29.672077,3.260639,2.6798015
-29.705917,3.2614226,2.6806998
-29.739574,3.2613087,2.6800523
-29.773636,3.2642376,2.6848001
-29.807175,3.2638063,2.6836648
-29.840376,3.260504,2.6775064
-29.874155,3.262216,2.6802168
-29.90788,3.2640157,2.6831183
-29.941519,3.2654095,2.685339
-29.974922,3.2639296,2.6825318
-30.008486,3.2650025,2.6842575
-30.042,3.265669,2.6853023
-30.075478,3.2659278,2.6856627
-30.108955,3.2667663,2.68708
-30.142416,3.269665,2.6921635
-30.175825,3.270182,2.6930842
-30.209255,3.2693043,2.6915817
-30.24269,3.269006,2.6911345
-30.276064,3.2702737,2.6934834
-30.309526,3.2696545,2.6925402
-30.342865,3.2710938,2.6952615
-30.376379,3.2701526,2.6938214
-30.409922,3.2692986,2.6925702
-30.443384,3.2695162,2.693242
-30.476847,3.2698202,2.6941018
-30.510376,3.269718,2.6942806
-30.54406,3.2687175,2.6929126
-30.577309,3.2707574,2.6969347
-30.610939,3.2704227,2.6968088
-30.644318,3.2716503,2.699471
-30.677677,3.2729635,2.7023177
-30.711119,3.2738707,2.704486
-30.744768,3.2738826,2.705112
-30.778547,3.273491,2.7050638
-30.811266,3.2776015,2.7129745
-30.846052,3.2734616,2.7064018
-30.87817,3.2797017,2.7181282
-30.91265,3.2772105,2.71453
-30.94634,3.277746,2.7162914
-30.98034,3.277392,2.7165246
-31.014837,3.2756617,2.714376
-31.048422,3.2769518,2.7175727
-31.08318,3.2749162,2.7149606
-31.117136,3.275409,2.7168303
-31.151829,3.274045,2.7154746
-31.184523,3.2781205,2.7237096
-31.220036,3.2749941,2.7193346
-31.25406,3.2758465,2.721983
-31.288914,3.2748497,2.721424
-31.322973,3.2758837,2.7244663
-31.358557,3.273622,2.721765
-31.39378,3.2724245,2.7209706
-31.42929,3.2708402,2.7195368
-31.4637,3.271762,2.722537
-31.4986,3.2718124,2.7240477
-31.53378,3.2714767,2.7249217
-31.568748,3.2717168,2.7268434
-31.603231,3.273009,2.7306466
-31.638512,3.2729583,2.7321377
-31.67491,3.2710922,2.730494
-31.71001,3.2717133,2.733243
-31.745419,3.2719533,2.7353654
-31.781147,3.2718148,2.736867
-31.81604,3.2731996,2.7410703
-31.851837,3.2732558,2.7429938
-31.887676,3.2734113,2.7451324
-31.923243,3.2741385,2.748311
-31.960104,3.273076,2.7484102
-31.996712,3.2725892,2.749557
-32.03338,3.272206,2.7509289
-32.069435,3.2728648,2.7541585
-32.105858,3.2731557,2.7567916
-32.14371,3.2716782,2.7563915
-32.1827,3.2689116,2.7537956
-32.22038,3.2681231,2.7546892
-32.257767,3.2679083,2.7566257
-32.29558,3.267337,2.75799
-32.333084,3.267338,2.760394
-32.371407,3.2665231,2.7614312
-32.409412,3.2662818,2.7635107
-32.449047,3.264311,2.7626414
-32.489185,3.2620003,2.7612352
-32.52984,3.2593534,2.7592998
-32.576324,3.2504346,2.7465682
-32.620197,3.2448606,2.7396889
-32.682285,3.2198727,2.699326
-46.702774,0.9309716,0.27686024
-46.65161,1.0047708,0.41344547
-46.69167,1.0506802,0.5103817
-46.68553,1.1100261,0.62624073
-46.64253,1.2362037,0.86798286
-46.63431,1.2947233,0.9822488
-46.68202,1.3371468,1.0742302
-46.663918,1.397728,1.1911659
-46.663895,1.4528816,1.3005376
-46.703957,1.4968534,1.3946753
-46.662125,1.5625827,1.5181675
-46.588997,1.6359382,1.6515884
-46.565105,1.6956706,1.7664838
-46.583492,1.744056,1.8661852
-46.60206,1.7921925,1.965548
-46.670753,1.8275735,2.0482683
-46.72876,1.8657248,2.1347895
-48.07392,1.7018986,2.042863
-48.11745,1.7473533,2.1420164
-46.711517,2.1286833,2.660081
-46.705444,2.1809614,2.764419
-46.638283,2.2467127,2.885158
-46.65973,2.2920709,2.9806976
-46.67293,2.33911,3.0782824
-46.727123,2.3770998,3.1650553
-46.851036,2.4002764,3.2345266
-46.935673,2.432219,3.3147955
-47.102802,2.447298,3.3759193
-47.24306,2.468626,3.4449863
-47.52849,2.4612627,3.4822764
-47.817997,2.454525,3.5217247
-47.921513,2.4856768,3.6044827
-48.02941,2.5163534,3.6872125
-48.18699,2.5379858,3.760744
-48.305714,2.5675778,3.843523
-48.44143,2.5944982,3.9241138
-48.614532,2.615191,3.9990125
-49.88351,2.4408474,3.8774743
-49.90432,2.4929614,3.988865
-49.926296,2.5447717,4.0999975
-50.456543,2.5099714,4.1280527
-51.161827,2.4486184,4.134375
-51.932495,2.3802176,4.138631
-52.92114,2.2805982,4.119644
-53.921074,2.1844347,4.1101546
-54.98217,2.084,4.1036177
-4.753853,2.038599,3.7391233
-4.4568233,1.9217067,3.5479264
-4.903116,1.9219854,3.469983
-5.010191,1.8692153,3.341488
-5.101473,1.8141699,3.2112098
-5.157587,1.7534468,3.0754766
-5.197115,1.6899312,2.9370232
-5.2085,1.6214654,2.7933931
-5.2199306,1.552793,2.6495023
-5.2285233,1.4833899,2.5047674
-5.2458553,1.4153428,2.3614907
-5.2815323,1.3505015,2.22183
-5.4431324,1.3092947,2.1093287
-5.281849,1.206922,1.9266424
-5.266863,1.1317179,1.7748876
-5.3371735,1.072921,1.6424031
-5.258459,0.98438025,1.4745159
-7.1011353,1.079483,1.3578105
-7.5620613,1.1093276,1.3413763
-7.974968,1.1311367,1.3167815
-8.112322,1.0941863,1.218883
-7.9983997,1.0014086,1.0495892
-9.3920555,1.2500699,1.322885
-9.435877,1.1961389,1.2065086
-9.852728,1.2291832,1.204793
-9.8628235,1.1682782,1.0801516
-9.927717,1.1202104,0.9725976
-9.980322,1.0692048,0.86126757
-10.229563,1.066524,0.8154383
-11.623312,1.3501983,1.160388
-9.301369,0.70479155,0.23844385
-10.122942,0.84744,0.39266968
-12.666094,1.4406021,1.1742921
-12.521458,1.3455298,1.0070629
-12.46129,1.2715626,0.86873484
-12.468609,1.2149568,0.75452566
-13.141657,1.3391175,0.8960848
-13.158791,1.2867782,0.7890873
-14.329679,1.5557942,1.141345
-14.378229,1.5157044,1.0540528
-14.099276,1.3820486,0.8318825
-14.568877,1.4624496,0.9187646
-14.545143,1.4014194,0.80144787
-15.487856,1.6259046,1.1012449
-15.048676,1.3891654,0.70021963
-15.845238,1.5279598,0.85349894
-15.884059,1.4882526,0.7694454
-16.828197,1.7358885,1.1153626
-16.867668,1.6994898,1.0379257
-16.439842,1.4081247,0.52957726
-16.474998,1.367795,0.44546986
-17.340015,1.6095161,0.7920866
-18.110508,1.8249784,1.1012211
-17.778149,1.6624136,0.831933
-17.783459,1.6156139,0.73991203
-17.83809,1.5859799,0.67436314
-18.836346,1.8958142,1.135129
-18.858192,1.8120604,0.9692831
-18.938908,1.7956538,0.9261155
-18.74358,1.6756644,0.7207937
-18.675594,1.6020353,0.5876446
-18.84874,1.6201019,0.5986576
-18.709785,1.5178399,0.42010164
-25.522947,3.0974922,2.5778975
-25.60659,3.1164112,2.604467
-25.684668,3.1325026,2.626388
-25.739326,3.1341934,2.6239405
-25.799982,3.140069,2.6287146
-25.858557,3.1449661,2.6319208
-25.916302,3.1496732,2.634903
-25.970827,3.1525702,2.6348853
-26.025772,3.1560645,2.6359768
-26.08525,3.1630094,2.6430683
-26.13802,3.1656783,2.6429272
-26.192364,3.1697614,2.6452956
-26.251112,3.177327,2.6537333
-26.306726,3.1830425,2.6590862
-26.362669,3.1893709,2.6655812
-26.409395,3.1892457,2.6610498
-26.477684,3.205547,2.684908
-26.520176,3.2028522,2.6761007
-26.56809,3.20449,2.6748343
-26.614794,3.2054443,2.6724582
-26.661385,3.2065513,2.670412
-26.708916,3.20866,2.6701665
-26.75631,3.210926,2.6702638
-26.805115,3.2146292,2.6729198
-26.849634,3.2150702,2.6699853
-26.893547,3.2152238,2.6666136
-26.938885,3.2168083,2.6657887
-26.984098,3.21854,2.6652813
-27.026726,3.218249,2.6613169
-27.069277,3.2180905,2.6576385
-27.11561,3.2215517,2.660325
-27.160349,3.223852,2.6610522
-27.202595,3.2241035,2.6582627
-27.246624,3.2262437,2.6588278
-27.288681,3.2267601,2.6566124
-27.33065,3.2274058,2.6546774
-27.37118,3.226851,2.6506958
-27.41565,3.2304156,2.6539788
-27.452063,3.2261045,2.6435199
-27.493275,3.226806,2.641891
-27.53269,3.2258408,2.637391
-27.57797,3.2312744,2.6441693
-27.617634,3.2310052,2.640993
-27.657646,3.231304,2.6388617
-27.698803,3.233077,2.639371
-27.739048,3.2340689,2.638557
-27.777237,3.2329102,2.6340075
-27.816166,3.232771,2.6312962
-27.858484,3.236848,2.6360617
-27.896868,3.2364864,2.6330533
-27.935944,3.2371502,2.6318998
-27.976042,3.2393048,2.633422
-28.012785,3.2374396,2.6278958
-28.049162,3.235216,2.6217775
-28.088331,3.236785,2.6224003
-28.128777,3.240318,2.6265411
-28.166382,3.2402647,2.6243868
-28.205925,3.243102,2.6273904
-28.245996,3.2469866,2.6322918
-28.28304,3.2467961,2.6300273
-28.32035,3.2471762,2.6288128
-28.356678,3.2462578,2.6253395
-28.393585,3.246376,2.623744
-28.431927,3.2489421,2.6265278
-28.469284,3.2502084,2.6270509
-28.506279,3.2511091,2.626966
-28.545162,3.255412,2.6329603
-28.582253,3.2569954,2.634171
-28.617657,3.255846,2.6305676
-28.654356,3.2571592,2.6313758
-28.688938,3.254781,2.6256652
-28.724037,3.2534432,2.6218376
-28.759863,3.253625,2.6207495
-28.795645,3.2539036,2.6198711
-28.830458,3.2523732,2.6158123
-28.867077,3.2547514,2.6187453
-28.900965,3.2514977,2.6116915
-28.93982,3.2593317,2.6244164
-28.975119,3.2596176,2.6237383
-29.008558,3.2556827,2.6155782
-29.044025,3.2566319,2.6161542
-29.079058,3.2567155,2.6152234
-29.115717,3.2612195,2.62221
-29.152588,3.2667873,2.6311321
-29.1874,3.267158,2.6308246
-29.219025,3.2584593,2.6143723
-29.254839,3.2619014,2.6196122
-29.290234,3.2644744,2.6233387
-29.32421,3.2627916,2.6195054
-29.357637,3.259262,2.6124082
-29.393032,3.2625945,2.6175957
-29.426893,3.2606928,2.6134725
-29.460783,3.2588782,2.6095376
-29.496346,3.263942,2.6179233
-29.532654,3.2729847,2.633453
-29.56703,3.2743552,2.6353135
-29.600761,3.2729003,2.6321592
-29.634605,3.2720187,2.6300626
-29.669329,3.2760882,2.636848
-29.703287,3.2763557,2.6368728
-29.736626,3.2728174,2.6301265
-29.770456,3.2722852,2.628788
-29.804474,3.2733016,2.630251
-29.838345,3.2734325,2.6301637
-29.87306,3.2819364,2.6450825
-29.906712,3.2812681,2.643633
-29.940334,3.2801988,2.6414995
-29.973944,3.2787275,2.6386795
-30.007635,3.2783182,2.6377926
-30.041414,3.2799478,2.640585
-30.075119,3.2806878,2.641818
-30.108795,3.2810261,2.6423674
-30.142471,3.2848675,2.6492147
-30.176033,3.2907481,2.6597404
-30.209639,3.28793,2.6547418
-30.243397,3.2827592,2.6455684
-30.277037,3.2830424,2.6461825
-30.310612,3.2843874,2.6487288
-30.344053,3.2872822,2.654079
-30.37763,3.2878244,2.6552544
-30.411484,3.2855265,2.6513839
-30.445402,3.2833176,2.647706
-30.478905,3.2850943,2.6511874
-30.512371,3.2869568,2.6548553
-30.545942,3.287932,2.656969
-30.57981,3.2870455,2.6557884
-30.613794,3.2857602,2.6539278
-30.646742,3.2903988,2.6626892
-30.681124,3.287345,2.657734
-30.71447,3.2897239,2.6625218
-30.747879,3.2917032,2.666628
-30.781826,3.2913418,2.6665854
-30.815678,3.291554,2.6676006
-30.849161,3.2933073,2.6714025
-30.882616,3.2951472,2.6753912
-30.916323,3.2961047,2.6778393
-30.950026,3.2971501,2.6804752
-30.984776,3.2949,2.6772637
-31.018036,3.2975705,2.68287
-31.052881,3.295503,2.6800532
-31.086786,3.29642,2.682598
-31.121042,3.296463,2.683617
-31.155502,3.2961144,2.6839728
-31.190186,3.2953773,2.683671
-31.224333,3.2961729,2.6861372
-31.259882,3.2937005,2.6828156
-31.29306,3.2970748,2.6899462
-31.328083,3.2962267,2.689589
-31.36294,3.295951,2.690288
-31.397612,3.296246,2.6920395
-31.432766,3.29568,2.6922946
-31.467264,3.2966378,2.6952982
-31.502974,3.2953095,2.6942692
-31.538752,3.2940788,2.6934547
-31.573586,3.2948442,2.6962247
-31.607145,3.2980719,2.7034082
-31.642776,3.2976015,2.7040563
-31.678997,3.2962844,2.703238
-31.714739,3.2960112,2.7043128
-31.750809,3.2953656,2.7047653
-31.786362,3.2957602,2.7071037
-31.821945,3.2962525,2.7096524
-31.858158,3.2959046,2.7107506
-31.893202,3.297529,2.7153845
-31.929184,3.2978473,2.7177424
-31.966154,3.296866,2.7178378
-32.003197,3.2959895,2.7181606
-32.039978,3.2956836,2.7195344
-32.075813,3.2968724,2.7235942
-32.11099,3.299086,2.7295055
-32.147884,3.2990856,2.7315416
-32.18765,3.2954993,2.7272868
-32.225407,3.294795,2.7281675
-32.26215,3.2955775,2.731717
-32.3004,3.29463,2.7322564
-32.338352,3.2942524,2.7338448
-32.37599,3.2944405,2.7364764
-32.414455,3.2938266,2.737739
-32.454556,3.291507,2.736045
-32.49596,3.2879488,2.7322202
-32.535904,3.286328,2.7318559
-32.58534,3.2744455,2.713502
-32.628506,3.2699382,2.7081757
-32.69155,3.2444503,2.6660671
-46.752853,1.0223103,0.20399904
-46.643265,1.1128211,0.36633873
-46.627243,1.1749408,0.48694563
-46.65928,1.2227359,0.5866842
-46.66097,1.3353024,0.810554
-46.63388,1.398761,0.9325819
-46.66263,1.4463754,1.0319281
-46.64174,1.5072417,1.1500015
-46.663437,1.5562334,1.2512217
-46.665253,1.6102622,1.3594737
-46.613243,1.6779823,1.4866657
-46.61778,1.7304766,1.5925155
-46.59211,1.7903438,1.7084227
-46.596756,1.8421173,1.8130817
-46.59413,1.8954043,1.9197254
-46.683178,1.9259577,1.9956026
-46.74031,1.9644704,2.0824394
-47.76113,1.8834112,2.0858335
-48.07823,1.8653286,2.1014628
-48.121025,1.9108171,2.2006464
-46.71897,2.2779703,2.712698
-46.671593,2.3388047,2.8282957
-46.645897,2.3943954,2.9369683
-46.685566,2.4356182,3.0274582
-46.689556,2.484344,3.1273603
-46.835297,2.5034232,3.1907744
-46.89614,2.540501,3.276723
-47.040382,2.560885,3.3427792
-47.24173,2.5705376,3.3966827
-47.45741,2.5783327,3.449339
-47.724876,2.5771708,3.492579
-47.92336,2.5904431,3.5537758
-48.02554,2.622657,3.6375136
-48.099342,2.6604664,3.728014
-48.208324,2.6921015,3.8119807
-48.38745,2.7116256,3.8832111
-48.513107,2.7413511,3.9663734
-48.728546,2.7560658,4.034215
-49.87118,2.614154,3.9393878
-49.921326,2.6611307,4.0455008
-49.94644,2.7122943,4.1560626
-50.738167,2.6394944,4.143647
-51.51745,2.5728683,4.1420236
-52.447395,2.4868379,4.126671
-53.42473,2.3984666,4.1149526
-54.46126,2.3063467,4.106035
-5.1482353,2.3129883,3.870079
-4.814972,2.1947207,3.676836
-4.583233,2.0897841,3.4951258
-4.8929024,2.0669289,3.3972063
-5.0361137,2.0193796,3.2748685
-5.138111,1.9657857,3.1467462
-5.174759,1.9018698,3.0078254
-5.195839,1.8353224,2.8660932
-5.220806,1.7692823,2.7249508
-5.222555,1.6991348,2.5791607
-5.2417774,1.6317611,2.4364886
-5.2417355,1.5608037,2.2896228
-5.49514,1.5351129,2.1962857
-5.372753,1.4419494,2.023241
-5.2921696,1.3555331,1.8576746
-5.2857876,1.2823195,1.7077885
-5.3599186,1.2241528,1.5763946
-4.2278805,0.93180513,1.1525106
-4.8053474,0.96955466,1.139844
-6.709774,1.2759178,1.4718423
-6.7042828,1.2053263,1.3279839
-7.070366,1.2109375,1.2827582
-5.677191,0.85060024,0.7608495
-7.7399006,1.214431,1.1866236
-7.8808556,1.1093335,0.9505801
-9.376564,1.3721433,1.2576289
-9.356825,1.3039246,1.12181
-9.92054,1.3678858,1.1663141
-9.96307,1.314887,1.0522556
-9.361725,1.1114125,0.73012495
-9.081192,0.97974706,0.50544786
-11.42551,1.4755554,1.1581101
-10.18894,1.1155488,0.61460686
-12.554955,1.4637194,0.96674776
-12.491941,1.3897882,0.82722855
-13.169754,1.5095499,0.96887684
-13.14794,1.447453,0.847353
-14.222525,1.6799521,1.1578236
-14.285067,1.6434937,1.0757098
-14.46084,1.5849245,0.93322515
-14.545236,1.5550027,0.8613663
-14.58555,1.5126734,0.77112293
-15.646303,1.7658277,1.1255255
-15.897335,1.6877437,0.9347682
-15.846057,1.6211541,0.8096342
-16.708487,1.8347111,1.1136065
-16.775482,1.8067122,1.0488124
-16.379625,1.5311213,0.5577183
-16.44336,1.5002618,0.48808575
-17.392233,1.7126479,0.77879
-18.188177,1.9321129,1.1042557
-18.17,1.8795614,1.0032568
-17.827631,1.7145927,0.7244239
-17.848621,1.6733494,0.6406212
-19.00584,1.9882588,1.1062708
-18.8722,1.8949032,0.94081306
-18.86972,1.8479433,0.84921455
-18.653297,1.7215343,0.6299739
-18.750557,1.7100384,0.59500074
-18.846207,1.698302,0.55984735
-18.678888,1.5865004,0.36308146
-18.675846,1.5362434,0.26552534
-25.452919,3.0970232,2.4859262
-25.52639,3.1087234,2.500906
-25.619434,3.1332085,2.5381565
-25.685741,3.1416106,2.547688
-25.74804,3.1479008,2.5536637
-25.809458,3.1540267,2.5594525
-25.865772,3.1572046,2.5602117
-25.921898,3.1605828,2.5614052
-25.981403,3.1665597,2.5672126
-26.0318,3.1667318,2.5629864
-26.094376,3.1755366,2.5739036
-26.154888,3.1833608,2.5832043
-26.209349,3.1873472,2.5858874
-26.261894,3.1903033,2.5868464
-26.310308,3.1905782,2.5831857
-26.374866,3.2029145,2.6007361
-26.417364,3.1994336,2.5906348
-26.486258,3.215918,2.6156473
-26.525757,3.210693,2.6026149
-26.57069,3.2097433,2.5971498
-26.620365,3.2126932,2.5986075
-26.662457,3.2099478,2.5901008
-26.716064,3.2165737,2.598166
-26.766819,3.2212796,2.60292
-26.806059,3.2168572,2.5916276
-26.858036,3.2231517,2.5993152
-26.903227,3.2240944,2.597612
-26.951792,3.2281685,2.6015072
-26.99623,3.2289805,2.5996914
-27.014723,3.2071843,2.5578837
-27.084303,3.2305956,2.596211
-27.11984,3.2240562,2.581522
-27.15546,3.217612,2.5670385
-27.196753,3.2164721,2.5620131
-27.2426,3.2198098,2.564992
-27.293291,3.2280955,2.576827
-27.340551,3.2334902,2.5835848
-27.379158,3.2307026,2.5758376
-27.420832,3.231105,2.5738144
-27.463287,3.232515,2.5736365
-27.50478,3.2331715,2.572165
-27.542385,3.229964,2.563848
-27.582083,3.2290833,2.5597234
-27.619675,3.2260911,2.5518746
-27.658087,3.2240975,2.5458484
-27.794579,3.2434924,2.5734243
-27.962955,3.258522,2.591537
-28.001324,3.2583976,2.589223
-28.0407,3.2597477,2.5895963
-28.116087,3.2586794,2.583704
-28.158268,3.2644858,2.5922065
-28.22606,3.2539642,2.5695639
-28.266954,3.2587337,2.5763278
-28.410093,3.2498152,2.5534163
-28.445238,3.2467813,2.5463266
-28.484686,3.2508163,2.552009
-28.525103,3.2568293,2.5612998
-28.566141,3.2643604,2.573372
-28.719692,3.2802205,2.5963488
-28.753641,3.2765884,2.5884738
-28.784313,3.2664568,2.5688906
-28.885109,3.2525446,2.54009
-28.962757,3.266574,2.5631843
-28.99268,3.2536159,2.5386653
-29.064238,3.2549667,2.53904
-29.139334,3.2666926,2.558333
-29.171803,3.2593763,2.5441732
-29.20675,3.2588136,2.5422716
-29.279835,3.26799,2.557229
-29.38588,3.2736428,2.5652285
-29.419876,3.271244,2.5601978
-29.456013,3.2770808,2.570127
-29.171976,1.975584,0.20976305
-29.558773,3.2740455,2.5628653
-29.624458,3.2577229,2.5322433
-29.693575,3.257604,2.5311337
-29.76449,3.270843,2.55439
-29.79949,3.2761586,2.5637007
-29.902594,3.2815645,2.5726972
-29.936914,3.284348,2.57754
-30.005297,3.2896993,2.586928
-30.039524,3.2961247,2.598476
-30.036427,1.9859526,0.22015285
-30.107443,3.3068287,2.6177669
-30.137451,2.000587,0.24660349
-30.187958,1.9798708,0.20901012
-30.20845,3.3155756,2.633667
-30.242054,3.3162518,2.6349616
-30.276222,3.3049533,2.6145525
-30.3785,3.2942631,2.5956311
-30.412481,3.2939298,2.5952492
-30.589106,2.0132413,0.27131557
-30.481262,3.287263,2.5836892
-30.692366,1.9936025,0.23656845
-30.549904,3.284326,2.5790238
-30.584137,3.2839532,2.5787272
-30.61755,3.2884798,2.58735
-30.684065,3.2977858,2.6051416
-30.753525,3.2925432,2.5966716
-30.821857,3.293422,2.5994277
-30.889015,3.2989647,2.610763
-30.923906,3.2970793,2.6080384
-30.958284,3.2971997,2.6089807
-30.99268,3.2974095,2.610116
-31.027565,3.2962773,2.6088533
-31.06348,3.2923763,2.6026087
-31.096811,3.2961962,2.6103816
-31.136902,3.281536,2.5847259
-31.169416,3.2879202,2.597206
-31.202358,3.292959,2.6072793
-31.234041,3.3009279,2.6226826
-31.267542,3.3042307,2.629675
-31.302221,3.304778,2.6317134
-31.340298,3.297849,2.6202645
-31.377928,3.292446,2.6116157
-31.409254,3.3008358,2.6279335
-31.442694,3.3045866,2.6358957
-31.479836,3.300891,2.6304364
-31.515175,3.3010607,2.631997
-31.542645,3.3163497,2.6608891
-31.58772,3.298404,2.6298122
-31.626558,3.2927775,2.6210194
-31.658693,3.2994206,2.6344013
-31.694761,3.2991395,2.6353235
-31.727005,3.305483,2.6482272
-31.765907,3.3007357,2.641169
-31.80065,3.303073,2.6469173
-31.836258,3.30411,2.6503587
-31.874285,3.3015385,2.6473384
-31.909975,3.3027763,2.6512132
-31.946304,3.3031874,2.653638
-31.984257,3.301396,2.6521368
-32.020363,3.3024726,2.6558342
-32.05748,3.3022716,2.6572719
-32.09532,3.3012583,2.6572895
-32.132217,3.3017266,2.660007
-32.16846,3.3032112,2.6645885
-32.206833,3.3020623,2.6644812
-32.24493,3.3014796,2.665432
-32.28201,3.3023682,2.6690607
-32.320965,3.3010974,2.66886
-32.357384,3.3031037,2.6745725
-32.396095,3.3025057,2.675661
-32.43527,3.3015718,2.6761904
-32.475304,3.2998552,2.6753635
-32.512665,3.3013947,2.6804037
-32.572617,3.2780128,2.6409478
-32.615234,3.2744727,2.6370182
-32.66836,3.2599447,2.6135235
-32.7194,3.2482667,2.5951862
-46.641068,1.2205081,0.31986904
-46.61965,1.2837088,0.442935
-46.645264,1.389493,0.6579881
-46.60918,1.4553361,0.78456974
-46.606216,1.5115981,0.89684963
-46.649323,1.5551581,0.9904413
-46.615654,1.6189127,1.1135168
-46.64544,1.6655502,1.2115693
-46.635323,1.7223091,1.3242445
-46.653526,1.7714667,1.4258866
-46.634315,1.8297966,1.540606
-46.58108,1.8961053,1.6664934
-46.591198,1.9462655,1.769289
-46.58206,2.000824,1.8782153
-46.65721,2.034949,1.9585052
-46.807068,2.051693,2.0149045
-47.957787,1.9475703,1.9773259
-48.023537,1.9877577,2.0690565
-48.078396,2.0304446,2.1643338
-46.73002,2.3769228,2.664371
-46.745773,2.4238024,2.7624369
-46.622887,2.4996924,2.8985415
-46.692795,2.5346072,2.9807138
-46.71859,2.5787144,3.0749826
-46.64868,2.6420145,3.1938367
-46.718697,2.6768937,3.2762718
-46.962833,2.6779044,3.3164396
-47.100075,2.7007122,3.3847942
-47.32804,2.706886,3.433261
-47.624176,2.701429,3.4686017
-47.91001,2.6993608,3.5094156
-47.976578,2.7384176,3.6005683
-48.08406,2.7703516,3.6836014
-48.207535,2.7998831,3.7643194
-48.29968,2.8353138,3.8523803
-48.52018,2.8492873,3.916565
-48.6484,2.879698,4.0002117
-48.858803,2.897152,4.0702405
-49.899895,2.7816606,3.9974556
-49.930813,2.8318322,4.1069164
-50.487793,2.8000925,4.130741
-51.13428,2.7575586,4.1466575
-51.95662,2.691998,4.143133
-52.919144,2.6101055,4.1283784
-53.935974,2.5254364,4.1168017
-5.230402,2.3930056,3.6835089
-5.3666153,2.3444388,3.5612984
-4.877529,2.203284,3.3387055
-5.068552,2.1623435,3.224574
-5.1373825,2.1033468,3.0910225
-5.163288,2.0377364,2.9501767
-5.18725,1.971705,2.808889
-5.212181,1.9057064,2.6676717
-5.2196846,1.8366954,2.5228977
-5.230158,1.7679543,2.378395
-5.2435856,1.6994996,2.234202
-5.2734547,1.6336992,2.093257
-5.2484913,1.5580704,1.9400859
-5.273676,1.4910219,1.7975307
-5.298897,1.4238191,1.6547985
-5.341385,1.359657,1.5159979
-4.7351704,1.1730716,1.2182345
-4.8293896,1.1167705,1.088491
-5.558256,1.184102,1.1225243
-6.8059673,1.3578224,1.3014235
-5.6380825,1.0545363,0.8444228
-7.889435,1.3726451,1.177454
-7.878168,1.3032691,1.0367436
-7.769287,1.21275,0.8666296
-9.340036,1.4830894,1.1988039
-9.287548,1.4079938,1.0525823
-9.930082,1.486238,1.122489
-9.40428,1.3056188,0.8271694
-9.094784,1.1706564,0.59498787
-11.213179,1.5939994,1.1637001
-10.284977,1.3172517,0.72869635
-12.629499,1.6424973,1.0676513
-12.611658,1.581326,0.9461379
-13.1373825,1.6016123,0.9160609
-13.141844,1.5466609,0.80443335
-14.14023,1.7529645,1.0870142
-14.562665,1.7068591,0.93788624
-14.538801,1.6471181,0.82088184
-14.5212965,1.5886269,0.70565176
-15.722847,1.8753345,1.1237316
-15.8651285,1.765418,0.88494396
-16.584743,1.9287903,1.1189122
-16.65853,1.9023948,1.0566716
-16.39531,1.6220865,0.5311179
-16.419556,1.5785892,0.4415059
-17.292976,1.8094277,0.7910633
-17.403059,1.7967565,0.75215864
-18.289173,2.0413418,1.1276069
-18.289112,1.9956625,1.0370221
-17.840944,1.7978358,0.70016766
-18.747742,2.0602963,1.1087351
-18.86919,2.0124083,0.99926805
-18.900593,1.978199,0.9279156
-18.738132,1.8743191,0.7424555
-18.666447,1.8016174,0.60768795
-18.876373,1.831193,0.6409669
-18.795818,1.754313,0.4991727
-18.678078,1.6136279,0.2364192
-25.415682,3.1143847,2.4306035
-25.488186,3.1249065,2.444179
-25.584677,3.15074,2.4848456
-25.64878,3.1572413,2.4915824
-25.687992,3.148439,2.4714017
-25.741955,3.1491117,2.4680061
-25.81395,3.1617234,2.4857993
-25.883713,3.1734347,2.5021105
-25.956642,3.1877832,2.523199
-26.010786,3.19013,2.5231209
-26.064175,3.1922684,2.5227466
-26.10578,3.1866055,2.5085888
-26.171032,3.1975005,2.5239124
-26.234762,3.207837,2.5383387
-26.295864,3.2167964,2.550405
-26.339811,3.2138245,2.5412993
-26.370949,3.2016375,2.5158153
-26.408344,3.1940105,2.4984965
-26.482384,3.2139218,2.5303936
-26.545555,3.2263172,2.5489702
-26.605104,3.236474,2.563633
-24.963776,1.9199591,0.20414257
-26.745245,3.2391007,2.5582108
-26.809387,3.2546182,2.5827742
-26.841475,3.2444012,2.5612488
-26.948036,3.2596111,2.582326
-26.979189,3.248889,2.560018
-27.028091,3.2535071,2.5653338
-27.073414,3.255311,2.5656443
-27.178764,3.2730417,2.5918736
-27.226313,3.2778902,2.5978465
-27.267662,3.2773037,2.5940685
-27.305304,3.2733912,2.584333
-27.382866,3.2680526,2.5694704
-27.418777,3.2627249,2.5572915
-27.455183,3.2579293,2.5461116
-27.491632,3.2532337,2.5351472
-27.528973,3.2495131,2.5259843
-27.566334,3.245896,2.5170465
-27.598776,3.2370992,2.498757
-27.679728,3.2369933,2.4939861
-27.72622,3.2439914,2.5044618
-27.772852,3.251583,2.516068
-27.824593,3.265561,2.539328
-27.86949,3.272127,2.5491805
-27.904854,3.2676525,2.5390096
-27.945765,3.2699957,2.5412717
-27.98439,3.269766,2.5388942
-27.991365,3.2295852,2.4638314
-28.066011,3.2754998,2.5455337
-28.132236,3.2617955,2.5169158
-28.165026,3.2543862,2.5016336
-28.204798,3.2566016,2.5039315
-28.292183,3.2732382,2.5309215
-28.357597,3.2588308,2.5014067
-28.433733,3.2608185,2.5019584
-28.482248,3.2789931,2.5336905
-28.567612,3.2987456,2.5669665
-28.606499,3.3030412,2.5734625
-28.091927,2.1465154,0.4521904
-28.1737,2.2040334,0.5557618
-28.229652,2.214374,0.57301474
-28.279016,2.2122965,0.56757116
-28.88436,3.2829921,2.527018
-28.918898,3.2802513,2.5209184
-28.930975,3.2270286,2.4222755
-28.977154,3.249724,2.4628716
-29.02036,3.2669342,2.493454
-29.058716,3.2734718,2.5044966
-29.098349,3.2838795,2.5226774
-29.168106,3.281478,2.5165315
-29.272743,3.2785578,2.508791
-29.306284,3.273511,2.498787
-29.340357,3.2699673,2.4915743
-29.377893,3.2783492,2.5063033
-29.06982,2.0267088,0.20542574
-29.445074,3.2679186,2.48588
-29.489899,3.3074374,2.5579405
-29.521074,3.293439,2.5316606
-29.555967,3.294717,2.5334926
-29.59101,3.2970376,2.5372715
-29.61813,3.2594972,2.4677777
-29.681623,3.222188,2.3983145
-29.764421,3.3057256,2.5512543
-29.799103,3.3090677,2.5570927
-29.834423,3.3186996,2.5745301
-29.90189,3.3124816,2.5626144
-30.004293,3.316213,2.5689821
-30.072365,3.318981,2.5738878
-30.085484,2.0445037,0.22850561
-30.135754,2.0386724,0.21774197
-30.18612,2.0387003,0.21780252
-30.234592,2.1243203,0.3754139
-30.280472,2.2215142,0.5543623
-30.327461,2.2433927,0.5947528
-30.376818,2.2171817,0.54669094
-30.433088,2.1061597,0.3426156
-30.48797,2.0444496,0.22932863
-30.531395,2.1145473,0.3586092
-30.447973,3.3015585,2.5428457
-30.48237,3.3004608,2.5410929
-30.687681,2.0584886,0.25663567
-30.55027,3.3052034,2.550435
-30.583986,3.3086567,2.5571399
-30.653797,3.3020227,2.545732
-30.689184,3.2971797,2.5372663
-30.722052,3.3047876,2.5517268
-30.792168,3.2998326,2.5436454
-30.859814,3.3056798,2.5555396
-30.892426,3.3127587,2.5691662
-31.301281,2.035085,0.22217703
-30.961071,3.3143842,2.5734725
-30.994263,3.318875,2.582427
-31.027363,3.32345,2.5915627
-31.059717,3.329995,2.6043444
-31.093618,3.3319042,2.6086407
-31.12802,3.3324885,2.6105337
-31.166235,3.3232818,2.5944872
-31.204899,3.3137152,2.5778155
-31.236887,3.3211656,2.5924034
-31.271502,3.322126,2.5951118
-31.308172,3.3184917,2.5894246
-31.924183,2.0302591,0.22831059
-31.373203,3.3302279,2.6129918
-31.410892,3.3250105,2.604498
-32.079666,2.0347257,0.24128294
-32.133633,2.0322976,0.23852396
-31.52713,3.305819,2.5727515
-31.563559,3.304757,2.5720148
-31.596262,3.3107524,2.5842304
-31.631956,3.3112702,2.58645
-31.694769,3.3273742,2.618547
-31.731733,3.3258536,2.6171293
-31.769342,3.3235161,2.614253
-32.513355,2.1941645,0.5517435
-32.56406,2.1961694,0.5574994
-32.640556,2.158909,0.49158764
-32.72724,2.1081986,0.40121126
-31.945515,3.3330746,2.639205
-31.989496,3.3226912,2.621859
-32.03573,3.3097177,2.5998378
-32.08399,3.2946262,2.5740051
-32.11127,3.308705,2.6013994
-32.14165,3.3183126,2.6206646
-32.188797,3.305865,2.599782
-32.22365,3.3097954,2.6087737
-32.260605,3.3111205,2.6130562
-32.298676,3.311202,2.6151128
-32.34344,3.3033319,2.6027455
-32.391838,3.2915838,2.5833793
-32.42918,3.2933753,2.5886726
-32.462685,3.2997203,2.602275
-32.50431,3.2968287,2.5991354
-32.55044,3.2891912,2.5874305
-32.589584,3.289659,2.5904803
-32.634903,3.283628,2.5817885
-32.68458,3.2733452,2.5654426
-46.61345,1.3231769,0.2821393
-46.62758,1.3759708,0.3900299
-46.620316,1.4343569,0.5064435
-46.638954,1.4852695,0.61135006
-46.598373,1.5518253,0.7399969
-46.653976,1.5922463,0.82888937
-46.619514,1.656246,0.9534025
-46.657394,1.7009721,1.0488114
-46.625504,1.7633958,1.1706905
-46.629936,1.816124,1.2779675
-46.664604,1.861031,1.3736124
-46.64544,1.9190421,1.4885869
-46.602345,1.9824033,1.6112466
-46.59964,2.0355244,1.7187486
-46.6007,2.0874321,1.8244052
-46.59446,2.140745,1.9320107
-46.713593,2.1649513,1.9978032
-46.786896,2.1999862,2.0794024
-47.96685,2.0430355,1.9237094
-48.021416,2.0858228,2.0188289
-48.05941,2.132203,2.1190758
-48.11554,2.1747031,2.2140417
-46.742393,2.5145838,2.7165656
-46.611923,2.5911732,2.8552237
-46.657227,2.631226,2.943944
-46.722828,2.667268,3.0274124
-46.792694,2.7026286,3.1101875
-46.86302,2.7380795,3.1933146
-46.859386,2.7877872,3.2952952
-47.090202,2.7933393,3.3400578
-47.323986,2.7994685,3.3865414
-47.592396,2.8004508,3.4275017
-47.89943,2.7958667,3.4626565
-47.99202,2.830519,3.5479674
-48.102478,2.8624015,3.6302466
-48.294632,2.8808138,3.6966286
-48.399536,2.914699,3.7824664
-48.60187,2.932961,3.850246
-48.6934,2.9700663,3.9410305
-48.868973,2.9941463,4.0171967
-49.884167,2.8880548,3.9462533
-49.913155,2.9385042,4.05595
-49.95311,2.9872713,4.1638765
-50.645073,2.939794,4.167723
-51.60309,2.8573885,4.138272
-52.61059,2.7730188,4.112234
-53.55094,2.7033348,4.1070766
-54.601498,2.6235194,4.097333
-5.504959,2.4400148,3.3724203
-5.0802326,2.2406857,3.0114684
-5.150013,2.1816075,2.8782783
-5.178854,2.116359,2.7377982
-5.208658,2.0511677,2.597445
-5.220047,1.9829421,2.453343
-5.224718,1.9134212,2.3075666
-5.446741,1.8796098,2.2074933
-5.378916,1.7980084,2.0464272
-5.2594376,1.7068987,1.8725343
-5.278839,1.6389766,1.7286654
-5.2867947,1.5688403,1.5818367
-4.8566895,1.3463202,1.1764083
-5.64044,1.2017891,0.7751045
-7.9456787,1.5839682,1.2662907
-8.105125,1.5496712,1.1749368
-7.9388294,1.4497693,0.9903345
-9.385254,1.6813121,1.2817936
-9.319332,1.6046286,1.1323819
-9.91382,1.667501,1.1858621
-9.9264965,1.6083109,1.062624
-9.286804,1.4062881,0.72896767
-11.088871,1.7411809,1.188148
-10.272398,1.4983907,0.7934289
-10.187164,1.4167995,0.6370578
-12.50256,1.7769544,1.0843163
-12.593056,1.7422376,1.0022469
-12.742428,1.7221162,0.94276094
-12.439245,1.5908196,0.712605
-13.125021,1.7047284,0.8603139
-14.041542,1.8812842,1.1073194
-14.539339,1.7993238,0.88062
-14.571751,1.7551677,0.78728867
-14.726718,1.7444162,0.74698544
-15.826076,1.9961016,1.1248808
-15.75596,1.9268539,0.9932895
-15.883628,1.9129534,0.95012474
-15.862,1.8566494,0.83909225
-16.5565,2.008323,1.0633011
-16.428524,1.722904,0.50422
-17.346756,1.91168,0.7778635
-17.42009,1.8870168,0.72014093
-17.736942,1.941468,0.7933111
-18.397503,2.110693,1.0574155
-17.8411,1.8807051,0.6601515
-18.76665,2.143624,1.0819454
-18.94563,2.1597762,1.0943084
-18.87053,2.089635,0.9627638
-18.904411,2.0563927,0.89281225
-18.659462,1.9249606,0.6579733
-18.696396,1.891407,0.5872054
-18.835995,1.8946726,0.578568
-18.663645,1.7851152,0.3795452
-18.662136,1.7365766,0.28336763
-18.684904,1.69661,0.20166922
-25.35506,3.1201367,2.344894
-25.451347,3.1441705,2.3834095
-25.495018,3.137079,2.3661923
-25.599525,3.1675014,2.4164357
-25.66129,3.1723232,2.4208007
-25.730743,3.1823704,2.4346557
-25.782862,3.1818717,2.4296088
-25.839077,3.184264,2.42984
-25.894518,3.1864655,2.4297986
-25.956875,3.1935506,2.4386463
-26.0248,3.204788,2.4550805
-26.074308,3.2040763,2.449998
-26.129482,3.207482,2.452426
-26.17075,3.201559,2.438027
-26.218285,3.2001388,2.4318318
-26.261257,3.1956754,2.4201727
-26.324247,3.205782,2.4350042
-26.385223,3.2149138,2.4481483
-26.440401,3.2202287,2.4544334
-26.492636,3.2237108,2.4574518
-26.684408,3.263475,2.5203018
-26.750357,3.2433674,2.4775553
-26.80802,3.253279,2.492673
-26.840633,3.2430768,2.4711185
-26.9715,3.2779891,2.5292563
-27.017576,3.2799103,2.5300226
-27.065445,3.2836587,2.5341854
-27.258278,3.3031917,2.5596852
-27.298779,3.3017654,2.5546107
-27.377865,3.2975624,2.5420985
-26.801888,2.6942239,1.430646
-27.444696,3.2817688,2.5084224
-27.483437,3.279176,2.5013838
-27.498917,3.2529004,2.450787
-27.54879,3.261745,2.4648657
-27.437828,3.1012075,2.1669202
-27.531092,3.1548598,2.2635646
-27.65453,3.243404,2.424674
-27.58927,3.1258228,2.2057052
-27.73984,3.247873,2.428842
-27.88302,3.2747595,2.472693
-27.950274,3.2606246,2.4428945
-27.99544,3.2679095,2.4545836
-28.027777,3.2592993,2.436905
-28.069553,3.2628176,2.4417033
-28.10442,3.257516,2.4302077
-28.13704,3.2491674,2.4130974
-28.165901,3.235509,2.3861742
-28.205313,3.2363026,2.3860545
-28.206882,3.183134,2.2859273
-28.307316,3.2158394,2.3435273
-28.368107,3.2496529,2.4048038
-28.566107,3.3273442,2.5436573
-28.606123,3.333363,2.5535913
-28.673004,3.3233132,2.5325108
-28.777178,3.3150814,2.5138125
-28.812424,3.3134398,2.5096865
-28.239649,2.0730433,0.20021725
-28.293364,2.0751233,0.20260334
-28.882168,3.1495476,2.2005029
-28.92169,3.153285,2.206483
-28.973253,3.185886,2.266263
-29.008898,3.1819797,2.2580762
-29.097109,2.7757106,1.4955974
-29.296791,3.2726114,2.4215884
-29.331722,3.270464,2.416932
-29.367636,3.2716825,2.418583
-29.406872,3.2851734,2.443161
-29.442266,3.285652,2.44349
-29.176916,2.0883527,0.20848799
-29.512506,3.2850087,2.4412465
-29.544125,3.2693274,2.4114943
-29.581802,3.2805014,2.431898
-29.613663,3.2640429,2.4007444
-29.629961,3.1615877,2.2090483
-29.671955,3.1927662,2.2668786
-29.725588,3.3022103,2.4708958
-29.763678,3.325182,2.5134797
-29.726116,2.7857594,1.5057721
-29.766428,2.7767117,1.4885626
-29.932692,2.7825825,1.4986014
-30.004305,3.3288841,2.518958
-30.060825,2.9224818,1.7595868
-30.136997,2.1043632,0.23116541
-30.187115,2.1048658,0.23211384
-30.216877,3.0101528,1.9233341
-30.257568,2.944783,1.8012848
-30.279703,3.2975638,2.4603958
-30.314857,3.2894502,2.4453526
-30.351173,3.2686923,2.4067192
-30.393679,3.1834273,2.2476215
-30.419184,3.2897081,2.4463372
-30.45252,3.302699,2.4708223
-30.485947,3.3124735,2.489324
-30.690052,2.0967124,0.21910906
-30.74147,2.0901606,0.20731115
-30.588099,3.3220508,2.5081072
-30.623825,3.3152227,2.4957104
-30.658117,3.3169549,2.4993238
-30.695843,3.3018553,2.471542
-30.73152,3.2981355,2.4650345
-30.767742,3.2926326,2.4552264
-30.800346,3.3027098,2.4745264
-30.87052,3.3020127,2.4742904
-30.937752,3.3119757,2.4940505
-30.975767,3.302357,2.476735
-31.038654,3.2167025,2.3176441
-31.094994,3.1574233,2.207807
-31.066013,3.346894,2.5618296
-31.102135,3.3432353,2.5557375
-31.137505,3.3420022,2.5541964
-31.664093,2.0797908,0.20266867
-31.208418,3.3398197,2.5517306
-31.245699,3.3346944,2.543026
-31.274578,3.349606,2.5716739
-31.3109,3.3469834,2.5676875
-31.344576,3.3504727,2.575111
-31.377111,3.3563576,2.5870214
-31.414211,3.352634,2.5810719
-31.450758,3.3503969,2.5779204
-31.488808,3.3455,2.5698519
-31.540274,3.315435,2.5150037
-32.24018,2.0817351,0.22189426
-32.295933,2.077088,0.21493435
-31.649096,3.3155663,2.5186863
-31.673273,3.3368275,2.5594034
-31.716156,3.3257277,2.5400105
-31.743057,3.341642,2.5708327
-32.558155,2.0871682,0.24273682
-32.611668,2.087972,0.24617815
-31.840971,3.3597555,2.6084075
-31.877588,3.3596182,2.6095252
-32.779526,2.0808694,0.23913383
-31.95191,3.358296,2.6099153
-31.996948,3.3467612,2.5900035
-32.16217,3.326222,2.5582147
-32.234978,3.3305068,2.5694885
-32.260292,3.3465688,2.600915
-32.297615,3.347603,2.6045728
-32.338657,3.3443193,2.6002855
-33.4481,2.083331,0.27264977
-32.491955,3.2562168,2.441267
-32.506676,3.285128,2.4965882
-32.515633,3.319724,2.5623937
-32.574635,3.2982924,2.5248475
-32.616116,3.296713,2.523972
-32.66547,3.286988,2.5081263
-32.71639,3.276127,2.4902415
-46.624096,1.4833863,0.34443283
-46.63913,1.5353937,0.45152807
-46.642395,1.6456022,0.6753273
-46.62599,1.7048395,0.79357004
-46.61944,1.761096,0.9070463
-46.637344,1.8107948,1.0102711
-46.623547,1.8681564,1.1252952
-46.64801,1.9156988,1.2251177
-46.65162,1.9681239,1.3324132
-46.64338,2.023082,1.4434996
-46.625057,2.0800514,1.5575314
-46.594734,2.1393886,1.6749983
-46.6013,2.1897626,1.7788367
-46.571873,2.248032,1.8944135
-46.65383,2.2809548,1.9721675
-46.69442,2.3232129,2.063932
-46.778236,2.3560567,2.1419396
-47.984955,2.2032206,1.9813395
-48.072643,2.239142,2.0664454
-48.11562,2.2844796,2.1653104
-46.776787,2.608841,2.6618404
-46.74747,2.6644037,2.7726808
-46.668945,2.7291932,2.8963041
-46.721283,2.7680225,2.983326
-46.82254,2.797635,3.0577264
-46.871967,2.8373125,3.1463022
-46.99244,2.8639698,3.2172694
-47.177658,2.879372,3.2734623
-47.44809,2.8804307,3.3111582
-47.68033,2.8895402,3.3606467
-47.976074,2.8888068,3.398139
-48.116974,2.9158478,3.4730525
-48.21801,2.9501388,3.5578804
-48.355324,2.978846,3.6359825
-48.558105,2.9975684,3.7020645
-48.750076,3.0189497,3.7723532
-48.852524,3.0551481,3.8617406
-49.874237,2.9512007,3.7812262
-49.870872,3.006601,3.8968124
-49.88618,3.0590386,4.0088067
-49.920242,3.1086626,4.117532
-50.55279,3.0734282,4.129075
-51.34761,3.0189252,4.122204
-52.085705,2.9763246,4.1327844
-53.01304,2.91229,4.12408
