x,y,z
-32.353306,2.2108784,4.0309625
-32.39283,2.1982632,4.0267344
-32.427643,2.1939054,4.030132
-32.46129,2.1916804,4.035586
-32.497902,2.1848297,4.0370045
-32.546062,2.1598945,4.022336
-32.585598,2.1492653,4.0207014
-32.625725,2.1380935,4.018747
-32.672173,2.1176643,4.0087104
-32.71005,2.1107912,4.0109377
-32.74713,2.1053758,4.0146117
-32.79474,2.084729,4.0049596
-32.828426,2.0849023,4.0139
-32.85979,2.0884976,4.0259776
-32.922535,2.0477111,3.999209
-32.94891,2.0588486,4.018219
-32.98039,2.0627723,4.0310087
-33.018585,2.0575423,4.035942
-33.055885,2.053752,4.042282
-33.09472,2.0481062,4.047171
-33.17152,1.9927108,4.0092816
-33.209377,1.9893787,4.0166163
-33.26456,1.9639413,4.0051427
-33.326786,1.930232,3.9868684
-33.36258,1.9306219,3.9979897
-33.404118,1.9239721,4.0032706
-33.444695,1.9187577,4.0099497
-33.495983,1.9007361,4.0059905
-33.547535,1.8829024,4.002438
-33.5988,1.8659022,3.999836
-33.657406,1.8407333,3.9906573
-33.693245,1.8427291,4.004406
-33.736275,1.836513,4.0114822
-33.77995,1.8298032,4.0183454
-33.828228,1.8181448,4.0213304
-23.272457,0.8609283,4.1255007
-23.383186,0.90245056,4.1259828
-23.454128,0.9147799,4.1079445
-23.599499,0.9841435,4.1282425
-23.662495,0.9915924,4.108068
-23.79122,1.0501933,4.1227713
-23.868313,1.0696468,4.111731
-23.984997,1.1207325,4.122811
-24.08593,1.1603405,4.126747
-24.149843,1.1711588,4.1113434
-24.261398,1.2207468,4.1234007
-24.307104,1.2177656,4.099197
-24.437504,1.2843695,4.1244946
-24.501118,1.2970068,4.1121907
-24.564587,1.3098922,4.100425
-24.665375,1.3545587,4.1119475
-24.728333,1.3680336,4.101461
-24.824747,1.4105418,4.1125283
-24.924026,1.4564121,4.1266627
-24.94946,1.438884,4.094571
-25.02234,1.4629023,4.0934277
-25.138485,1.5258586,4.1217976
-25.168509,1.5130186,4.093958
-25.245077,1.5421093,4.097899
-25.346931,1.5949008,4.1202807
-25.382015,1.5874062,4.0972733
-25.47311,1.631871,4.1142726
-25.5565,1.6700752,4.126991
-25.609217,1.680135,4.1183915
-25.661804,1.6903899,4.110214
-25.763653,1.7483842,4.139653
-25.790478,1.734705,4.1133738
-25.86998,1.7725637,4.1278768
-25.927866,1.7898649,4.126529
-25.989212,1.8110836,4.128608
-26.03191,1.8140153,4.116379
-26.095835,1.8387606,4.12188
-26.16424,1.8687243,4.131938
-26.21546,1.8815415,4.128471
-26.25105,1.8783293,4.112214
-26.310284,1.9002364,4.116629
-26.369793,1.923,4.122057
-26.40342,1.9183489,4.105215
-26.461325,1.9402472,4.110456
-26.517773,1.9611056,4.115132
-26.588102,1.9979974,4.1334515
-26.624138,1.9971249,4.1205792
-26.665768,2.0027199,4.1132803
-26.711744,2.0135515,4.110577
-26.76964,2.038591,4.120095
-26.828804,2.065773,4.131724
-26.852497,2.0515041,4.108389
-26.901003,2.066844,4.110393
-26.960947,2.096528,4.124911
-27.00364,2.105794,4.122193
-27.047754,2.117146,4.1214633
-27.087059,2.122819,4.1160235
-27.1135,2.1123867,4.0967846
-27.187178,2.1625297,4.1303177
-27.220493,2.1614718,4.1195765
-27.276667,2.1905613,4.135341
-27.290115,2.163578,4.1021795
-27.323925,2.1634789,4.092672
-27.385683,2.2015862,4.1170077
-27.430649,2.217558,4.122069
-27.460268,2.212584,4.1087513
-27.484354,2.1997623,4.0885534
-27.516947,2.1989055,4.0790935
-27.56189,2.2160451,4.085843
-27.610186,2.2386558,4.0976987
-27.650536,2.2501304,4.0997686
-27.682753,2.2497416,4.091323
-27.711912,2.244773,4.078861
-27.745895,2.2472377,4.073223
-27.788368,2.2632012,4.0799575
-27.83439,2.2853487,4.092498
-27.879234,2.3063154,4.104166
-27.905655,2.2978234,4.0891333
-27.941544,2.3049006,4.0884275
-27.978922,2.3147907,4.0904408
-28.022476,2.3356194,4.1026564
-28.062191,2.3505046,4.1095862
-28.09666,2.3567047,4.108668
-28.120007,2.3433132,4.08977
-28.15705,2.3544564,4.093656
-28.196135,2.3698044,4.1015906
-28.24044,2.3955119,4.119315
-28.274649,2.402934,4.1202016
-28.305906,2.4049895,4.1162105
-28.332947,2.3989165,4.1047325
-28.366253,2.4052536,4.1049566
-28.399454,2.411691,4.105397
-28.431887,2.4168525,4.104761
-28.472734,2.440004,4.121168
-28.502924,2.441242,4.117094
-28.52803,2.4315252,4.1027846
-28.555458,2.4267018,4.093171
-28.58815,2.4337044,4.094838
-28.621626,2.4428804,4.098683
-28.656427,2.4556217,4.1060343
-28.687263,2.4594517,4.1050453
-28.717468,2.4619792,4.102923
-28.747906,2.4652863,4.101645
-28.774471,2.4589343,4.091253
-28.801933,2.4547381,4.0829997
-28.834166,2.4631648,4.0869083
-28.867287,2.4744782,4.0936966
-28.899471,2.4837935,4.098689
-28.928316,2.4841118,4.0951557
-28.955477,2.479608,4.0870805
-28.982002,2.473071,4.07713
-29.008856,2.4673007,4.0679984
-29.038025,2.468614,4.065778
-29.066519,2.467899,4.061693
-29.103064,2.4939668,4.083577
-29.130943,2.4920154,4.078501
-29.156847,2.483097,4.0667677
-29.18406,2.4784675,4.0592637
-29.217018,2.4950533,4.072416
-29.2442,2.4905748,4.065241
-29.271984,2.488283,4.0602717
-29.307901,2.519258,4.087727
-29.33532,2.5164227,4.082425
-29.361649,2.5087073,4.072455
-29.387634,2.4989343,4.0605564
-29.41602,2.4998422,4.0591464
-29.44424,2.5001168,4.057207
-29.474257,2.509678,4.064421
-29.506372,2.5313754,4.083588
-29.534578,2.5333037,4.083545
-29.561539,2.5282092,4.0767226
-29.587536,2.5167925,4.0637965
-29.614042,2.507569,4.053091
-29.64247,2.510491,4.054358
-29.670156,2.508512,4.0509105
-29.698801,2.5137136,4.054587
-29.729801,2.538908,4.0779567
-29.757217,2.5364408,4.0742965
-29.783989,2.527638,4.0645027
-29.811672,2.5267332,4.0625405
-29.839302,2.525187,4.0600333
-29.866663,2.5201507,4.054183
-29.894474,2.5201707,4.0533805
-29.923601,2.5402124,4.0723367
-29.950832,2.5332522,4.06485
-29.978745,2.5377648,4.0687203
-30.005985,2.5280943,4.058734
-30.033428,2.519918,4.050299
-30.061186,2.518941,4.0490265
-30.089085,2.525165,4.054918
-30.116774,2.5200534,4.049748
-30.144604,2.551376,4.080491
-30.172165,2.5456939,4.0749288
-30.199745,2.545073,4.0744286
-30.227545,2.535255,4.0649676
-30.255348,2.5304995,4.0605702
-30.283228,2.5258157,4.056329
-30.310719,2.5311832,4.0620527
-30.338083,2.537333,4.068629
-30.365261,2.5449774,4.076756
-30.392818,2.5455658,4.0780315
-30.421772,2.5284178,4.06197
-30.449455,2.529152,4.063562
-30.476923,2.5320935,4.0674047
-30.504564,2.532969,4.069303
-30.532982,2.5267994,4.0643744
-30.559298,2.5392015,4.077749
-30.586319,2.5445557,4.0842886
-30.614986,2.5371814,4.078436
-30.644997,2.5213552,4.0643973
-30.673754,2.5155592,4.0602775
-30.70272,2.509129,4.055629
-30.731316,2.5056167,4.0539265
-30.759718,2.5035987,4.053775
-30.785809,2.5144207,4.0662575
-30.813498,2.5160902,4.069877
-30.846403,2.4916172,4.048071
-30.876165,2.4842372,4.0430512
-30.904823,2.4826002,4.043726
-30.932875,2.4838686,4.047322
-30.961565,2.4823813,4.0483212
-30.988922,2.4866228,4.0549817
-31.016563,2.4895203,4.0604196
-31.049782,2.4706151,4.0447736
-31.080315,2.4630923,4.0402894
-31.110968,2.4556541,4.035989
-31.14095,2.4511185,4.0346026
-31.167952,2.4572191,4.043606
-31.192347,2.4718232,4.060909
-31.221884,2.4689174,4.0613656
-31.255442,2.4534564,4.0498085
-31.289925,2.4359932,4.0364428
-31.320055,2.4326513,4.0368004
-31.35119,2.4265919,4.034643
-31.381454,2.4234183,4.035366
-31.406557,2.4350066,4.050354
-31.433764,2.4403667,4.059441
-31.467373,2.4283533,4.051979
-31.502766,2.4122593,4.0407386
-31.535439,2.4039354,4.037051
-31.56549,2.4026628,4.040205
-31.593033,2.4077263,4.049494
-31.621073,2.411471,4.0576124
-31.652271,2.4076595,4.0586414
-31.69187,2.3845432,4.0414677
-31.726074,2.3747044,4.037031
-31.758894,2.3684254,4.036087
-31.793386,2.3587902,4.0320926
-31.822285,2.3616712,4.0400286
-31.849842,2.367382,4.050721
-31.882265,2.362845,4.0518656
-31.92315,2.3412292,4.0371
-31.964035,2.3204377,4.0232763
-31.996592,2.316914,4.0257726
-32.025692,2.3203268,4.034863
-32.05403,2.3251836,4.045393
-32.087727,2.3198767,4.046558
-32.133636,2.2921793,4.0270543
-32.169167,2.2843828,4.0262
-32.204445,2.2773757,4.026213
-32.235622,2.2779408,4.033352
-32.26291,2.2853703,4.0469265
-32.3015,2.2732444,4.0425982
-32.345062,2.2531366,4.031102
-32.386112,2.2379024,4.0242596
-32.424942,2.2268472,4.0214086
-32.45442,2.231385,4.0329375
-32.493473,2.220559,4.0305824
-32.533546,2.2085195,4.027288
-32.575954,2.1932662,4.0212493
-32.615116,2.1835027,4.0203547
-32.65531,2.172533,4.018534
-32.692116,2.167023,4.0217924
-32.727657,2.1636224,4.027091
-32.774174,2.1444054,4.0183716
-32.81316,2.1366143,4.0200634
-32.847153,2.1362221,4.028506
-32.89384,2.1181111,4.021339
-32.938427,2.1034608,4.0174513
-32.97268,2.1034307,4.0266795
-33.003544,2.108097,4.040174
-33.04609,2.097126,4.040041
-33.0888,2.0862992,4.040221
-33.132168,2.074967,4.0401464
-33.193356,2.0409899,4.0205455
-33.244865,2.0202522,4.0127506
-33.287952,2.0107315,4.014916
-33.337917,1.9929419,4.0101357
-33.381863,1.9830861,4.0124207
-33.434933,1.9624231,4.0056343
-33.47392,1.9593246,4.0141215
-33.522087,1.94544,4.013584
-33.556904,1.9477389,4.0270166
-33.62395,1.9124374,4.0087647
-33.663933,1.9092877,4.0179863
-33.740112,1.8649132,3.992734
-33.77655,1.86656,4.006442
-33.803352,1.8790846,4.029374
-33.86018,1.858181,4.0245996
-23.112835,0.8796768,4.1306643
-23.219877,0.9165909,4.12759
-23.330246,0.95673037,4.1273537
-23.452097,1.0062106,4.134072
-23.5466,1.0362425,4.128542
-23.666645,1.0861833,4.1370897
-23.75296,1.1114984,4.1296444
-23.864624,1.1568124,4.136472
-23.907932,1.1502695,4.108157
-24.040579,1.2133379,4.1285458
-24.081495,1.2056103,4.1001554
-24.213013,1.2696438,4.122637
-24.282999,1.2857947,4.1119437
-24.375534,1.3205347,4.1149607
-24.488842,1.372891,4.1312394
-24.521328,1.3601093,4.1010323
-24.617636,1.3999779,4.1093507
-24.720385,1.4460561,4.122822
-24.758915,1.4391162,4.097801
-24.85119,1.4777658,4.1068015
-24.927921,1.503948,4.1070533
-24.991396,1.5193031,4.0996227
-25.070896,1.5490239,4.103391
-25.13657,1.5672762,4.0989175
-25.195332,1.5798724,4.0904903
-25.289106,1.6241412,4.1066866
-25.349304,1.639061,4.1008043
-25.431593,1.6745026,4.1111593
-25.517311,1.7138803,4.1250625
-25.553947,1.7086143,4.1045027
-25.63311,1.7431767,4.1154447
-25.726492,1.7919475,4.138078
-25.769058,1.7933235,4.123608
-25.821701,1.8045498,4.117198
-25.894226,1.835436,4.1268187
-25.96197,1.8623502,4.1336446
-25.989197,1.8497901,4.108906
-26.061981,1.8826627,4.1211705
-26.131868,1.9133749,4.132076
-26.192858,1.9357442,4.136528
-26.228928,1.9330249,4.1206594
-26.279335,1.9452796,4.1173096
-26.33016,1.9583393,4.114875
-26.39781,1.9896327,4.1278715
-26.428915,1.9825222,4.1091304
-26.476875,1.9936321,4.105792
-26.54187,2.0237174,4.118662
-26.604153,2.051549,4.1299706
-26.640085,2.0506597,4.117238
-26.686659,2.0618734,4.114956
-26.747492,2.0896997,4.127084
-26.796911,2.1050844,4.128859
-26.827559,2.0990462,4.112442
-26.86965,2.1064641,4.107749
-26.91967,2.1235986,4.111655
-26.977406,2.1505098,4.124292
-27.031578,2.1737983,4.134062
-27.046267,2.1491218,4.102167
-27.094927,2.1662827,4.1069627
-27.14128,2.1810408,4.109871
-27.191973,2.2017794,4.118268
-27.2318,2.2091072,4.1150403
-27.262556,2.2048886,4.1017375
-27.29682,2.2053056,4.0926695
-27.345224,2.2247152,4.100677
-27.39478,2.246258,4.1108174
-27.435877,2.256867,4.1113806
-27.463093,2.2486184,4.0951576
-27.49464,2.2463436,4.0844083
-27.524368,2.2415285,4.071475
-27.577524,2.2703848,4.089159
-27.628426,2.2968004,4.104879
-27.660995,2.296966,4.0969267
-27.689573,2.2912683,4.083742
-27.721298,2.2902875,4.074967
-27.762554,2.3040137,4.079794
-27.806587,2.3225367,4.0892053
-27.846527,2.3352144,4.093422
-27.884598,2.345355,4.0954604
-27.913847,2.341575,4.084772
-27.950478,2.3499293,4.085433
-27.991796,2.3664496,4.093826
-28.036028,2.3884842,4.107525
-28.070124,2.3938532,4.1058674
-28.100655,2.3932607,4.0987654
-28.132334,2.3947783,4.093745
-28.16774,2.4031448,4.095263
-28.20523,2.4156823,4.1008377
-28.249094,2.440539,4.118163
-28.279968,2.4417973,4.113411
-28.311882,2.4451823,4.110777
-28.340593,2.4425352,4.1025443
-28.373466,2.448141,4.102232
-28.407263,2.4558911,4.1040764
-28.442596,2.4671593,4.109392
-28.48004,2.4833248,4.1195087
-28.50691,2.477699,4.108974
-28.531961,2.4680276,4.0946517
-28.562767,2.470769,4.0922856
-28.595055,2.4770336,4.093402
-28.62814,2.4854567,4.096704
-28.664038,2.5008657,4.106843
-28.697079,2.5101829,4.1112533
-28.723997,2.505104,4.101903
-28.749876,2.4973292,4.0900326
-28.777514,2.4937668,4.082309
-28.806808,2.494429,4.0787582
-28.837662,2.4993296,4.0794096
-28.874592,2.5209656,4.096401
-28.9059,2.5281389,4.099488
-28.93119,2.5187218,4.08655
-28.957108,2.510756,4.0750966
-28.984322,2.5063338,4.067169
-29.01389,2.508948,4.0661902
-29.044529,2.5151308,4.0687895
-29.0792,2.5346603,4.084539
-29.109524,2.541025,4.087533
-29.136436,2.536289,4.079759
-29.16101,2.5232258,4.0639024
-29.187742,2.5172195,4.0550346
-29.219877,2.5308962,4.065572
-29.248476,2.5320468,4.063912
-29.276339,2.5304668,4.0596547
-29.312687,2.5633569,4.089411
-29.339647,2.559133,4.082747
-29.366186,2.5528688,4.0741515
-29.392979,2.5473738,4.066392
-29.420607,2.545464,4.0622516
-29.448696,2.5457368,4.060351
-29.47983,2.56158,4.073923
-29.509506,2.571169,4.081416
-29.536987,2.5695584,4.077924
-29.5651,2.5715451,4.0780764
-29.591322,2.562315,4.0672054
-29.617912,2.5545607,4.057873
-29.645042,2.5496972,4.0514836
-29.673237,2.551968,4.0522513
-29.70316,2.567741,4.066503
-29.731516,2.5729911,4.070406
-29.759048,2.5719512,4.0681515
-29.786142,2.5667372,4.0618343
-29.813389,2.5622997,4.0563684
-29.840897,2.5600543,4.053163
-29.868265,2.5557559,4.0479975
-29.896282,2.559316,4.0507307
-29.925703,2.5849037,4.0754576
-29.953217,2.5850701,4.0749884
-29.980618,2.5831838,4.0725594
-30.00751,2.568613,4.05759
-30.034758,2.557654,4.046295
-30.062424,2.555976,4.0443196
-30.090216,2.5600388,4.048142
-30.118004,2.5705514,4.058468
-30.145626,2.58397,4.0717707
-30.173115,2.5839944,4.071823
-30.200626,2.5826714,4.070617
-30.228302,2.5750418,4.0632167
-30.256058,2.5689006,4.0573826
-30.283773,2.5663748,4.0552306
-30.311232,2.5702963,4.059577
-30.338354,2.5792463,4.06901
-30.365553,2.584724,4.075067
-30.393373,2.5803556,4.071415
-30.420532,2.585265,4.0770717
-30.45053,2.5569735,4.049806
-30.477798,2.5620272,4.055777
-30.505573,2.56149,4.0562754
-30.532251,2.5709271,4.0667624
-30.558605,2.581844,4.078797
-30.586416,2.5801022,4.078345
-30.615221,2.5713658,4.0710387
-30.64468,2.5591762,4.0603995
-30.673582,2.5520093,4.0548353
-30.702263,2.547038,4.0515356
-30.730783,2.543554,4.0497994
-30.75724,2.5521345,4.0600924
-30.78369,2.5600743,4.0698276
-30.81274,2.553989,4.065774
-30.84402,2.5374186,4.051456
-30.874983,2.5237541,4.0401134
-30.90325,2.523543,4.0421486
-30.931683,2.5227017,4.04365
-30.960297,2.5212336,4.0446215
-30.98706,2.5275645,4.053362
-31.016191,2.5241375,4.0525804
-31.04556,2.5200875,4.05128
-31.077997,2.5049055,4.0391393
-31.10875,2.4968212,4.034078
-31.137451,2.496522,4.0367537
-31.165546,2.498396,4.0416484
-31.190256,2.5115228,4.0576434
-31.219069,2.5107408,4.060102
-31.25077,2.5009663,4.05387
-31.286034,2.4808278,4.0376325
-31.316977,2.474729,4.0352125
-31.347544,2.4701097,4.0343394
-31.376486,2.4704418,4.0383844
-31.401443,2.4819648,4.0533957
-31.430038,2.4831347,4.0584254
-31.465897,2.4649673,4.0447984
-31.498066,2.4573028,4.0414786
-31.53009,2.4504242,4.0390306
-31.56361,2.4401815,4.033447
-31.59222,2.4424691,4.040068
-31.617924,2.4517303,4.053498
-31.649343,2.4472694,4.0538006
-31.688,2.4263804,4.0384283
-31.721825,2.417306,4.0345445
-31.756725,2.4062734,4.0289087
-31.788343,2.4028935,4.030723
-31.817137,2.4057696,4.0386205
-31.845888,2.4087217,4.046683
-31.8789,2.4028645,4.04645
-31.919407,2.3820884,4.0321546
-31.959562,2.3628118,4.019448
-31.991695,2.3600092,4.0225153
-32.022465,2.3600192,4.028354
-32.05074,2.3648674,4.038866
-32.082207,2.3636858,4.043783
-32.126953,2.3382158,4.02596
-32.162766,2.3298092,4.0243545
-32.197952,2.3228636,4.024256
-32.227108,2.3268147,4.034484
-32.256985,2.329496,4.043622
-32.2959,2.3167963,4.038527
-32.33861,2.2981834,4.0280905
-32.38283,2.2777069,4.0161076
-32.413837,2.2794666,4.024909
-32.44856,2.2752995,4.0283413
-32.479565,2.277241,4.037537
-32.522034,2.2612891,4.030377
-32.568195,2.240164,4.018649
-32.609894,2.2265038,4.013965
-32.646072,2.2215986,4.0174584
-32.683224,2.2154827,4.0199885
-32.718216,2.2127852,4.0257754
-32.761917,2.197671,4.020432
-32.80078,2.1899457,4.0219655
-32.84163,2.179719,4.021401
-32.886402,2.1643844,4.0164104
-32.928555,2.1531324,4.015285
-32.962704,2.153126,4.0244126
-32.994915,2.155828,4.036089
-33.03494,2.148212,4.038692
-33.075077,2.140728,4.04158
-33.12234,2.1243033,4.0367208
-33.179455,2.0957608,4.0213766
-33.235466,2.0693736,4.0082135
-33.283115,2.054151,4.0051284
-33.326836,2.0442417,4.006913
-33.37595,2.028067,4.003427
-33.424248,2.013351,4.001439
-33.46956,2.0026402,4.0031495
-33.512333,1.9952743,4.0079556
-33.550865,1.9931409,4.0174594
-33.596012,1.9835157,4.020692
-33.665623,1.946188,4.00043
-33.701775,1.9476795,4.0136366
-33.767696,1.9158759,3.998703
-33.800076,1.9220665,4.0162807
-33.82722,1.9339936,4.0388165
-22.853973,0.8718569,4.1526976
-22.904686,0.8666303,4.120911
-23.008085,0.898932,4.1140356
-23.09367,0.919189,4.099864
-23.250786,0.99159503,4.121033
-23.361164,1.0313528,4.121323
-23.444878,1.0523796,4.109639
-23.59167,1.1205871,4.1307044
-23.67164,1.1402626,4.119364
-23.75508,1.1630433,4.1106634
-23.86982,1.2101083,4.119434
-23.929184,1.2157922,4.099848
-24.053925,1.2721388,4.1164694
-24.122986,1.286313,4.103837
-24.258081,1.3526635,4.129058
-24.302845,1.3488808,4.104493
-24.401085,1.387836,4.1112256
-24.510162,1.436331,4.1255503
-24.560135,1.4378769,4.105994
-24.624819,1.4516406,4.0957427
-24.715816,1.4875109,4.102333
-24.802185,1.5203083,4.107169
-24.875034,1.5424781,4.10451
-24.934578,1.5539176,4.0941296
-25.029402,1.5958567,4.1073318
-25.101315,1.6189363,4.1066446
-25.14667,1.6194696,4.088982
-25.219461,1.6442404,4.090325
-25.338478,1.7105417,4.1244383
-25.371315,1.7011688,4.1000257
-25.437138,1.7215111,4.099131
-25.541847,1.7777638,4.1270027
-25.582214,1.776088,4.1094604
-25.656122,1.805613,4.1170197
-25.733461,1.8390362,4.128122
-25.775356,1.839739,4.1132817
-25.84188,1.8640755,4.1177745
-25.89928,1.8802221,4.115963
-25.973904,1.9135456,4.128487
-26.0134,1.9131736,4.1137705
-26.061508,1.921453,4.106358
-26.148544,1.968969,4.131652
-26.191893,1.9734092,4.121642
-26.227364,1.9700227,4.105299
-26.281982,1.986425,4.1056795
-26.352951,2.020297,4.121028
-26.402264,2.0322087,4.118217
-26.439735,2.031908,4.1052933
-26.488789,2.044148,4.103194
-26.5457,2.0652807,4.1089225
-26.60572,2.090376,4.1183324
-26.644459,2.0925627,4.108346
-26.687088,2.0992641,4.102421
-26.751297,2.1306167,4.118033
-26.797949,2.1427016,4.117235
-26.835674,2.144854,4.1079936
-26.881493,2.1566157,4.107312
-26.919075,2.1590304,4.098639
-26.986435,2.1971445,4.121548
-27.03053,2.2081528,4.120869
-27.057203,2.198258,4.101871
-27.106298,2.2159228,4.1074424
-27.15153,2.2292805,4.1094046
-27.205708,2.2543554,4.122043
-27.238352,2.2526155,4.1109056
-27.269524,2.2490363,4.098237
-27.302223,2.2474837,4.087507
-27.342278,2.255734,4.0857573
-27.39817,2.2855144,4.103689
-27.43253,2.286924,4.09611
-27.465439,2.2864852,4.0869765
-27.500694,2.2894042,4.0810313
-27.54286,2.3022306,4.084296
-27.58207,2.311274,4.0842667
-27.620228,2.3191354,4.083311
-27.658707,2.327777,4.083229
-27.6895,2.3253584,4.073076
-27.72647,2.3322535,4.0716615
-27.769833,2.349169,4.0797
-27.815496,2.370202,4.091758
-27.851936,2.3774867,4.0911884
-27.884491,2.3789153,4.085286
-27.919498,2.384427,4.0833263
-27.954006,2.3893805,4.0809755
-27.986012,2.3904397,4.0750904
-28.0331,2.4169636,4.0933247
-28.069176,2.425602,4.094872
-28.101242,2.4276567,4.090327
-28.134031,2.4311466,4.087257
-28.169018,2.4387631,4.0882254
-28.20759,2.4532142,4.095829
-28.25032,2.4758744,4.1114144
-28.28259,2.4797964,4.109282
-28.308397,2.4716558,4.095722
-28.338877,2.4723697,4.090724
-28.373472,2.481295,4.0937133
-28.409616,2.493718,4.100192
-28.449898,2.5150814,4.115421
-28.479322,2.5148263,4.109959
-28.508425,2.5139713,4.104014
-28.534357,2.506381,4.091648
-28.562279,2.502947,4.0833836
-28.59393,2.507782,4.083231
-28.632124,2.5277534,4.097896
-28.667332,2.541689,4.1068363
-28.695633,2.53997,4.100654
-28.720823,2.5307784,4.087272
-28.748112,2.5264544,4.078715
-28.775463,2.5222,4.070308
-28.806366,2.526962,4.070816
-28.839813,2.538701,4.0782676
-28.873838,2.5526102,4.0879683
-28.900335,2.5466049,4.078221
-28.928894,2.5461924,4.074054
-28.956251,2.542398,4.066646
-28.984604,2.5414424,4.0621195
-29.01503,2.5467958,4.063908
-29.043129,2.545301,4.059031
-29.071682,2.5452676,4.055686
-29.10406,2.5578098,4.0648785
-29.133537,2.5614119,4.0653257
-29.163153,2.5657902,4.066636
-29.190737,2.5632896,4.0612144
-29.216837,2.5552878,4.0504103
-29.246012,2.5585015,4.0508327
-29.273344,2.554819,4.044485
-29.30852,2.5826116,4.0695605
-29.335705,2.5790877,4.0635567
-29.361652,2.5700426,4.052128
-29.390238,2.572247,4.0519986
-29.418484,2.5731287,4.050637
-29.446423,2.5726845,4.048037
-29.476868,2.5849178,4.0581985
-29.508308,2.6035423,4.0748506
-29.535742,2.6019287,4.071352
-29.562834,2.5982814,4.0658994
-29.58975,2.5932996,4.059189
-29.616194,2.5848765,4.0491076
-29.643713,2.582838,4.045506
-29.67245,2.589299,4.050515
-29.700613,2.5923238,4.0521636
-29.730736,2.611589,4.070206
-29.75768,2.6063278,4.0637083
-29.784407,2.598322,4.054531
-29.8114,2.5917892,4.0469136
-29.838951,2.5902507,4.0443964
-29.866758,2.5915985,4.0448637
-29.89555,2.6063948,4.0589437
-29.923862,2.6177459,4.069647
-29.951323,2.6179044,4.069172
-29.978102,2.604751,4.05538
-30.005423,2.5994139,4.0495358
-30.032806,2.5934415,4.043132
-30.060488,2.5952892,4.044684
-30.088217,2.6014361,4.0506477
-30.115788,2.6020176,4.0510893
-30.143358,2.609716,4.058781
-30.170841,2.611848,4.0609493
-30.19832,2.611937,4.061142
-30.22594,2.6057549,4.0551033
-30.253883,2.5925999,4.042125
-30.281652,2.5893798,4.0392365
-30.309074,2.5946841,4.0450087
-30.336016,2.6071014,4.058023
-30.363655,2.6055026,4.0570097
-30.391016,2.6081986,4.060402
-30.418333,2.6109655,4.0639453
-30.446413,2.6046524,4.05844
-30.474804,2.5963032,4.050974
-30.502592,2.5950627,4.050739
-30.529528,2.6016304,4.058432
-30.556786,2.6047502,4.062742
-30.584354,2.6051278,4.0643787
-30.612984,2.597849,4.0584154
-30.641836,2.589944,4.051913
-30.670818,2.5821176,4.0455804
-30.699928,2.5743685,4.039416
-30.72881,2.5688033,4.035531
-30.755903,2.5738318,4.042344
-30.779903,2.5950465,4.065431
-30.809576,2.585493,4.0578094
-30.8414,2.5662212,4.0405693
-30.87117,2.5582378,4.0347147
-30.898611,2.5615253,4.040206
-30.931105,2.5425174,4.0235395
-30.959122,2.5438616,4.0272737
-30.98558,2.5515614,4.0374217
-31.010859,2.5635114,4.0518765
-31.040499,2.5580902,4.0491214
-31.074175,2.5381198,4.0320063
-31.104502,2.5314803,4.028246
-31.13275,2.5325775,4.032262
-31.160164,2.5365293,4.0391927
-31.189411,2.5342984,4.0400844
-31.215673,2.541864,4.0507593
-31.24625,2.5356221,4.0478635
-31.281246,2.5163002,4.0321517
-31.3133,2.5067806,4.0262394
-31.34408,2.5015044,4.0246186
-31.374949,2.4963155,4.023187
-31.39892,2.5105472,4.0409527
-31.424706,2.5193114,4.0534086
-31.458174,2.5074606,4.045715
-31.489706,2.5012188,4.043637
-31.522701,2.4916286,4.038389
-31.554468,2.4855726,4.0367126
-31.58464,2.4837265,4.039256
-31.61168,2.4895062,4.049332
-31.640978,2.4898736,4.05422
-31.672667,2.4848466,4.0539565
-31.716623,2.4525762,4.0273533
-31.750559,2.4436688,4.0235868
-31.784956,2.4341822,4.019382
-31.817263,2.4295673,4.020013
-31.842796,2.4393296,4.034633
-31.873156,2.4389606,4.03956
-31.912624,2.4203577,4.0270457
-31.952051,2.4025636,4.0154653
-31.986895,2.3943744,4.0132546
-32.018696,2.392373,4.017098
-32.04336,2.4039605,4.034039
-32.077675,2.3974051,4.033736
-32.10988,2.3949924,4.037504
-32.160473,2.3597426,4.010169
-32.193398,2.356893,4.013808
-32.226376,2.3541393,4.0176563
-32.25706,2.3554971,4.0255103
-32.288124,2.3562717,4.0329175
-32.327194,2.3437922,4.02795
-32.366055,2.332107,4.0238886
-32.40305,2.3238735,4.023219
-32.438927,2.3177497,4.0246687
-32.47322,2.3143888,4.0288367
-32.508423,2.3098078,4.0319953
-32.55622,2.2861762,4.017576
-32.599144,2.270632,4.0108743
-32.641872,2.2558937,4.005102
-32.674553,2.2564192,4.0136046
-32.7122,2.2498212,4.0156636
-32.753613,2.2381043,4.0131683
-32.797977,2.2226043,4.0073814
-32.83091,2.2235737,4.0168467
-32.87091,2.2148676,4.0176053
-32.924404,2.1880898,4.002094
-32.96,2.186172,4.0093904
-32.9927,2.1882486,4.0204396
-33.022915,2.1936517,4.034609
-33.06398,2.1849432,4.036183
-33.106686,2.1744413,4.0363207
-33.159683,2.1512341,4.0252776
-33.214565,2.126302,4.0129495
-33.262085,2.111178,4.0096116
-33.309834,2.0962234,4.006643
-33.364643,2.0731564,3.9967203
-33.402824,2.0706449,4.0051847
-33.441578,2.0676198,4.0133543
-33.490097,2.0533233,4.011812
-33.55136,2.0246718,3.9979644
-33.59437,2.0176923,4.003286
-33.64358,2.0039403,4.0029244
-33.692993,1.9903662,4.002949
-33.745422,1.973841,4.000666
-33.787304,1.9693773,4.0089874
-33.820087,1.9750235,4.026139
-22.716343,0.85488343,4.1271186
-22.842806,0.9015188,4.12875
-22.963358,0.9449682,4.129136
-23.074245,0.9824989,4.126395
-23.197617,1.0296984,4.130866
-23.268232,1.0400546,4.111264
-23.409527,1.1018205,4.1270986
-23.495354,1.1243846,4.1169796
-23.662231,1.2070162,4.1489387
-23.698149,1.1942306,4.1155553
-23.824398,1.2488437,4.129631
-23.874233,1.2470176,4.104643
-23.992891,1.2975721,4.117199
-24.08252,1.3269243,4.115327
-24.145706,1.3365307,4.0997596
-24.272203,1.3957467,4.120581
-24.306887,1.3840578,4.0903835
-24.457277,1.4639404,4.1277056
-24.505884,1.4640777,4.106976
-24.586964,1.4905291,4.106093
-24.684544,1.5310004,4.1161976
-24.727158,1.527288,4.09359
-24.803146,1.5512536,4.0921717
-24.92368,1.612937,4.1199594
-24.958298,1.603585,4.0940204
-25.029892,1.6255996,4.0924153
-25.13036,1.6728766,4.110805
-25.19445,1.6897213,4.1060786
-25.244915,1.6951342,4.092743
-25.331282,1.7323699,4.1047287
-25.397938,1.7529314,4.1040163
-25.480104,1.7879028,4.1151376
-25.560476,1.8220377,4.126062
-25.626734,1.8440635,4.1277165
-25.688168,1.8621938,4.126587
-25.774996,1.9044048,4.145315
-25.807728,1.8967845,4.123941
-25.846264,1.8946521,4.1071844
-25.943274,1.9485255,4.136642
-25.98647,1.9516091,4.1247253
-26.043255,1.9681311,4.124152
-26.083805,1.9691224,4.110935
-26.173834,2.019436,4.139144
-26.207933,2.0147343,4.12167
-26.253544,2.0217311,4.114195
-26.287695,2.017262,4.097226
-26.380646,2.073626,4.132083
-26.422724,2.0781202,4.1232243
-26.463566,2.0815246,4.1136208
-26.49914,2.079503,4.099533
-26.57788,2.1240501,4.1257544
-26.616589,2.1260839,4.1156044
-26.660925,2.1344671,4.1111345
-26.705135,2.1430044,4.1069984
-26.76202,2.1660776,4.1157756
-26.824629,2.1962624,4.131077
-26.856678,2.1921499,4.1164985
-26.898556,2.1994605,4.11213
-26.937628,2.2037592,4.1052747
-26.99796,2.2334774,4.1211796
-27.044102,2.2469568,4.1229067
-27.069613,2.2358358,4.1028395
-27.10359,2.234956,4.0920343
-27.144772,2.2431054,4.0894833
-27.213318,2.2858973,4.1183686
-27.247421,2.2860696,4.109037
-27.274025,2.276722,4.091197
-27.30769,2.2764387,4.0816855
-27.353594,2.2923584,4.0870857
-27.412819,2.3265111,4.109372
-27.447529,2.3285656,4.102502
-27.476978,2.3235998,4.08931
-27.514954,2.3303964,4.0870614
-27.552353,2.3366659,4.084479
-27.59149,2.3456607,4.08457
-27.634571,2.3606572,4.090396
-27.667974,2.3620741,4.0837617
-27.699125,2.3603165,4.074289
-27.736012,2.3671746,4.0729833
-27.777124,2.3807225,4.078093
-27.822742,2.40165,4.090307
-27.864634,2.4174645,4.097905
-27.894125,2.414269,4.087742
-27.9249,2.413138,4.079628
-27.958138,2.4160693,4.075469
-27.996967,2.4283907,4.0803466
-28.049927,2.464767,4.108262
-28.081093,2.4653962,4.102348
-28.10837,2.4594483,4.090261
-28.137644,2.4569087,4.0815187
-28.17977,2.477181,4.094738
-28.212648,2.4815278,4.0928392
-28.261204,2.5148056,4.1188912
-28.290812,2.5140164,4.112326
-28.319357,2.5112906,4.1039906
-28.349342,2.5113351,4.0984254
-28.383114,2.5188785,4.1002226
-28.414722,2.5224743,4.0983133
-28.452282,2.5383286,4.108425
-28.486624,2.548214,4.112873
-28.514008,2.5439749,4.1036816
-28.53891,2.5343778,4.089344
-28.57271,2.5438588,4.0937243
-28.60236,2.5446014,4.089673
-28.631088,2.543383,4.083796
-28.669306,2.5640535,4.099496
-28.700499,2.5691543,4.100041
-28.725616,2.5599995,4.0866623
-28.75283,2.5556908,4.0781293
-28.782852,2.5582964,4.0764995
-28.81202,2.55893,4.073021
-28.84196,2.5617003,4.0717487
-28.876743,2.5775993,4.0835743
-28.911516,2.5942929,4.096313
-28.938128,2.5890818,4.087441
-28.961926,2.575675,4.070504
-28.99135,2.5781703,4.069444
-29.020496,2.5800562,4.067872
-29.053642,2.594447,4.078854
-29.083488,2.5992644,4.080402
-29.113466,2.604856,4.0828204
-29.142517,2.6077638,4.0826535
-29.163858,2.5844345,4.056336
-29.193214,2.588173,4.0571623
-29.220984,2.586443,4.052603
-29.251177,2.5938067,4.0572467
-29.282497,2.6061163,4.0669503
-29.315693,2.6268544,4.085224
-29.341002,2.6164012,4.0722656
-29.366478,2.6060076,4.0594363
-29.393057,2.599853,4.0509434
-29.422142,2.604909,4.053818
-29.45143,2.6114373,4.0582676
-29.479633,2.613164,4.057967
-29.511274,2.6331048,4.0761285
-29.539265,2.6349883,4.0761685
-29.566366,2.6320572,4.0714316
-29.592466,2.6229076,4.0604906
-29.619045,2.6159186,4.0518074
-29.646574,2.6145895,4.048926
-29.675312,2.6217246,4.054691
-29.701876,2.6135433,4.0450397
-29.733212,2.6425247,4.0730977
-29.76088,2.6442895,4.0736895
-29.786081,2.6237142,4.0517244
-29.813025,2.61721,4.0440936
-29.840912,2.619883,4.045845
-29.869577,2.632441,4.0577054
-29.897505,2.6380649,4.0626197
-29.925571,2.6472673,4.0712495
-29.953114,2.650232,4.0736337
-29.98032,2.647657,4.0704765
-30.007147,2.6353316,4.0575023
-30.034468,2.6314921,4.0532217
-30.06161,2.6186018,4.0398326
-30.089329,2.6261282,4.047253
-30.116875,2.6288142,4.049842
-30.144403,2.6484103,4.0696845
-30.171711,2.6526413,4.0740037
-30.19919,2.6408048,4.0620894
-30.226635,2.6388612,4.060303
-30.254135,2.6362872,4.0579576
-30.281927,2.627471,4.049356
-30.309193,2.6327553,4.055151
-30.336843,2.6296928,4.0525556
-30.362923,2.6519456,4.0757303
-30.39016,2.6532292,4.0777054
-30.41902,2.6342552,4.0592117
-30.447193,2.6265721,4.052259
-30.474337,2.6308742,4.057543
-30.502224,2.62754,4.055167
-30.52921,2.6326823,4.061463
-30.558332,2.6196911,4.0494733
-30.583204,2.6410704,4.072372
-30.611408,2.6359224,4.068489
-30.6398,2.6301503,4.064062
-30.669046,2.619561,4.0548515
-30.699268,2.6041603,4.0408707
-30.726149,2.609798,4.0482426
-30.75407,2.609219,4.049414
-30.778852,2.625461,4.067644
-30.80748,2.620835,4.0648937
-30.83761,2.6093147,4.0552826
-30.867638,2.599273,4.04726
-30.897985,2.5886188,4.038718
-30.925632,2.5905766,4.0429626
-30.95292,2.5939963,4.0487595
-30.981697,2.5912294,4.048423
-31.008575,2.596181,4.055923
-31.03866,2.588704,4.051035
-31.071129,2.5729873,4.0379863
-31.102306,2.562912,4.0307007
-31.13046,2.5640097,4.0346975
-31.15778,2.5679493,4.041622
-31.185038,2.571958,4.0486956
-31.215048,2.5670516,4.0469546
-31.245584,2.5608473,4.044017
-31.279867,2.5436893,4.030271
-31.30697,2.548697,4.0387006
-31.33758,2.5434403,4.0370097
-31.367544,2.540335,4.037555
-31.394564,2.5455618,4.046462
-31.42125,2.5515432,4.0561957
-31.452017,2.5466113,4.055208
-31.4882,2.5280566,4.04086
-31.518158,2.5260525,4.0429854
-31.550373,2.5186586,4.039894
-31.58158,2.5140922,4.039699
-31.6094,2.517807,4.0477533
-31.637754,2.5202293,4.0546227
-31.670568,2.5125089,4.0516324
-31.711443,2.487196,4.0315285
-31.742792,2.483769,4.0329947
-31.7742,2.4804316,4.034656
-31.807596,2.4731164,4.0325446
-31.834906,2.4787664,4.043177
-31.86844,2.4716349,4.0414658
-31.90851,2.4517725,4.0275164
-31.943413,2.4428368,4.0243177
-31.97463,2.4414184,4.0285225
-32.008,2.4360526,4.0290194
-32.03643,2.4401917,4.038803
-32.068085,2.4383662,4.0429325
-32.107533,2.4225626,4.03374
-32.14236,2.4155872,4.0331745
-32.17997,2.404042,4.028363
-32.21391,2.3992896,4.0301905
-32.240112,2.40796,4.0449452
-32.27371,2.404057,4.047806
-32.30898,2.3975978,4.0483603
-32.35777,2.3693705,4.0284057
-32.399185,2.353899,4.0207424
-32.433346,2.3504627,4.0246167
-32.461655,2.356367,4.0374184
-32.498848,2.3485117,4.0373697
-32.54525,2.3269653,4.024623
-32.587616,2.31215,4.0183825
-32.62845,2.3001013,4.014905
-32.66947,2.28819,4.0117245
-32.710686,2.2764153,4.0088434
-32.73927,2.283033,4.0231905
-32.787193,2.2623947,4.012413
-32.821873,2.2607653,4.0193944
-32.857525,2.257944,4.0254087
-32.917118,2.2228796,4.001955
-32.953598,2.2196941,4.00799
-32.984764,2.2237132,4.0207477
-33.015877,2.2278185,4.0336914
-33.05439,2.222379,4.0380735
-33.093994,2.2157826,4.041565
-33.147404,2.192051,4.0297427
-33.199127,2.1710734,4.0206556
-33.244965,2.1579309,4.0188503
-33.29466,2.1405015,4.0134115
-33.3462,2.1213517,4.006669
-33.39112,2.1106186,4.007663
-33.442642,2.0924654,4.0022726
-33.479294,2.092144,4.0128994
-33.52959,2.07622,4.009915
-33.573524,2.0680075,4.013946
-33.629234,2.0468035,4.0067945
-33.678547,2.0333042,4.0066433
-33.724113,2.0243444,4.010672
-33.773224,2.011815,4.011814
-33.81277,2.0100033,4.0224442
-33.869686,1.9897642,4.0173845
-22.52144,0.8553457,4.127829
-22.63956,0.89415,4.123581
-22.813791,0.9720106,4.145889
-22.871376,0.97121143,4.1170835
-23.011957,1.0280614,4.127279
-23.102917,1.0513916,4.1157565
-23.213406,1.0890372,4.11457
-23.334057,1.134697,4.119613
-23.459433,1.1846733,4.128441
-23.539139,1.2027199,4.1158137
-23.65601,1.2482708,4.1230097
-23.744047,1.2736173,4.1166544
-23.876196,1.3321745,4.1345325
-23.94719,1.3462965,4.121359
-24.042213,1.3788915,4.1219606
-24.108377,1.3903298,4.1077456
-24.220858,1.4375398,4.12013
-24.304567,1.463537,4.1175756
-24.377172,1.4815083,4.109562
-24.490995,1.5322773,4.126479
-24.552263,1.5425107,4.113632
-24.625427,1.5625703,4.1085544
-24.721533,1.6016023,4.118336
-24.76957,1.6024492,4.09947
-24.865587,1.6427581,4.111225
-24.94516,1.6703448,4.1137094
-24.985174,1.6656024,4.0914826
-25.075161,1.7029469,4.102383
-25.142214,1.7216518,4.0991454
-25.208338,1.7400463,4.0960317
-25.284285,1.7674043,4.1004086
-25.351845,1.7880952,4.0998845
-25.431725,1.8201423,4.108854
-25.52961,1.8689067,4.131775
-25.572447,1.8693935,4.11611
-25.630249,1.8835604,4.111792
-25.72665,1.933358,4.1369534
-25.774805,1.939782,4.126994
-25.826061,1.9493465,4.119864
-25.88669,1.9680259,4.1205516
-25.9672,2.0060372,4.1376753
-25.996511,1.995923,4.114951
-26.054535,2.013483,4.115599
-26.136967,2.0553265,4.137051
-26.190626,2.0697775,4.1357374
-26.220371,2.0608482,4.1147857
-26.269554,2.0713978,4.110586
-26.332354,2.0961046,4.1187706
-26.397167,2.1234977,4.1295924
-26.433258,2.1218305,4.1156263
-26.483421,2.1349716,4.114659
-26.538614,2.1538215,4.1189017
-26.590641,2.169805,4.1209106
-26.62928,2.1717968,4.110896
-26.676958,2.1838062,4.1098633
-26.723328,2.194748,4.108106
-26.792957,2.2319422,4.12983
-26.837132,2.241406,4.1272573
-26.866352,2.2341766,4.10999
-26.909271,2.2426598,4.1068854
-26.968763,2.270721,4.1215453
-27.013935,2.282683,4.122
-27.046743,2.280325,4.109722
-27.085354,2.2850037,4.103943
-27.122328,2.2879124,4.0967126
-27.181911,2.3188148,4.115143
-27.216528,2.3194761,4.1062264
-27.256687,2.327241,4.1039534
-27.287716,2.3236668,4.0914264
-27.32672,2.3303995,4.0885067
-27.372478,2.346221,4.094145
-27.425758,2.3724647,4.109642
-27.455555,2.3680696,4.0969276
-27.485888,2.3644,4.08499
-27.524742,2.3724236,4.0840735
-27.565329,2.3831587,4.0858507
-27.612188,2.4030938,4.096428
-27.648252,2.4082808,4.093343
-27.678823,2.405786,4.083155
-27.70809,2.401424,4.0713086
-27.745342,2.408876,4.0707445
-27.788998,2.4262438,4.079737
-27.834951,2.447689,4.092792
-27.87886,2.466677,4.1037045
-27.90316,2.455625,4.086112
-27.938402,2.4617212,4.084996
-27.97927,2.4771461,4.092961
-28.024332,2.4999642,4.1081977
-28.057858,2.504446,4.105971
-28.088942,2.5050595,4.100135
-28.114964,2.497148,4.0861664
-28.154123,2.5118625,4.094182
-28.187378,2.5167375,4.092808
-28.230602,2.5396824,4.109115
-28.269045,2.5547802,4.1179633
-28.297474,2.5519838,4.1095114
-28.325228,2.5479267,4.099919
-28.359007,2.5553198,4.1016154
-28.393005,2.5634856,4.1041913
-28.425844,2.5697422,4.105018
-28.462595,2.5841603,4.1139836
-28.493176,2.5865865,4.1112823
-28.522413,2.5864053,4.1061125
-28.547825,2.5782118,4.093124
-28.578999,2.5822325,4.092287
-28.609179,2.5843148,4.0896354
-28.63841,2.5844512,4.0851545
-28.677721,2.607706,4.1037254
-28.706747,2.6080275,4.099645
-28.733763,2.6036744,4.091003
-28.763363,2.605509,4.0886106
-28.792377,2.6060638,4.0850363
-28.819492,2.6019287,4.0768676
-28.848251,2.6019542,4.072941
-28.89042,2.637552,4.1047378
-28.918623,2.637083,4.1005363
-28.94263,2.6250627,4.0848255
-28.96924,2.6199417,4.076111
-28.99805,2.6210537,4.073743
-29.025917,2.6195002,4.0687823
-29.05627,2.6255682,4.071589
-29.088053,2.6365304,4.0794325
-29.117731,2.6413984,4.081228
-29.145247,2.6394682,4.076247
-29.170973,2.6314137,4.065153
-29.197414,2.625488,4.0562863
-29.226809,2.6299706,4.0580425
-29.256495,2.6359131,4.0613723
-29.288408,2.6509132,4.0739903
-29.31868,2.6604803,4.081196
-29.345432,2.6563048,4.074531
-29.370304,2.643896,4.05957
-29.396784,2.637774,4.051075
-29.425924,2.643492,4.0547137
-29.45482,2.6485963,4.0578175
-29.48349,2.6530848,4.060384
-29.515287,2.6742985,4.080104
-29.542767,2.6740904,4.07806
-29.568413,2.6635385,4.065532
-29.594696,2.6558275,4.05598
-29.622654,2.65791,4.056514
-29.650364,2.6586757,4.055786
-29.678753,2.6643815,4.060194
-29.706858,2.6687715,4.063343
-29.735676,2.679499,4.0730658
-29.763248,2.6812541,4.0736856
-29.789267,2.6691532,4.0601897
-29.81675,2.6696544,4.0596833
-29.84435,2.6716204,4.060761
-29.871212,2.665295,4.053416
-29.899185,2.672281,4.059803
-29.92756,2.6870093,4.0742207
-29.954859,2.6878672,4.0744886
-29.981928,2.6846106,4.0706134
-30.008629,2.67166,4.0568647
-30.035906,2.669239,4.054005
-30.063389,2.6731668,4.057743
-30.090794,2.6764674,4.0609183
-30.117943,2.6596062,4.043471
-30.145435,2.6853728,4.069876
-30.172647,2.6895819,4.074225
-30.20002,2.6785128,4.062965
-30.227413,2.6744914,4.0590224
-30.25474,2.6747253,4.05953
-30.282286,2.669449,4.0544605
-30.309616,2.6705222,4.0559893
-30.336575,2.6779408,4.064113
-30.363184,2.6889129,4.075959
-30.390072,2.6936784,4.081514
-30.418526,2.6783004,4.066486
-30.447298,2.6623023,4.050909
-30.47422,2.6679783,4.0576415
-30.50127,2.671632,4.062379
-30.528261,2.6753547,4.067265
-30.55485,2.6819305,4.075152
-30.58261,2.6788309,4.07321
-30.610132,2.6778908,4.0735593
-30.638905,2.6686792,4.06553
-30.668158,2.6574597,4.055537
-30.69691,2.6504898,4.0499797
-30.724703,2.6498468,4.0509744
-30.75238,2.6499705,4.052836
-30.777689,2.6626549,4.0675974
-30.806498,2.6566749,4.0633903
-30.837126,2.6424558,4.0508747
-30.867393,2.6310954,4.041372
-30.895382,2.6308975,4.0433307
-30.924177,2.6273127,4.0419292
-30.952206,2.627263,4.0442095
-30.979208,2.6314332,4.0508633
-31.007563,2.6301465,4.052054
-31.037039,2.6247935,4.0492067
-31.069437,2.6091762,4.0360484
-31.098791,2.605372,4.034966
-31.127813,2.603025,4.0354505
-31.156466,2.6021323,4.037496
-31.182814,2.6088805,4.047349
-31.207754,2.619815,4.0615025
-31.237858,2.6143303,4.059165
-31.274214,2.5904093,4.0383544
-31.304657,2.5851097,4.0364184
-31.334951,2.5805805,4.0353565
-31.36263,2.5836613,4.0420365
-31.392267,2.581345,4.0433855
-31.418106,2.589353,4.055174
-31.445913,2.5919652,4.061633
-31.48677,2.5612564,4.034863
-31.51777,2.5565577,4.03423
-31.550522,2.547867,4.0297194
-31.579449,2.5487845,4.0348935
-31.60605,2.555208,4.0456357
-31.632849,2.561019,4.0558467
-31.661358,2.5628338,4.0621696
-31.70513,2.5309076,4.035149
-31.73791,2.5241308,4.0331964
-31.769537,2.520151,4.034121
-31.799948,2.5189571,4.037903
-31.829073,2.5205407,4.0445213
-31.86184,2.514808,4.0440354
-31.899778,2.4991019,4.033869
-31.936602,2.4862018,4.026601
-31.96875,2.4827938,4.0287676
-32.00202,2.4774728,4.029174
-32.03071,2.480933,4.038268
-32.059345,2.4844677,4.0475254
-32.09571,2.4740949,4.043349
-32.13713,2.455193,4.03103
-32.17505,2.4430723,4.025453
-32.20776,2.4403567,4.029119
-32.236206,2.445019,4.040024
-32.268955,2.4424844,4.044084
-32.306576,2.4321268,4.040737
-32.348846,2.4146433,4.0306964
-32.395523,2.390727,4.0146737
-32.424202,2.395877,4.0266356
-32.45492,2.3978233,4.035633
-32.48904,2.3946185,4.039831
-32.537083,2.3706043,4.0243917
-32.576298,2.3604658,4.0223145
-32.61923,2.3452458,4.015591
-32.660156,2.3334246,4.012256
-32.69402,2.3321247,4.018992
-32.729744,2.3283343,4.023514
-32.777588,2.3078437,4.0125284
-32.816383,2.300434,4.0139804
-32.852455,2.2970164,4.019309
-32.89289,2.287924,4.019502
-32.93638,2.2751164,4.0164156
-32.97616,2.2675827,4.018395
-33.01063,2.267212,4.0271454
-33.051094,2.2592893,4.0290775
-33.086147,2.2585049,4.0377283
-33.134945,2.240673,4.0309153
-33.191715,2.213509,4.015812
-33.238544,2.1992183,4.012695
-33.287163,2.1832,4.0082216
-33.331284,2.1730287,4.0092597
-33.378754,2.1592376,4.0072274
-33.42053,2.152518,4.011767
-33.46945,2.1378016,4.009319
-33.52079,2.1207647,4.005027
-33.567974,2.108903,4.005584
-33.6159,2.0965872,4.0059533
-33.66681,2.0813422,4.0039535
-33.719086,2.0650475,4.0012684
-33.765903,2.0551202,4.004428
-33.803104,2.0558286,4.0171103
-33.842033,2.0548096,4.0284367
-22.333792,0.8678551,4.133432
-22.448032,0.9021158,4.1255145
-22.609642,0.96855354,4.1396074
-22.755646,1.0258365,4.1487255
-22.819454,1.0288498,4.1223793
-22.976019,1.0951369,4.139277
-23.025564,1.0893936,4.108035
-23.189388,1.1626716,4.1314797
-23.248554,1.1644757,4.1064253
-23.439865,1.2592623,4.1467543
-23.47954,1.2484782,4.113979
-23.62924,1.3162181,4.137158
-23.688953,1.3205173,4.115948
-23.815723,1.3737192,4.130309
-23.875046,1.3786476,4.1104627
-23.983047,1.4197481,4.1173754
-24.085382,1.457499,4.122504
-24.134602,1.4562111,4.0993586
-24.271854,1.5216842,4.1262345
-24.31418,1.5160034,4.1006083
-24.445133,1.5786061,4.126741
-24.514389,1.5945556,4.1182656
-24.555664,1.5890346,4.0937686
-24.68912,1.6563852,4.125498
-24.731478,1.6524937,4.102969
-24.79142,1.662822,4.0916996
-24.916027,1.72592,4.1220374
-24.955933,1.7210083,4.099645
-25.024162,1.7395339,4.095971
-25.129807,1.7896978,4.117837
-25.152367,1.7711141,4.0853734
-25.242884,1.8099468,4.099112
-25.338911,1.8543477,4.117877
-25.379478,1.8518343,4.099118
-25.481232,1.9027153,4.124106
-25.547256,1.9232696,4.1248302
-25.606428,1.9382658,4.1213326
-25.68495,1.9710104,4.1328316
-25.755877,1.9976418,4.1396866
-25.789726,1.991085,4.119208
-25.86588,2.0235016,4.1315603
-25.928223,2.0438318,4.1341476
-25.97765,2.0525634,4.127245
-26.013794,2.049004,4.110133
-26.086079,2.0800943,4.1227417
-26.149872,2.1037197,4.129343
-26.191233,2.1060483,4.1179514
-26.247173,2.122921,4.119305
-26.296213,2.1333885,4.1153827
-26.361897,2.160927,4.126554
-26.412874,2.1742134,4.125612
-26.443552,2.1670713,4.106995
-26.493103,2.179467,4.1056876
-26.564583,2.215201,4.125234
-26.618198,2.232902,4.129167
-26.648628,2.2263117,4.111747
-26.69336,2.2351513,4.108209
-26.761057,2.2693744,4.1276097
-26.808672,2.2822866,4.128207
-26.843336,2.2811537,4.116356
-26.88076,2.2832253,4.107538
-26.924685,2.2928681,4.105743
-26.985737,2.3225806,4.122411
-27.025988,2.328832,4.117957
-27.05712,2.3245897,4.1040635
-27.091461,2.3241956,4.093814
-27.148203,2.3509023,4.10866
-27.191107,2.3614697,4.10887
-27.229242,2.366511,4.1041436
-27.262228,2.365359,4.0938168
-27.29723,2.3668373,4.0860615
-27.33667,2.3741322,4.0838723
-27.389261,2.39872,4.098041
-27.432703,2.4120417,4.101872
-27.46437,2.4101992,4.091615
-27.496536,2.4090881,4.0821595
-27.532484,2.4131951,4.077755
-27.574892,2.4263997,4.0821166
-27.624928,2.4506807,4.097185
-27.660883,2.4558225,4.094241
-27.688173,2.4488163,4.0798335
-27.723598,2.4535158,4.0767136
-27.757616,2.4563825,4.0719695
-27.812073,2.4898443,4.0967655
-27.853928,2.5053167,4.1044784
-27.883183,2.5020556,4.0942764
-27.908697,2.4930055,4.078568
-27.94473,2.500344,4.078822
-27.985561,2.5156465,4.086949
-28.03302,2.5422258,4.1062174
-28.066858,2.5473208,4.1047387
-28.095482,2.5439749,4.0951347
-28.125706,2.5433383,4.088275
-28.160538,2.550698,4.089357
-28.197514,2.5621276,4.0945663
-28.244373,2.5915291,4.117605
-28.273832,2.59064,4.110981
-28.305109,2.5931482,4.107807
-28.333122,2.5897698,4.0989175
-28.365055,2.5937805,4.0974355
-28.396566,2.5972188,4.0954957
-28.43381,2.6120834,4.105022
-28.469463,2.6243982,4.1121507
-28.498636,2.6241255,4.106862
-28.525534,2.6192472,4.097068
-28.553461,2.6164477,4.089433
-28.582996,2.6170764,4.085316
-28.615904,2.625176,4.088786
-28.648975,2.634047,4.0931444
-28.683975,2.6477304,4.102458
-28.71145,2.6446714,4.0950437
-28.73811,2.6396604,4.0857434
-28.76709,2.6401205,4.082044
-28.79633,2.641335,4.079198
-28.826084,2.6439838,4.077896
-28.855787,2.6467156,4.0767727
-28.894747,2.6739483,4.1005883
-28.920603,2.6673625,4.090224
-28.946316,2.6601608,4.079306
-28.972866,2.6550612,4.070599
-29.00091,2.6541142,4.0661964
-29.029194,2.653922,4.062649
-29.05635,2.650395,4.0557837
-29.094305,2.6803844,4.083228
-29.121931,2.6790729,4.0788183
-29.14791,2.6723633,4.0689692
-29.174599,2.6677709,4.06136
-29.20313,2.6694078,4.060211
-29.232584,2.674547,4.062743
-29.262873,2.6831956,4.06897
-29.296427,2.7049675,4.0887747
-29.32318,2.7014356,4.0826826
-29.348305,2.6911006,4.0696692
-29.373432,2.6801383,4.0560775
-29.399994,2.6747375,4.048283
-29.428604,2.6783519,4.049857
-29.45686,2.6806657,4.0501757
-29.488422,2.6995914,4.0677233
-29.519936,2.7199874,4.086893
-29.546875,2.717713,4.0827456
-29.57238,2.7072272,4.0701876
-29.597824,2.6954222,4.056335
-29.625566,2.6968012,4.056193
-29.652864,2.6954885,4.0533466
-29.680676,2.697702,4.0542326
-29.709572,2.7082853,4.0638704
-29.737585,2.7134137,4.0679436
-29.764772,2.712389,4.0657215
-29.791897,2.710742,4.0629334
-29.818834,2.7070873,4.0581408
-29.845638,2.701424,4.051342
-29.872532,2.6958282,4.04469
-29.900795,2.7069278,4.0554466
-29.929533,2.7278028,4.0764375
-29.956673,2.7279634,4.076005
-29.983595,2.7240362,4.071403
-30.01013,2.7097795,4.056149
-30.037096,2.7011356,4.046803
-30.064482,2.7029605,4.0484104
-30.091822,2.7041624,4.0494514
-30.119108,2.7019682,4.0470414
-30.14647,2.726193,4.0721655
-30.173582,2.7276053,4.0736623
-30.200819,2.7193804,4.0652223
-30.228144,2.7133055,4.059098
-30.255526,2.7086887,4.054567
-30.282593,2.7138472,4.060272
-30.309744,2.715609,4.062526
-30.336666,2.7209063,4.068531
-30.363321,2.729043,4.077562
-30.39035,2.730319,4.079546
-30.4181,2.722659,4.072332
-30.446918,2.7046847,4.054498
-30.474188,2.705483,4.0562286
-30.501669,2.7042747,4.055957
-30.529013,2.7045212,4.0572743
-30.555664,2.7103724,4.0644813
-30.582863,2.71145,4.0668173
-30.609947,2.7132888,4.070021
-30.638447,2.7055223,4.0633593
-30.66773,2.693688,4.052575
-30.695724,2.6909108,4.0512505
-30.723404,2.690277,4.052226
-30.75097,2.6904063,4.0540714
-30.77643,2.7016392,4.0674663
-30.80418,2.7005277,4.068187
-30.834532,2.6870894,4.0562744
-30.865108,2.6737375,4.0445485
-30.894829,2.6652899,4.037975
-30.92405,2.6596751,4.034412
-30.951706,2.6610122,4.0380945
-30.977451,2.6699762,4.0497003
-31.004116,2.674883,4.057209
-31.03272,2.6723118,4.057114
-31.064018,2.660222,4.0473404
-31.095324,2.6489077,4.0384674
-31.12622,2.6397376,4.0318933
-31.155212,2.6374946,4.0325108
-31.18086,2.6462634,4.044477
-31.20702,2.6530442,4.054483
-31.23597,2.6510205,4.055574
-31.268843,2.6374872,4.0450206
-31.303114,2.620647,4.03121
-31.33311,2.6168408,4.0307875
-31.360233,2.6212769,4.038839
-31.387537,2.6251016,4.046349
-31.41581,2.6262813,4.0512557
-31.442232,2.6322813,4.0611324
-31.476862,2.6173537,4.049904
-31.512833,2.5998275,4.036174
-31.544638,2.5932286,4.033609
-31.575703,2.588747,4.0332875
-31.602787,2.5937953,4.042667
-31.628319,2.6022792,4.055581
-31.660038,2.5966945,4.054433
-31.697674,2.5784335,4.0406737
-31.73187,2.568351,4.035253
-31.763699,2.5637364,4.035425
-31.797222,2.5558662,4.0324526
-31.825958,2.558129,4.039707
-31.855997,2.5577962,4.0444655
-31.890795,2.5482078,4.0401173
-31.926786,2.5367289,4.0340166
-31.959124,2.5326827,4.035421
-31.992952,2.526073,4.034399
-32.025814,2.5215564,4.035567
-32.053997,2.5257504,4.0454426
-32.085087,2.5247245,4.050265
-32.13164,2.4967034,4.0286527
-32.169872,2.4840217,4.0222936
-32.203278,2.4800272,4.0245934
-32.233612,2.4813938,4.0322533
-32.26354,2.4835012,4.040737
-32.29988,2.4752011,4.0391817
-32.342896,2.4565434,4.027694
-32.382908,2.4432635,4.0216036
-32.41686,2.439904,4.0252795
-32.440273,2.45293,4.0449114
-32.474644,2.4490976,4.0483456
-32.515156,2.4362829,4.043263
-32.56774,2.406108,4.021679
-32.608368,2.3942442,4.017877
-32.650986,2.379935,4.0119033
-32.68929,2.3722177,4.0123944
-32.72312,2.371059,4.019276
-32.76395,2.3603687,4.017235
-32.807774,2.3459687,4.011848
-32.84518,2.3406792,4.0152535
