x,y,z
-28.584156,3.1977127,1.5180616
-28.624556,3.1941519,1.5103312
-28.676933,3.2129755,1.5505476
-28.721611,3.2183301,1.5619192
-28.767336,3.226294,1.5788827
-28.81643,3.2418454,1.612103
-28.916925,3.2817,1.6973009
-28.933496,3.2282808,1.5827894
-28.972328,3.2231243,1.5716639
-29.013683,3.2238986,1.5732455
-29.055473,3.2260346,1.5777454
-29.132242,3.2130911,1.5498781
-29.369946,3.1904287,1.5009694
-29.409542,3.185954,1.4913316
-29.44924,3.1815798,1.4819126
-29.491337,3.1869845,1.4934478
-29.534565,3.1983976,1.5178571
-29.577263,3.2090862,1.5407166
-29.618238,3.2127242,1.5484753
-29.658484,3.213096,1.5492373
-29.701822,3.2325583,1.5909042
-29.739578,3.2187948,1.5613875
-29.77246,3.166277,1.4488416
-29.807568,3.1197405,1.349114
-29.844547,3.0783522,1.2604165
-29.886902,3.0826926,1.2696972
-29.934078,3.151395,1.4168787
-29.977768,3.1965537,1.5136204
-30.017187,3.1805174,1.4792519
-30.05836,3.2030642,1.5275521
-30.098469,3.204572,1.5307775
-30.13858,3.217179,1.557787
-30.178228,3.2396164,1.6058607
-30.218021,3.2295892,1.5843816
-30.256706,3.2556114,1.6401391
-30.295225,3.2707348,1.6725507
-30.335724,3.2504432,1.6290855
-30.373226,3.2737956,1.6791334
-30.45253,3.2641587,1.6585212
-30.493948,3.2472491,1.6223116
-30.53302,3.250716,1.6297646
-30.618416,3.2136548,1.5504165
-30.743938,3.1903467,1.5005851
-30.790142,3.1658227,1.4480848
-30.828087,3.1784596,1.4752016
-30.87067,3.1718447,1.4610758
-30.908667,3.182993,1.4850087
-30.948774,3.185834,1.4911475
-30.984777,3.2022035,1.5262713
-31.10633,3.2049177,1.5322638
-31.140776,3.2228982,1.5708475
-31.176146,3.2371922,1.6015358
-31.215864,3.2394624,1.6064696
-31.25319,3.247672,1.6241288
-31.38324,3.2300382,1.5865889
-31.475048,3.2104647,1.5448322
-31.514368,3.215163,1.5549865
-31.558245,3.2108645,1.5458722
-31.66709,3.241537,1.611866
-31.708448,3.2421966,1.6133833
-31.764841,3.2877147,1.7110887
-31.807186,3.2861843,1.707922
-31.842905,3.295397,1.727767
-31.989763,3.2633574,1.659513
-32.03541,3.2588005,1.6498823
-32.121418,3.2581782,1.6488147
-32.200092,3.26811,1.6703582
-32.28594,3.2131202,1.5527577
-32.395676,3.1870644,1.4972715
-32.446125,3.1805,1.4833741
-32.490818,3.1812694,1.4851828
-32.537277,3.1801753,1.4830055
-32.5738,3.1907287,1.5057683
-32.605175,3.206911,1.5405831
-32.635452,3.2239408,1.5772157
-32.658417,3.2485144,1.6299958
-32.699234,3.2534378,1.6407137
-32.755386,3.2423844,1.6172357
-32.814617,3.2287796,1.5883017
-32.860806,3.2290413,1.5890536
-32.920425,3.2162,1.5617652
-32.96022,3.2233708,1.577312
-33.004757,3.2259963,1.5831332
-33.086853,3.2381754,1.6096163
-33.126328,3.2457736,1.6260905
-33.17335,3.2465777,1.6280289
-33.26984,3.2467034,1.6287465
-33.31051,3.2536328,1.6438017
-33.353775,3.258398,1.6542311
-33.40859,3.294254,1.731421
-33.390594,3.3484359,1.8475742
-33.435024,3.3515782,1.8545389
-33.489937,3.3466537,1.8442516
-33.537907,3.3474853,1.8462825
-33.59666,3.3403225,1.8312187
-33.645927,3.3407435,1.8323803
-48.012184,2.5518248,0.25665188
-47.94436,2.6196644,0.40236378
-47.95605,2.6720793,0.5155859
-47.98346,2.721416,0.62232876
-48.06179,2.7615242,0.7096696
-48.022076,2.8225882,0.8410692
-47.99054,2.8817258,0.9684019
-48.084442,2.9190974,1.0500145
-47.961624,2.9929397,1.2081895
-48.030785,3.0343237,1.2982316
-48.09752,3.0762563,1.3894405
-48.22097,3.1093726,1.4621959
-48.399616,3.1344042,1.5180612
-48.60176,3.1566615,1.5681825
-48.8918,3.1667297,1.5928831
-49.212494,3.1737483,1.6113191
-49.553574,3.179453,1.6271334
-50.037773,3.1667361,1.6046319
-48.51851,3.4328365,2.1638565
-50.640755,3.1982424,1.6789012
-51.231438,3.1779737,1.6412072
-51.260006,3.2335641,1.7616172
-51.421165,3.272304,1.8469987
-52.103138,3.247231,1.7998953
-52.733566,3.2319813,1.7734952
-53.30052,3.2275221,1.7697644
-54.080032,3.2014287,1.7214994
-54.896873,3.1752062,1.6733551
-9.944784,2.69307,0.25183105
-13.297504,2.7770615,0.44847822
-13.618061,2.7863307,0.46995592
-13.882511,2.7863395,0.47107506
-14.252746,2.8087215,0.5212436
-14.3186245,2.7717385,0.44115448
-15.052937,2.8718638,0.66175556
-15.143662,2.8424282,0.59816265
-15.588436,2.8881114,0.6992607
-15.642203,2.8524647,0.62201405
-15.933764,2.8686762,0.6584325
-16.414913,2.9284236,0.79023504
-16.476776,2.8969362,0.7220516
-16.681072,2.8980017,0.72519207
-17.088394,2.947053,0.83344173
-17.391857,2.974188,0.8936362
-17.60203,2.9808853,0.90903234
-17.684402,2.9578764,0.85934734
-17.735096,2.9273756,0.7932472
-17.78364,2.8963814,0.72606516
-17.78986,2.8547573,0.63560724
-17.800243,2.8139195,0.5468707
-17.813911,2.7736754,0.45943642
-17.81984,2.731165,0.36704016
-17.841713,2.692596,0.28327417
-19.604116,3.0455887,1.0575213
-19.700459,3.0334291,1.0314507
-19.720818,3.0000596,0.95897055
-19.495201,2.8956327,0.7310519
-19.534157,2.8663983,0.6676302
-19.593126,2.8430333,0.6170435
-19.708355,2.836629,0.60354805
-19.532612,2.742422,0.39803123
-19.493526,2.6884918,0.2806058
-25.134481,3.0457044,1.076354
-25.239878,3.069628,1.1287189
-25.346664,3.0953481,1.1849985
-25.44627,3.1177301,1.2339897
-25.541098,3.138101,1.2785883
-25.631248,3.1564274,1.3187213
-25.709648,3.1681569,1.34446
-25.77059,3.1693633,1.3472404
-25.839447,3.176032,1.3619342
-26.24261,3.3673966,1.779613
-26.089556,3.2283604,1.4764905
-26.233051,3.2129397,1.4432535
-26.36033,3.2262383,1.4725084
-26.42691,3.2357574,1.4933906
-26.504309,3.253878,1.5330276
-26.53849,3.240182,1.5032768
-26.588234,3.238275,1.4992347
-26.681847,3.2706838,1.5700192
-26.689808,3.2367609,1.4961572
-26.867233,3.2570622,1.5407472
-26.975796,3.26473,1.5576701
-27.342268,3.291504,1.6166968
-27.388391,3.29085,1.6153569
-27.445337,3.3010826,1.6377492
-27.935585,3.2408004,1.5072308
-28.884956,3.2481458,1.5243578
-28.926432,3.2482255,1.5245676
-28.965004,3.2418494,1.5107064
-29.979763,3.2469137,1.522222
-30.339241,3.2546437,1.5390644
-30.375856,3.2935276,1.6237936
-30.458313,3.2611465,1.5532131
-30.580643,3.2448401,1.5176482
-30.660576,3.2476747,1.5237985
-30.742037,3.2434433,1.5145464
-31.061129,3.2601411,1.5507641
-31.348972,3.2560658,1.5416708
-31.384867,3.2678006,1.5672107
-32.01348,3.2699063,1.5711255
-32.055653,3.2711468,1.5737734
-32.14865,3.2624173,1.5546308
-32.64975,3.2507133,1.5283785
-32.68965,3.2571888,1.542418
-32.73686,3.2560194,1.5397916
-33.054443,3.2670164,1.5631762
-33.13028,3.2851737,1.602581
-33.280342,3.3627353,1.7712154
-33.34673,3.347799,1.7385464
-33.409542,3.3364387,1.7136722
-33.44678,3.3459723,1.7343564
-33.497498,3.3449285,1.7319741
-33.546944,3.345147,1.7323422
-33.597473,3.3447895,1.7314534
-33.64571,3.3464146,1.7348857
-47.965347,2.7335885,0.34998465
-47.972435,2.7866392,0.46520853
-47.999825,2.8358903,0.57209015
-48.031982,2.8842072,0.67691755
-48.145775,2.918624,0.7512007
-48.06344,2.986068,0.8980589
-48.104446,3.032615,0.9989939
-48.34246,3.047559,1.0304375
-48.63212,3.0555253,1.0464988
-48.696457,3.0997477,1.1422758
-48.79775,3.1384976,1.2260036
-49.148933,3.1404471,1.2287226
-49.428146,3.1546807,1.2584276
-50.19347,3.100829,1.1381559
-50.367256,3.1339576,1.2093477
-50.473434,3.1771145,1.302607
-51.84301,3.0509439,1.0226436
-51.257927,3.1893144,1.3256755
-51.281578,3.245822,1.448276
-51.843857,3.2344475,1.4211116
-52.745552,3.1842341,1.3081193
-53.327938,3.1772346,1.2903571
-14.178121,2.8453734,0.34136105
-14.302249,2.8195212,0.28693724
-14.381812,2.785168,0.21312428
-15.047336,2.8710728,0.41264582
-15.132076,2.840088,0.34627056
-15.5528,2.8803554,0.44164848
-15.643284,2.8521862,0.3815117
-15.804424,2.8396983,0.35690832
-16.477482,2.9411926,0.5906329
-16.54643,2.9112177,0.5261402
-16.85961,2.937047,0.58800936
-16.933626,2.9093745,0.5286231
-17.049461,2.891704,0.49184418
-17.72718,3.0082603,0.75858927
-17.767979,2.9753566,0.68715334
-17.79987,2.9402425,0.610713
-17.807606,2.899035,0.5205059
-17.826286,2.860317,0.43592644
-17.818577,2.8146605,0.33568907
-17.760365,2.755529,0.2050662
-19.514618,2.9756267,0.71618605
-19.537077,2.9418237,0.6423588
-19.570728,2.9110794,0.5754118
-19.571613,2.8706567,0.4866948
-19.511087,2.8116794,0.35627317
-19.488117,2.763143,0.24935007
-25.144976,3.064049,0.9896941
-25.250305,3.0875466,1.0427113
-25.358137,3.1134984,1.1011643
-25.450943,3.1314156,1.1417174
-25.545807,3.1514013,1.186852
-25.61063,3.1536422,1.1924968
-25.733723,3.1928444,1.2803316
-25.786118,3.1884434,1.271173
-25.80306,3.1613612,1.2115717
-26.304182,3.4504783,1.8549895
-26.234007,3.3691285,1.6746802
-26.06506,3.2193868,1.3423648
-26.112389,3.21316,1.3290949
-26.168932,3.2134223,1.3302388
-26.261679,3.2393684,1.3884497
-26.331999,3.2503996,1.4134974
-26.368208,3.2374294,1.3852043
-26.422266,3.2374294,1.3857212
-26.495045,3.2516117,1.4177351
-26.53998,3.2455153,1.4046903
-26.567928,3.2265248,1.362998
-26.67252,3.2667265,1.4527702
-26.708292,3.254201,1.4254208
-26.773077,3.2647684,1.449348
-26.831543,3.2707999,1.4631925
-26.82372,3.2226233,1.356667
-26.95942,3.2934065,1.5142584
-26.99896,3.2848885,1.4957709
-27.059235,3.294278,1.5170298
-27.106396,3.2927117,1.5139594
-27.145536,3.2841954,1.4954562
-27.205853,3.2948623,1.5195236
-27.255558,3.2963543,1.5232177
-27.278215,3.272786,1.4712939
-27.354881,3.3001723,1.5324359
-27.410725,3.3085525,1.5513906
-27.450447,3.3015637,1.5362382
-27.494816,3.299241,1.5314336
-27.544744,3.302764,1.539588
-27.590422,3.3022354,1.5387487
-27.63529,3.3010733,1.5364981
-27.674044,3.2935102,1.5200415
-27.718176,3.2918184,1.5166035
-27.770184,3.2991264,1.5331197
-27.817137,3.3011842,1.5379839
-27.863935,3.3033805,1.5431485
-27.909267,3.3041608,1.545167
-27.946457,3.2953389,1.525886
-27.98193,3.2842655,1.5016084
-28.030031,3.28891,1.512176
-28.07153,3.2854724,1.5048184
-28.122581,3.2947044,1.5255451
-28.171818,3.30213,1.5422573
-28.215313,3.3022192,1.5427008
-28.258728,3.3024297,1.5434065
-28.300417,3.3003886,1.539115
-28.344507,3.3020246,1.5429697
-28.376398,3.2855318,1.5066342
-28.41359,3.2766528,1.4871731
-28.4595,3.2813997,1.4979053
-28.503487,3.283487,1.5027375
-28.537554,3.2693222,1.4715471
-28.579895,3.2688303,1.470653
-28.625593,3.2744613,1.4833217
-28.665098,3.269392,1.4722729
-28.707916,3.2704482,1.4747934
-28.754826,3.2796667,1.4953938
-28.79633,3.2789524,1.4939795
-28.88,3.2794697,1.4954467
-28.934685,3.308197,1.5592461
-29.004528,3.2798674,1.4967685
-29.043766,3.274947,1.4860048
-29.205141,3.2660306,1.4667487
-29.248684,3.2734365,1.4832664
-29.408047,3.2596827,1.453196
-29.566475,3.2381294,1.4057751
-29.731375,3.2465203,1.4246001
-29.771862,3.2450857,1.4214706
-30.017601,3.2855666,1.5113101
-30.257128,3.2911344,1.5236497
-30.37378,3.3269663,1.602951
-31.178995,3.3013403,1.5446863
-31.420086,3.3117752,1.566966
-31.465218,3.3038027,1.5491438
-31.68666,3.2807376,1.49716
-31.821356,3.269136,1.4708543
-31.84788,3.294968,1.5278978
-31.978472,3.2918913,1.5204225
-32.116856,3.2804642,1.4943814
-32.431282,3.2760487,1.4827175
-32.689426,3.2931664,1.5188355
-32.957485,3.2597978,1.4430747
-33.213882,3.3332086,1.6032958
-33.24921,3.3444579,1.6278586
-33.302464,3.3406868,1.6190691
-33.35102,3.3411286,1.6196246
-33.39697,3.343915,1.6253786
-33.44342,3.3464727,1.6306167
-33.503384,3.338623,1.6127348
-33.55103,3.3407671,1.6170387
-33.59684,3.3445005,1.624865
-33.64171,3.3490894,1.634584
-47.964176,2.8377151,0.29229498
-47.985107,2.8881502,0.40220356
-48.019035,2.9362292,0.5067158
-48.10115,2.976215,0.59266376
-48.12632,3.025734,0.7004514
-48.18318,3.0700514,0.7962899
-48.203148,3.1202614,0.9056511
-48.704315,3.0959272,0.8434801
-48.8042,3.1351597,0.9273915
-48.85306,3.1823177,1.0295234
-48.979164,3.2182474,1.1057191
-49.166096,3.2459714,1.1628771
-49.57548,3.243369,1.1497593
-50.509243,3.1709182,0.9745779
-51.029366,3.1591563,0.939414
-51.512733,3.154952,0.9214034
-51.8326,3.1742942,0.95776224
-51.9403,3.2219145,1.0597081
-52.28512,3.2407246,1.0944147
-53.129486,3.2011542,0.99253607
-53.533333,3.2178252,1.0214548
-54.086403,3.2193966,1.0146627
10.826487,3.6606917,1.0477176
0.26057816,3.2837176,0.5761781
-15.646,2.895812,0.23488808
-16.065691,2.8918738,0.23880339
-16.365698,2.9114938,0.29109812
-16.55687,2.9083316,0.28981066
-16.857376,2.9310946,0.34902096
-16.992859,2.9173546,0.32267284
-17.1325,2.9051974,0.29992533
-17.737297,3.004614,0.5374522
-17.812609,2.9797857,0.4847679
-17.830435,2.9410553,0.3996458
-17.853172,2.9033504,0.316916
-19.54923,3.0163343,0.6155195
-19.583656,2.985934,0.5491338
-19.519585,2.9273062,0.41742706
-19.512629,2.884374,0.32208252
-19.512188,2.8429382,0.2302165
-25.260752,3.1023962,0.9482684
-25.35612,3.12057,0.9907775
-25.478027,3.1555324,1.0713425
-25.560593,3.1678,1.1003699
-25.61088,3.1607895,1.0856419
-25.770607,3.2224414,1.2266045
-25.776985,3.1887634,1.1513577
-26.305935,3.49079,1.8371215
-26.181059,3.374883,1.5753846
-26.147581,3.316485,1.4440427
-26.083237,3.2360198,1.2627287
-26.140089,3.2360406,1.2637868
-26.267485,3.2850494,1.3757844
-26.300272,3.2695262,1.3415875
-26.328428,3.2505558,1.2995777
-26.376081,3.2453692,1.2887721
-26.438734,3.2512856,1.3030853
-26.496748,3.2542229,1.3106351
-26.534658,3.2423952,1.2847533
-26.565298,3.2249384,1.2461286
-26.685972,3.2770894,1.3649726
-26.720436,3.2632036,1.3343935
-26.779995,3.2692392,1.3488636
-26.794216,3.2389095,1.2810774
-26.636156,2.9245272,0.5735879
-26.709658,2.889747,0.49662542
-26.792559,2.9138691,0.5519304
-26.848907,2.9145691,0.5542917
-26.862766,2.8756604,0.46716404
-27.381138,3.317958,1.4669495
-27.418232,3.3079045,1.4448805
-27.46158,3.3039336,1.436542
-27.50158,3.2967012,1.4208264
-27.547201,3.2952204,1.4180889
-27.593845,3.2950032,1.4181914
-27.640745,3.2952995,1.4194417
-27.684734,3.2926974,1.4141374
-27.732143,3.294021,1.4176812
-27.779076,3.2951024,1.4206676
-27.824213,3.2944105,1.4196401
-27.86895,3.2934635,1.4180255
-27.914263,3.2934096,1.4184155
-27.96201,3.2965608,1.426024
-28.007713,3.2975414,1.4287233
-28.051174,3.2959495,1.4256101
-28.097872,3.2987337,1.4323549
-28.140898,3.297001,1.4289017
-28.1879,3.300823,1.4379663
-28.23022,3.2985573,1.433289
-28.273905,3.2983541,1.4332538
-28.320738,3.3029583,1.4440465
-28.365782,3.3053515,1.4498434
-28.406572,3.301602,1.441781
-28.452671,3.3062024,1.4525313
-28.495867,3.3066108,1.4538221
-28.538744,3.3067436,1.4544816
-28.576895,3.2991047,1.4376149
-28.619976,3.299854,1.4396453
-28.664295,3.3030949,1.4472795
-28.707167,3.3040826,1.4498258
-28.749323,3.3039968,1.4499435
-28.790813,3.3028324,1.4476213
-28.833073,3.303369,1.449122
-28.874496,3.3024259,1.4472799
-28.919037,3.30837,1.4609447
-28.958164,3.3028634,1.4488025
-28.999653,3.3026497,1.448576
-29.0416,3.3037462,1.4512897
-29.084753,3.3081584,1.4614644
-29.125565,3.307076,1.4592524
-29.165476,3.3036926,1.4518495
-29.205875,3.3016157,1.4473801
-29.247389,3.30286,1.4503813
-29.289608,3.3066273,1.4590564
-29.33031,3.306079,1.4580016
-29.370762,3.30483,1.4553618
-29.410656,3.3016696,1.4484076
-29.452625,3.3062785,1.458941
-29.49303,3.3053455,1.4569855
-29.534372,3.308558,1.4643555
-29.574978,3.3090491,1.46559
-29.616198,3.312882,1.474339
-29.65592,3.3095384,1.4669204
-29.695583,3.3054852,1.4578967
-29.73655,3.3092308,1.466423
-29.777384,3.313083,1.4751792
-29.816916,3.3077176,1.4631753
-29.85731,3.308941,1.4659958
-29.897615,3.3098629,1.4681296
-29.938011,3.3125117,1.4741426
-29.978054,3.3112068,1.4712462
-30.017965,3.3067577,1.4612622
-30.058216,3.3084993,1.4652076
-30.09841,3.3103452,1.469378
-30.138527,3.30864,1.4655466
-30.178663,3.3098803,1.4683366
-30.218668,3.314876,1.4795737
-30.258772,3.3138866,1.4773269
-30.298906,3.313,1.4753032
-30.33893,3.3142457,1.4780717
-30.379026,3.314377,1.478322
-30.419373,3.312178,1.473319
-30.459417,3.3133278,1.4758444
-30.499332,3.3153899,1.4804173
-30.538837,3.3199856,1.4906859
-30.57986,3.3145556,1.4783726
-30.62013,3.3144977,1.4781456
-30.660574,3.3137343,1.4763207
-30.700977,3.3134794,1.4756341
-30.741047,3.3149471,1.478816
-30.781096,3.3165174,1.4822211
-30.82163,3.316172,1.4813027
-30.861551,3.3183527,1.4860649
-30.902464,3.317007,1.4828777
-30.941637,3.3218124,1.4935327
-30.983229,3.318665,1.4862685
-31.024017,3.3184445,1.4855886
-31.064568,3.3191342,1.486949
-31.105423,3.3191273,1.486731
-31.144505,3.3240404,1.4975863
-31.186771,3.3206365,1.4896994
-31.22902,3.3177474,1.4829631
-31.269535,3.319372,1.4863839
-31.310045,3.321102,1.4900346
-31.351091,3.3217406,1.4912162
-31.392353,3.3220882,1.491734
-31.434423,3.3209536,1.488903
-31.475782,3.3215237,1.489902
-31.517586,3.3214087,1.4893489
-31.559023,3.3221993,1.4908266
-31.601795,3.3207247,1.4871907
-31.642881,3.32253,1.4909363
-31.683743,3.3248386,1.4958072
-31.725298,3.3260722,1.4982448
-31.767843,3.3258424,1.497375
-31.80873,3.3284793,1.5029578
-31.851372,3.3284779,1.5025835
-31.895636,3.3262436,1.4971642
-31.938444,3.32648,1.4973059
-31.981857,3.3260536,1.4959431
-32.02425,3.3273063,1.4983554
-32.068935,3.3255634,1.4940028
-32.1126,3.3255005,1.4934273
-32.155163,3.3271086,1.4966111
-32.197155,3.329607,1.501791
-32.242214,3.3283594,1.4985127
-32.28708,3.327627,1.4963837
-32.33237,3.3266382,1.4936666
-32.37454,3.329614,1.4998817
-32.418022,3.3311737,1.502893
-32.46088,3.3336182,1.5078878
-32.508526,3.3308482,1.5011067
-32.552883,3.332021,1.5032105
-32.597652,3.3329406,1.5047312
-32.64392,3.3324747,1.5031147
-32.690304,3.3321452,1.501792
-32.739014,3.3296936,1.4956665
-32.78227,3.3330202,1.5025754
-32.828957,3.3330975,1.5021358
-32.87343,3.335553,1.5070543
-32.921856,3.3344107,1.5038357
-32.96605,3.3375,1.5101624
-33.00663,3.3440475,1.5242906
-33.052853,3.3455315,1.526968
-33.101635,3.3449414,1.5249462
-33.15013,3.3448677,1.5240774
-33.19747,3.3460393,1.52601
-33.24662,3.3458927,1.52495
-33.299393,3.3429866,1.5176363
-33.343086,3.3478665,1.5279136
-33.387653,3.3521461,1.5368199
-33.43313,3.3558323,1.5443735
-33.487797,3.3524654,1.5359597
-33.539917,3.3514264,1.5327954
-33.589382,3.3526947,1.5348372
-33.623737,3.3654964,1.5629644
-48.03323,2.9885387,0.3350711
-48.054382,3.0387702,0.44492722
-48.1015,3.0846927,0.5444608
-48.15905,3.128989,0.6400647
-48.266075,3.1657212,0.7174454
-48.401566,3.1985178,0.78524494
-48.74376,3.20113,0.780107
-48.876427,3.2360315,0.8525734
-49.501457,3.2011306,0.7559414
-49.911583,3.1996813,0.739635
-50.145737,3.224472,0.7865672
-50.455406,3.2402296,0.81121445
-50.904366,3.239223,0.7945509
-51.32112,3.2446713,0.7930641
-51.716812,3.254893,0.80270433
-52.55619,3.2126052,0.682765
-52.92633,3.2311313,0.71138906
-53.875328,3.1836288,0.5763974
-54.074272,3.2270346,0.66507435
-2.2604256,3.5045173,0.7437763
-2.6470203,3.4640315,0.6728134
-3.1513557,3.4364512,0.6356249
-17.416672,2.9613538,0.22379112
-17.589659,2.9585567,0.22470856
-17.847576,2.9772615,0.2770462
-25.08701,3.0464313,0.69394016
-25.154709,3.0466087,0.69622374
-25.351397,3.123504,0.87586784
-25.458305,3.1489758,0.9365096
-25.566412,3.1762125,1.0011697
-25.662106,3.1968791,1.0505862
-25.721031,3.19546,1.0489349
-26.307825,3.5288916,1.8205152
-26.324463,3.5055447,1.7679949
-26.153145,3.3593311,1.4318829
-26.237246,3.3780723,1.4765539
-26.243551,3.3454943,1.4027843
-26.163342,3.2534504,1.1918631
-26.275185,3.2915068,1.2810273
-26.270506,3.249433,1.1853862
-26.319777,3.244725,1.1758904
-26.393696,3.2579312,1.2076592
-26.449831,3.2588212,1.2110147
-26.5072,3.260945,1.2171865
-26.554535,3.255862,1.2067366
-26.574614,3.230072,1.1485863
-26.702177,3.2872217,1.2813792
-26.743473,3.2784145,1.2622838
-26.790243,3.2739944,1.2532716
-26.811481,3.2489498,1.1967845
-26.46013,2.8165748,0.2057848
-27.387667,3.314509,1.357738
-27.42921,3.3082008,1.3441572
-27.483885,3.3149683,1.3605881
-27.52649,3.3100266,1.3501105
-27.572748,3.308922,1.3484287
-27.618935,3.3079503,1.3470335
-27.667494,3.3097298,1.3519382
-27.716927,3.3127797,1.3597374
-27.762777,3.3122187,1.3592334
-27.80788,3.3110347,1.3572845
-27.854227,3.3114882,1.3590755
-27.900143,3.3116963,1.3602862
-27.94596,3.3120358,1.3617826
-27.9926,3.3136463,1.3661771
-28.036366,3.3119633,1.3630028
-28.083668,3.3149805,1.3705902
-28.126705,3.312782,1.3662033
-28.167435,3.3076346,1.3550429
-28.216925,3.314493,1.3713856
-28.261185,3.314577,1.3721862
-28.299192,3.3059227,1.3529468
-28.344208,3.3073947,1.3568978
-28.391928,3.3132463,1.3708677
-28.429617,3.304133,1.3505383
-28.472898,3.3036435,1.3499517
-28.52042,3.3102658,1.3656402
-28.566738,3.3154705,1.3780646
-28.609653,3.3153515,1.3782821
-28.647873,3.3071516,1.3599811
-28.69573,3.316243,1.3812599
-28.7374,3.3145154,1.3777518
-28.781092,3.3168168,1.3834548
-28.82505,3.320023,1.3912134
-28.867134,3.3198144,1.3911414
-28.908432,3.3181436,1.3877087
-28.951515,3.32052,1.3935256
-28.993095,3.3198586,1.3923764
-29.03581,3.3220696,1.397789
-29.074558,3.3149114,1.3817453
-29.117804,3.3189254,1.3912563
-29.15836,3.316325,1.3856177
-29.201233,3.3201716,1.3947177
-29.242718,3.3205626,1.3958979
-29.28207,3.3147092,1.3827801
-29.32628,3.3240561,1.4044232
-29.367336,3.32398,1.4044962
-29.407242,3.320031,1.3956962
-29.4484,3.3205633,1.3971362
-29.488813,3.318414,1.3924284
-29.530762,3.3227496,1.4025407
-29.569662,3.314027,1.3827739
-29.611572,3.3189766,1.3942647
-29.653608,3.3256345,1.4096503
-29.693827,3.3232117,1.4042549
-29.734793,3.32529,1.4091411
-29.774366,3.318275,1.393219
-29.815866,3.3249643,1.4086246
-29.856432,3.3253584,1.4096217
-29.896894,3.3250566,1.4090142
-29.937386,3.3252587,1.4095483
-29.977993,3.3275683,1.4148874
-30.01842,3.327979,1.4158735
-30.058825,3.328494,1.4170852
-30.09918,3.3275104,1.4148574
-30.139553,3.3250275,1.4091892
-30.179947,3.3274567,1.414741
-30.220247,3.330791,1.4223499
-30.260645,3.3294206,1.4191895
-30.301065,3.328555,1.4171705
-30.341545,3.327393,1.4144611
-30.381718,3.3303394,1.4211345
-30.421972,3.3317876,1.4243689
-30.462475,3.3309379,1.4223366
-30.503336,3.327792,1.4150405
-30.54371,3.3287518,1.4171214
-30.583414,3.333813,1.4285703
-30.62384,3.3341792,1.4292693
-30.664661,3.3326533,1.4256277
-30.705214,3.33283,1.4258685
-30.745512,3.3343086,1.4290743
-30.785786,3.3358905,1.4325047
-30.826754,3.334787,1.429779
-30.867348,3.3353827,1.4309292
-30.90841,3.3344932,1.4286671
-30.950373,3.3309271,1.4202704
-30.990574,3.333433,1.4257512
-31.031397,3.3340573,1.4269142
-31.07168,3.336374,1.4319382
-31.112217,3.3380017,1.4353724
-31.155613,3.3322132,1.421824
-31.194668,3.338013,1.4347787
-31.236198,3.3375885,1.4334788
-31.27694,3.3392482,1.436934
-31.3182,3.3398306,1.4379115
-31.359125,3.3413095,1.4409285
-31.400616,3.3417153,1.4414759
-31.441757,3.3430169,1.4440608
-31.483707,3.3428578,1.4432883
-31.52592,3.3424194,1.4418626
-31.568836,3.3409216,1.4379978
-31.611637,3.3399315,1.4352808
-31.653858,3.3402286,1.4354973
-31.694752,3.3429763,1.4413118
-31.737743,3.3423307,1.4393425
-31.77985,3.3433561,1.4411855
-31.82298,3.3429441,1.4397225
-31.866192,3.3426507,1.4385157
-31.909222,3.3428624,1.4384527
-31.952314,3.3431928,1.4386458
-31.996014,3.342871,1.4373307
-32.039795,3.3426707,1.4362788
-32.083374,3.3429751,1.4363699
-32.126446,3.3441668,1.438478
-32.167797,3.3477693,1.4460988
-32.21122,3.3488119,1.4478364
-32.25714,3.3469298,1.442853
-32.301643,3.3470795,1.4425125
-32.34623,3.3473547,1.4424443
-32.392193,3.3462439,1.4391813
-32.43663,3.347153,1.4405346
-32.48281,3.346305,1.4378409
-32.524677,3.3504734,1.4466414
-32.57206,3.3487592,1.4419265
-32.617832,3.3490543,1.4418073
-32.66477,3.3483634,1.4394059
-32.710735,3.348926,1.4398661
-32.7579,3.3485096,1.4380603
-32.803303,3.3500824,1.440805
-32.850674,3.3499398,1.4395938
-32.89893,3.349202,1.436996
-32.94575,3.3500772,1.4380865
-32.992657,3.3510902,1.439475
-33.048527,3.34421,1.4227047
-33.097363,3.3440669,1.4213967
-33.141342,3.3484263,1.4304214
-33.17901,3.3583364,1.4521933
-33.22799,3.3585954,1.451757
-33.283127,3.353968,1.440062
-33.3263,3.359561,1.4518557
-33.372974,3.3624136,1.4573278
-33.425064,3.3611279,1.4532571
-33.4737,3.362848,1.4560847
-33.522877,3.3643615,1.4584165
-33.5675,3.369553,1.4691978
-33.62996,3.3615115,1.449481
-48.225403,3.1141746,0.3323822
-48.2951,3.1571143,0.42429447
-48.589096,3.1661527,0.43115997
-48.730576,3.1993728,0.49829388
-48.880196,3.2319798,0.56367016
-49.199276,3.2409735,0.56920433
-49.59462,3.2408867,0.5512023
-50.07891,3.230636,0.50669813
-50.48561,3.233354,0.49430227
-50.942093,3.2316153,0.46977377
-51.401493,3.2318642,0.44945908
-51.703156,3.2543268,0.48528767
-52.56751,3.2090669,0.34606552
-52.950546,3.2262702,0.3665018
-53.515686,3.2240186,0.33568335
-54.245857,3.2057898,0.26205158
-3.2193375,3.6136072,0.5698705
-3.637207,3.5780451,0.5174384
-4.8149548,3.6150362,0.6726756
-5.4480114,3.6062202,0.69264126
-5.5870876,3.5521228,0.5816603
-25.287006,3.1009803,0.6747203
-25.386284,3.1208484,0.7241092
-25.531275,3.1692953,0.8409443
-25.610733,3.1792042,0.8666363
-25.698704,3.1950262,0.90623236
-26.294882,3.5324159,1.7047544
-26.32695,3.5185597,1.6739469
-26.169674,3.3816655,1.352911
-26.211359,3.3721604,1.3324304
-26.327866,3.412663,1.4298091
-26.173754,3.2712414,1.098383
-26.185486,3.2400148,1.0267267
-26.270363,3.259206,1.0738182
-26.31241,3.2489483,1.0515146
-26.372301,3.2515056,1.0593543
-26.434307,3.255984,1.0716782
-26.489937,3.2561748,1.0738769
-26.535244,3.2489061,1.0584993
-26.575144,3.237582,1.0335641
-26.686478,3.2815633,1.1386132
-26.732592,3.2758718,1.1268468
-26.782694,3.273475,1.122797
-26.834461,3.2726378,1.1223855
-26.860382,3.2507215,1.0724449
-27.199509,3.182264,0.9232521
-27.376604,3.3029768,1.2074823
-27.43428,3.311566,1.228847
-27.469921,3.2987976,1.2001419
-27.516321,3.2967236,1.1964731
-27.571558,3.3039565,1.21458
-27.60932,3.2933369,1.1908517
-27.657967,3.2942383,1.1940818
-27.707829,3.296761,1.2010822
-27.755846,3.29758,1.2040687
-27.800465,3.2948241,1.1986661
-27.848598,3.2962852,1.2031093
-27.89753,3.2990053,1.210474
-27.944115,3.2992527,1.2120299
-27.99181,3.301131,1.2173772
-28.037865,3.30127,1.2186351
-28.082949,3.3004098,1.217535
-28.127684,3.299298,1.2158256
-28.174324,3.3009524,1.2205601
-28.219458,3.3008475,1.2211623
-28.262901,3.2985933,1.2167206
-28.307644,3.2983541,1.2169676
-28.353853,3.3005211,1.2228131
-28.399164,3.3016748,1.2262707
-28.44412,3.302573,1.2291107
-28.489925,3.3051245,1.2357903
-28.532558,3.3028266,1.2311268
-28.575191,3.300641,1.2267065
-28.620691,3.303561,1.2341857
-28.668821,3.3116088,1.2536111
-28.714134,3.3151748,1.2625537
-28.75826,3.316938,1.2672691
-28.795197,3.3049173,1.2398033
-28.842354,3.3130908,1.259438
-28.885324,3.3132691,1.260397
-28.925558,3.307746,1.2480397
-28.967463,3.3058164,1.2440486
-29.010538,3.3067172,1.2466378
-29.053537,3.3077319,1.249476
-29.098152,3.313145,1.2625508
-29.140331,3.3128338,1.262259
-29.180767,3.3079512,1.2512894
-29.22213,3.3055134,1.2460041
-29.263918,3.3043547,1.2436838
-29.30657,3.306043,1.2479811
-29.34925,3.3082347,1.2534351
-29.391268,3.308581,1.2545686
-29.433664,3.3106053,1.259594
-29.47477,3.3080325,1.2538891
-29.516766,3.3090987,1.2566466
-29.560272,3.3173451,1.2761211
-29.599924,3.3084145,1.2555461
-29.641779,3.3098066,1.2590108
-29.68343,3.3105211,1.260879
-29.725227,3.3125243,1.2657313
-29.766827,3.3138478,1.2689838
-29.808369,3.3152792,1.2724705
-29.849228,3.3113024,1.2633371
-29.890924,3.3149178,1.2718773
-29.9324,3.3174584,1.2778964
-29.973288,3.3126152,1.2666941
-30.014439,3.3102427,1.2612305
-30.055738,3.3103418,1.2615094
-30.097084,3.3133078,1.2684507
-30.138348,3.3203242,1.2848105
-30.179497,3.3183753,1.2802663
-30.220598,3.3204758,1.2851391
-30.261925,3.3159776,1.274621
-30.302956,3.3190782,1.2817903
-30.34372,3.3246493,1.2946987
-30.3846,3.327171,1.3004842
-30.426899,3.3156106,1.2734437
-30.467716,3.3195264,1.282444
-30.50928,3.3172452,1.276988
-30.549973,3.321371,1.2864428
-30.590355,3.3267803,1.298872
-30.632315,3.3228512,1.2895246
-30.674648,3.3178532,1.2776685
-30.715979,3.3184686,1.2788749
-30.757313,3.3191905,1.2803121
-30.799227,3.3176646,1.276494
-30.840803,3.317817,1.2765694
-30.882622,3.3172934,1.2750516
-30.922304,3.3243203,1.2911162
-30.965666,3.318922,1.2782006
-31.007706,3.3183339,1.2764788
-31.049398,3.3190281,1.277729
-31.0893,3.3249056,1.2910466
-31.132393,3.3219125,1.2836637
-31.174109,3.3229315,1.2856188
-31.21709,3.3209453,1.2805471
-31.257076,3.326462,1.2929549
-31.301338,3.3219807,1.2820277
-31.341051,3.328096,1.2957959
-31.383707,3.327722,1.2944117
-31.427736,3.3247538,1.2869554
-31.47075,3.3242245,1.2851706
-31.514034,3.323426,1.2827373
-31.556988,3.3235142,1.2823563
-31.598938,3.3256435,1.2867165
-31.641754,3.3263445,1.2877269
-31.681479,3.3325334,1.3015289
-31.724516,3.3330727,1.302124
-31.771133,3.3279886,1.2895703
-31.815563,3.3268588,1.2862282
-31.858364,3.3285217,1.2893877
-31.903465,3.3268726,1.2847915
-31.948689,3.3253498,1.2804708
-31.993769,3.3243337,1.2773104
-32.035706,3.327988,1.2850437
-32.080097,3.328351,1.2850642
-32.12767,3.324685,1.2756505
-32.171684,3.3260548,1.2779813
-32.212795,3.3313031,1.289361
-32.26194,3.3265293,1.2772903
-32.303974,3.330887,1.2865472
-32.34908,3.3316197,1.2873068
-32.393936,3.3328514,1.2892122
-32.43464,3.3390424,1.3026996
-32.487106,3.3319805,1.2851567
-32.533188,3.3324869,1.2852974
-32.57901,3.3334937,1.2865887
-32.625942,3.3335257,1.2855735
-32.67016,3.336634,1.2917385
-32.721546,3.3325312,1.2809949
-32.770622,3.3311477,1.2765923
-32.816895,3.332829,1.279345
-32.863224,3.3346422,1.2823849
-32.91152,3.3347745,1.2814593
-32.9576,3.3372202,1.2859335
-33.007652,3.3361893,1.2822328
-33.061436,3.332072,1.2712655
-33.106586,3.3360193,1.2791858
-33.14724,3.3440275,1.2966127
-33.19648,3.3446496,1.2966857
-33.244987,3.3461304,1.2987499
-33.29273,3.3484643,1.3027906
-33.34398,3.3481116,1.3004951
-33.39144,3.351088,1.3059926
-33.443375,3.3506916,1.3035393
-33.489185,3.3553574,1.3129544
-33.548595,3.349688,1.298048
-33.587215,3.3602133,1.3211875
-49.669254,3.2474318,0.21594286
-3.2011642,3.6882863,0.343318
-5.6122646,3.6914163,0.5336175
-25.257086,3.0918221,0.52338505
-25.312878,3.0851102,0.51022625
-25.468956,3.1391106,0.6431947
-25.62999,3.1980183,0.78781176
-25.694794,3.1991928,0.79338026
-26.300856,3.541537,1.6192613
-26.322098,3.5205033,1.571022
-26.195896,3.403639,1.2925305
-26.193924,3.365328,1.2028785
-26.090588,3.2586212,0.9490447
-26.148647,3.2582755,0.95062065
-26.21094,3.2611372,0.95984745
-26.27441,3.2652187,0.97195196
-26.330885,3.2647812,0.9731741
-26.377272,3.2573977,0.95770645
-26.421387,3.2484386,0.93843746
-26.489182,3.257024,0.9611592
-26.539188,3.2528157,0.953197
-26.565718,3.230861,0.9027281
-26.676548,3.2738354,1.007607
-26.737446,3.2791653,1.0223398
-26.785418,3.2746203,1.0134163
-26.836388,3.2726521,1.0106211
-26.881767,3.2662902,0.99729204
-26.928875,3.2614543,0.98758173
-26.999083,3.2764533,1.0252175
-27.088512,3.2175155,0.88975716
-26.826128,2.9302702,0.20612478
-26.894306,2.9403522,0.23201418
-27.326166,3.295,1.0795345
-27.377129,3.2960525,1.0835981
-27.445192,3.3141716,1.1283083
-27.491234,3.3112433,1.1228118
-27.532623,3.303741,1.1063914
-27.580435,3.3028705,1.1057444
-27.627472,3.3014114,1.1036649
-27.673765,3.2993555,1.1001377
-27.727997,3.3061953,1.1177568
-27.773077,3.3033204,1.1122212
-27.819107,3.3016694,1.1095715
-27.866976,3.3023527,1.1124487
-27.912556,3.3005946,1.109488
-27.963253,3.3052404,1.1217313
-28.00775,3.3026357,1.116704
-28.053986,3.3023767,1.1172276
-28.102139,3.3048487,1.1242142
-28.149,3.3059697,1.1279626
-28.192171,3.3023736,1.1204758
-28.24342,3.3101041,1.1398716
-28.287516,3.308254,1.1364803
-28.335691,3.3125238,1.1475983
-28.382648,3.3154306,1.1554503
-28.425764,3.3128242,1.150187
-28.471512,3.3144796,1.155016
-28.515966,3.3143737,1.1556387
-28.560127,3.3140104,1.1556253
-28.603123,3.3118722,1.1513772
-28.640963,3.3007438,1.1257758
-28.685558,3.3014784,1.1282988
-28.732704,3.3072798,1.1428142
-28.773697,3.301787,1.1305175
-28.817665,3.3021178,1.1320105
-28.864332,3.3082957,1.1473427
-28.905209,3.3027515,1.1348567
-28.954319,3.3153026,1.165247
-28.99698,3.3141997,1.1632438
-29.034485,3.300931,1.1323819
-29.07823,3.3023434,1.1362972
-29.12129,3.3023343,1.1368198
-29.169146,3.3155239,1.1685939
-29.212177,3.3165238,1.1714597
-29.25305,3.3114686,1.1599569
-29.295036,3.3096032,1.1559896
-29.339287,3.3151834,1.1696382
-29.380747,3.3119946,1.1624918
-29.424707,3.3178065,1.1766438
-29.46486,3.309804,1.1580524
-29.507483,3.3111956,1.1616888
-29.550468,3.314635,1.170155
-29.591934,3.311598,1.163259
-29.635956,3.321467,1.1869054
-29.677773,3.3209758,1.1859956
-29.719015,3.317098,1.1770444
-29.761726,3.3226473,1.1903944
-29.801804,3.3096576,1.1598272
-29.845272,3.3228095,1.191133
-29.886532,3.3181918,1.1803465
-29.92851,3.32068,1.1863608
-29.970505,3.3248317,1.1962924
-30.012075,3.3236458,1.1935663
-30.053705,3.323345,1.1929135
-30.09537,3.3247075,1.1961775
-30.136946,3.3176162,1.1794086
-30.178585,3.3250299,1.1969543
-30.220583,3.3103712,1.1622262
-30.261936,3.321889,1.1894474
-30.303247,3.3280654,1.204001
-30.345982,3.3125656,1.1672173
-30.387606,3.3150673,1.173029
-30.429117,3.318064,1.1799917
-30.470922,3.3180575,1.1798224
-30.51146,3.3274837,1.2019649
-30.554567,3.318368,1.1801858
-30.596996,3.3151908,1.1724443
-30.6361,3.330751,1.2090487
-30.679714,3.3215811,1.1870747
-30.720531,3.3268728,1.1993222
-30.762197,3.3280048,1.2016997
-30.8051,3.3242111,1.1923885
-30.847742,3.3220785,1.1869903
-30.886686,3.333592,1.2138906
-30.933308,3.3181512,1.1769257
-30.974062,3.3233063,1.1887221
-31.015448,3.3262494,1.1952581
-31.05545,3.3331513,1.2111535
-31.101515,3.3228247,1.1862059
-31.144468,3.321861,1.1834188
-31.18478,3.327929,1.1972733
-31.22918,3.3237314,1.1867762
-31.26903,3.330777,1.2029042
-31.314621,3.3245113,1.1874604
-31.359934,3.3195221,1.1750154
-31.399296,3.327654,1.1936531
-31.442385,3.3278637,1.1934896
-31.484943,3.329332,1.1962852
-31.52731,3.3312938,1.2002273
-31.573368,3.3265216,1.1881766
-31.616045,3.3283348,1.19172
-31.6609,3.3264692,1.1865125
-31.703423,3.3288908,1.191453
-31.752808,3.3200848,1.1697264
-31.789843,3.3318052,1.1966877
-31.835016,3.330421,1.192524
-31.878574,3.3317962,1.1948853
-31.920393,3.3359163,1.2037401
-31.968628,3.330773,1.1905737
-32.01154,3.3336291,1.1963797
-32.05715,3.3328643,1.1935587
-32.101482,3.3340912,1.1954436
-32.146706,3.3343232,1.1949382
-32.194027,3.3320808,1.1885276
-32.242977,3.328123,1.178009
-32.28074,3.3383627,1.2012172
-32.33693,3.3261783,1.1710787
-32.376137,3.3347974,1.1903877
-32.425014,3.3321207,1.1828008
-32.473427,3.3303223,1.1772742
-32.518375,3.3326886,1.1816301
-32.564354,3.3340845,1.18365
-32.610733,3.335246,1.1850829
-32.659607,3.3339965,1.1807461
-32.706512,3.3350656,1.181901
-32.75493,3.334823,1.1799035
-32.79946,3.3386877,1.1876621
-32.851006,3.3358436,1.1794033
-32.896755,3.338894,1.1851649
-32.94824,3.33671,1.1784143
-32.993725,3.3403888,1.185616
-33.042355,3.3413496,1.1863041
-33.086308,3.3467085,1.1974587
-33.1403,3.3433485,1.1877708
-33.19085,3.3433318,1.1860294
-33.229923,3.3533082,1.2081251
-33.283096,3.3514667,1.201962
-33.32795,3.356777,1.2128568
-33.387432,3.3503745,1.1957192
-33.43023,3.357706,1.2113833
-33.47868,3.3606546,1.2165356
-33.52808,3.3630555,1.2203474
-33.5848,3.3601067,1.2113185
-25.513351,3.1752138,0.59421873
-25.59139,3.183249,0.6173487
-25.663748,3.1883454,0.6331878
-25.757378,3.2072856,0.68290806
-25.872633,3.2408824,0.7684579
-25.892689,3.2142923,0.7063861
-25.904917,3.182126,0.63066006
-25.956547,3.1755486,0.6175947
-26.020422,3.1773689,0.625041
-26.152227,3.2261035,0.74718666
-26.256441,3.2574437,0.8266473
-26.328722,3.2675152,0.8540087
-26.38227,3.2647843,0.8500204
-26.443127,3.2675927,0.8595166
-26.494589,3.2638562,0.8529811
-26.539688,3.255534,0.83521223
-26.572859,3.2381625,0.79533815
-26.682562,3.2797937,0.8993201
-26.740347,3.2822192,0.907619
-26.790173,3.2786572,0.9012761
-26.842499,3.2773035,0.90027523
-26.898478,3.2792134,0.9071784
-26.947235,3.2754142,0.90013695
-27.02078,3.2929354,0.94494057
-27.054705,3.2769387,0.90813875
-27.117874,3.2865055,0.93348455
-27.363794,3.32476,1.0342894
-27.387997,3.2999444,0.9758811
-27.456976,3.318472,1.0226822
-27.497839,3.3098257,1.0034747
-27.54586,3.3084197,1.0018077
-27.59725,3.310729,1.0091171
-27.649464,3.3142688,1.0193691
-27.693129,3.3089767,1.0081706
-27.744045,3.3117292,1.0164404
-27.788342,3.307407,1.0075307
-27.838026,3.3093593,1.0137887
-27.887854,3.3118198,1.0212407
-27.937193,3.314062,1.0281291
-27.983084,3.3124397,1.0256243
-28.032139,3.3149612,1.0331159
-28.07472,3.3095732,1.0214338
-28.124105,3.313095,1.0312805
-28.171366,3.3141901,1.0352197
-28.213398,3.3084238,1.0225325
-28.263927,3.3145657,1.0386109
-28.307247,3.3108814,1.0308995
-28.352102,3.3095315,1.0288019
-28.397408,3.3090446,1.0287576
-28.443127,3.309423,1.0307755
-28.48829,3.3091826,1.0312681
-28.533384,3.309065,1.0320258
-28.578629,3.3094435,1.0339508
-28.627657,3.316671,1.0523834
-28.672415,3.3169298,1.0539579
-28.71121,3.3064413,1.0295596
-28.761106,3.3166842,1.0551744
-28.805456,3.3169274,1.0566225
-28.843267,3.30412,1.0265522
-28.89162,3.3128726,1.0484748
-28.93186,3.3047893,1.0297523
-28.975637,3.304357,1.0294604
-29.023714,3.3142471,1.0540342
-29.067709,3.3151922,1.057003
-29.109396,3.310571,1.0465231
-29.151323,3.3064346,1.0371866
-29.19484,3.30658,1.0381465
-29.241173,3.3151972,1.0595002
-29.282965,3.311015,1.0499725
-29.32733,3.3149302,1.0599346
-29.37041,3.3151555,1.0609756
-29.412283,3.3113015,1.0521584
-29.45934,3.3270042,1.0904403
-29.501825,3.3264287,1.089468
-29.542545,3.318325,1.0703335
-29.585617,3.320257,1.0753508
-29.626638,3.312362,1.0566678
-29.670938,3.3213987,1.0787463
-29.712713,3.3171604,1.068821
-29.755688,3.3203022,1.0766463
-29.798237,3.3212578,1.0791779
-29.839031,3.3077672,1.0468888
-29.88249,3.316602,1.0683465
-29.92438,3.3106031,1.0540514
-29.96735,3.3177447,1.0713768
-30.009819,3.3200135,1.0769401
-30.052036,3.3177903,1.07166
-30.094244,3.3122241,1.0583024
-30.136667,3.3148198,1.0645747
-30.178904,3.3271115,1.094172
-30.221115,3.325706,1.0907559
-30.263536,3.320575,1.078342
-30.305676,3.323222,1.0846324
-30.347534,3.328659,1.0976186
-30.389748,3.3284545,1.0969906
-30.431526,3.3325732,1.1067495
-30.47342,3.3348825,1.1121249
-30.517271,3.3227491,1.0826879
-30.559689,3.322599,1.0820856
-30.602259,3.321793,1.0798779
-30.643084,3.3306584,1.1009402
-30.68675,3.3243346,1.0853891
-30.728548,3.3276787,1.0930991
-30.773678,3.3166203,1.0660839
-30.813622,3.3278165,1.0926609
-30.855175,3.3318636,1.1019888
-30.897602,3.332587,1.103281
-30.940607,3.331516,1.1002221
-30.984283,3.3286567,1.0928254
-31.023407,3.3399775,1.1195807
-31.073072,3.320248,1.0714636
-31.114122,3.3260896,1.0849581
-31.15416,3.3343077,1.1041574
-31.19895,3.3301256,1.0934324
-31.23953,3.3366582,1.1085176
-31.287437,3.3259082,1.0818949
-31.332699,3.3220909,1.0719604
-31.369911,3.3361185,1.1050453
-31.413061,3.3370483,1.1065083
-31.456984,3.336587,1.1045876
-31.500206,3.3377464,1.1065488
-31.54504,3.3360186,1.1015139
-31.593067,3.328795,1.0831814
-31.635267,3.3325577,1.0913391
-31.678064,3.3353078,1.0970263
-31.720837,3.3381703,1.1029563
-31.76748,3.3348138,1.0938373
-31.818295,3.3252692,1.069737
-31.85913,3.3318381,1.0845313
-31.900076,3.338137,1.0986485
-31.951765,3.3286333,1.074544
-31.994007,3.3333178,1.0847006
-32.040413,3.3322139,1.0808339
-32.081257,3.3389654,1.095933
-32.12888,3.3366392,1.0890479
-32.172714,3.3395803,1.0948725
-32.217113,3.341907,1.0991802
-32.26594,3.3388789,1.090497
-32.31586,3.3349013,1.0794792
-32.360195,3.3379776,1.0855045
-32.40795,3.3371842,1.0821276
-32.453293,3.3394227,1.0860605
-32.500282,3.3399813,1.0858893
-32.55295,3.3345504,1.0711675
-32.59887,3.3368275,1.0750923
-32.641415,3.342816,1.0879855
-32.68665,3.3460553,1.0941792
-32.73506,3.346208,1.0928531
-32.784653,3.3454344,1.0892429
-32.831482,3.3476467,1.0928421
-32.88131,3.3471606,1.0898538
-32.9309,3.347175,1.0880446
-32.97719,3.3505042,1.0942502
-33.02851,3.3494005,1.0896468
-33.076866,3.3512523,1.0921884
-33.13881,3.3413808,1.0661812
-33.18104,3.3491158,1.082952
-33.23052,3.350715,1.084763
-33.28008,3.3524606,1.0868912
-33.329308,3.3546982,1.0901761
-33.383705,3.3529558,1.0837293
-33.434425,3.354469,1.0851684
-33.481754,3.358866,1.0935969
-33.524666,3.3668017,1.1106181
-33.596115,3.3531423,1.0749254
-25.673534,3.1579103,0.43157005
-25.656845,3.1063566,0.30656672
-25.801414,3.157693,0.43850613
-25.866034,3.1585448,0.44426727
-25.934326,3.162207,0.45696926
-26.039509,3.191199,0.5327387
-26.11582,3.2016342,0.56213665
-26.165606,3.194281,0.54714537
-26.215445,3.1870673,0.53245735
-26.263948,3.1789997,0.5155997
-26.423851,3.252069,0.70048
-26.510399,3.273534,0.7568617
-26.553764,3.263569,0.735044
-26.588491,3.247005,0.69680166
-26.694382,3.2853653,0.79489374
-26.749538,3.2853212,0.7975488
-26.806652,3.2871406,0.8047743
-26.8648,3.2901604,0.8149195
-26.91775,3.2892742,0.81532574
-26.971388,3.2892315,0.8177724
-27.02688,3.2910664,0.82481956
-27.079002,3.2903214,0.8254261
-27.139576,3.2973223,0.84515524
-27.195171,3.3003695,0.85504246
-27.241823,3.2956078,0.84556484
-27.307499,3.3087206,0.880239
-27.353165,3.3035657,0.86969614
-27.399588,3.2992332,0.8611493
-27.471264,3.3199325,0.91438866
-27.51975,3.3183796,0.9126091
-27.566101,3.3148491,0.9059067
-27.616165,3.3153334,0.9090724
-27.66543,3.3152552,0.9108076
-27.70282,3.3025327,0.88131905
-27.764254,3.3162355,0.9169545
-27.817568,3.3215783,0.93192434
-27.861937,3.3170702,0.9225731
-27.907257,3.3137546,0.9161253
-27.953175,3.3112793,0.9117098
-27.999653,3.3096485,0.9093385
-28.047226,3.3095882,0.9107952
-28.094423,3.3093,0.91165066
-28.141531,3.309142,0.9127908
-28.18882,3.3094788,0.9151077
-28.236528,3.3106737,0.919497
-28.282827,3.3101816,0.9197006
-28.330055,3.3112755,0.9237652
-28.376429,3.3114047,0.9254217
-28.422237,3.3109293,0.9255538
-28.468212,3.3109448,0.9268575
-28.514788,3.3121872,0.9311385
-28.560583,3.312455,0.9329877
-28.606081,3.3124776,0.9342017
-28.65213,3.3137307,0.93840027
-28.697056,3.3132617,0.93833494
-28.743107,3.315133,0.9439802
-28.786934,3.3130553,0.93989754
-28.834457,3.3185105,0.9542656
-28.87799,3.3162992,0.94978905
-28.92464,3.3208952,0.9619751
-28.968586,3.320035,0.9607458
-29.013948,3.322645,0.9679923
-29.054539,3.3141837,0.9480591
-29.101137,3.3203888,0.9640517
-29.145493,3.3214877,0.9674921
-29.189901,3.3230782,0.972105
-29.233822,3.3236623,0.97421837
-29.275696,3.3183637,0.96188354
-29.319939,3.3202996,0.9672451
-29.36397,3.321977,0.97193956
-29.406849,3.320012,0.9676795
-29.449757,3.3181577,0.9636588
-29.49344,3.3194242,0.9672508
-29.536701,3.3192978,0.967401
-29.581562,3.3268194,0.986248
-29.623743,3.322398,0.9758153
-29.665974,3.3177063,0.9646902
-29.70953,3.320291,0.9713526
-29.752468,3.3195913,0.9699416
-29.795763,3.321646,0.9752426
-29.839066,3.3245683,0.98263645
-29.88187,3.3238237,0.9810233
-29.92517,3.328859,0.9935279
-29.967587,3.3238,0.9812889
-30.010218,3.3199837,0.97206163
-30.053173,3.321948,0.9769559
-30.096186,3.330074,0.996902
-30.13889,3.329234,0.99486923
-30.181656,3.3251011,0.98474455
-30.22443,3.325615,0.98596525
-30.267307,3.323593,0.98094463
-30.310116,3.3239496,0.9817176
-30.352774,3.326306,0.9873562
-30.395712,3.3249922,0.98397875
-30.43817,3.3287015,0.99286747
-30.481604,3.3238308,0.980721
-30.523716,3.3296463,0.9947057
-30.566189,3.3321717,1.0006037
-30.609188,3.3314097,0.99842215
-30.652805,3.3277423,0.9890952
-30.69524,3.3305972,0.995708
-30.738192,3.3309226,0.9960971
-30.781158,3.33136,0.99672794
-30.824522,3.330403,0.9939122
-30.870195,3.3212888,0.97108126
-30.913921,3.320189,0.9678507
-30.956913,3.3218317,0.9713068
-30.998201,3.3288367,0.9878702
-31.042969,3.325075,0.97802067
-31.083786,3.3330417,0.996881
-31.125633,3.3377407,1.0077052
-31.170122,3.335444,1.0013499
-31.21624,3.329533,0.9861002
-31.259773,3.330463,0.98758745
-31.30104,3.336723,1.0021124
-31.34317,3.3408525,1.0113826
-31.390472,3.3339374,0.9935336
-31.435518,3.3323543,0.9887247
-31.479923,3.3323758,0.9878197
-31.524965,3.3314054,0.9844456
-31.568907,3.332775,0.98678064
-31.61102,3.337584,0.99752474
-31.653673,3.3413937,1.0057845
-31.703438,3.3331633,0.9844475
-31.747961,3.3342693,0.9859996
-31.790686,3.338431,0.9950223
-31.832174,3.344534,1.0087843
-31.877396,3.344888,1.0083871
-31.926634,3.3395221,0.993896
-31.97031,3.3426845,1.0003295
-32.013706,3.3463254,1.0079064
-32.06448,3.33991,0.99071646
-32.109055,3.3423471,0.99526024
-32.152805,3.3459895,1.0027332
-32.199917,3.3454132,0.99979115
-32.253197,3.337403,0.978508
-32.300945,3.336749,0.9752917
-32.339516,3.3473558,0.9997697
-32.389458,3.344443,0.9909153
-32.439598,3.3416784,0.9823818
-32.48295,3.3469045,0.9935012
-32.531403,3.346553,0.99083376
-32.57669,3.3498893,0.997221
-32.627335,3.3476849,0.9899025
-32.68157,3.3421016,0.9741988
-32.73125,3.341618,0.97103405
-32.781063,3.3412805,0.9681859
-32.828503,3.3435419,0.97171307
-32.877808,3.3441896,0.97121334
-32.927586,3.3446321,0.9701624
-32.9786,3.3441787,0.9668517
-33.03052,3.3431847,0.9621568
-33.078354,3.346149,0.9672084
-33.128574,3.3471818,0.96743727
-33.16896,3.356953,0.9892578
-33.218838,3.3586,0.9909234
-33.267986,3.3610764,0.9946003
-33.319683,3.3616536,0.9935241
-33.371925,3.362048,0.9919448
-33.428135,3.3595567,0.98315763
-33.472935,3.3663497,0.9973564
-33.53251,3.361836,0.98344374
-33.592384,3.3575191,0.9699578
-25.853775,3.1646132,0.3023448
-25.984426,3.2089355,0.4195571
-26.033127,3.1998947,0.40056562
-26.159859,3.2441359,0.51723576
-26.209267,3.236527,0.5017147
-26.246279,3.2202926,0.4641981
-26.28866,3.2077143,0.43594933
-26.310547,3.1801999,0.36970186
-26.352753,3.1671128,0.34010696
-26.531487,3.256161,0.5697932
-26.591154,3.25782,0.5774169
-26.681019,3.283196,0.6451297
-26.727139,3.2753365,0.6284561
-26.782957,3.2752707,0.63148594
-26.841906,3.2780523,0.6416669
-26.896538,3.2776654,0.64375687
-26.952225,3.2784536,0.6487608
-27.016815,3.2871802,0.67378426
-27.068111,3.2849445,0.671011
-27.123169,3.286255,0.67714787
-27.183327,3.2925034,0.6956997
-27.230843,3.28767,0.68619585
-27.304783,3.3076355,0.7392497
-27.352644,3.3038168,0.73218966
-27.386286,3.28635,0.6906576
-27.470715,3.3186798,0.77466726
-27.513361,3.310466,0.75637054
-27.553787,3.2999282,0.7321801
-27.602083,3.2974892,0.7283573
-27.660782,3.3063486,0.7529354
-27.708483,3.3038552,0.7488723
-27.760872,3.3067515,0.75832367
-27.804083,3.2996144,0.7424836
-27.85591,3.3024452,0.75167274
-27.903664,3.300841,0.74965954
-27.951654,3.2997222,0.7488198
-28.001575,3.3012176,0.7545023
-28.050783,3.3021445,0.7587104
-28.102596,3.3067696,0.77215433
-28.146652,3.3015645,0.760869
-28.198385,3.3068318,0.77582884
-28.2437,3.303662,0.7695675
-28.292782,3.3059897,0.77705526
-28.340229,3.3063016,0.77943945
-28.384241,3.3017073,0.7694788
-28.433897,3.3058753,0.781445
-28.480616,3.3058531,0.78286123
-28.526592,3.3048732,0.7818351
-28.572092,3.3032928,0.77926207
-28.620905,3.3076353,0.79148436
-28.670715,3.3142934,0.80946016
-28.712372,3.306548,0.79132414
-28.762787,3.315292,0.81443214
-28.80528,3.3092303,0.80043507
-28.852194,3.312038,0.80859756
-28.898605,3.3142426,0.8152089
-28.944551,3.3158414,0.820261
-28.990063,3.3168304,0.8237481
-29.034407,3.3153732,0.8210764
-29.078892,3.3143988,0.8195739
-29.121935,3.3098643,0.8091326
-29.16875,3.3153734,0.8237624
-29.211308,3.3095934,0.81013155
-29.256735,3.3120294,0.8169999
-29.301449,3.3127415,0.8195205
-29.345203,3.3106172,0.8149147
-29.390678,3.3145177,0.82532406
-29.434793,3.3141012,0.8249092
-29.478603,3.3126898,0.82197094
-29.522255,3.31065,0.8174262
-29.566265,3.310204,0.81682634
-29.612291,3.3198807,0.84146786
-29.65514,3.3144758,0.82840586
-29.699022,3.3143733,0.82854986
-29.743965,3.321436,0.84654856
-29.787386,3.3193343,0.84162617
-29.83108,3.3192017,0.8415823
-29.875183,3.3232682,0.85198545
-29.918753,3.3229895,0.8515029
-29.962341,3.3231945,0.8521924
-30.005976,3.324627,0.8559084
-30.049469,3.3239412,0.85429907
-30.092846,3.3170457,0.83715105
-30.136505,3.3232768,0.8527355
-30.180084,3.318835,0.8416424
-30.223598,3.3219433,0.8493571
-30.267328,3.3180983,0.8396783
-30.310642,3.3232892,0.85251904
-30.354078,3.324873,0.8563185
-30.398348,3.317278,0.8371668
-30.441725,3.3202012,0.84423685
-30.485016,3.323235,0.85154724
-30.528543,3.3241518,0.85353565
-30.572056,3.325181,0.8557663
-30.614698,3.3311436,0.8702812
-30.658169,3.332023,0.87206554
-30.702255,3.3300493,0.8666878
-30.74576,3.3311534,0.8689604
-30.789434,3.3316302,0.8696275
-30.831005,3.3403578,0.89086866
-30.874262,3.3421633,0.8947835
-30.918142,3.3418639,0.8934026
-30.963211,3.3379877,0.8830457
-31.006636,3.3397646,0.886776
-31.04928,3.3438635,0.89627314
-31.098864,3.3285592,0.85723305
-31.141222,3.333996,0.86999655
-31.18533,3.3347619,0.871048
-31.230366,3.3334405,0.86684036
