x,y,z
-25.027235,3.4180272,2.8558102
-25.083748,3.4171233,2.849389
-25.111176,3.4016895,2.8168173
-25.206009,3.4208755,2.846818
-25.275711,3.4277055,2.8546162
-25.29438,3.4080973,2.814651
-25.38395,3.4260828,2.8428125
-25.46025,3.4376116,2.8593974
-25.494379,3.4266849,2.8353238
-25.527338,3.4151254,2.810133
-25.623194,3.4386652,2.8488078
-25.678095,3.439897,2.8470182
-25.709648,3.4280782,2.8215203
-25.758005,3.425951,2.8137226
-25.82216,3.433273,2.8232245
-25.880335,3.4374843,2.827129
-25.90827,3.4239314,2.7986364
-25.943256,3.4145772,2.7778454
-26.010376,3.4249635,2.7932267
-26.075888,3.4348516,2.8077826
-26.1277,3.4366124,2.8075223
-26.145695,3.4171386,2.7683578
-26.228455,3.4391456,2.8053675
-26.291029,3.448771,2.819736
-26.321587,3.4377346,2.7961893
-26.348831,3.4244409,2.7685137
-26.396479,3.4248548,2.766097
-26.482853,3.4520516,2.8130836
-26.523687,3.4485636,2.803609
-26.534203,3.4239042,2.755114
-26.593632,3.4336548,2.7701368
-26.638931,3.4336944,2.767291
-26.684128,3.433883,2.7647681
-26.732462,3.4366198,2.7670064
-26.752777,3.4186459,2.7309675
-26.80528,3.4248621,2.7397304
-26.855427,3.429647,2.7458978
-26.902233,3.4321716,2.7479296
-26.947334,3.4336314,2.7480369
-26.960716,3.4099329,2.7014976
-27.01193,3.4165206,2.7111917
-27.080841,3.4380736,2.7487445
-27.118996,3.4347603,2.7401595
-27.158611,3.4327993,2.7341237
-27.182255,3.4172776,2.7028923
-27.228657,3.4213355,2.7081208
-27.295168,3.4434774,2.747078
-27.34002,3.447056,2.751524
-27.366703,3.4344244,2.7257938
-27.405485,3.4327817,2.7205744
-27.447834,3.4346278,2.7219
-27.498951,3.4450636,2.7393022
-27.54093,3.4471977,2.741253
-27.572796,3.4396849,2.7252178
-27.60007,3.4275622,2.700591
-27.634771,3.4227614,2.689672
-27.679955,3.4287646,2.6989923
-27.742613,3.4533834,2.7431922
-27.763947,3.435183,2.7073007
-27.791288,3.4230516,2.6827812
-27.822037,3.4144368,2.6648679
-27.866175,3.4206378,2.6747441
-27.918522,3.436542,2.7028542
-27.957914,3.4382544,2.7044
-27.99757,3.4405217,2.7070212
-27.998611,3.3969705,2.6236835
-28.031038,3.3901694,2.6093202
-28.105133,3.434853,2.6916723
-28.133972,3.4243574,2.670445
-28.17677,3.431572,2.682518
-28.202425,3.4168186,2.6533346
-28.234718,3.4105277,2.640077
-28.275604,3.4158545,2.648695
-28.3195,3.4257507,2.665946
-28.360561,3.4322236,2.676794
-28.393679,3.4276676,2.666916
-28.427164,3.423644,2.6580644
-28.460108,3.4188113,2.6477137
-28.500996,3.4261725,2.6603594
-28.547066,3.442193,2.6893592
-28.58204,3.4412658,2.6864567
-28.610422,3.4296174,2.6633677
-28.638794,3.417579,2.6395612
-28.671886,3.413286,2.6303806
-28.715548,3.4276388,2.6564016
-28.760538,3.4453034,2.6887116
-28.782314,3.4208913,2.641644
-28.814219,3.4146914,2.6289673
-28.847637,3.4113019,2.6216173
-28.884953,3.4157467,2.629088
-28.923876,3.4239485,2.6436844
-28.964691,3.4368336,2.66716
-28.999922,3.438405,2.6692934
-29.030016,3.428622,2.6499925
-29.061316,3.4212012,2.635178
-29.094297,3.4175284,2.6274695
-29.129925,3.4203722,2.6321058
-29.172401,3.441252,2.670877
-29.204994,3.437401,2.6629095
-29.23633,3.429946,2.6481476
-29.26447,3.41288,2.6152248
-29.296728,3.4069533,2.603395
-29.334152,3.416818,2.621468
-29.372995,3.4323373,2.6502733
-29.40855,3.4382505,2.6609278
-29.439642,3.4289775,2.6428618
-29.470459,3.4179251,2.621448
-29.502134,3.409265,2.6045828
-29.53915,3.42203,2.6283078
-29.575708,3.4344332,2.6513772
-29.609734,3.4367173,2.6553097
-29.641535,3.4283986,2.6391845
-29.671791,3.4108567,2.6056113
-29.700708,3.3831477,2.5527997
-29.736643,3.3946054,2.5742002
-29.770815,3.3963807,2.5772848
-29.805305,3.4010403,2.5858579
-29.839436,3.4039257,2.5910945
-29.871355,3.3873217,2.5594273
-29.905123,3.3857162,2.5562024
-29.93946,3.390727,2.5655365
-29.974726,3.4112213,2.6042356
-30.008661,3.417812,2.6166139
-30.042198,3.419358,2.6194563
-30.074999,3.397658,2.57827
-30.108767,3.4003088,2.5832524
-30.142456,3.400713,2.5840006
-30.175995,3.4152043,2.6114693
-30.209314,3.422781,2.6258574
-30.242655,3.424376,2.628934
-30.276983,3.4050605,2.5924077
-30.31133,3.3937674,2.5711079
-30.345133,3.3937588,2.571217
-30.376793,3.4180863,2.617464
-30.41019,3.4191787,2.6197052
-30.44619,3.397518,2.578857
-30.479187,3.403914,2.5911956
-30.512419,3.4075973,2.5984178
-30.545921,3.4090378,2.6014132
-30.580412,3.4045131,2.5931325
-30.610073,3.4275274,2.6370406
-30.644373,3.4236379,2.6300097
-30.681965,3.4045024,2.5941286
-30.717924,3.395229,2.5769544
-30.751648,3.3967319,2.5802126
-30.78661,3.3932183,2.573996
-30.815285,3.4143698,2.6145039
-30.847988,3.4189026,2.6235666
-30.883247,3.4142573,2.6152792
-30.921427,3.4004555,2.5896873
-30.955498,3.4010944,2.591455
-30.98912,3.4032075,2.596037
-31.017687,3.4201746,2.6287465
-31.04991,3.425675,2.6397796
-31.093348,3.400391,2.5926075
-31.12889,3.3977966,2.5883837
-31.162354,3.4008148,2.594801
-31.194082,3.4080524,2.6092186
-31.21715,3.435553,2.661962
-31.255865,3.4255064,2.6437478
-31.292618,3.420609,2.6352959
-31.332699,3.4089568,2.614111
-31.369644,3.404732,2.6069903
-31.40071,3.4129267,2.6233554
-31.43022,3.4239283,2.645041
-31.46089,3.432265,2.6617155
-31.496683,3.430679,2.6596775
-31.548367,3.4001548,2.6030564
-31.583435,3.4010732,2.6058125
-31.605316,3.425158,2.6522965
-31.634819,3.4352646,2.6724248
-31.66789,3.439123,2.6807904
-31.704777,3.4367616,2.6774554
-31.755894,3.412024,2.631977
-31.792995,3.4103587,2.630023
-31.828129,3.4119349,2.6342053
-31.85607,3.4243426,2.6588135
-31.894135,3.4216247,2.6549592
-31.938555,3.4101005,2.634562
-31.980787,3.4022796,2.6211743
-32.019394,3.3999212,2.6180992
-32.047256,3.4123049,2.6427827
-32.082554,3.4145684,2.6484547
-32.125343,3.4072125,2.636075
-32.169765,3.3982286,2.6206741
-32.21131,3.3933463,2.6130204
-32.2398,3.4048312,2.636137
-32.268047,3.416376,2.6593847
-32.3064,3.4157434,2.6597967
-32.352703,3.4060647,2.6432724
-32.39628,3.4000196,2.6336074
-32.430027,3.405401,2.645403
-32.45704,3.4182332,2.671186
-32.492134,3.4220436,2.6800852
-32.534454,3.4181902,2.6746626
-32.582664,3.408449,2.6582575
-32.622498,3.407879,2.6590614
-32.65695,3.4129925,2.6705294
-32.686245,3.4233186,2.6917715
-32.734306,3.4149783,2.6781492
-32.786148,3.4034038,2.658535
-32.8419,3.3886237,2.6329885
-32.867233,3.4031858,2.6622686
-32.90676,3.4043152,2.666501
-32.944965,3.4068222,2.673339
-33.000813,3.3935251,2.650753
-33.05098,3.3858593,2.6387205
-33.07722,3.3996036,2.6666088
-33.12335,3.3959587,2.6621475
-33.172573,3.3899817,2.6533952
-33.223015,3.383348,2.6434731
-33.26677,3.3826482,2.6446323
-33.291073,3.3980827,2.6758032
-33.32115,3.4086506,2.6979518
-33.379204,3.3968732,2.6786609
-33.44334,3.3808417,2.6515489
-33.474022,3.3913722,2.6737437
-33.50189,3.403992,2.6998315
-33.54125,3.4078224,2.7096653
-33.592976,3.402552,2.7026997
-33.654175,3.3906732,2.6835723
-33.691647,3.396537,2.6973057
-33.732388,3.4001286,2.7068768
-33.785984,3.3947568,2.699945
-33.852783,3.38052,2.6767254
-33.901283,3.379487,2.677927
-33.92295,3.3969855,2.7133183
-33.983627,3.388037,2.7000337
-34.052807,3.3738866,2.677256
-34.099503,3.375074,2.6827612
-34.135593,3.3833423,2.7013254
-34.170982,3.3920934,2.7208104
-34.273235,3.3585718,2.6627874
-34.31685,3.3627484,2.6740093
-34.34269,3.3780422,2.7056398
-34.38865,3.3809419,2.7146034
-34.462673,3.3670998,2.6930037
-34.522106,3.3625252,2.6884384
-34.547,3.378642,2.721725
-34.582436,3.3885014,2.7436123
-34.668434,3.3693142,2.7125902
-34.71497,3.3732564,2.723813
-34.751762,3.3828363,2.745349
-34.802208,3.3848784,2.7532182
-34.876495,3.3740556,2.7377825
-34.94387,3.3674974,2.7301917
-34.971375,3.38273,2.762197
-35.02963,3.3815928,2.7645755
-35.130108,3.3586407,2.7275577
-35.165733,3.3700664,2.7528405
-35.199146,3.3826463,2.7802434
-35.271812,3.3753605,2.7718387
-35.354546,3.3634887,2.7552752
-35.38026,3.3803706,2.7906036
-35.446583,3.377309,2.7900834
-35.540077,3.3614764,2.7667174
-35.577732,3.372983,2.7925572
-35.642525,3.3717096,2.7955322
-35.74071,3.3551686,2.771267
-35.790066,3.3618617,2.788711
-35.8394,3.3687248,2.8065224
-35.931328,3.356518,2.7903795
-35.986027,3.3615215,2.8050523
-36.060814,3.357869,2.8043985
-36.1463,3.3499541,2.796287
-36.196842,3.3576276,2.8159828
-36.243576,3.3670874,2.8389158
-36.35703,3.3485265,2.8123107
-36.42761,3.348607,2.8188572
-36.430084,3.3771162,2.8756995
-36.509106,3.3741238,2.876986
-36.59379,3.3692684,2.8751264
-36.71924,3.3486302,2.8456736
-36.76634,3.3596952,2.872087
-36.86837,3.3494785,2.8612785
-36.92342,3.357961,2.883366
-36.993515,3.360901,2.8958588
-37.11315,3.3455071,2.876502
-37.14521,3.3634427,2.915389
-37.220467,3.3654716,2.9266715
-37.269173,3.3775077,2.9554453
-49.610138,1.4290476,0.31272554
-49.693356,1.4717205,0.4097085
-49.64601,1.544177,0.5532956
-49.659367,1.602406,0.6745758
-49.6681,1.6613932,0.79698944
-49.732555,1.707977,0.90028477
-49.66787,1.782315,1.0461679
-49.648582,1.8463373,1.1760578
-49.749863,1.884814,1.2671299
-49.671585,1.9604464,1.4144158
-49.63994,2.0258691,1.5460682
-49.700462,2.072446,1.649476
-49.680107,2.1349618,1.7766085
-49.75995,2.1777124,1.8745251
-49.78614,2.2308633,1.987853
-49.857117,2.2755065,2.0888534
-51.072083,2.1093862,1.8862133
-51.17836,2.15127,1.9858193
-51.18094,2.2120106,2.1125455
-49.82955,2.5102983,2.574088
-49.816315,2.569363,2.6956496
-49.77912,2.6321828,2.8222938
-49.84386,2.6775286,2.9246907
-49.87424,2.7286558,3.0351615
-49.939583,2.774092,3.1380076
-50.086456,2.8067553,3.2239943
-50.40142,2.8138616,3.2767467
-50.76014,2.8158352,3.3241067
-51.15889,2.813597,3.3675613
-51.56474,2.8123274,3.4140072
-51.90754,2.8222148,3.4763584
-52.0924,2.8561845,3.5702763
-52.25048,2.8946915,3.6705909
-53.268578,2.8166893,3.630456
-53.69304,2.8233268,3.6963396
-54.355793,2.800918,3.730219
-4.954685,2.512866,2.8544364
-5.1638947,2.472534,2.7469296
-5.984108,2.5202594,2.7599764
-6.6369534,2.5479708,2.7487912
-7.374153,2.5915868,2.7622266
-7.9697266,2.6177096,2.753984
-8.63492,2.657651,2.767521
-9.153223,2.6781044,2.7557254
-9.631241,2.6948338,2.7404513
-10.784454,2.823629,2.889377
-11.148455,2.8284345,2.8612485
-11.319426,2.802667,2.7893553
-11.368198,2.756771,2.6881647
-11.362261,2.7014167,2.5729647
-11.211422,2.6201859,2.418806
-11.327894,2.3636127,1.8714757
-11.363859,2.3143804,1.7652926
-11.455952,2.2761652,1.6763849
-11.51573,2.231746,1.5779476
-11.48266,2.1685095,1.4499159
-11.483877,2.0546575,1.2134862
-11.573553,2.0162196,1.1247678
-11.559097,1.9555571,1.0005245
-11.454216,1.8746939,0.8435769
-11.474237,1.8205757,0.7296009
-11.488668,1.7649906,0.6132293
-11.498484,1.7081013,0.49470186
-11.44433,1.636116,0.35140038
-21.338589,3.2921853,2.803863
-21.46257,3.2975671,2.8035421
-21.551424,3.292689,2.7855692
-20.979103,2.9745667,2.190627
-21.775326,3.2016683,2.5807123
-21.870966,3.2006617,2.570238
-21.932604,3.188629,2.540451
-22.099422,3.2127767,2.574767
-22.195923,3.2136385,2.5681186
-22.345919,3.2337227,2.5957522
-22.450619,3.2386947,2.5967832
-22.5445,3.2403562,2.5920935
-22.659819,3.2502775,2.6022863
-22.749897,3.2516081,2.5973277
-22.964695,3.2996953,2.6761518
-22.747927,3.1872756,2.4678173
-22.816057,3.1808772,2.4492378
-22.67543,3.0945365,2.287138
-22.650005,3.0513961,2.202454
-22.654993,3.0196433,2.1382027
-22.672176,2.9924347,2.0821238
-22.687534,2.9642906,2.0243526
-23.900366,3.4232705,2.8474894
-23.909037,3.3975348,2.7951636
-24.02195,3.4149692,2.821087
-24.113905,3.4243317,2.832533
-24.134264,3.4037535,2.789709
-24.229507,3.4153144,2.8053622
-24.279076,3.4075725,2.7859988
-24.316883,3.394802,2.757526
-24.371708,3.3896601,2.7430158
-24.49646,3.4162762,2.786605
-24.566029,3.4186506,2.7860384
-24.61809,3.41332,2.7714539
-24.655811,3.4014857,2.7450113
-24.710047,3.3974936,2.732994
-24.803139,3.4122844,2.7555385
-24.862652,3.4114983,2.7495751
-24.8857,3.39317,2.7114053
-24.972946,3.4064686,2.7314982
-25.0735,3.4270327,2.7651029
-25.076038,3.3987637,2.7087417
-25.157475,3.410524,2.726283
-25.228315,3.4173603,2.7348304
-25.274645,3.4117978,2.7205286
-25.319641,3.4056811,2.7052498
-25.407078,3.4224691,2.7324595
-25.47946,3.43176,2.745881
-25.505058,3.4158506,2.7126193
-25.575062,3.4245138,2.7250152
-25.629889,3.4251175,2.7225142
-25.703754,3.4368372,2.7407537
-25.721315,3.416679,2.699736
-25.77708,3.4185607,2.699781
-25.828913,3.4184306,2.6961374
-25.909168,3.435522,2.724678
-25.93159,3.4183412,2.6893325
-25.984877,3.4198723,2.6889544
-26.047094,3.427219,2.6995044
-26.10539,3.4325404,2.7063346
-26.127651,3.4153798,2.6711454
-26.196957,3.4282525,2.6922197
-26.267569,3.442539,2.716024
-26.307457,3.4371974,2.7030983
-26.330076,3.4204485,2.6687999
-26.375305,3.418775,2.662819
-26.435192,3.427317,2.6760726
-26.486324,3.4302504,2.6788468
-26.532263,3.429851,2.675403
-26.561018,3.4174643,2.6494431
-26.600365,3.4126058,2.6376767
-26.658123,3.4212723,2.6514244
-26.706442,3.4234214,2.652947
-26.748232,3.4209683,2.6458344
-26.777378,3.4090817,2.6209593
-26.822338,3.4092531,2.6188645
-26.879549,3.4191961,2.6352682
-26.926208,3.4212978,2.636911
-26.963636,3.416286,2.6251488
-26.993114,3.4049003,2.601359
-27.052914,3.418365,2.6246138
-27.10152,3.423083,2.63137
-27.14508,3.423877,2.6307378
-27.163214,3.4030764,2.5892248
-27.219584,3.415185,2.6100993
-27.273678,3.4258463,2.6282845
-27.318636,3.4288392,2.6319714
-27.366621,3.4348812,2.6414857
-27.392738,3.421115,2.613432
-27.428034,3.4157405,2.6013312
-27.48053,3.426776,2.6204386
-27.52788,3.4333804,2.6311717
-27.56212,3.4275255,2.6182547
-27.586708,3.4120646,2.5870843
-27.631243,3.4165103,2.593811
-27.676407,3.4219465,2.6024594
-27.715258,3.4211557,2.5992875
-27.761665,3.428569,2.6117754
-27.78845,3.4152172,2.5847325
-27.822134,3.4091918,2.5716681
-27.862812,3.4109728,2.5735126
-27.919249,3.4309301,2.6100593
-27.972485,3.448074,2.6412907
-27.978632,3.41057,2.5682678
-28.014582,3.4076295,2.5612206
-28.05303,3.4078221,2.5601816
-28.095253,3.412906,2.5685139
-28.13659,3.417248,2.5754638
-28.179438,3.423897,2.586855
-28.21009,3.4149423,2.568447
-28.24092,3.4060583,2.5501933
-28.278337,3.406023,2.5488849
-28.333014,3.4302735,2.5940685
-28.365051,3.4234455,2.5798235
-28.4151,3.4427288,2.615582
-28.427124,3.4064882,2.545075
-28.466576,3.4105167,2.5516806
-28.507011,3.4164352,2.5619345
-28.550316,3.42736,2.5818129
-28.586983,3.4281871,2.5823722
-28.619827,3.4228764,2.5711951
-28.648312,3.4100611,2.5456495
-28.680418,3.4031165,2.5313768
-28.729422,3.4262426,2.5747948
-28.767756,3.4311523,2.583311
-28.80115,3.4271948,2.5748415
-28.830658,3.4156804,2.5518937
-28.85907,3.401531,2.5239053
-28.899279,3.410876,2.5410295
-28.939842,3.4216933,2.561009
-28.981749,3.4362462,2.5881915
-28.998537,3.3957465,2.5096817
-29.035809,3.4000757,2.5172768
-29.069313,3.3958964,2.5085506
-29.109715,3.4085917,2.5322666
-29.150103,3.4223156,2.5579882
-29.182686,3.4166062,2.5463934
-29.21938,3.421901,2.5559692
-29.247732,3.4040644,2.5211053
-29.283623,3.4072607,2.526691
-29.321917,3.418312,2.5474029
-29.362589,3.4381502,2.5850363
-29.391832,3.4215431,2.5526156
-29.426687,3.423298,2.5555234
-29.456768,3.40775,2.5251741
-29.489006,3.3991413,2.5081906
-29.523012,3.3970282,2.5037208
-29.561596,3.4147232,2.5373802
-29.595015,3.4109607,2.5297823
-29.628513,3.4072824,2.5223675
-29.66131,3.3995547,2.5071807
-29.693563,3.3877718,2.4842114
-29.729494,3.396758,2.5012302
-29.76455,3.4017012,2.510491
-29.799335,3.4058163,2.5181804
-29.834,3.410022,2.5260663
-29.867075,3.4009662,2.5084481
-29.898958,3.3772547,2.4626408
-29.933956,3.3835635,2.4746394
-29.969067,3.3941104,2.4948177
-30.00402,3.4070535,2.5196304
-30.037888,3.4030352,2.5118146
-30.071814,3.3977206,2.5015244
-30.105572,3.3740544,2.4559264
-30.140072,3.3845873,2.4761858
-30.174316,3.392442,2.4913116
-30.20819,3.407299,2.5199385
-30.24221,3.407492,2.5203571
-30.276688,3.3985558,2.5032225
-30.310123,3.4099846,2.525312
-30.34449,3.4053712,2.5165434
-30.379564,3.3943996,2.4955568
-30.411995,3.4120724,2.5297275
-30.445192,3.4192343,2.5436869
-30.481852,3.398406,2.5037942
-30.51769,3.3873405,2.482716
-30.550667,3.3966076,2.500791
-30.585518,3.3935435,2.4951572
-30.616758,3.410789,2.528626
-30.652699,3.4019284,2.51188
-30.686094,3.4064775,2.520959
-30.724506,3.3881717,2.4860868
-30.760817,3.3809803,2.4726238
-30.79401,3.3871763,2.4849372
-30.825369,3.3998652,2.50976
-30.858692,3.4043899,2.5188975
-30.89537,3.3971102,2.505355
-30.93282,3.388104,2.4885173
-30.969515,3.3823981,2.4780512
-31.007595,3.3731441,2.4607882
-31.03856,3.3854191,2.4849377
-31.071836,3.3904788,2.495235
-31.102297,3.4028997,2.5197005
-31.141747,3.3913019,2.4980283
-31.18407,3.3734632,2.464394
-31.206854,3.4042854,2.5242734
-31.241804,3.4047797,2.5259056
-31.273983,3.4117017,2.5399055
-31.311558,3.4064972,2.5306392
-31.356277,3.3864992,2.4929938
-31.392435,3.3855846,2.4920197
-31.413244,3.4158444,2.5509048
-31.445671,3.4218335,2.5632167
-31.482447,3.4193664,2.5593252
-31.511127,3.4322548,2.5849156
-31.56076,3.4066777,2.5367446
-31.593145,3.4130306,2.5498466
-31.622036,3.4252696,2.574253
-31.659124,3.4232976,2.571434
-31.695225,3.4232113,2.572256
-31.738016,3.4125538,2.552847
-31.782267,3.4002542,2.5303254
-31.821987,3.3956294,2.5225396
-31.853048,3.4043941,2.540422
-31.88603,3.410139,2.5525417
-31.926867,3.4045045,2.5429015
-31.972584,3.3923914,2.5208979
-32.018993,3.3799884,2.4983754
-32.03958,3.4032497,2.5441027
-32.072784,3.4090235,2.5563989
-32.10489,3.416192,2.5713816
-32.157646,3.3968506,2.5357199
-32.21167,3.3768244,2.4987993
-32.23387,3.3969254,2.5385718
-32.263836,3.407089,2.5593758
-32.299053,3.410836,2.5679474
-32.336823,3.4116576,2.5709615
-32.404644,3.3781593,2.5085282
-32.435715,3.3874316,2.5277371
-32.466606,3.396777,2.547102
-32.500458,3.4027736,2.560104
-32.54138,3.4011824,2.558671
-32.592506,3.3890815,2.5372524
-32.631744,3.389886,2.5404534
-32.670624,3.391228,2.5447087
-32.70492,3.3973274,2.5580444
-32.743816,3.398883,2.5627632
-32.797836,3.3858533,2.5397782
-32.834373,3.390188,2.5498495
-32.874413,3.3912816,2.5537896
-32.91316,3.3937438,2.56036
-32.957363,3.3913329,2.5577102
-33.016388,3.3758063,2.530209
-33.063835,3.371237,2.523552
-33.079563,3.394832,2.5703397
-33.1318,3.386388,2.5564017
-33.1757,3.385496,2.5568204
-33.22846,3.377395,2.5436268
-33.275623,3.3743622,2.5400767
-33.309555,3.382438,2.5575867
-33.338856,3.394241,2.582169
-33.3796,3.3968353,2.589363
-33.44086,3.3834815,2.5664606
-33.47928,3.3883781,2.5780845
-33.51662,3.394183,2.591456
-33.56552,3.3913424,2.5885468
-33.62206,3.3831172,2.5755315
-33.677837,3.375886,2.5644484
-33.689342,3.4011354,2.6145983
-33.752956,3.3887002,2.5938005
-33.797066,3.3905768,2.599998
-33.85464,3.383248,2.5889263
-33.904057,3.381949,2.5892472
-33.96101,3.3757927,2.580494
-34.002163,3.3806243,2.5924268
-34.058353,3.375609,2.5859218
-34.113617,3.3715596,2.5812888
-34.15968,3.3737974,2.5884933
-34.213516,3.3712578,2.5867968
-34.283104,3.3590932,2.5671468
-34.312683,3.3723898,2.5951915
-34.357857,3.376017,2.6051846
-34.393246,3.3857555,2.6266346
-34.490936,3.3580937,2.5783134
-34.53464,3.3633778,2.5915637
-34.565784,3.3761606,2.6188312
-34.62265,3.3739939,2.6182795
-34.686714,3.368021,2.6107082
-34.729233,3.3746388,2.6266255
-34.787872,3.3723512,2.6260366
-34.831074,3.3789158,2.6419487
-34.91884,3.361262,2.6129737
-34.958977,3.3699958,2.633031
-35.01299,3.3713996,2.6395488
-35.050365,3.3818214,2.662817
-35.167164,3.3508947,2.6096582
-35.173584,3.377814,2.6635408
-35.24983,3.3688543,2.6511736
-35.314754,3.3660836,2.6503224
-35.357746,3.3745794,2.670311
-35.422955,3.37225,2.670415
-35.481358,3.3735774,2.6773276
-35.575138,3.3581758,2.6535707
-35.607018,3.3728344,2.6851296
-35.67437,3.3708086,2.6861153
-35.768494,3.3567078,2.6650672
-35.804623,3.3698626,2.6940384
-35.885616,3.3626761,2.685853
-35.97353,3.3528714,2.6729984
-36.017017,3.3633165,2.6972136
-36.0567,3.37552,2.724681
-36.17428,3.3540168,2.690833
-36.20513,3.3705015,2.7262392
-36.296585,3.3612769,2.7149787
-36.405815,3.3451617,2.6913562
-36.42981,3.3650534,2.733141
-36.49851,3.3665483,2.7416472
-36.560436,3.3711057,2.7557874
-36.705704,3.3425772,2.7102938
-36.73871,3.3594668,2.7469134
-36.817417,3.3584728,2.751369
-36.934685,3.3429759,2.7298713
-36.965214,3.3613553,2.7693844
-37.087135,3.3451815,2.7469811
-37.135006,3.3574185,2.7756414
-37.205093,3.361574,2.789917
-37.260033,3.3715603,2.8147068
-49.69474,1.533591,0.22255659
-49.67977,1.5986931,0.35564184
-49.77717,1.6385765,0.44783115
-49.678978,1.7212305,0.6091089
-49.697945,1.7778332,0.7282491
-49.687233,1.8404889,0.85703754
-49.744423,1.8886256,0.9626384
-49.75051,1.9472694,1.08497
-49.690166,2.019054,1.2279477
-49.668934,2.082387,1.3574209
-49.784843,2.1184227,1.444181
-49.68273,2.1969264,1.5971332
-49.70953,2.2500453,1.7105112
-49.70147,2.3095615,1.8337259
-49.835625,2.3425858,1.9164224
-49.845924,2.398559,2.034307
-50.96515,2.256747,1.8540206
-51.076965,2.2977552,1.9513383
-51.122345,2.3505974,2.0665808
-49.674675,2.6564775,2.555756
-49.76184,2.6980712,2.651989
-49.81771,2.7450547,2.7563224
-49.878693,2.791306,2.8597407
-50.040234,2.8217866,2.9407315
-50.289314,2.8393722,3.0039606
-50.633114,2.8437095,3.049449
-51.011032,2.84466,3.091514
-51.49303,2.8322327,3.1165643
-51.882317,2.8356333,3.1651745
-52.089897,2.8666499,3.252706
-52.270855,2.902295,3.347248
-53.25433,2.8298175,3.2995849
-53.768627,2.8249311,3.3444595
-54.351776,2.813692,3.3834038
-5.371023,2.6397638,2.7249522
-6.0219364,2.6604705,2.7078753
-6.818617,2.7049274,2.727508
-7.554764,2.744954,2.7435088
-8.157951,2.7695346,2.739334
-8.7930565,2.8019931,2.7489119
-9.412563,2.8354402,2.7621012
-10.059826,2.8764253,2.7886972
-10.564396,2.8985028,2.7886906
-11.020075,2.915429,2.7824097
-11.269894,2.9013162,2.729782
-11.331184,2.8572667,2.6315331
-11.367306,2.8091109,2.5270252
-11.374588,2.7559996,2.4148088
-11.256868,2.51472,1.919477
-11.283676,2.463767,1.8103733
-11.390316,2.3716898,1.6081882
-11.456795,2.328276,1.5115142
-11.481794,2.276781,1.4017253
-11.460007,2.2157602,1.2762747
-11.477383,2.1622894,1.1631789
-11.464029,2.1022677,1.0392108
-11.450735,2.041869,0.91452074
-11.688778,2.0345964,0.87848663
-11.467697,1.9292779,0.67862844
-11.481203,1.8736746,0.56179047
-11.48918,1.8165901,0.44242668
-21.035976,3.2580643,2.6185179
-21.43105,3.3432968,2.761805
-21.268944,3.261514,2.6070046
-20.823883,3.091022,2.292861
-21.009329,3.0082874,2.108974
-21.734318,3.2099981,2.465057
-21.828701,3.2081006,2.4538932
-21.885113,3.1939242,2.4206114
-22.060246,3.2202017,2.460844
-22.165262,3.2235122,2.4596024
-22.278074,3.2300906,2.464467
-22.470406,3.2652621,2.5216336
-22.525818,3.253006,2.4925137
-22.586126,3.2426739,2.466979
-22.719734,3.2592478,2.4907746
-22.760778,3.2425346,2.453754
-22.977924,3.2915347,2.5373793
-22.798777,3.1925938,2.3494883
-22.701645,3.12306,2.2153707
-22.641071,3.066445,2.104857
-22.66682,3.0426636,2.0547643
-22.664495,3.007666,1.9839745
-22.686592,2.98205,1.9304895
-23.87142,3.4265776,2.7469578
-23.895153,3.4067645,2.705174
-24.001366,3.4209948,2.72653
-24.069548,3.4199896,2.7197495
-24.121174,3.4123015,2.700633
-24.17505,3.4057474,2.6836815
-24.264313,3.414728,2.695712
-24.320908,3.409934,2.6821852
-24.358501,3.3969374,2.6534185
-24.449173,3.4077935,2.6692219
-24.543716,3.420992,2.689517
-24.60838,3.4211025,2.6854491
-24.642971,3.407565,2.6559024
-24.672798,3.3917928,2.6221948
-24.76477,3.4055197,2.6438308
-24.863214,3.4229949,2.672614
-24.86866,3.3959293,2.6178489
-24.953337,3.4075472,2.6357932
-25.01904,3.4102907,2.6371393
-25.068846,3.4053879,2.6241598
-25.112537,3.3975492,2.6056962
-25.218803,3.422104,2.6483617
-25.275532,3.421674,2.644001
-25.29499,3.4018347,2.603043
-25.403067,3.4291718,2.6512518
-25.471699,3.4361124,2.6610131
-25.486769,3.414184,2.6162095
-25.558998,3.4236617,2.6308851
-25.631477,3.4337826,2.6468573
-25.691484,3.437345,2.6504679
-25.696415,3.4096448,2.5948153
-25.782652,3.4287777,2.6280746
-25.836586,3.4296455,2.6267262
-25.90207,3.437672,2.6390367
-25.914646,3.4142768,2.5916414
-25.989561,3.4285848,2.6160064
-26.047129,3.4327922,2.621212
-26.101477,3.4353437,2.6233177
-26.125458,3.418991,2.5894299
-26.191992,3.4297466,2.607266
-26.254045,3.4381142,2.6206117
-26.305954,3.440272,2.6221566
-26.320528,3.417882,2.5768423
-26.381475,3.4264154,2.5906448
-26.437586,3.432108,2.599071
-26.483416,3.431076,2.5946794
-26.530813,3.431352,2.5928302
-26.549685,3.4116285,2.5527105
-26.601437,3.415257,2.5573463
-26.656734,3.4217975,2.5676112
-26.720772,3.4351947,2.5910783
-26.743353,3.4181697,2.556221
-26.785011,3.4153755,2.5486946
-26.83849,3.421812,2.55893
-26.895262,3.4312158,2.5749125
-26.936544,3.4288716,2.5683618
-26.952826,3.4066665,2.5236444
-26.993803,3.4041083,2.516726
-27.056738,3.419774,2.5449157
-27.109974,3.4280078,2.5588531
-27.137093,3.4145732,2.531094
-27.17487,3.4101217,2.520659
-27.223413,3.4151416,2.5285087
-27.284197,3.431349,2.5579705
-27.339895,3.4436862,2.5800195
-27.364075,3.4278827,2.547811
-27.405066,3.4273562,2.545104
-27.439384,3.4207587,2.5307016
-27.487692,3.4275024,2.5420918
-27.53445,3.433161,2.551423
-27.563623,3.4219036,2.528092
-27.596355,3.4140482,2.5113544
-27.632927,3.4100401,2.5020766
-27.689035,3.4262693,2.5319781
-27.7286,3.4258766,2.529755
-27.76849,3.4260209,2.5285997
-27.789215,3.4055767,2.4876022
-27.82308,3.3991306,2.4737234
-27.875202,3.4131486,2.4995155
-27.934698,3.4362822,2.5430155
-27.971493,3.4340448,2.5373802
-28.002861,3.425498,2.5195355
-28.037943,3.4213085,2.5101585
-28.073421,3.4176419,2.5018167
-28.123722,3.432565,2.529571
-28.147854,3.4149024,2.4941149
-28.18935,3.419302,2.5015001
-28.219233,3.4086819,2.4797468
-28.254473,3.4050648,2.471611
-28.298885,3.4141376,2.4881487
-28.34083,3.4203033,2.4990697
-28.381945,3.4257247,2.508573
-28.409172,3.41118,2.479289
-28.453358,3.421625,2.4986067
-28.489492,3.4203763,2.4952135
-28.541283,3.4438064,2.5398464
-28.576773,3.4423537,2.536109
-28.601795,3.4238226,2.4991612
-28.628578,3.4075384,2.4665961
-28.664717,3.4067652,2.4642339
-28.701582,3.4074159,2.464666
-28.746447,3.422786,2.493781
-28.781553,3.4209976,2.4895115
-28.813643,3.4135268,2.4741955
-28.848154,3.4105814,2.467711
-28.883583,3.409507,2.464891
-28.92072,3.4120936,2.4692268
-28.957327,3.4138901,2.472045
-28.993849,3.415786,2.4750795
-29.029495,3.4159918,2.4748397
-29.062622,3.4104686,2.4634519
-29.095125,3.403233,2.4487433
-29.13939,3.4252594,2.491116
-29.176132,3.4294474,2.4987273
-29.20574,3.4148424,2.469705
-29.236189,3.4016535,2.443459
-29.268661,3.3934906,2.427033
-29.3034,3.3917212,2.423099
-29.348682,3.4234483,2.4845452
-29.384779,3.4277577,2.4925184
-29.418264,3.423575,2.4839382
-29.451218,3.4172134,2.4711251
-29.48491,3.4131975,2.4629078
-29.519579,3.4128916,2.4619513
-29.556036,3.4203832,2.4762359
-29.591473,3.4243438,2.4836478
-29.623886,3.4143293,2.4637947
-29.656813,3.4057558,2.4467726
-29.688084,3.3868146,2.4095225
-29.721653,3.3788543,2.393732
-29.758392,3.3905299,2.416305
-29.795559,3.4077625,2.4497533
-29.829975,3.4068956,2.447874
-29.862833,3.3920078,2.4186287
-29.897419,3.3908594,2.4162364
-29.930756,3.3747714,2.3846836
-29.965878,3.377896,2.3906765
-30.003317,3.4230237,2.4787297
-30.036707,3.404011,2.4415202
-30.070757,3.390094,2.4142828
-30.105288,3.3826437,2.3996959
-30.140032,3.3798394,2.3942037
-30.17451,3.412213,2.4574442
-30.209076,3.4032063,2.4398742
-30.243635,3.4011242,2.4358497
-30.278345,3.3973088,2.4284582
-30.313883,3.382195,2.3990183
-30.348288,3.3872156,2.4089236
-30.382935,3.388225,2.4110146
-30.415003,3.4139059,2.4613104
-30.450611,3.4037087,2.4415503
-30.48513,3.4040706,2.4424329
-30.520834,3.396335,2.4275212
-30.559269,3.3727832,2.3817434
-30.592972,3.3806963,2.3974319
-30.62303,3.4073153,2.4496636
-30.65599,3.4158387,2.466578
-30.694416,3.3976717,2.4313984
-30.734165,3.3759866,2.3893747
-30.764645,3.3956618,2.4281178
-30.798279,3.4009092,2.4387116
-30.829136,3.416199,2.4689245
-30.864166,3.4152741,2.4675074
-30.906147,3.3909378,2.4204206
-30.947,3.372602,2.3850713
-30.975903,3.3931975,2.4257116
-31.011375,3.3926585,2.4251308
-31.042648,3.4043772,2.448483
-31.073305,3.4170675,2.4737453
-31.120398,3.3853102,2.4123302
-31.15453,3.3891964,2.4204621
-31.188951,3.3922708,2.4270306
-31.219202,3.4052958,2.4530191
-31.256094,3.4022663,2.4477239
-31.279947,3.428859,2.5001936
-31.331656,3.3933847,2.4316978
-31.369139,3.3902183,2.4262028
-31.401314,3.3982985,2.442645
-31.432861,3.4073448,2.4609866
-31.466042,3.412908,2.4725595
-31.49864,3.419442,2.48604
-31.53834,3.412755,2.4737935
-31.571589,3.4181376,2.4850726
-31.609545,3.415204,2.4801807
-31.640373,3.4247367,2.4995766
-31.677877,3.4228814,2.4968266
-31.717915,3.4171705,2.4865985
-31.762579,3.404549,2.4629521
-31.803677,3.3982105,2.451559
-31.837204,3.4038177,2.4634233
-31.86622,3.4160664,2.4882174
-31.906065,3.4122293,2.4817586
-31.963509,3.3836808,2.427302
-31.998695,3.387516,2.435813
-32.040188,3.3827636,2.4276628
-32.07184,3.391564,2.4458618
-32.087513,3.4211898,2.5045152
-32.156723,3.3809078,2.4274569
-32.198105,3.377497,2.42202
-32.22959,3.3866723,2.4410324
-32.258427,3.3989215,2.4660254
-32.297745,3.3983934,2.4662504
-32.342594,3.3915746,2.4543047
-32.38991,3.3823419,2.4377131
-32.424786,3.3877172,2.4494658
-32.451973,3.4016652,2.4778476
-32.480015,3.4143953,2.503882
-32.524258,3.4094512,2.4957085
-32.573875,3.3991733,2.477242
-32.61295,3.400405,2.4810872
-32.66556,3.3879216,2.4584265
-32.69039,3.404044,2.4911308
-32.725796,3.409366,2.502963
-32.778587,3.3977325,2.482048
-32.832626,3.3854542,2.4599304
-32.86044,3.3985963,2.4869561
-32.896824,3.4035435,2.4981713
-32.9363,3.4057102,2.504044
-32.99755,3.3883038,2.472178
-33.044674,3.384213,2.466051
-33.073895,3.396182,2.4909253
-33.123077,3.3907282,2.4822326
-33.155396,3.4000344,2.5020175
-33.233185,3.371021,2.448021
-33.2725,3.3749592,2.457539
-33.294613,3.3930697,2.4943585
-33.32677,3.4027967,2.5150561
-33.38736,3.38985,2.4921746
-33.452442,3.3739455,2.4636626
-33.493458,3.3773217,2.4722552
-33.523617,3.3891194,2.4970522
-33.560886,3.3954697,2.5114079
-33.611286,3.3921108,2.5071602
-33.668808,3.3838391,2.4935331
-33.711586,3.3866892,2.5012794
-33.74515,3.396274,2.5219631
-33.792286,3.396269,2.524302
-33.876076,3.370972,2.4782643
-33.9165,3.3763661,2.4910364
-33.95915,3.3803487,2.5011406
-34.00408,3.3829381,2.5086145
-34.07259,3.3700995,2.4866533
-34.13403,3.3624442,2.4746566
-34.162502,3.376495,2.5041418
-34.208393,3.3793442,2.512278
-34.27452,3.3696344,2.496512
-34.330845,3.3665047,2.4933486
-34.36987,3.3743274,2.5110927
-34.411247,3.380786,2.5262709
-34.502266,3.3575969,2.485098
-34.53158,3.3717535,2.515008
-34.56626,3.3826928,2.5388246
-34.62778,3.3781233,2.5332246
-34.700935,3.3672817,2.5157895
-34.750927,3.3700328,2.524201
-34.790714,3.3786793,2.5438285
-34.84205,3.38103,2.5515704
-34.937748,3.3594484,2.5140777
-34.961338,3.377442,2.5515246
-35.00772,3.3831775,2.5658197
-35.087357,3.37159,2.547451
-35.168102,3.3599777,2.5291271
-35.182545,3.3829522,2.5761013
-35.255592,3.3759587,2.566617
-35.341267,3.3630888,2.546152
-35.384098,3.372043,2.5668392
-35.435154,3.3770616,2.5801678
-35.524544,3.363708,2.5590472
-35.59761,3.3587782,2.5538416
-35.623,3.3768249,2.591795
-35.719044,3.361733,2.5676894
-35.790653,3.3585992,2.5660825
-35.843826,3.3642783,2.5810394
-35.902073,3.3678598,2.5921335
-35.988007,3.3593256,2.5806794
-36.057518,3.3585665,2.5838304
-36.12648,3.3583984,2.5881662
-36.221485,3.3473418,2.5723186
-36.275322,3.3544323,2.590335
-36.35606,3.350374,2.5877047
-36.428806,3.3500884,2.5921755
-36.467743,3.364089,2.6232176
-36.536873,3.3658376,2.63161
-36.643547,3.3528032,2.6127472
-36.73309,3.3472521,2.6078582
-36.770508,3.3626962,2.6418343
-36.887558,3.3472164,2.6188445
-36.937412,3.358289,2.644908
-37.031013,3.3528852,2.6407309
-37.12416,3.3481731,2.6379538
-37.186787,3.3552897,2.6570063
-37.229576,3.3699217,2.6899056
-37.351974,3.3557744,2.6701975
-49.60226,1.7290678,0.32931566
-49.65612,1.7783296,0.43651485
-49.65748,1.8386946,0.5623059
-49.665276,1.897392,0.6852641
-49.673073,1.9558134,0.8077216
-49.754467,1.9990706,0.9051328
-49.679337,2.0737033,1.0542226
-49.70306,2.1281738,1.1700711
-49.763466,2.1753972,1.2741246
-49.699104,2.2464278,1.4168725
-49.707024,2.3032496,1.5364494
-49.795265,2.3450348,1.631844
-49.689926,2.4221716,1.7839141
-49.789,2.4619493,1.8762302
-49.794464,2.5184717,1.995256
-49.938038,2.5509334,2.0764074
-50.768044,2.4675107,1.9767919
-51.07661,2.4755998,2.0219398
-49.660133,2.7679539,2.5070004
-49.788536,2.8031545,2.5928173
-50.04145,2.8191643,2.6497545
-51.086525,2.7133265,2.5230775
-50.57814,2.8501103,2.764432
-50.901566,2.85928,2.813685
-51.367344,2.8491397,2.8354607
-51.918953,2.8290234,2.844223
-52.120102,2.8612897,2.9311194
-52.204323,2.9106572,3.0433455
-53.260033,2.8283935,2.967978
-53.72042,2.8309267,3.016449
-54.290405,2.8215065,3.0499701
-5.868101,2.773094,2.6138406
-6.4777184,2.7878,2.5962324
-7.0904026,2.8060784,2.5860348
-7.8948917,2.8543525,2.624207
-8.58276,2.8902624,2.6455379
-9.2625885,2.9286332,2.67279
-9.75992,2.9435556,2.664947
-10.310324,2.9690797,2.6754007
-10.794395,2.9872942,2.6757002
-11.186544,2.9936345,2.6582103
-11.292019,2.9562454,2.5709467
-11.310078,2.9050355,2.461423
-11.274908,2.735348,2.1063242
-11.30858,2.6860666,1.9998922
-11.30168,2.5739794,1.7644882
-11.200235,2.4995904,1.6158457
-11.456173,2.4907608,1.5776086
-11.471909,2.4378178,1.4651628
-11.453863,2.3782086,1.3413644
-11.445196,2.3200355,1.2199235
-11.470062,2.2681549,1.1091971
-11.526365,2.2224479,1.0090909
-11.441597,2.1479962,0.85947466
-11.450573,2.0921311,0.7417841
-11.466902,2.0375502,0.6262903
-11.48777,1.9837162,0.51208067
-11.446228,1.9161699,0.3739195
-21.119102,3.4044173,2.7703638
-21.048082,3.3514318,2.6656146
-20.978165,3.2979987,2.5598955
-20.85459,3.1590385,2.2811337
-20.915169,3.1426606,2.2431946
-21.037964,3.1457067,2.2411728
-20.977491,3.0919826,2.1344042
-20.985527,3.0592246,2.0663104
-21.782917,3.213807,2.3317962
-21.86118,3.2065105,2.3116212
-21.976038,3.2118716,2.3151221
-22.069431,3.2105427,2.306294
-22.249002,3.2394073,2.353971
-22.389008,3.255631,2.3782597
-22.492357,3.2597609,2.380096
-22.548386,3.2475307,2.3514013
-22.663952,3.257007,2.3634892
-22.799557,3.2744944,2.390769
-22.954897,3.3001485,2.43358
-22.96559,3.2726252,2.3764992
-22.966684,3.2412336,2.3121223
-22.668242,3.0945802,2.0303302
-22.649748,3.053587,1.9475632
-22.667332,3.02624,1.8905315
-22.675507,2.9949496,1.8260384
-22.68883,2.965431,1.7648845
-23.902756,3.4240897,2.62886
-23.910753,3.3975859,2.574243
-24.0423,3.4222734,2.6167984
-24.112936,3.4222422,2.612544
-24.140615,3.4042563,2.5742178
-24.236055,3.415419,2.5913854
-24.312057,3.418714,2.5936728
-24.324001,3.3941555,2.5429378
-24.379658,3.3888824,2.5289922
-24.524115,3.4239423,2.592112
-24.568478,3.4144106,2.570189
-24.638405,3.4168046,2.5711079
-24.650412,3.3924804,2.520965
-24.751684,3.410162,2.5512629
-24.825224,3.4152987,2.5576267
-24.866707,3.405338,2.535109
-24.911036,3.396849,2.5154471
-25.016071,3.418586,2.5538664
-25.076368,3.4186876,2.5508218
-25.075321,3.3879337,2.4884968
-25.20182,3.4223044,2.5514603
-25.266891,3.4258447,2.5552006
-25.284294,3.4046729,2.5113902
-25.370129,3.4197316,2.5374246
-25.458656,3.4368925,2.5675974
-25.485977,3.4213634,2.5347652
-25.545567,3.4235544,2.5361657
-25.603046,3.4248993,2.5359826
-25.693134,3.4449942,2.5720987
-25.706827,3.4221215,2.5251875
-25.755146,3.4190226,2.5165424
-25.81943,3.4254808,2.526441
-25.902966,3.4437962,2.559369
-25.915527,3.420167,2.511067
-25.972504,3.4232404,2.5145488
-26.034634,3.4298272,2.5248942
-26.110067,3.4451358,2.5522242
-26.131565,3.4270134,2.51469
-26.20171,3.4398053,2.5372324
-26.241394,3.4334393,2.5225916
-26.307997,3.444821,2.5424967
-26.333368,3.4293423,2.510192
-26.382061,3.4294071,2.5081553
-26.435085,3.4326706,2.512384
-26.49342,3.4399276,2.5244331
-26.530132,3.432486,2.5078797
-26.559353,3.419774,2.481072
-26.601665,3.4163673,2.4724293
-26.663599,3.4273894,2.4919724
-26.71356,3.430109,2.495356
-26.740437,3.4158728,2.465663
-26.794895,3.4223845,2.4765158
-26.84652,3.4271288,2.4839544
-26.89135,3.4269392,2.4817843
-26.941072,3.430836,2.4876366
-26.9649,3.414324,2.4535947
-27.01448,3.4184887,2.4600286
-27.072065,3.429589,2.4800763
-27.111088,3.4257176,2.4708447
-27.1487,3.4207566,2.4595027
-27.192423,3.4211252,2.4586263
-27.239271,3.4244514,2.4635777
-27.2832,3.425505,2.4641023
-27.337822,3.4364252,2.4840112
-27.364452,3.4223301,2.4548755
-27.412924,3.428263,2.4650578
-27.45246,3.4261787,2.4595346
-27.502684,3.4344583,2.4743867
-27.540323,3.4309871,2.4661908
-27.57338,3.4230888,2.449317
-27.612335,3.4210558,2.4439888
-27.652481,3.420378,2.4413466
-27.701786,3.4293687,2.4577413
-27.756695,3.444768,2.4867754
-27.776045,3.4228046,2.442336
-27.808582,3.4146566,2.4250884
-27.841644,3.407007,2.4088387
-27.900175,3.4280138,2.4490256
-27.943386,3.4323845,2.4564924
-27.991102,3.4423766,2.4750576
-27.991909,3.397107,2.384778
-28.036892,3.4039001,2.397078
-28.081964,3.4112594,2.4105215
-28.130491,3.4234438,2.4335055
-28.17031,3.4251232,2.4358077
-28.19989,3.4136686,2.4122286
-28.24191,3.418552,2.420889
-28.277435,3.41498,2.4128928
-28.332478,3.4385834,2.4585433
-28.368008,3.43568,2.451912
-28.3985,3.4255357,2.431007
-28.429794,3.4163253,2.4119573
-28.466711,3.4154124,2.409309
-28.522354,3.443655,2.464263
-28.558266,3.4421225,2.4604378
-28.593632,3.4398162,2.4551024
-28.621666,3.4254029,2.4258614
-28.655424,3.4202106,2.4148545
-28.690777,3.417725,2.409215
-28.734947,3.43109,2.434926
-28.773937,3.4358258,2.4436035
-28.806942,3.4297006,2.4308248
-28.831911,3.4078336,2.3869305
-28.866476,3.4040508,2.3788128
-28.90196,3.4021194,2.374374
-28.95435,3.4360166,2.4408345
-28.990381,3.4365225,2.4412608
-29.018496,3.419435,2.4068923
-29.045134,3.397977,2.3638854
-29.08099,3.3973987,2.3622122
-29.117186,3.3978024,2.3625011
-29.164719,3.4276145,2.4210253
-29.199257,3.425127,2.4156322
-29.232548,3.419168,2.4033823
-29.262882,3.404384,2.373673
-29.29626,3.3976912,2.3599992
-29.332777,3.40045,2.365059
-29.37382,3.418487,2.4003997
-29.408102,3.4151967,2.3935156
-29.44406,3.4178069,2.398337
-29.473087,3.3945577,2.3519487
-29.513342,3.4139087,2.3899693
-29.548927,3.4159021,2.393621
-29.584538,3.4184372,2.3983636
-29.619406,3.4179251,2.3970866
-29.65348,3.4134648,2.388001
-29.684898,3.3938234,2.3488493
-29.720367,3.3953683,2.3516965
-29.757435,3.4077916,2.37612
-29.793333,3.4144704,2.3891773
-29.827787,3.4113495,2.3828297
-29.860287,3.3903224,2.3410072
-29.8958,3.394123,2.3484097
-29.931198,3.3980153,2.3560123
-29.96587,3.3934462,2.3468595
-30.001469,3.402924,2.3655658
-30.036484,3.4052892,2.3701916
-30.070665,3.3829744,2.325913
-30.106134,3.400381,2.3603873
-30.141045,3.3953588,2.3504195
-30.175924,3.407091,2.3736792
-30.210844,3.4035995,2.3667793
-30.245426,3.411907,2.383284
-30.281017,3.3959863,2.35178
-30.31609,3.3950171,2.3499303
-30.351507,3.390087,2.3402457
-30.383598,3.4230535,2.405693
-30.4193,3.4133503,2.3865805
-30.452919,3.423533,2.4068995
-30.49134,3.3955774,2.351647
-30.528954,3.378519,2.3180118
-30.561434,3.3966126,2.3540592
-30.594917,3.4062483,2.3733602
-30.626888,3.4226997,2.4061818
-30.664202,3.4105086,2.3822627
-30.703884,3.3890035,2.3399062
-30.741812,3.3779223,2.3182244
-30.776804,3.3803837,2.3233953
-30.806017,3.405318,2.3731012
-30.838072,3.4173374,2.3972354
-30.876923,3.4043984,2.3719444
-30.916145,3.3915699,2.3468947
-30.948517,3.4020643,2.3680573
-30.981932,3.4086208,2.3814354
-31.014288,3.4179335,2.4002862
-31.051289,3.4135208,2.3919759
-31.09317,3.396311,2.3583465
-31.133686,3.3841155,2.3346677
-31.168606,3.3871324,2.341126
-31.199305,3.4004383,2.3679643
-31.234169,3.4031796,2.373908
-31.267834,3.4086657,2.3853006
-31.306967,3.401859,2.372385
-31.347757,3.392074,2.3535986
-31.378918,3.403134,2.3760705
-31.41177,3.4103007,2.3908553
-31.443798,3.4188654,2.4084206
-31.4777,3.4235525,2.4183316
-31.516924,3.418236,2.4084792
-31.561644,3.4033957,2.3798203
-31.598654,3.4031315,2.3800015
-31.62964,3.4134505,2.4011183
-31.653141,3.43605,2.446517
-31.692238,3.4321194,2.4395022
-31.743408,3.4091725,2.3949418
-31.785564,3.4015927,2.3807688
-31.82091,3.4049742,2.3882675
-31.847559,3.421425,2.4215908
-31.90149,3.397331,2.374878
-31.954628,3.3755808,2.3328285
-31.985146,3.386718,2.35572
-32.020725,3.3906202,2.3643475
-32.05403,3.3976164,2.379097
-32.08365,3.4093993,2.403306
-32.129475,3.3998942,2.3855443
-32.178303,3.3871267,2.3613791
-32.215607,3.3894067,2.3669086
-32.248062,3.397731,2.3843708
-32.279648,3.406979,2.4036684
-32.32216,3.403199,2.3973145
-32.3692,3.3944883,2.3812761
-32.40879,3.3947663,2.382968
-32.448067,3.3955784,2.3857331
-32.471775,3.4136744,2.4225392
-32.517105,3.4079862,2.4125514
-32.561485,3.403693,2.4053369
-32.60685,3.3987076,2.3967896
-32.6496,3.3967702,2.3942637
-32.67694,3.410686,2.422927
-32.711445,3.4172242,2.4371033
-32.77317,3.3970964,2.3989062
-32.814228,3.3977242,2.401524
-32.862686,3.3915143,2.3907394
-32.887806,3.4075127,2.4235845
-32.92231,3.4145927,2.4389358
-32.997917,3.384407,2.3811917
-33.061275,3.3662636,2.3471298
-33.078415,3.3895347,2.39432
-33.10802,3.4015322,2.4194112
-33.149605,3.4031587,2.4241934
-33.243496,3.3608994,2.3430362
-33.27664,3.3704896,2.3634944
-33.309628,3.3801599,2.3841267
-33.34982,3.383965,2.3932972
-33.390503,3.387491,2.4019475
-33.443233,3.381686,2.3923755
-33.4871,3.3831277,2.3970094
-33.515656,3.3964431,2.4248748
-33.557934,3.3992882,2.4322987
-33.601288,3.4014845,2.4384851
-33.680073,3.3778737,2.3943262
-33.70147,3.3966358,2.4329123
-33.756397,3.3911967,2.424303
-33.79962,3.3943806,2.4325452
-33.869213,3.3793766,2.405374
-33.91163,3.3836555,2.415824
-33.965225,3.380487,2.4118009
-34.016766,3.3790145,2.411121
-34.08326,3.3679445,2.3918085
-34.115726,3.3795946,2.4167333
-34.16422,3.3808792,2.4215283
-34.221558,3.376752,2.4158459
-34.27619,3.3746808,2.4142027
-34.333378,3.371328,2.4101157
-34.37641,3.3769863,2.4235559
-34.426666,3.3783922,2.4287815
-34.50684,3.3621404,2.3998265
-34.532364,3.3788152,2.4347239
-34.59282,3.374974,2.429912
-34.64043,3.378895,2.4401731
-34.714447,3.3679595,2.4217386
-34.762318,3.3722615,2.4328241
-34.809574,3.3770747,2.4449348
-34.86905,3.3753436,2.4444475
-34.94941,3.3626008,2.4227648
-34.980087,3.3770742,2.4536438
-35.038086,3.3770192,2.4565392
-35.122005,3.3636851,2.4339094
-35.16983,3.3696234,2.4484596
-35.22502,3.3719523,2.4561052
-35.282322,3.373454,2.4622083
-35.366222,3.3619423,2.4433622
-35.40479,3.373368,2.4686375
-35.472794,3.3704782,2.4664755
-35.556263,3.3605092,2.4508066
-35.59905,3.3704634,2.4733949
-35.657158,3.373287,2.4823637
-35.768272,3.3516986,2.444684
-35.80701,3.364222,2.4723396
-35.87201,3.3648438,2.4772887
-35.97739,3.3476343,2.448266
-36.01113,3.362975,2.481444
-36.08026,3.3627641,2.4850068
-36.186127,3.3469598,2.4589477
-36.22641,3.3599935,2.487876
-36.29315,3.3618608,2.4956107
-36.411324,3.342488,2.463069
-36.457672,3.353669,2.4886513
-36.513683,3.3609993,2.5069733
-36.576492,3.3657775,2.520516
-36.719128,3.3388908,2.4741964
-36.759563,3.3534017,2.506328
-36.859688,3.344641,2.4945354
-36.915485,3.3535857,2.5162745
-36.981327,3.3588831,2.5311928
-37.112686,3.3397412,2.5001583
-37.168785,3.3495045,2.5236716
-37.227192,3.3585982,2.5459847
-37.268967,3.3739502,2.5801077
-49.55579,1.8536358,0.29560947
-49.640892,1.8962483,0.3911829
-49.736546,1.9368863,0.48348045
-49.73896,1.9966788,0.60893345
-49.744118,2.0556157,0.73286533
-49.700813,2.1237931,0.87256193
-49.735737,2.1762633,0.98532295
-49.756763,2.231291,1.1024542
-49.703747,2.3000298,1.2427831
-49.66931,2.3647366,1.3761282
-49.77139,2.4041748,1.4669123
-49.75115,2.465784,1.5949655
-49.74789,2.5240228,1.7172999
-49.739914,2.5827916,1.8404503
-49.82604,2.6252785,1.9366732
-49.94017,2.6633394,2.0258098
-50.74842,2.5879805,1.9300022
-50.04521,2.8175626,2.3595233
-50.094696,2.8666494,2.467124
-50.788364,2.8175154,2.4179592
-50.522453,2.973216,2.7263174
-51.71425,2.8587239,2.5784883
-52.059517,2.8703024,2.6304755
-52.217926,2.909471,2.7261186
-53.238674,2.8322606,2.6438808
-53.69974,2.8349075,2.6863837
-54.23709,2.82995,2.7189326
-54.947506,2.805681,2.7244306
-11.321882,2.9629745,2.3011613
-11.419519,2.924523,2.213365
-11.409357,2.8685906,2.095552
-11.455059,2.8217537,1.9934487
-11.313229,2.7428586,1.8356013
-11.464165,2.6033425,1.5309625
-11.432983,2.5420017,1.4033604
-11.442129,2.4876971,1.2881083
-11.441864,2.4313917,1.16928
-11.444376,2.3753312,1.0508432
-11.4375725,2.3171794,0.9286332
-11.435438,2.2596111,0.80741215
-11.450882,2.2052598,0.69192123
-11.473637,2.152186,0.57871485
-11.489872,2.0975826,0.4627471
-21.125708,3.464626,2.747579
-20.997126,3.3961892,2.6121993
-21.047081,3.3773298,2.5699944
-21.041882,3.342697,2.4980865
-21.008469,3.2995372,2.4100418
-20.82534,3.1418452,2.0920014
-20.952835,3.1455922,2.0926552
-21.149847,3.1715934,2.1357498
-21.25805,3.1709068,2.1283135
-21.465855,3.2024477,2.182382
-21.600235,3.2116709,2.1941485
-21.78566,3.2382956,2.239287
-21.874792,3.2343228,2.2261772
-22.000277,3.242907,2.2371817
-22.167273,3.2662396,2.2765656
-22.261045,3.2655785,2.270152
-22.360191,3.2672462,2.2683039
-22.43595,3.2612348,2.2518106
-22.559198,3.2723942,2.2683983
-22.616417,3.260582,2.240919
-22.694134,3.2563891,2.2281632
-22.831123,3.2743392,2.2581592
-22.992287,3.302158,2.3073387
-22.35004,3.0286171,1.7748461
-22.721165,3.1350346,1.9757671
-22.65335,3.0752451,1.8556771
-22.667683,3.046518,1.7956061
-22.678001,3.0159707,1.7320018
-22.69343,2.9871836,1.6718001
-23.880888,3.431761,2.5298953
-23.886562,3.4041047,2.472559
-23.966969,3.4070807,2.4747233
-24.081766,3.4248943,2.5058079
-24.112267,3.4077902,2.4690695
-24.19555,3.4132607,2.4762955
-24.265446,3.4134107,2.4732304
-24.332264,3.4125657,2.468286
-24.338718,3.3852518,2.4117627
-24.481075,3.418679,2.473795
-24.5565,3.4228196,2.4787607
-24.624592,3.4240232,2.4780507
-24.644222,3.403034,2.4339938
-24.695515,3.3967824,2.4187799
-24.806187,3.4189992,2.459341
-24.874235,3.4215178,2.4614134
-24.875927,3.392043,2.400827
-24.993359,3.419315,2.451518
-25.067509,3.4259315,2.461784
-25.0852,3.4044716,2.416984
-25.147762,3.4057565,2.4168644
-25.245049,3.4253538,2.4527836
-25.268368,3.4069653,2.4140906
-25.352438,3.4206464,2.438496
-25.427599,3.4301696,2.4547873
-25.490822,3.4337294,2.459393
-25.544266,3.4322839,2.4541836
-25.617151,3.441908,2.4708304
-25.675856,3.444058,2.472795
-25.7064,3.430478,2.4437675
-25.759361,3.4297798,2.440178
-25.816479,3.4317675,2.441927
-25.893417,3.4458065,2.4675255
-25.916279,3.428061,2.4303646
-25.977684,3.4335208,2.4390893
-26.042355,3.4413886,2.4526205
-26.120764,3.4582646,2.4840226
-26.116518,3.4237537,2.4137626
-26.190401,3.4384675,2.4409614
-26.245447,3.4416428,2.445356
-26.302547,3.4464965,2.453113
-26.323427,3.427712,2.4140453
-26.38033,3.4328823,2.4224877
-26.43531,3.4371293,2.4291372
-26.499346,3.4479754,2.4489188
-26.535892,3.4401507,2.4316773
-26.552692,3.4183807,2.3867579
-26.60024,3.418324,2.3849754
-26.676596,3.439451,2.4253173
-26.7231,3.439393,2.423602
-26.743725,3.420236,2.3839335
-26.79945,3.4273667,2.3965569
-26.84982,3.4308174,2.4018946
-26.89549,3.430937,2.4006324
-26.937096,3.4280808,2.3934717
-26.961561,3.4116478,2.3592954
-27.012966,3.4168513,2.368225
-27.08325,3.437986,2.4089308
-27.127323,3.438053,2.407692
-27.15447,3.4239876,2.3783026
-27.197609,3.4234905,2.37598
-27.24979,3.4311004,2.389851
-27.304375,3.441288,2.4088964
-27.346998,3.441239,2.4075446
-27.372372,3.425634,2.3751626
-27.4185,3.4290268,2.3807216
-27.470451,3.4382298,2.3979077
-27.51825,3.4439595,2.4081874
-27.555775,3.4400868,2.3993068
-27.585072,3.428165,2.3743567
-27.619492,3.4212098,2.3593454
-27.661236,3.4217176,2.359271
-27.7104,3.4301553,2.3750753
-27.75652,3.435873,2.3854666
-27.78665,3.4248133,2.3623166
-27.822685,3.420026,2.3517299
-27.861753,3.418652,2.3479905
-27.91033,3.4281971,2.3661265
-27.948088,3.4258196,2.3604174
-27.987259,3.4252167,2.3582797
-28.021126,3.418448,2.3438125
-28.065086,3.4239247,2.3538895
-28.11526,3.4375224,2.380258
-28.152346,3.4352856,2.3749242
-28.189102,3.4327283,2.3689642
-28.205315,3.4032133,2.3089828
-28.24907,3.409698,2.321175
-28.306814,3.4358385,2.3728023
-28.353455,3.447728,2.3958845
-28.392563,3.4495451,2.3987856
-28.40179,3.40795,2.3146176
-28.447569,3.419318,2.3367066
-28.488773,3.4244077,2.346221
-28.533895,3.4360523,2.368909
-28.573275,3.439247,2.3746595
-28.605429,3.4309373,2.3573341
-28.632374,3.4136534,2.3220048
-28.666006,3.4072094,2.308447
-28.7186,3.4341285,2.3619022
-28.760857,3.4439127,2.3809724
-28.793257,3.4360535,2.364623
-28.821974,3.420892,2.3336186
-28.857906,3.4192634,2.3298097
