x,y,z
-30.062313,2.5066545,4.100368
-30.089771,2.502147,4.09579
-30.117254,2.4926736,4.0865045
-30.144922,2.5156515,4.1086206
-30.172382,2.5156736,4.1086683
-30.200193,2.492021,4.085955
-30.227856,2.4914663,4.0856185
-30.255638,2.4873853,4.081964
-30.283457,2.4840949,4.0791593
-30.311092,2.4859123,4.0813684
-30.338581,2.4899583,4.0858116
-30.36605,2.4933548,4.089713
-30.393822,2.491788,4.0889144
-30.42173,2.4888563,4.0868855
-30.450058,2.481684,4.080858
-30.47823,2.4774609,4.0777626
-30.506027,2.477622,4.0789766
-30.533268,2.4828813,4.0851865
-30.560087,2.4910812,4.0943065
-30.587774,2.4914527,4.0959787
-30.618439,2.4696536,4.0764184
-30.646187,2.470893,4.0791054
-30.675425,2.4621658,4.072305
-30.704348,2.4563851,4.068429
-30.732767,2.4542632,4.068157
-30.758856,2.465822,4.0810976
-30.78437,2.4795904,4.0962315
-30.813068,2.4755325,4.09436
-30.842539,2.4679766,4.089232
-30.87331,2.4547834,4.0788083
-30.903526,2.445249,4.071989
-30.930088,2.4529326,4.0817213
-30.956696,2.4599671,4.090914
-30.983704,2.464928,4.0982065
-31.012915,2.460693,4.0968146
-31.041834,2.4579606,4.0969524
-31.073969,2.443208,4.085744
-31.104225,2.4363728,4.0821786
-31.131424,2.4409924,4.0895977
-31.159369,2.44284,4.0944705
-31.184984,2.4525661,4.1069
-31.213242,2.4531345,4.110729
-31.242151,2.4516506,4.112707
-31.27718,2.43113,4.096785
-31.308138,2.4241588,4.0937915
-31.335184,2.4292908,4.1023216
-31.364092,2.428842,4.105676
-31.392015,2.4312918,4.1118546
-31.420918,2.430995,4.115538
-31.452156,2.4244366,4.1134415
-31.487728,2.4067118,4.1009836
-31.519802,2.3989394,4.0979843
-31.553926,2.3863454,4.090591
-31.586002,2.379467,4.0886636
-31.612753,2.385996,4.099357
-31.641737,2.3869908,4.1049767
-31.676352,2.3747778,4.0984097
-31.71146,2.3619733,4.091425
-31.745537,2.3520687,4.087265
-31.778519,2.3450544,4.08591
-31.810337,2.3409228,4.0873413
-31.847404,2.3257585,4.0787044
-31.881414,2.317658,4.076724
-31.922245,2.2957885,4.0622067
-31.957296,2.2865252,4.059438
-31.986965,2.288439,4.067051
-32.01661,2.2904325,4.074836
-32.04516,2.2945757,4.0846844
-32.086647,2.2739859,4.0720763
-32.126255,2.257667,4.063533
-32.16723,2.239417,4.053401
-32.199818,2.2370896,4.057876
-32.23015,2.2389674,4.0662775
-32.265877,2.231348,4.066207
-32.305256,2.2176905,4.0608377
-32.34166,2.209621,4.060656
-32.38343,2.1928096,4.0527763
-32.416885,2.1904237,4.057993
-32.447487,2.1928902,4.0676694
-32.479725,2.1927285,4.075111
-32.536102,2.1540718,4.048437
-32.57464,2.1446953,4.0480194
-32.61852,2.1273458,4.040706
-32.64731,2.1337266,4.05454
-32.682217,2.130766,4.0602417
-32.721207,2.1218688,4.060864
-32.767136,2.103045,4.05295
-32.809677,2.0897365,4.050068
-32.852417,2.0765731,4.0474997
-32.88598,2.0768886,4.056842
-32.9328,2.0586696,4.050239
-32.9751,2.0472598,4.049743
-33.023376,2.0280373,4.042696
-33.0607,2.0242093,4.049114
-33.092167,2.0284247,4.0625825
-33.137512,2.0142684,4.0604596
-33.185577,1.9969822,4.05588
-33.226788,1.9890621,4.059485
-33.27016,1.9786575,4.0611677
-33.30748,1.9762489,4.0697985
-33.358402,1.9569889,4.064402
-33.418026,1.927496,4.05067
-33.46107,1.9190333,4.0548315
-33.49888,1.9172024,4.064715
-33.54914,1.9006053,4.062495
-33.611637,1.8699846,4.048916
-33.654774,1.8628087,4.0550017
-33.70688,1.8454916,4.052951
-33.755314,1.8328576,4.0549946
-33.819145,1.8031147,4.0433197
-33.87657,1.7812884,4.038419
-33.928005,1.7666905,4.0396676
-33.980213,1.7516451,4.040811
-34.0559,1.7114239,4.022001
-34.0958,1.7107439,4.0352454
-34.141018,1.7045114,4.0442414
-34.20595,1.6776552,4.037093
-34.26406,1.6585944,4.0364566
-34.32967,1.6322362,4.030389
-34.37131,1.6311407,4.0444627
-34.45583,1.5865386,4.0248113
-34.502716,1.5808516,4.035857
-34.564575,1.5604413,4.0357585
-34.616695,1.5501707,4.0437922
-34.684055,1.5252802,4.0409055
-34.754276,1.4981971,4.036728
-34.82166,1.4744663,4.0354905
-34.908615,1.4326389,4.020989
-34.97544,1.4107175,4.0219436
-35.032795,1.3981946,4.030288
-35.121056,1.3573496,4.017917
-35.18351,1.3411002,4.024242
-35.254772,1.3172436,4.0253286
-35.309673,1.3087263,4.03803
-35.38478,1.2824006,4.038092
-35.484493,1.2348313,4.023262
-35.559036,1.2103777,4.025651
-35.66867,1.1558745,4.0070434
-35.739197,1.1362731,4.0138936
-35.83134,1.098613,4.0084276
-35.89481,1.0861206,4.0211663
-36.005157,1.0344727,4.007017
-36.080364,1.0132115,4.014597
-36.15159,0.99576235,4.0252476
-36.257736,0.9500482,4.017038
-36.350185,0.9164159,4.0177064
-23.64216,0.9715924,4.1702385
-23.718082,0.9895425,4.156914
-23.785059,1.0009668,4.1397176
-23.891125,1.0435164,4.1437597
-24.058073,1.1352684,4.1816826
-24.106035,1.1334581,4.157203
-24.184078,1.1560526,4.1496663
-24.242653,1.1633382,4.132062
-24.345737,1.2074316,4.1403065
-24.412386,1.2222648,4.12879
-24.522266,1.2735913,4.143295
-24.590425,1.2908199,4.1344028
-24.69577,1.3400679,4.1486845
-24.739902,1.3378842,4.1268215
-24.865553,1.4062343,4.1559706
-24.907272,1.4027774,4.1339164
-24.979511,1.4262314,4.1316686
-25.079044,1.4744425,4.147985
-25.130459,1.4805992,4.1339283
-25.200424,1.5037467,4.132729
-25.285292,1.5410182,4.142455
-25.351938,1.5623531,4.140752
-25.417656,1.583348,4.1391683
-25.485699,1.6070309,4.1399865
-25.550205,1.6279442,4.139083
-25.598433,1.6338577,4.127067
-25.645317,1.6387186,4.114482
-25.747118,1.6971159,4.143463
-25.777828,1.6870692,4.119968
-25.83362,1.7017725,4.1158757
-25.91584,1.7432728,4.1330585
-25.976585,1.7640433,4.1344137
-26.01507,1.7626779,4.1186066
-26.06631,1.7745183,4.113446
-26.14688,1.8171495,4.1330814
-26.185633,1.8169175,4.1188745
-26.234474,1.8274794,4.113512
-26.30907,1.8658993,4.130867
-26.361515,1.8812929,4.1299853
-26.407948,1.8905591,4.1243834
-26.466328,1.9132957,4.130001
-26.51583,1.9267304,4.1282983
-26.578161,1.9549865,4.1390314
-26.620996,1.9617951,4.132383
-26.668194,1.9738653,4.130291
-26.711351,1.9816178,4.124831
-26.769733,2.0075018,4.1347055
-26.812538,2.0155883,4.1299706
-26.849302,2.0167248,4.119588
-26.889254,2.021855,4.112726
-26.923311,2.019991,4.1001196
-26.985704,2.0532837,4.1174917
-27.02891,2.0634036,4.115453
-27.068876,2.0697608,4.1103945
-27.11232,2.0808215,4.10954
-27.160648,2.098577,4.1146345
-27.209217,2.1171615,4.120672
-27.247103,2.1221247,4.1151605
-27.28148,2.1226013,4.105917
-27.316334,2.1238408,4.0974703
-27.373285,2.1555834,4.1157637
-27.414532,2.1663594,4.1160035
-27.456087,2.1779375,4.117126
-27.487215,2.1750374,4.1057005
-27.524837,2.1815443,4.1026793
-27.567377,2.1955066,4.106401
-27.617823,2.2216377,4.1210938
-27.661627,2.2385867,4.1278663
-27.688858,2.2308874,4.112886
-27.719687,2.2286277,4.102847
-27.757442,2.2372139,4.102623
-27.801023,2.2553525,4.111119
-27.846851,2.2776906,4.1235805
-27.875713,2.2731593,4.112043
-27.90136,2.2632902,4.0957828
-27.938091,2.2717834,4.096213
-27.980692,2.290577,4.106129
-28.024187,2.3115568,4.118215
-28.058393,2.3170252,4.1163683
-28.088282,2.315096,4.1079025
-28.118198,2.3132482,4.0996156
-28.150755,2.3162699,4.0958886
-28.188423,2.328975,4.101168
-28.229528,2.348659,4.1130147
-28.26531,2.3588674,4.116307
-28.295637,2.3588734,4.110325
-28.322483,2.3520782,4.0981603
-28.353193,2.3529334,4.093163
-28.390965,2.3683708,4.101797
-28.429817,2.3866947,4.113263
-28.472622,2.414142,4.1333785
-28.498312,2.40571,4.1202345
-28.52539,2.400114,4.1098137
-28.55441,2.3987522,4.103436
-28.586193,2.403726,4.103087
-28.619986,2.4136636,4.107504
-28.663023,2.4460006,4.1330814
-28.691996,2.4457026,4.1281524
-28.724081,2.4531631,4.1306257
-28.74994,2.4453404,4.1188035
-28.78,2.4480753,4.1170244
-28.809212,2.448792,4.113441
-28.836582,2.4446812,4.105384
-28.878065,2.4792352,4.134054
-28.907251,2.4809186,4.1317096
-28.931517,2.4686208,4.1161785
-28.957169,2.4598956,4.104114
-28.988087,2.4667253,4.106931
-29.018894,2.4736423,4.109939
-29.050478,2.4834685,4.115827
-29.08732,2.511036,4.138771
-29.114857,2.5090466,4.1336007
-29.142008,2.5057144,4.1272335
-29.169209,2.5024514,4.1210146
-29.196264,2.4985504,4.1142693
-29.22602,2.5046377,4.117191
-29.25586,2.5115166,4.1209707
-29.285942,2.5198967,4.126294
-29.315716,2.527651,4.131117
-29.341206,2.5177276,4.1190224
-29.368137,2.513552,4.112538
-29.39544,2.5108666,4.1075726
-29.423979,2.5139446,4.10825
-29.451889,2.51425,4.1063437
-29.477999,2.5053678,4.0956492
-29.510998,2.5328972,4.120224
-29.538614,2.5327163,4.1181192
-29.565264,2.5269003,4.110647
-29.592348,2.523292,4.105393
-29.620584,2.5268917,4.107203
-29.648346,2.5277095,4.1064067
-29.675797,2.5264554,4.103688
-29.704655,2.535993,4.1115203
-29.733967,2.5506134,4.1243773
-29.760445,2.5424275,4.1151943
-29.78645,2.5285845,4.1005955
-29.81302,2.518383,4.0896115
-29.841034,2.5225627,4.092678
-29.868921,2.5260997,4.095208
-29.89754,2.5404496,4.1083364
-29.925364,2.5462816,4.1132727
-29.953094,2.552186,4.1183667
-29.980127,2.5459838,4.1117716
-30.007286,2.5405679,4.106023
-30.034725,2.5409522,4.106
-30.062063,2.5378246,4.102645
-30.089338,2.528318,4.093167
-30.116875,2.5303473,4.094997
-30.14439,2.5417645,4.106048
-30.171774,2.5453684,4.10958
-30.199453,2.5246773,4.0895553
-30.22722,2.5148072,4.0801444
-30.254993,2.5100248,4.075772
-30.282484,2.514629,4.080615
-30.309834,2.5207367,4.0870056
-30.337204,2.5247645,4.091457
-30.36433,2.5317266,4.098844
-30.392557,2.5215714,4.0896726
-30.421507,2.504331,4.0737042
-30.449062,2.506496,4.0766854
-30.47665,2.5080156,4.079123
-30.50502,2.5017364,4.0740714
-30.53207,2.5084062,4.081682
-30.558252,2.5215793,4.0956845
-30.585491,2.5248084,4.1001167
-30.614601,2.5138147,4.0908403
-30.644497,2.4986143,4.077582
-30.67453,2.484212,4.0651946
-30.70185,2.48845,4.070959
-30.728985,2.4934714,4.0775647
-30.75517,2.5035532,4.0891447
-30.781326,2.5129848,4.100175
-30.808558,2.516068,4.105145
-30.841543,2.4900217,4.0820746
-30.870089,2.4875636,4.0818834
-30.89852,2.4858928,4.0825434
-30.927774,2.480742,4.07994
-30.954319,2.4877503,4.08914
-30.978378,2.504766,4.108047
-31.006733,2.5033817,4.109328
-31.041084,2.478667,4.088288
-31.069483,2.478158,4.090609
-31.097506,2.4791398,4.0944505
-31.1271,2.4745321,4.093025
-31.154531,2.4777858,4.099224
-31.18003,2.4874701,4.111656
-31.212036,2.4753227,4.1033044
-31.239168,2.4794984,4.1106453
-31.270077,2.4717572,4.1067066
-31.302496,2.4598765,4.098933
-31.33179,2.4579473,4.1007442
-31.36039,2.4582062,4.1047325
-31.387749,2.4620552,4.1122217
-31.416824,2.4610596,4.1152015
-31.448248,2.4538307,4.112375
-31.484549,2.4340806,4.0978155
-31.517653,2.4235466,4.0921044
-31.54817,2.4201045,4.093206
-31.578463,2.4174464,4.0951495
-31.609945,2.4120812,4.0946517
-31.638306,2.4144747,4.1015534
-31.676737,2.3932676,4.086405
-31.711567,2.381229,4.0800014
-31.744125,2.3748567,4.0790315
-31.7702,2.383153,4.091881
-31.801252,2.3804207,4.0945215
-31.83462,2.3729305,4.0928407
-31.866457,2.3689976,4.0945916
-31.911423,2.3382215,4.0715427
-31.944616,2.3324385,4.07185
-31.985159,2.3122869,4.058989
-32.013386,2.317039,4.0692925
-32.045456,2.3143053,4.072788
-32.08083,2.3054898,4.0708017
-32.12184,2.286505,4.0596156
-32.157566,2.277923,4.058137
-32.19305,2.2701359,4.0575247
-32.222153,2.2740579,4.0677414
-32.25275,2.275331,4.0756407
-32.293938,2.2583196,4.0670204
-32.336582,2.23941,4.0568533
-32.37468,2.2287865,4.0543733
-32.408855,2.2250586,4.058282
-32.436474,2.2322524,4.072167
-32.473198,2.2246625,4.0728383
-32.51555,2.2084255,4.0658965
-32.563293,2.1842585,4.0520387
-32.604027,2.1716855,4.048758
-32.635292,2.1740046,4.0589247
-32.669632,2.1717234,4.065113
-32.718834,2.1474872,4.051961
-32.758408,2.138111,4.0521855
-32.801796,2.1235356,4.0479903
-32.838905,2.1184192,4.0523124
-32.87281,2.1180649,4.0609655
-32.91146,2.1111865,4.064037
-32.95692,2.0951748,4.059297
-33.00407,2.077344,4.053181
-33.043175,2.0708804,4.0571527
-33.07695,2.0717773,4.067662
-33.115692,2.0662112,4.0727224
-33.172134,2.0378463,4.058326
-33.21781,2.024079,4.056739
-33.260105,2.0150385,4.059405
-33.298386,2.0113497,4.066823
-33.33672,2.007783,4.074506
-33.403572,1.9693288,4.052794
-33.448112,1.9589647,4.05516
-33.489582,1.9526284,4.06112
-33.52735,1.9509406,4.0711637
-33.592438,1.9172299,4.054599
-33.6514,1.8914776,4.0450106
-33.695747,1.8832333,4.05026
-33.737965,1.8776956,4.0579515
-33.80001,1.8500009,4.0475783
-33.870983,1.8130147,4.0299063
-33.911514,1.8105655,4.040868
-33.96999,1.7886336,4.0361385
-34.03052,1.7650337,4.03036
-34.082573,1.7511144,4.032727
-34.127724,1.744925,4.0415735
-34.188442,1.7225978,4.0377
-34.25007,1.6998813,4.033838
-34.32168,1.6674273,4.022567
-34.346237,1.6837852,4.050325
-34.4141,1.6561377,4.0434804
-34.482956,1.628144,4.036741
-34.55281,1.5998106,4.0301213
-34.5955,1.5988498,4.045167
-34.677902,1.5593436,4.0305953
-34.751316,1.5293715,4.0238485
-34.807247,1.5168023,4.0308547
-34.87426,1.494087,4.030421
-34.954514,1.4594877,4.0213494
-35.00462,1.4536984,4.0344906
-35.101307,1.4051917,4.0158205
-35.166985,1.3860235,4.019653
-35.238876,1.3617077,4.0200315
-35.309074,1.3394799,4.0223675
-35.386932,1.3109629,4.020488
-35.459076,1.2881279,4.0232205
-35.554596,1.2453923,4.0119247
-35.637676,1.2143192,4.0096436
-35.72046,1.1841841,4.0085373
-35.804302,1.153806,4.007762
-35.879486,1.1314075,4.013154
-35.936775,1.1245258,4.0299225
-36.04048,1.0793645,4.0202184
-36.12709,1.049192,4.0216017
-36.234646,1.0025756,4.012168
-36.338486,0.95989823,4.006137
-36.44069,0.91940117,4.0022645
-36.47777,0.9315896,4.0346856
-23.401209,0.95658636,4.1876054
-23.441303,0.94597983,4.1544714
-23.55128,0.9881375,4.156332
-23.658546,1.0290937,4.158122
-23.751377,1.059809,4.1537576
-23.826307,1.0773449,4.141092
-23.896683,1.0917804,4.126775
-24.045069,1.1679921,4.1551633
-24.160824,1.2197509,4.1677036
-24.21146,1.2204454,4.1455555
-24.294897,1.2477689,4.142285
-24.37588,1.2737114,4.1385546
-24.444557,1.2901552,4.1285915
-24.548819,1.336473,4.1403155
-24.646214,1.3780074,4.149272
-24.693127,1.3779178,4.1288037
-24.807678,1.435395,4.1503644
-24.904335,1.4786935,4.1623006
-24.936989,1.4676085,4.1348867
-25.015247,1.4962134,4.13693
-25.121458,1.5500381,4.1581726
-25.147867,1.5341814,4.1280165
-25.206486,1.5470023,4.1194897
-25.319908,1.609673,4.148932
-25.3647,1.6110902,4.132574
-25.43107,1.6325033,4.131695
-25.518606,1.6740787,4.1466537
-25.546812,1.6610057,4.119998
-25.622051,1.692261,4.1277866
-25.687302,1.7147071,4.1291475
-25.758587,1.7435081,4.1358385
-25.804317,1.7481511,4.123943
-25.86311,1.7658229,4.122554
-25.939034,1.8009243,4.1353025
-25.977505,1.7993798,4.1192822
-26.030685,1.8127801,4.115391
-26.10677,1.849905,4.130837
-26.164843,1.8693451,4.132438
-26.1963,1.8616301,4.112332
-26.261152,1.8889332,4.120844
-26.32562,1.9164939,4.129915
-26.389696,1.9443108,4.139541
-26.421429,1.9378262,4.1212573
-26.474583,1.9547323,4.122432
-26.533785,1.9787806,4.1298013
-26.609093,2.0214078,4.1529546
-26.632015,2.0060034,4.1280017
-26.684187,2.0236955,4.1308804
-26.737207,2.0428555,4.135254
-26.787205,2.0590215,4.137359
-26.828259,2.065133,4.1311817
-26.863829,2.0649703,4.119846
-26.905283,2.0719852,4.114782
-26.962536,2.0984604,4.126566
-27.014671,2.1193466,4.1338367
-27.045153,2.1139126,4.1186767
-27.081385,2.1156905,4.10986
-27.127811,2.130569,4.1125526
-27.178572,2.1514683,4.1206956
-27.223001,2.1647313,4.12242
-27.255314,2.1624715,4.110763
-27.29454,2.1694689,4.107349
-27.346806,2.1942997,4.119794
-27.391466,2.2094707,4.1239653
-27.433512,2.221507,4.1255636
-27.463573,2.2172003,4.1128464
-27.496964,2.2176003,4.1044216
-27.538664,2.230013,4.1068363
-27.587486,2.2531753,4.1190424
-27.632788,2.2718666,4.127467
-27.670204,2.2794065,4.1260753
-27.69557,2.2690706,4.108734
-27.727205,2.2681403,4.099959
-27.762735,2.2733192,4.0968266
-27.821653,2.3154507,4.1273518
-27.853363,2.3155417,4.1199465
-27.881317,2.3096757,4.107228
-27.91635,2.315324,4.105113
-27.950886,2.3204062,4.1026163
-27.981327,2.318842,4.094156
-28.032372,2.3525245,4.1181893
-28.067268,2.3593082,4.117692
-28.094734,2.3533134,4.1055393
-28.12913,2.359614,4.1048384
-28.160423,2.3605778,4.0993257
-28.197613,2.372529,4.1041193
-28.244812,2.403697,4.126924
-28.271057,2.3961043,4.113841
-28.302723,2.3988342,4.110468
-28.333296,2.3996015,4.105373
-28.366253,2.4052536,4.1049566
-28.40182,2.4164968,4.109905
-28.441193,2.4361005,4.122841
-28.479929,2.4551463,4.1354146
-28.506784,2.449511,4.1248856
-28.533722,2.4439442,4.114505
-28.56385,2.445352,4.1107993
-28.595785,2.4509923,4.111203
-28.631226,2.4650345,4.1196837
-28.671154,2.4902759,4.1389313
-28.702585,2.4962246,4.1400023
-28.728813,2.4897614,4.1293683
-28.755695,2.484754,4.1202006
-28.785105,2.4860783,4.1171594
-28.814756,2.488179,4.1149564
-28.849081,2.502915,4.1249423
-28.885984,2.5254335,4.142511
-28.912252,2.519426,4.132863
-28.93665,2.5078883,4.117986
-28.9653,2.5083053,4.114666
-28.993702,2.5080981,4.110838
-29.023705,2.512875,4.1119013
-29.054071,2.5191379,4.1145
-29.09042,2.5451508,4.1362643
-29.118305,2.5445714,4.132474
-29.145166,2.5405483,4.1254406
-29.172487,2.538001,4.119918
-29.199846,2.5355244,4.1145477
-29.229132,2.5401664,4.1161656
-29.26036,2.5526485,4.1254883
-29.292278,2.5687494,4.1384335
-29.319452,2.5665803,4.13373
-29.34549,2.5595336,4.124366
-29.37196,2.553965,4.1165166
-29.40007,2.5555387,4.1157045
-29.42845,2.5586023,4.1164327
-29.456059,2.5581996,4.1138716
-29.48796,2.5798383,4.1329103
-29.513275,2.5682452,4.119601
-29.541567,2.5723188,4.121675
-29.568457,2.5686612,4.116279
-29.595287,2.564362,4.1103373
-29.623062,2.5658126,4.1101027
-29.650812,2.5673358,4.110027
-29.677944,2.5646667,4.105929
-29.70781,2.5826874,4.122193
-29.735554,2.585854,4.123989
-29.762348,2.581266,4.118266
-29.788912,2.5738995,4.109897
-29.816362,2.574431,4.109359
-29.843353,2.5700479,4.10408
-29.871407,2.5778418,4.1108413
-29.898382,2.572887,4.1051655
-29.92671,2.5872383,4.118542
-29.95406,2.588837,4.1194744
-29.980846,2.5798159,4.1100526
-30.007868,2.573001,4.102879
-30.035023,2.566968,4.0965567
-30.062677,2.5766888,4.1058064
-30.089998,2.5764995,4.105396
-30.117342,2.578519,4.1072407
-30.144657,2.5827484,4.1113424
-30.17193,2.5827699,4.1113887
-30.199417,2.5678883,4.0968637
-30.227,2.559495,4.0888023
-30.254717,2.5511734,4.080897
-30.282349,2.548627,4.078754
-30.30959,2.555417,4.085874
-30.336409,2.567978,4.0987463
-30.36392,2.5663548,4.0977607
-30.391659,2.561952,4.0941296
-30.42003,2.5504992,4.0836596
-30.44766,2.5498047,4.0838413
-30.475368,2.5484686,4.08348
-30.502144,2.5564582,4.0923553
-30.52911,2.561668,4.0985823
-30.556755,2.560543,4.0986776
-30.58442,2.5594902,4.0989294
-30.612679,2.5542436,4.095156
-30.64194,2.5426755,4.0852804
-30.671387,2.5311878,4.0755796
-30.698868,2.5332732,4.0792556
-30.726557,2.5340095,4.081697
-30.752487,2.5447505,4.0940022
-30.77903,2.5512981,4.102286
-30.806423,2.55295,4.1058674
-30.83705,2.5383768,4.0937004
-30.86688,2.5288477,4.086556
-30.895487,2.5257711,4.0857983
-30.922716,2.5291371,4.0914073
-30.951046,2.5276241,4.092349
-30.976171,2.5396085,4.1065073
-31.003565,2.5417666,4.1111865
-31.033104,2.5355287,4.107799
-31.064987,2.5209105,4.096379
-31.09441,2.5162513,4.0947237
-31.123514,2.5130808,4.0946083
-31.15002,2.519136,4.103513
-31.17497,2.530178,4.1173162
-31.201895,2.534252,4.12446
-31.23405,2.5215473,4.1154985
-31.26483,2.5138474,4.1114755
-31.296196,2.5048342,4.106294
-31.328894,2.4924104,4.0979424
-31.357906,2.491278,4.1005545
-31.382225,2.5035038,4.116081
-31.410412,2.5046108,4.1210155
-31.442217,2.496025,4.1167617
-31.480251,2.471502,4.0973825
-31.51219,2.4638157,4.094233
-31.54232,2.4610915,4.0959287
-31.572216,2.459146,4.098469
-31.601284,2.4593658,4.1031694
-31.633862,2.4513435,4.1001363
-31.66746,2.4413395,4.0953407
-31.699097,2.4362803,4.095354
-31.730816,2.431313,4.095566
-31.766386,2.418154,4.0881534
-31.799608,2.4106228,4.086186
-31.828083,2.4135203,4.094158
-31.858166,2.413054,4.0990596
-31.899666,2.3893151,4.082225
-31.939154,2.3705208,4.070197
-31.971321,2.366932,4.072554
-32.005657,2.3593316,4.0712805
-32.032265,2.36687,4.084245
-32.059483,2.3731077,4.0960803
-32.115635,2.325574,4.058065
-32.147926,2.3231752,4.0621576
-32.186306,2.3099964,4.0563927
-32.21723,2.3105154,4.0634303
-32.24621,2.314509,4.073779
-32.28182,2.307076,4.0737133
-32.32592,2.2855659,4.0608664
-32.366722,2.2702823,4.053916
-32.399986,2.2679324,4.05896
-32.43163,2.2683716,4.066668
-32.462013,2.2709146,4.076405
-32.50425,2.2547712,4.069282
-32.550602,2.2327504,4.057016
-32.59077,2.2209172,4.0541687
-32.625404,2.2178884,4.059428
-32.655636,2.221623,4.070904
-32.692562,2.215469,4.0736127
-32.740505,2.1935072,4.0623207
-32.78924,2.1710567,4.0508127
-32.834133,2.1547356,4.0449924
-32.864704,2.15903,4.0576825
-32.899487,2.157479,4.065302
-32.94245,2.144856,4.063275
-32.992393,2.1231914,4.053473
-33.035805,2.1108818,4.0521255
-33.07248,2.1078744,4.0591216
-33.110195,2.103677,4.065226
-33.15705,2.0878773,4.061382
-33.203125,2.073545,4.059028
-33.24787,2.0613215,4.0587134
-33.27516,2.0712612,4.0777307
-33.32377,2.054784,4.074106
-33.38423,2.0243025,4.0587025
-33.43875,2.0017767,4.050411
-33.48123,1.9942198,4.055145
-33.516777,1.9951323,4.0672607
-33.57582,1.9686737,4.0563555
-33.6347,1.9430825,4.0464873
-33.68171,1.9317162,4.048875
-33.70477,1.9478122,4.074482
-33.781303,1.9037848,4.049982
-33.84764,1.8720822,4.036155
-33.90007,1.8564062,4.035958
-33.93477,1.860421,4.0522647
-34.00033,1.8312843,4.041467
-34.061604,1.8074169,4.0353355
-34.107807,1.8000236,4.0429583
-34.154705,1.7921691,4.0504265
-34.238388,1.7465782,4.027606
-34.294846,1.729852,4.0285106
-34.336285,1.7287958,4.0422707
-34.40415,1.7013595,4.035159
-34.465584,1.6809621,4.0340166
-34.519817,1.6681652,4.0392165
-34.576103,1.6537354,4.04341
-34.659103,1.6138868,4.0279717
-34.730564,1.5859525,4.022315
-34.783844,1.5759115,4.0309553
-34.861084,1.5436692,4.0227165
-34.927082,1.5226128,4.0235243
-34.97379,1.5198781,4.038714
-35.07828,1.4644773,4.0140543
-35.1353,1.4532366,4.0234723
-35.19511,1.4398222,4.0315566
-35.285175,1.3998528,4.0200806
-35.36971,1.3656099,4.0134163
-35.407322,1.3731456,4.0382037
-35.508785,1.3253343,4.0223947
-35.607445,1.2809076,4.0097013
-35.69153,1.2498124,4.0073276
-35.745544,1.2447977,4.0243316
-35.865032,1.1851842,4.0023646
-35.92509,1.176084,4.0172696
-36.005653,1.1504118,4.0207415
-36.08652,1.1250737,4.0249357
-36.175514,1.0937376,4.0254207
-36.299915,1.0346594,4.007148
-36.391994,1.002454,4.008281
-36.495285,0.9620881,4.004392
-36.59979,0.9216039,4.001091
-36.658085,0.91782784,4.0233154
-36.72226,0.90975285,4.042977
-23.351017,1.012217,4.190313
-23.420275,1.0229113,4.171113
-23.51408,1.0521452,4.164685
-23.5964,1.0734506,4.153532
-23.68588,1.1006715,4.146895
-23.796398,1.1444879,4.1521378
-23.886602,1.1736438,4.148032
-24.025309,1.2408988,4.17085
-24.113121,1.2698159,4.1678896
-24.173157,1.2775736,4.150635
-24.25179,1.3003423,4.1443167
-24.33729,1.32914,4.1427593
-24.393301,1.3348391,4.125197
-24.495205,1.378057,4.13496
-24.576168,1.4050214,4.133584
-24.691055,1.4606259,4.1535797
-24.760023,1.4790819,4.147054
-24.854347,1.5193179,4.1569996
-24.911701,1.5290651,4.14489
-24.976463,1.5454621,4.138055
-25.052574,1.5720844,4.1392617
-25.118877,1.590786,4.1349297
-25.188297,1.6127012,4.1334105
-25.281471,1.6561956,4.1487594
-25.339548,1.6692367,4.1412973
-25.39218,1.6777399,4.1306458
-25.47027,1.7097108,4.1384625
-25.54402,1.7384162,4.144185
-25.580486,1.7332184,4.1237736
-25.644043,1.7534068,4.1234965
-25.729048,1.7943612,4.1399875
-25.75827,1.7830377,4.1154366
-25.839983,1.8221431,4.131242
-25.899237,1.8403023,4.1307206
-25.95264,1.8532016,4.126276
-25.989197,1.8497901,4.108906
-26.050331,1.8710142,4.111706
-26.130043,1.9115307,4.1305714
-26.17956,1.922188,4.12542
-26.219328,1.923141,4.1125274
-26.284697,1.950853,4.121914
-26.35026,1.9794468,4.132381
-26.391945,1.9834098,4.1226892
-26.435902,1.9900085,4.115388
-26.48554,2.0030117,4.113662
-26.57282,2.0575638,4.1471677
-26.609838,2.0578315,4.1352816
-26.651365,2.0632539,4.1279225
-26.700644,2.077652,4.12839
-26.760805,2.1048818,4.140054
-26.800213,2.1088884,4.13212
-26.831923,2.1041288,4.1168146
-26.875057,2.1128325,4.1132455
-26.922888,2.1274283,4.114971
-26.976873,2.14987,4.1237364
-27.021046,2.1609802,4.122891
-27.055138,2.1600404,4.1117125
-27.09441,2.165639,4.106397
-27.142815,2.1829755,4.1115727
-27.19248,2.2024255,4.118838
-27.231297,2.2084594,4.1144676
-27.261063,2.202942,4.100011
-27.306183,2.2176576,4.1036587
-27.355957,2.2390444,4.113462
-27.40154,2.2553942,4.118991
-27.439224,2.261444,4.1154857
-27.4735,2.2630296,4.1081195
-27.512428,2.2712817,4.106896
-27.558172,2.2895231,4.114865
-27.604551,2.3092444,4.124379
-27.640205,2.3139558,4.1204658
-27.673988,2.3161345,4.114385
-27.70242,2.3104696,4.101272
-27.739689,2.3181438,4.1004577
-27.788088,2.3432112,4.1157465
-27.830109,2.3591375,4.122851
-27.859203,2.3552117,4.1118455
-27.888353,2.3513632,4.1010084
-27.922916,2.3562865,4.098385
-27.960655,2.3666735,4.1009603
-27.996218,2.3738284,4.100682
-28.041977,2.3985617,4.1169076
-28.07208,2.3972173,4.1090064
-28.099882,2.3919127,4.0975056
-28.133476,2.3968024,4.0956407
-28.168865,2.4051726,4.0971665
-28.208935,2.4224496,4.1071997
-28.25238,2.4466383,4.123907
-28.283928,2.4492626,4.120455
-28.309755,2.4411044,4.1069226
-28.339546,2.440494,4.1006117
-28.374155,2.4495037,4.1035237
-28.411663,2.46476,4.1125007
-28.451256,2.4849195,4.1262903
-28.482662,2.4887965,4.1247234
-28.511421,2.4872859,4.1181235
-28.540834,2.487224,4.1130023
-28.571178,2.4893022,4.1100273
-28.60087,2.4900904,4.1059194
-28.64347,2.5205436,4.1303916
-28.67614,2.5291042,4.1339936
-28.70519,2.5294883,4.12984
-28.732523,2.5258107,4.121866
-28.760746,2.5242763,4.1160455
-28.790903,2.527658,4.115066
-28.82073,2.5304317,4.1136003
-28.858639,2.554772,4.133131
-28.892305,2.5688312,4.1428356
-28.918457,2.562857,4.133207
-28.942244,2.5499966,4.1169596
-28.970072,2.5483196,4.111661
-28.99886,2.5495,4.1092334
-29.027166,2.549364,4.105614
-29.061502,2.5681334,4.1205454
-29.094225,2.5828204,4.1316113
-29.121616,2.5808406,4.1264877
-29.150068,2.5824273,4.1249413
-29.17608,2.575695,4.115331
-29.20493,2.5788283,4.115475
-29.232586,2.577836,4.111661
-29.260622,2.5783174,4.1093817
-29.293285,2.5971127,4.1252003
-29.32219,2.6019661,4.1274114
-29.34867,2.5970638,4.1201077
-29.374743,2.5901194,4.110869
-29.402325,2.589569,4.1080127
-29.430662,2.592608,4.1087837
-29.458082,2.5914984,4.105547
-29.492174,2.624271,4.135879
-29.517487,2.613453,4.123229
-29.545008,2.613978,4.121874
-29.571545,2.6089313,4.115087
-29.597929,2.6025393,4.1070466
-29.625185,2.6011555,4.1040463
-29.65267,2.6012545,4.102598
-29.682127,2.6155553,4.1153197
-29.710604,2.6242828,4.122607
-29.737278,2.619653,4.116726
-29.76419,2.6165059,4.1123943
-29.790922,2.6113052,4.1061044
-29.818438,2.6132474,4.1069922
-29.845984,2.6159692,4.108739
-29.872547,2.6074357,4.0993776
-29.900463,2.6152546,4.106358
-29.928627,2.6288128,4.119131
-29.955494,2.6240282,4.1137447
-29.98233,2.6171875,4.1063933
-30.009186,2.6082897,4.0970745
-30.036861,2.6193004,4.1076493
-30.063805,2.6091237,4.09722
-30.091255,2.6181498,4.105986
-30.118488,2.62016,4.107851
-30.145683,2.6186967,4.1063404
-30.172869,2.6222637,4.109919
-30.200212,2.6110184,4.098835
-30.227707,2.6012616,4.0893154
-30.255096,2.600079,4.088414
-30.282671,2.5947163,4.083435
-30.309532,2.606428,4.09553
-30.336283,2.61679,4.1063614
-30.363806,2.612346,4.1025434
-30.39145,2.607265,4.098177
-30.41935,2.6001325,4.0918546
-30.447798,2.588119,4.0807657
-30.475153,2.5896268,4.0832047
-30.50278,2.5883756,4.0829844
-30.529634,2.5942683,4.089944
-30.556906,2.595986,4.092837
-30.583967,2.5991874,4.097285
-30.611652,2.5975115,4.0969753
-30.640799,2.586018,4.0870156
-30.670238,2.5738986,4.0765305
-30.698286,2.5717416,4.0760083
-30.725296,2.5760078,4.081935
-30.75049,2.5902152,4.097779
-30.778984,2.5854497,4.0949264
-30.80592,2.589215,4.100596
-30.835781,2.5782604,4.0918045
-30.865377,2.569501,4.0852795
-30.893583,2.5678577,4.0858717
-30.921976,2.5655856,4.0859323
-30.949749,2.5661998,4.088926
-30.97513,2.576716,4.101754
-31.000166,2.587994,4.115402
-31.030294,2.5789933,4.109185
-31.062258,2.5637715,4.0969586
-31.093117,2.5535455,4.0897465
-31.120565,2.5560043,4.0950775
-31.147367,2.5606318,4.1026173
-31.172419,2.5709164,4.115773
-31.200539,2.5707858,4.1188154
-31.231539,2.5616608,4.113159
-31.262688,2.5526252,4.107698
-31.293522,2.5450726,4.103789
-31.324478,2.5376086,4.100072
-31.352638,2.5385766,4.104664
-31.378048,2.5472589,4.116841
-31.406376,2.5476742,4.1210647
-31.440159,2.5336049,4.1113386
-31.475498,2.5161767,4.0984836
-31.509222,2.5037038,4.090556
-31.541214,2.4961724,4.0875244
-31.57079,2.4949493,4.0906897
-31.5955,2.505534,4.1053276
-31.623564,2.5079057,4.1121335
-31.656069,2.5000267,4.1091785
-31.696604,2.4743698,4.0892863
-31.731363,2.4625852,4.0828505
-31.76222,2.4598255,4.0851784
-31.80081,2.4407105,4.0719914
-31.82473,2.4531999,4.0890975
-31.856068,2.4500213,4.0913486
-31.89284,2.4360116,4.083413
-31.933254,2.4153032,4.069264
-31.969833,2.402901,4.063151
-32.000267,2.4028544,4.068868
-32.028564,2.4069662,4.0786138
-32.059338,2.4064045,4.084046
-32.101543,2.3849385,4.0699167
-32.140724,2.369704,4.061819
-32.18015,2.3545995,4.054002
-32.214817,2.34839,4.054669
-32.238686,2.3611388,4.073167
-32.269463,2.361837,4.080498
-32.313427,2.3404703,4.0674167
-32.3557,2.3226094,4.05778
-32.39456,2.310916,4.054035
-32.426132,2.3113766,4.0616817
-32.4577,2.3119254,4.0695214
-32.49139,2.3092356,4.074494
-32.537617,2.2873664,4.0619836
-32.584183,2.265663,4.049833
-32.61962,2.2613533,4.053787
-32.64844,2.2670746,4.0670238
-32.686195,2.2596657,4.0684123
-32.729538,2.2444687,4.062889
-32.782337,2.2162633,4.0457826
-32.82112,2.2086158,4.0474863
-32.855785,2.2069952,4.054776
-32.893806,2.2008982,4.05818
-32.93385,2.1923118,4.0595098
-32.984226,2.170169,4.048898
-33.031994,2.1521156,4.042169
-33.068634,2.1491694,4.049079
-33.09381,2.161243,4.069439
-33.138012,2.1487951,4.068214
-33.192604,2.123592,4.0559564
-33.240364,2.1076145,4.0520654
-33.27277,2.1110938,4.0654263
-33.308796,2.1101754,4.0750694
-33.35966,2.091445,4.069365
-33.422554,2.0588503,4.0518856
-33.468685,2.0469007,4.0525727
-33.50358,2.0484712,4.0651193
-33.558186,2.0273013,4.0582805
-33.611443,2.0082378,4.0535164
-33.664978,1.9893745,4.0491853
-33.699116,1.9927721,4.064032
-33.753036,1.9742607,4.060465
-33.83522,1.9252107,4.0314093
-33.88817,1.909056,4.0304585
-33.93206,1.90309,4.0383005
-33.985977,1.886684,4.037636
-34.043667,1.8667517,4.0343113
-34.095108,1.8538592,4.037109
-34.137756,1.8504317,4.0479617
-34.196114,1.8311098,4.0459623
-34.269318,1.7972462,4.032379
-34.322815,1.7839358,4.035934
-34.358025,1.7891886,4.054802
-34.452065,1.7365441,4.0270953
-34.51437,1.7159734,4.0257106
-34.54741,1.7241912,4.047684
-34.618935,1.6955533,4.0404444
-34.690853,1.667207,4.0338383
-34.76444,1.6379495,4.0269184
-34.82293,1.6234124,4.031967
-34.90825,1.5845349,4.0183177
-34.971863,1.5663323,4.021238
-35.0265,1.55672,4.031147
-35.10907,1.5223601,4.0223064
-35.179436,1.4996021,4.022829
-35.241386,1.4848063,4.029811
-35.32982,1.4472833,4.01993
-35.39772,1.4283397,4.024568
-35.444714,1.4278147,4.0433764
-35.582256,1.350409,4.005199
-35.66838,1.317857,4.0011096
-35.734104,1.3030727,4.010609
-35.80838,1.2816062,4.0155945
-35.891335,1.2535238,4.0162086
-35.951363,1.2447548,4.0312715
-36.050484,1.2047043,4.024221
-36.17149,1.1479518,4.00589
-36.265266,1.1139419,4.0044575
-36.34721,1.0899801,4.0106807
-36.438126,1.0595722,4.0129023
-36.54468,1.0177138,4.007749
-36.62323,0.9982326,4.0187016
-36.72771,0.9594767,4.016951
-36.80681,0.9407077,4.0294466
-23.289406,1.0593426,4.1926475
-23.343681,1.0586522,4.165786
-23.416046,1.0712917,4.1481905
-23.53318,1.1171663,4.1535606
-23.63636,1.1536448,4.153287
-23.718344,1.1750934,4.1433363
-23.78754,1.1874528,4.1275873
-23.910934,1.2412813,4.141203
-24.056303,1.3129785,4.168198
-24.14988,1.3461137,4.1688585
-24.198927,1.3453524,4.1459346
-24.273912,1.3650746,4.137966
-24.362259,1.3958569,4.138435
-24.433844,1.4139555,4.130219
-24.520788,1.4448757,4.1318045
-24.608747,1.4773073,4.1350293
-24.679474,1.4963548,4.128872
-24.792469,1.5507665,4.149481
-24.859009,1.5676093,4.142634
-24.921202,1.5812454,4.1337447
-25.015425,1.6224024,4.1460695
-25.088663,1.6465025,4.145957
-25.133142,1.6463788,4.1276884
-25.198505,1.6645622,4.1237497
-25.289053,1.7053239,4.1376715
-25.343134,1.7146649,4.1276517
-25.414944,1.7401588,4.1305614
-25.508081,1.7854965,4.149496
-25.539236,1.7753872,4.125123
-25.603619,1.7957495,4.12509
-25.653545,1.8032229,4.115111
-25.739864,1.8450276,4.13293
-25.789347,1.8529555,4.123938
-25.844408,1.8664849,4.1197257
-25.919361,1.8995502,4.131688
-25.962065,1.902039,4.119084
-26.027634,1.9271393,4.125232
-26.07011,1.9299762,4.113383
-26.145493,1.965917,4.1291256
-26.188866,1.9703493,4.1190987
-26.238186,1.9810655,4.114515
-26.285564,1.9901153,4.108772
-26.365986,2.0338612,4.1324377
-26.402853,2.0328267,4.1187396
-26.438568,2.0306687,4.1042433
-26.51426,2.0714743,4.126442
-26.57729,2.099521,4.1381598
-26.615976,2.1016083,4.1279583
-26.664804,2.1150799,4.1277113
-26.715115,2.13061,4.1294737
-26.759634,2.1400418,4.1261964
-26.799051,2.143961,4.1183295
-26.835127,2.1442227,4.107443
-26.879326,2.1540856,4.105099
-26.92391,2.1647367,4.1036453
-26.981112,2.190791,4.115955
-27.03053,2.2081528,4.120869
-27.060863,2.2027245,4.1058264
-27.09801,2.205692,4.0983524
-27.14845,2.2254367,4.105979
-27.201132,2.2485769,4.116878
-27.239359,2.2539017,4.112059
-27.27401,2.2548382,4.1034527
-27.306667,2.2532969,4.092747
-27.352055,2.2686768,4.097456
-27.41027,2.3017244,4.118381
-27.444983,2.303815,4.111459
-27.476341,2.3014555,4.100616
-27.519924,2.3161392,4.1054525
-27.56235,2.3296685,4.1094217
-27.60548,2.3446522,4.114908
-27.639294,2.3466723,4.108652
-27.666338,2.3389428,4.0935297
-27.700153,2.3411493,4.0876765
-27.74446,2.3592758,4.0967045
-27.784576,2.3716156,4.10055
-27.822351,2.3807828,4.101608
-27.855747,2.3834486,4.0967507
-27.894947,2.3955028,4.1007943
-27.926933,2.3963888,4.094535
-27.961756,2.4020271,4.0928497
-28.001314,2.415773,4.0989246
-28.040255,2.4289818,4.104655
-28.07663,2.4383073,4.1068726
-28.106272,2.436363,4.098567
-28.137085,2.436512,4.0923448
-28.175041,2.4495096,4.0984344
-28.212044,2.461285,4.1035113
-28.25215,2.4792418,4.114626
-28.288359,2.4905882,4.11959
-28.31053,2.4757085,4.0996
-28.343775,2.4818382,4.0997996
-28.375885,2.4860356,4.0982637
-28.40453,2.4835463,4.090412
-28.450897,2.5171177,4.1173816
-28.483591,2.523664,4.1184835
-28.511007,2.519417,4.109275
-28.541027,2.5206919,4.105494
-28.571018,2.5220509,4.1018953
-28.605583,2.533739,4.1084185
-28.639654,2.5448503,4.1145086
-28.67147,2.5512738,4.1161633
-28.701729,2.5543633,4.114679
-28.731646,2.5568514,4.112711
-28.762077,2.5607967,4.112264
-28.794628,2.5703287,4.117386
-28.825413,2.5758283,4.1186733
-28.856104,2.581415,4.1201496
-28.889784,2.5953653,4.1299415
-28.91468,2.585949,4.116889
-28.939722,2.5765915,4.103965
-28.968998,2.5790486,4.102746
-28.99823,2.5815856,4.1017013
-29.028793,2.5883589,4.104933
-29.058346,2.5924459,4.1056113
-29.095682,2.6215942,4.131173
-29.122976,2.6196144,4.1260614
-29.149057,2.613535,4.1169715
-29.17342,2.6012602,4.1018133
-29.202282,2.604354,4.1019754
-29.22976,2.6026502,4.097462
-29.256521,2.5982294,4.0903325
-29.290144,2.620379,4.1097193
-29.322018,2.6370473,4.123768
-29.34776,2.6293678,4.113663
-29.371517,2.612667,4.094635
-29.397884,2.6065068,4.0861874
-29.426905,2.612304,4.089757
-29.457996,2.6286798,4.103989
-29.489513,2.6486456,4.121915
-29.515903,2.6434798,4.1148047
-29.543013,2.6418853,4.111347
-29.569658,2.637555,4.1052313
-29.597183,2.6382036,4.104183
-29.625135,2.6417313,4.1061044
-29.651669,2.6362038,4.099029
-29.678684,2.6335535,4.094919
-29.706392,2.635891,4.0958962
-29.735373,2.6488442,4.107617
-29.761522,2.6393754,4.096906
-29.788813,2.6391156,4.095524
-29.815966,2.637519,4.0928807
-29.842884,2.633177,4.087558
-29.871046,2.6429806,4.0965405
-29.897617,2.6338506,4.086564
-29.925987,2.6494322,4.101529
-29.953314,2.6517086,4.103192
-29.979744,2.6371508,4.087992
-30.007309,2.6437926,4.094211
-30.034353,2.6385295,4.0885262
-30.061594,2.6375628,4.087249
-30.088938,2.6415985,4.0910892
-30.115993,2.623156,4.072376
-30.143415,2.6449475,4.0942593
-30.170563,2.6541257,4.1035233
-30.19805,2.6302567,4.0795894
-30.225376,2.630415,4.079933
-30.252897,2.6243038,4.0740457
-30.280241,2.6253076,4.075404
-30.307602,2.6256773,4.0762057
-30.334133,2.6409078,4.092046
-30.361092,2.645641,4.0973988
-30.388632,2.6412902,4.0936933
-30.416807,2.6299715,4.083062
-30.44517,2.6187282,4.0725937
-30.472832,2.6167078,4.0714855
-30.5006,2.6140554,4.0698266
-30.526667,2.626946,4.083866
-30.554739,2.621622,4.0796866
-30.581535,2.626914,4.0862513
-30.609116,2.6259508,4.086617
-30.638557,2.6124172,4.074457
-30.669195,2.592648,4.0561385
-30.696854,2.5933156,4.058405
-30.72271,2.604576,4.0713654
-30.747381,2.6215081,4.090076
-30.774662,2.623078,4.09348
-30.802193,2.6233177,4.0956354
-30.833708,2.6040258,4.0783544
-30.863764,2.5932233,4.06966
-30.88969,2.6020863,4.0806937
-30.91994,2.5914416,4.072343
-30.947393,2.5934556,4.0767093
-30.969862,2.6157842,4.1013927
-30.997444,2.616531,4.1046486
-31.028294,2.6048,4.0955787
-31.057459,2.6001258,4.093625
-31.089413,2.585784,4.082166
-31.11742,2.586146,4.085406
-31.14481,2.5886674,4.090873
-31.17069,2.5961218,4.101308
-31.196884,2.60225,4.1105037
-31.226973,2.5959594,4.107502
-31.255348,2.5952976,4.110157
-31.290955,2.573248,4.091805
-31.31953,2.5727563,4.0948296
-31.350313,2.566121,4.091898
-31.37996,2.563026,4.092552
-31.40609,2.5696716,4.102869
-31.4342,2.570867,4.107916
-31.46549,2.5638747,4.105028
-31.499613,2.5500944,4.095605
-31.534237,2.5357325,4.08574
-31.568813,2.5221653,4.076778
-31.595543,2.5279036,4.0867662
-31.620718,2.5371332,4.1002316
-31.651731,2.5327377,4.10052
-31.690737,2.510664,4.0837507
-31.72576,2.4982762,4.0765295
-31.760353,2.4873621,4.0708656
-31.788065,2.4915364,4.079916
-31.818,2.4910204,4.0845237
-31.850601,2.4851527,4.084076
-31.888695,2.4685268,4.0733924
-31.927053,2.452026,4.0629797
-31.959768,2.4471552,4.0638733
-31.989384,2.448463,4.0708
-32.02042,2.447152,4.0753207
-32.057667,2.4344716,4.0691013
-32.094746,2.4225848,4.063784
-32.141754,2.3933449,4.0421143
-32.17328,2.3924592,4.047558
-32.20559,2.390324,4.051929
-32.231697,2.3989882,4.066623
-32.267956,2.3903441,4.0650635
-32.309162,2.3738098,4.056215
-32.35266,2.354086,4.0445414
-32.392773,2.3404982,4.038809
-32.41895,2.3496175,4.05449
-32.449623,2.3515074,4.0634966
-32.48411,2.347527,4.0671396
-32.52773,2.3297787,4.0581126
-32.572937,2.3102036,4.0475802
-32.60785,2.3065906,4.0520196
-32.6455,2.299141,4.053049
-32.68056,2.2957487,4.057967
-32.719334,2.2872248,4.058305
-32.765633,2.2683673,4.049329
-32.81316,2.2483706,4.0395193
-32.849194,2.2448297,4.0449324
-32.88338,2.244001,4.052954
-32.9171,2.2439237,4.0617876
-32.96884,2.2199836,4.0491548
-33.014553,2.2046406,4.044525
-33.054047,2.1978464,4.047794
-33.084614,2.2027707,4.0617433
-33.128277,2.1910722,4.060924
-33.179794,2.1699066,4.0518527
-33.22337,2.1591718,4.0523067
-33.267113,2.1485875,4.0530853
-33.302074,2.1489882,4.0637717
-33.347115,2.1374128,4.0640383
-33.395004,2.1228232,4.061861
-33.441498,2.1103058,4.0617213
-33.486538,2.0998487,4.063596
-33.53009,2.0914414,4.0674577
-33.59759,2.0561402,4.0481925
-33.648853,2.039938,4.045791
-33.69472,2.0301847,4.049191
-33.73562,2.026215,4.0577664
-33.801197,1.9955868,4.043723
-33.857986,1.9751681,4.0387254
-33.927868,1.9413233,4.0226183
-33.96659,1.9411712,4.0353794
-34.02067,1.9250965,4.034891
-34.07022,1.91415,4.0389752
-34.122925,1.9003127,4.0408835
-34.17884,1.8836083,4.040666
-34.239864,1.8622284,4.0368567
-34.301193,1.8410869,4.033565
-34.356026,1.8268716,4.03629
-34.420383,1.8037686,4.032018
-34.493824,1.7724566,4.0214014
-34.55069,1.7577271,4.0246487
-34.596977,1.7534385,4.036623
-34.68035,1.7145243,4.020979
-34.735985,1.7022798,4.0271587
-34.806015,1.6771228,4.0233426
-34.87183,1.6564128,4.0234404
-34.93006,1.6430821,4.0297194
-34.991764,1.6270163,4.03416
-35.096146,1.573448,4.009653
-35.15252,1.5632653,4.0194836
-35.219093,1.5444999,4.0229797
-35.298077,1.515477,4.0189633
-35.36317,1.4990218,4.0250125
-35.43121,1.480499,4.029855
-35.518044,1.4466062,4.023461
-35.59841,1.4188583,4.0222077
-35.713898,1.3626566,4.000174
-35.77838,1.3494446,4.0108004
-35.848648,1.331907,4.0185957
-35.93397,1.3026743,4.0182157
-36.00616,1.2846034,4.0264897
-36.104282,1.2464228,4.020618
-36.229454,1.1877675,4.0006285
-36.314228,1.1617687,4.0048046
-36.40875,1.12883,4.0045714
-36.505127,1.0951786,4.0044284
-36.62903,1.0413184,3.9907432
-36.702045,1.0269005,4.0053015
-36.839592,0.964612,3.9872522
-36.860435,0.9901202,4.0302844
-23.313103,1.1117814,4.185901
-23.374882,1.1164725,4.16291
-23.47202,1.146965,4.1578503
-23.5703,1.1789687,4.154448
-23.670437,1.2130413,4.1531053
-23.763481,1.2426019,4.149258
-23.869469,1.28249,4.1532454
-23.97276,1.3211825,4.1570673
-24.097517,1.3769879,4.1737285
-24.15459,1.3820906,4.1548657
-24.214516,1.3896449,4.1380854
-24.27941,1.4013565,4.1246552
-24.367107,1.4313331,4.1249456
-24.478672,1.4808798,4.1401696
-24.543482,1.4941006,4.1292033
-24.641998,1.5348549,4.139113
-24.694368,1.5389819,4.122179
-24.80183,1.5884802,4.1397247
-24.898224,1.6298478,4.1517715
-24.945072,1.6307762,4.1335654
-25.015247,1.6514947,4.1307664
-25.109028,1.6927619,4.144215
-25.165627,1.7030745,4.134222
-25.247711,1.7357361,4.1419525
-25.321981,1.7623168,4.1453953
-25.354595,1.7528768,4.1208835
-25.444277,1.794065,4.136586
-25.526812,1.8297443,4.148433
-25.560476,1.8220377,4.126062
-25.610495,1.8292466,4.115811
-25.69204,1.8657602,4.1294656
-25.75512,1.8859289,4.1303296
-25.803268,1.892601,4.1205316
-25.854488,1.9024427,4.1135616
-25.936989,1.9425166,4.131702
-25.974611,1.9401617,4.115273
-26.027142,1.9524245,4.1111264
-26.10165,1.9866873,4.1255636
-26.164059,2.00972,4.1310186
-26.198835,2.0056016,4.1140013
-26.248125,2.0162373,4.1095624
-26.311007,2.0411267,4.1174254
-26.385391,2.0785336,4.1362524
-26.415659,2.0707405,4.1169295
-26.471745,2.0901551,4.12101
-26.532185,2.1147275,4.129804
-26.591684,2.138917,4.1385765
-26.629711,2.1403654,4.127966
-26.680168,2.1556284,4.1295166
-26.730396,2.1710773,4.1314692
-26.77705,2.1829596,4.1305428
-26.820765,2.1918757,4.127228
-26.854488,2.1896377,4.1142864
-26.895298,2.1956835,4.1087937
-26.946236,2.2138538,4.1142206
-26.99636,2.2315803,4.119493
-27.03776,2.2393532,4.116126
-27.072754,2.239646,4.1062465
-27.115522,2.2495914,4.105164
-27.164303,2.2673357,4.111286
-27.21179,2.28398,4.1166396
-27.253977,2.294393,4.1165695
-27.292004,2.299818,4.1121564
-27.333899,2.3105097,4.1126904
-27.38346,2.3316488,4.122937
-27.421057,2.337482,4.119409
-27.46048,2.3460236,4.1185174
-27.487421,2.337852,4.1024184
-27.523878,2.3427284,4.0984325
-27.57466,2.3678775,4.113328
-27.614933,2.3788831,4.1153536
-27.655485,2.390677,4.1182785
-27.680113,2.3797255,4.100196
-27.716017,2.385203,4.0975127
-27.753586,2.393417,4.097529
-27.797537,2.4116096,4.107048
-27.840338,2.4286394,4.1156645
-27.870146,2.4260364,4.105976
-27.89915,2.4221945,4.09522
-27.936068,2.4309998,4.0965176
-27.972841,2.4399228,4.0980706
-28.015114,2.4582534,4.1086993
-28.05709,2.4767306,4.1196437
-28.085808,2.4733844,4.109962
-28.11302,2.4674487,4.0979013
-28.142614,2.465588,4.089823
-28.185425,2.4872105,4.1043525
-28.21748,2.4902325,4.101198
-28.26377,2.5194998,4.123407
-28.292978,2.518045,4.116209
-28.319714,2.5119631,4.1046395
-28.348291,2.509315,4.096472
-28.381735,2.516182,4.0976105
-28.419817,2.5326004,4.108136
-28.46465,2.5633392,4.132726
-28.492542,2.5603962,4.124728
-28.518211,2.552784,4.112267
-28.544315,2.5459118,4.100602
-28.577398,2.554048,4.103685
-28.614952,2.5724843,4.1169667
-28.647076,2.579468,4.1191683
-28.68293,2.595408,4.130274
-28.711836,2.595767,4.1261997
-28.737879,2.589373,4.115573
-28.765697,2.587147,4.1091285
-28.79519,2.5891013,4.106895
-28.824915,2.5918221,4.105514
-28.863008,2.6165752,4.126023
-28.895031,2.6263485,4.1318455
-28.921848,2.6224709,4.124247
-28.945026,2.6083426,4.106557
-28.972042,2.6045928,4.099234
-29.003819,2.6146946,4.105769
-29.034737,2.62282,4.110446
-29.06507,2.629653,4.1139383
-29.099655,2.6503901,4.1314006
-29.126661,2.6477256,4.125623
-29.153294,2.6437469,4.118614
-29.180185,2.6405272,4.112443
-29.206146,2.6339118,4.1029525
-29.23221,2.6273603,4.0935993
-29.260223,2.6278124,4.091345
-29.298424,2.6679235,4.128976
-29.326437,2.6699388,4.128493
-29.3524,2.6636853,4.119787
-29.378136,2.6561038,4.1098194
-29.405243,2.654155,4.1055946
-29.433432,2.6571522,4.106431
-29.462004,2.6623154,4.109537
-29.491322,2.671739,4.117029
-29.51968,2.677058,4.120473
-29.54667,2.6754727,4.117036
-29.573074,2.6704652,4.1102233
-29.599092,2.6627297,4.100731
-29.62623,2.6613488,4.097737
-29.653805,2.6628346,4.097723
-29.68076,2.6601954,4.0936174
-29.711765,2.687713,4.12012
-29.738466,2.6845214,4.1156273
-29.765379,2.6827981,4.1126995
-29.791481,2.6734405,4.1021147
-29.817524,2.662045,4.089541
-29.844656,2.660525,4.0870543
-29.872341,2.6653829,4.091115
-29.89989,2.669611,4.094622
-29.92836,2.6886358,4.113225
-29.955397,2.6888022,4.1127763
-29.981821,2.6771145,4.100376
-30.008764,2.6732101,4.095955
-30.03604,2.6770914,4.099517
-30.063063,2.674027,4.0961084
-30.089783,2.6513867,4.0729012
-30.117191,2.66109,4.0826163
-30.144453,2.680687,4.10246
-30.17154,2.6786027,4.1003666
-30.198782,2.6681683,4.089876
-30.226246,2.6556995,4.0773997
-30.253454,2.6580353,4.0800376
-30.280622,2.6604407,4.0828266
-30.307884,2.66011,4.0829186
-30.334682,2.6682649,4.091703
-30.36139,2.6757867,4.0999236
-30.389246,2.6658483,4.090508
-30.417322,2.6552832,4.0805407
-30.444511,2.6567059,4.0828166
-30.472021,2.6546955,4.0816917
-30.50045,2.6443505,4.0722046
-30.527218,2.6501884,4.0791993
-30.55321,2.661693,4.0920124
-30.58038,2.662764,4.0943346
-30.60821,2.6590083,4.091852
-30.63713,2.648332,4.0824547
-30.665905,2.6398325,4.07535
-30.695503,2.627219,4.064176
-30.721596,2.6363387,4.0750537
-30.74842,2.640635,4.081134
-30.773733,2.6526752,4.0951056
-30.801315,2.6522207,4.0965476
-30.83162,2.6385932,4.084793
-30.859476,2.637593,4.0858603
-30.888586,2.631095,4.081477
-30.917484,2.626069,4.078668
-30.944317,2.630163,4.0851183
-30.970743,2.635715,4.0931115
-30.997435,2.639943,4.0998526
-31.025522,2.6386845,4.101167
-31.05683,2.625708,4.090826
-31.086803,2.6183684,4.0862365
-31.117098,2.6104207,4.081135
-31.14363,2.6157103,4.089368
-31.168392,2.626598,4.10327
-31.196444,2.6264858,4.1062617
-31.224943,2.6250668,4.1080384
-31.254381,2.6209645,4.107231
-31.289019,2.6017776,4.0915127
-31.317047,2.6026735,4.0958815
-31.346289,2.600203,4.0969944
-31.371325,2.6094995,4.1098723
-31.39698,2.6167946,4.1208363
-31.428787,2.6076822,4.1156383
-31.463943,2.5904384,4.1025133
-31.5002,2.571251,4.0876017
-31.53233,2.5631258,4.083735
-31.560911,2.56398,4.088822
-31.593239,2.5560355,4.085347
-31.619814,2.561826,4.0954747
-31.649,2.561551,4.099733
-31.690395,2.5341418,4.077508
-31.720436,2.532699,4.0808506
-31.756824,2.517764,4.071116
-31.784779,2.5212507,4.079485
-31.814318,2.5214252,4.0847144
-31.848177,2.512888,4.0815725
-31.881502,2.5058055,4.0799656
-31.920433,2.4880311,4.068117
-31.953033,2.4831853,4.068933
-31.986776,2.4764175,4.06801
-32.017403,2.475799,4.0731387
-32.05205,2.4678864,4.0713506
-32.08461,2.4641004,4.073656
-32.128487,2.4403405,4.0569186
-32.16438,2.4314318,4.054588
-32.196945,2.4286401,4.0582404
-32.22995,2.4252775,4.061463
-32.260242,2.4266686,4.0693316
-32.29654,2.4181826,4.0679183
-32.337852,2.4018564,4.0592103
-32.376953,2.389643,4.0545673
-32.409584,2.388132,4.0601883
-32.436752,2.3952944,4.0741
-32.47108,2.3913267,4.0776286
-32.513256,2.375627,4.070279
-32.560493,2.3528514,4.056485
-32.60101,2.3407326,4.0528555
-32.63411,2.3398714,4.0598845
-32.665413,2.3417196,4.069555
-32.705853,2.3306196,4.0673246
-32.75387,2.3092444,4.0557575
-32.80082,2.2899923,4.046367
-32.84003,2.281931,4.047491
-32.875072,2.2798212,4.05424
-32.907734,2.2810478,4.0641785
-32.964767,2.2501411,4.044886
-33.00405,2.243258,4.047756
-33.050907,2.2268734,4.042156
-33.07842,2.2356462,4.059561
-33.116962,2.230419,4.0644026
-33.163273,2.215745,4.0608945
-33.20464,2.207604,4.063464
-33.247173,2.1983318,4.065198
-33.286694,2.1930108,4.070645
-33.32895,2.1846557,4.073558
-33.379913,2.1663418,4.06782
-33.432777,2.1463275,4.060821
-33.47558,2.1384554,4.064782
-33.50584,2.1451564,4.0817375
-33.55931,2.1256557,4.075853
-33.639935,2.0763867,4.0442457
-33.67841,2.0748022,4.054561
