x,y,z
-25.719564,1.0157435,1.5010452
-25.768936,1.0083151,1.4811721
-25.80915,0.9904182,1.4488249
-25.848692,0.9714916,1.4153204
-26.394333,1.5479598,2.10146
-26.436476,1.539485,2.0820088
-26.441008,1.4855196,2.0074987
-27.125343,2.2630546,2.9429283
-27.17958,2.2796354,2.9557486
-27.185328,2.2357903,2.8951106
-27.211432,2.2168632,2.864832
-27.250599,2.214476,2.8548155
-27.298027,2.2230275,2.8582945
-27.343546,2.2294488,2.8593059
-27.38722,2.233724,2.8578176
-27.43162,2.23928,2.8580294
-27.473408,2.2415273,2.8542948
-27.515532,2.2444744,2.8515406
-27.559578,2.2504294,2.8526182
-27.602291,2.254788,2.8518472
-27.644896,2.2592752,2.851356
-27.688156,2.26505,2.8525805
-27.732037,2.2721174,2.8555312
-27.775383,2.278738,2.8580513
-27.816362,2.2819974,2.8565125
-27.85907,2.2882934,2.8588662
-27.899126,2.290629,2.8564
-27.941927,2.2977612,2.8600307
-27.981796,2.3003361,2.8580804
-28.086342,2.414527,2.9959311
-28.158848,2.476855,3.0692086
-28.198168,2.4823754,3.0714946
-28.236713,2.4868329,3.0725532
-28.273558,2.4884517,3.0701451
-28.313787,2.496676,3.0761414
-28.349539,2.4967346,3.0719657
-28.388582,2.5034106,3.0762196
-28.435753,2.526816,3.101685
-28.465927,2.5165117,3.0847225
-28.49827,2.5104423,3.073176
-28.534328,2.5121963,3.0716004
-28.572515,2.5188208,3.0762806
-28.607885,2.5195856,3.0736356
-28.644266,2.5228372,3.0742311
-28.680565,2.526191,3.0750465
-28.717031,2.5302446,3.0768437
-28.752424,2.5320017,3.0758114
-28.788958,2.5368562,3.078806
-28.823055,2.5358043,3.0743742
-28.858744,2.5390532,3.0755
-28.89413,2.5417976,3.0760717
-28.929235,2.544036,3.0760841
-28.963861,2.5451634,3.0747628
-28.998045,2.5451765,3.072101
-29.033003,2.5476959,3.0727234
-29.067896,2.5503101,3.0735502
-29.102541,2.5524132,3.0738063
-29.13695,2.5540035,3.0734882
-29.17114,2.5550792,3.0725942
-29.204794,2.5544255,3.069563
-29.239746,2.5587156,3.072947
-29.273975,2.5606706,3.0734205
-29.308157,2.5627162,3.07409
-29.341854,2.5630276,3.0726132
-29.375257,2.5622103,3.069766
-29.409063,2.563306,3.0694528
-29.440939,2.555353,3.0575871
-29.475252,2.559059,3.0607815
-29.507765,2.553709,3.0524092
-29.537542,2.532579,3.023809
-29.563608,2.4871027,2.9639387
-29.587355,2.4215257,2.8782382
-29.622286,2.4225678,2.878346
-29.656765,2.4206448,2.8747144
-29.691513,2.420644,2.8736377
-29.726618,2.4237905,2.8766947
-29.76112,2.4221354,2.873643
-29.79632,2.4272985,2.879459
-29.830917,2.4270465,2.878374
-29.865318,2.424434,2.8743243
-29.900112,2.4268084,2.876782
-29.93493,2.4304967,2.8810139
-29.969517,2.4312134,2.8814917
-30.00401,2.4301813,2.8797917
-30.038654,2.4335256,2.8838158
-30.073126,2.432059,2.8817115
-30.108208,2.4790776,2.942235
-30.142294,2.4924912,2.9594855
-30.176285,2.483326,2.947682
-30.210485,2.4724102,2.9336977
-30.244553,2.4744477,2.9365
-30.278559,2.4771843,2.9402819
-30.312624,2.4775584,2.941093
-30.346754,2.4767954,2.9405146
-30.380415,2.4834676,2.9496021
-30.414503,2.4828792,2.9494019
-30.44824,2.4866624,2.9549155
-30.48284,2.480742,2.9479957
-30.63134,1.3921282,1.5457325
-30.674553,1.405654,1.5642996
-30.71728,1.4211209,1.5854616
-30.760038,1.4342484,1.6037035
-30.79929,1.4700866,1.6512837
-30.851864,1.4150138,1.5819035
-30.85791,1.6506865,1.886858
-30.915112,1.5653,1.7786474
-30.962906,1.5404837,1.7485113
-30.990688,1.6218808,1.8550644
-30.984217,1.8641701,2.168448
-31.024664,1.863929,2.1700764
-31.071365,1.8357949,2.135974
-31.196615,1.4726245,1.6718488
-31.24754,1.4455822,1.6395736
-31.036444,2.458805,2.9418526
-31.073242,2.4508054,2.9336524
-31.118298,2.413178,2.8875728
-31.153149,2.4144983,2.8915114
-31.18834,2.414697,2.8940935
-31.224087,2.4131718,2.8945532
-31.26044,2.4099271,2.8928967
-31.296482,2.4079902,2.8930006
-31.331772,2.408565,2.896398
-31.367271,2.4086292,2.8992276
-31.403843,2.4057734,2.898415
-31.440483,2.4030173,2.8978176
-31.477417,2.3997586,2.8966694
-31.513968,2.3978038,2.897273
-31.54822,2.401954,2.9057336
-31.584095,2.401992,2.9090424
-31.619986,2.4021256,2.91256
-31.6569,2.399961,2.9132447
-31.69465,2.3961031,2.9118748
-31.731699,2.3941438,2.9130049
-31.770424,2.388706,2.909822
-31.80927,2.3833792,2.90688
-31.84852,2.377569,2.9034262
-31.885317,2.3772216,2.9069781
-31.934732,2.3514442,2.8785205
-24.76512,1.8088329,2.7559605
-24.941853,1.9041307,2.8493762
-25.01271,1.918155,2.8514814
-25.068594,1.9207578,2.840877
-25.140232,1.9363043,2.8452358
-25.21973,1.9587772,2.8577962
-25.298157,1.9810517,2.870452
-25.35506,1.9861331,2.8636498
-25.417984,1.9965782,2.8632364
-25.485563,2.011399,2.8681154
-25.559498,2.0321887,2.8801727
-25.622793,2.044408,2.882557
-25.675682,2.0479755,2.8750935
-25.706566,2.0323298,2.845364
-25.765875,2.0419834,2.8453307
-25.820889,2.0481596,2.8414254
-25.87806,2.0566413,2.8404236
-25.940758,2.0706255,2.8461113
-25.99578,2.077929,2.8441262
-26.04331,2.0784936,2.8343444
-26.130407,2.1171598,2.8699613
-26.225601,2.1647558,2.9165535
-26.288633,2.1821206,2.927474
-26.344246,2.1927145,2.9305277
-25.448639,1.2490873,1.7907629
-25.353727,1.0962687,1.5956945
-26.494871,2.210466,2.923943
-25.62269,1.257431,1.7664013
-25.635954,1.2136643,1.7024298
-25.599714,1.1162591,1.573524
-25.640411,1.0996902,1.5423164
-26.740171,2.2404575,2.9166431
-25.69323,1.0343363,1.4409733
-26.855843,2.274453,2.9416084
-25.984634,1.2374198,1.667459
-26.029541,1.2273269,1.6450505
-26.413172,1.611964,2.10637
-26.450409,1.5979576,2.0801945
-26.445425,1.5332396,1.9917612
-27.14161,2.3175735,2.9486246
-27.178835,2.313251,2.9361062
-27.18592,2.2713923,2.8773217
-27.216028,2.2576284,2.8532438
-27.259119,2.2602863,2.8495727
-27.305168,2.2670314,2.8510947
-27.347624,2.2693927,2.8473043
-27.391697,2.274151,2.8466148
-27.436903,2.2807505,2.8483453
-27.480299,2.2852137,2.84754
-27.522764,2.2886686,2.8455968
-27.565533,2.2928228,2.844646
-27.607004,2.2953887,2.8418226
-27.64996,2.3003716,2.842145
-27.694717,2.3083582,2.8463588
-27.737774,2.3141818,2.8479795
-27.779938,2.3189836,2.8484316
-27.821983,2.3239112,2.8491583
-27.863178,2.3278084,2.8486977
-27.90427,2.3318267,2.8485003
-27.946314,2.3377073,2.8507686
-27.985443,2.3390641,2.8474207
-28.112896,2.4913018,3.0354652
-28.160534,2.5105956,3.0552855
-28.199524,2.5154514,3.0569034
-28.23969,2.5227606,3.0617437
-28.278101,2.5272622,3.0631194
-28.317026,2.5330484,3.0662308
-28.355202,2.537775,3.0680923
-28.392359,2.540848,3.0679421
-28.429138,2.543438,3.0672688
-28.465553,2.5455415,3.0660648
-28.500769,2.5453866,3.0620604
-28.536526,2.546509,3.0597768
-28.573057,2.549505,3.0599828
-28.61058,2.5549722,3.0634503
-28.647192,2.558767,3.0648656
-28.68192,2.5585096,3.0611634
-28.717634,2.5607226,3.0607195
-28.753775,2.5642235,3.0620208
-28.78935,2.5666332,3.062004
-28.8237,2.56616,3.0583577
-28.858948,2.5681648,3.0579886
-28.895466,2.5738494,3.0624523
-28.930996,2.5772448,3.0640473
-28.965397,2.5777454,3.0619884
-29.00018,2.5795352,3.0616765
-29.035305,2.5826178,3.0631185
-29.069782,2.583995,3.062437
-29.10403,2.5848641,3.0611773
-29.138788,2.5876276,3.0624514
-29.172783,2.5880783,3.0608072
-29.206923,2.5892205,3.0601392
-29.24135,2.5916572,3.0612292
-29.275564,2.5935836,3.061737
-29.309727,2.5956,3.0624404
-29.343403,2.5958967,3.060988
-29.377064,2.5962815,3.0597262
-29.41084,2.5973587,3.0594401
-29.444838,2.5997326,3.0609193
-29.47757,2.596149,3.0547214
-29.509903,2.5902278,3.0455518
-29.538206,2.561384,3.0065975
-29.566553,2.5295718,2.9638295
-29.589113,2.457831,2.86908
-29.623457,2.455222,2.8644705
-29.658356,2.4563384,2.8647952
-29.693146,2.4569395,2.8645258
-29.728355,2.4612706,2.8691993
-29.76354,2.466301,2.874865
-29.797764,2.4629238,2.869639
-29.832657,2.4663136,2.87332
-29.867132,2.4655426,2.8716483
-29.901966,2.4697204,2.876514
-29.936115,2.464266,2.8688807
-29.97065,2.4643683,2.8685784
-30.005358,2.4688141,2.8740244
-30.0398,2.467879,2.8725214
-30.074568,2.4810138,2.8894687
-30.108889,2.4790404,2.8867626
-30.143278,2.4905298,2.9017153
-30.177505,2.4935956,2.9057431
-30.211723,2.4937103,2.905991
-30.245924,2.494521,2.9072242
-30.280266,2.4911644,2.9030914
-30.314445,2.492759,2.905501
-30.348528,2.4956558,2.9096851
-30.382675,2.4968176,2.9116802
-30.41708,2.4944222,2.9091072
-30.450539,2.5036552,2.9217882
-30.484638,2.5044713,2.9235578
-30.517113,2.5205507,2.9453187
-30.550613,2.5251796,2.9522095
-30.584713,2.5244327,2.9521618
-30.619164,2.5213475,2.949143
-30.653149,2.5219905,2.9510608
-30.688353,2.5148427,2.9429002
-30.723001,2.5120296,2.9404697
-30.755482,2.5220227,2.9547992
-30.790464,2.51757,2.9503865
-30.825424,2.5138152,2.9469614
-30.860836,2.5083394,2.941378
-30.898054,2.4951024,2.9257808
-30.933367,2.491633,2.9229755
-30.967905,2.4918792,2.9250813
-30.999495,2.5042799,2.943058
-31.031618,2.5137405,2.957281
-31.074097,2.4835184,2.9200563
-31.116682,2.4552345,2.8854613
-31.152292,2.4535515,2.8854809
-31.188128,2.4513626,2.8849277
-31.224566,2.447467,2.8822484
-31.25958,2.448472,2.8859992
-31.295952,2.4453712,2.8845162
-31.330996,2.4465625,2.8886719
-31.36768,2.4430563,2.886835
-31.404236,2.4402485,2.8859887
-31.440424,2.4387355,2.886901
-31.476433,2.4379168,2.8887944
-31.512014,2.4383876,2.8924356
-31.548546,2.4365695,2.893211
-31.584404,2.4366367,2.896501
-31.62102,2.4350157,2.8977032
-31.657684,2.433495,2.8991227
-31.695171,2.4302943,2.8984723
-31.732212,2.4283829,2.8995695
-31.770119,2.4247983,2.8986106
-31.808666,2.4201376,2.896367
-31.847605,2.4149961,2.8936057
-31.88465,2.414095,2.8963685
-31.932,2.3926802,2.8729978
-24.715363,1.862792,2.7552314
-24.831114,1.9091597,2.7941194
-24.950523,1.9595261,2.8381119
-25.02328,1.9747999,2.8421888
-25.08421,1.9812973,2.8364058
-25.165916,2.0046744,2.850412
-25.235817,2.0192623,2.8545299
-25.304781,2.0336082,2.858632
-25.363506,2.0400612,2.8537736
-25.434395,2.0569496,2.8613515
-25.489029,2.0607762,2.8538547
-25.569035,2.086397,2.8722148
-25.643713,2.108209,2.8863916
-25.676725,2.094604,2.8589315
-25.72713,2.0961301,2.8495035
-25.78452,2.104071,2.8478708
-25.843466,2.113781,2.848546
-25.903347,2.1247492,2.8509293
-25.96069,2.1338332,2.851265
-26.015545,2.141014,2.849513
-26.06628,2.1446898,2.8437276
-26.16775,2.196711,2.896402
-26.243286,2.2252736,2.9211402
-26.292454,2.2291174,2.9162273
-25.42885,1.337647,1.8249955
-25.445744,1.2993526,1.7669301
-25.436077,1.2336769,1.6754804
-25.602116,1.3453121,1.8003492
-25.637672,1.325593,1.7652369
-25.651764,1.2832456,1.7024598
-25.634758,1.2072673,1.5983505
-25.630833,1.1435812,1.5091767
-25.631582,1.0835726,1.4244099
-26.804857,2.3064215,2.923356
-26.85974,2.3202963,2.9325514
-25.920422,1.2175844,1.5585656
-25.984333,1.2282033,1.5617208
-26.416145,1.6636455,2.0931711
-26.452845,1.6491349,2.0662947
-26.479504,1.6225393,2.0244236
-26.463686,1.5444207,1.9182234
-27.17688,2.3516278,2.9194794
-27.19385,2.3223207,2.8758054
-27.232298,2.3192315,2.8650312
-27.272972,2.3190453,2.858005
-27.317533,2.3240194,2.8575816
-27.360674,2.3274484,2.8553362
-27.40414,2.3315718,2.8540869
-27.448751,2.3375187,2.8552632
-27.494041,2.3447332,2.8581696
-27.538343,2.35096,2.8599524
-27.579273,2.3527923,2.8562832
-27.621326,2.3564472,2.8550377
-27.66367,2.360797,2.8547902
-27.707056,2.3669841,2.8569956
-27.74953,2.3721623,2.8580346
-27.790375,2.3751838,2.8564334
-27.832977,2.3811877,2.8587523
-27.876163,2.3884676,2.8628192
-27.917746,2.3935826,2.8642282
-27.958141,2.3970954,2.8636942
-27.997746,2.3995743,2.861936
-28.113464,2.5308592,3.0258417
-28.165775,2.558035,3.0562334
-28.204313,2.5622392,3.057198
-28.243395,2.5677156,3.0599022
-28.280748,2.570405,3.0591102
-28.318338,2.5737822,3.0592995
-28.355532,2.576685,3.058971
-28.392946,2.5802767,3.059626
-28.430859,2.5851421,3.0620236
-28.469236,2.5912862,3.0661745
-28.50576,2.5940318,3.0660133
-28.54221,2.5968785,3.066073
-28.578854,2.6004152,3.0671177
-28.61621,2.6058166,3.0706773
-28.65187,2.6077971,3.0698767
-28.686958,2.6086984,3.0677557
-28.721758,2.609106,3.065073
-28.75653,2.6096077,3.062594
-28.792946,2.6143367,3.0657148
-28.829483,2.6197588,3.069829
-28.864305,2.6211414,3.0687509
-28.899303,2.6232102,3.0686522
-28.933382,2.6230028,3.0656548
-28.968704,2.6264465,3.0675173
-29.003536,2.6287987,3.0680318
-29.037514,2.6288671,3.0656328
-29.071283,2.6284304,3.0626478
-29.105791,2.6304643,3.0629816
-29.140963,2.634974,3.0666466
-29.176207,2.640176,3.071303
-29.211166,2.6448777,3.0753832
-29.244719,2.6448963,3.0733862
-29.277788,2.64321,3.069219
-29.311783,2.645197,3.0699615
-29.345436,2.6460772,3.0693226
-29.3792,2.6476448,3.0696645
-29.412125,2.6457062,3.0654616
-29.445076,2.6438525,3.061442
-29.477451,2.639084,3.0536513
-29.508644,2.627797,3.0373297
-29.53831,2.6069794,3.0084958
-29.562298,2.550791,2.9330325
-29.589916,2.5102658,2.878281
-29.624804,2.5124779,2.8800197
-29.659128,2.5111725,2.8771896
-29.69339,2.509353,2.8737545
-29.728489,2.514242,2.879259
-29.762877,2.5138044,2.8778024
-29.797697,2.5176709,2.8821092
-29.832602,2.5234344,2.8890018
-29.866941,2.5238676,2.8889217
-29.901138,2.5225818,2.886644
-29.935394,2.5219865,2.8853526
-29.969658,2.521479,2.884252
-30.003979,2.5222652,2.8849373
-30.038359,2.5255508,2.8890047
-30.072618,2.5265136,2.8900738
-30.106834,2.525756,2.8889403
-30.14106,2.5232768,2.885604
-30.175323,2.5220926,2.8840537
-30.20959,2.5222018,2.8842902
-30.243855,2.522399,2.884718
-30.27807,2.5238895,2.886932
-30.312084,2.5290847,2.8941197
-30.346205,2.5307505,2.8967123
-30.380497,2.5294912,2.8955102
-30.415003,2.52591,2.8913121
-30.44911,2.5278394,2.8944764
-30.483181,2.5298567,2.8978314
-30.51715,2.532563,2.9021707
-30.551495,2.5317445,2.9019246
-30.586317,2.527405,2.897101
-30.621231,2.5231574,2.8924756
-30.655174,2.526216,2.8975792
-30.689629,2.5257552,2.8981085
-30.722593,2.5343947,2.9107275
-30.758371,2.5263019,2.9013329
-30.792519,2.5279093,2.9048176
-30.830782,2.5086074,2.8807979
-30.864716,2.5121996,2.8870583
-30.897156,2.52247,2.902194
-30.929945,2.5304239,2.9143443
-30.967133,2.5193028,2.9014406
-31.004845,2.5070896,2.8871875
-31.037731,2.5147107,2.899126
-31.073355,2.5116594,2.8970957
-31.109049,2.508703,2.8952708
-31.1443,2.5076325,2.896006
-31.179937,2.5054622,2.8953772
-31.214533,2.5069623,2.8996472
-31.249489,2.5073607,2.9025502
-31.285034,2.5060675,2.9033117
-31.321024,2.503681,2.9027224
-31.35728,2.5007977,2.9015656
-31.392332,2.5015717,2.9052815
-31.42804,2.5006604,2.9068718
-31.465353,2.4957006,2.9032512
-31.50301,2.490254,2.8990836
-31.539137,2.4890487,2.9005451
-31.574581,2.4897115,2.90453
-31.610523,2.4892898,2.9071813
-31.646746,2.4883752,2.9092746
-31.683004,2.4875593,2.911582
-31.719034,2.4874299,2.9148674
-31.75725,2.482703,2.9122596
-31.79724,2.474567,2.9053183
-31.835712,2.470062,2.9031925
-31.872856,2.468591,2.905098
-31.922974,2.4415264,2.8739285
-24.752457,1.9308636,2.769155
-24.828846,1.9471674,2.7741723
-24.961355,2.0068846,2.830058
-25.034725,2.0224364,2.8349366
-25.113525,2.042762,2.8456917
-25.183008,2.0563927,2.8488913
-25.262291,2.078323,2.8621302
-25.327345,2.0894845,2.8629608
-25.385311,2.0953305,2.8577347
-25.48014,2.1317992,2.889071
-25.540575,2.1406941,2.8879695
-25.599583,2.1487887,2.886126
-25.698792,2.1913762,2.925757
-25.693684,2.1455972,2.8598151
-25.74516,2.1480887,2.8517919
-25.800663,2.1543672,2.8484983
-25.86126,2.1654994,2.8512535
-25.91118,2.167505,2.8431711
-25.973652,2.1811318,2.8493462
-26.024437,2.1845448,2.8433204
-26.092045,2.2038372,2.8568068
-26.173794,2.2370377,2.8875213
-26.248777,2.2647758,2.91186
-25.446594,1.4507153,1.9041328
-25.427078,1.378335,1.8038864
-25.439093,1.3354697,1.7397861
-25.441174,1.281913,1.6624508
-25.615797,1.4011116,1.7985725
-25.636524,1.3665159,1.7449446
-26.615185,2.3201337,2.9175205
-25.65202,1.2682886,1.601584
-25.64989,1.2072134,1.5149083
-25.66349,1.1616774,1.4475055
-26.819996,2.3554413,2.928934
-25.763756,1.1480801,1.4095712
-25.92125,1.2608929,1.5407987
-25.955687,1.2380893,1.5022945
-26.4175,1.7033329,2.077927
-26.451338,1.6855783,2.0468907
-26.461157,1.6393504,1.9799767
-27.14456,2.3934393,2.9248009
-27.169846,2.3747346,2.8941913
-27.190937,2.3505476,2.8566666
-27.229872,2.3479707,2.8466039
-27.27367,2.351606,2.844541
-27.323029,2.362602,2.8519745
-27.365683,2.3654077,2.8491068
-27.412073,2.3733652,2.8529334
-27.455757,2.378116,2.8527927
-27.499313,2.383001,2.852943
-27.539883,2.3840923,2.8483477
-27.582413,2.388114,2.8476186
-27.625229,2.3928275,2.8478937
-27.666351,2.3954136,2.8455453
-27.707006,2.3975563,2.842733
-27.747587,2.3998182,2.840178
-27.791098,2.4067376,2.8437443
-27.835924,2.4160638,2.8505397
-27.877619,2.4209769,2.8517447
-27.91883,2.425445,2.8524814
-27.958864,2.4283223,2.8512607
-27.995335,2.4255958,2.842863
-28.109844,2.5535796,3.0044975
-28.163252,2.5822299,3.0372791
-28.201843,2.5863607,3.0382795
-28.240326,2.590604,3.039524
-28.278059,2.5938067,3.0395064
-28.317276,2.6000032,3.0434942
-28.354494,2.6028485,3.043199
-28.39133,2.6052208,3.042376
-28.428097,2.6076972,3.041778
-28.46508,2.6108575,3.0421653
-28.50141,2.61296,3.041255
-28.537952,2.6157458,3.0413284
-28.574144,2.6180522,3.0408587
-28.612146,2.6245396,3.0459752
-28.648685,2.628219,3.0474877
-28.684362,2.6302476,3.0469136
-28.72023,2.632959,3.0473232
-28.756268,2.6363556,3.0487208
-28.791502,2.638093,3.0480137
-28.826914,2.640514,3.0482893
-28.862488,2.643619,3.0495524
-28.89776,2.646234,3.050249
-28.93167,2.6454127,3.0464797
-28.965576,2.6446815,3.0429044
-29.000502,2.6469874,3.0434294
-29.035166,2.6487982,3.0433779
-29.069971,2.6512923,3.0443106
-29.10471,2.6538804,3.0454464
-29.138481,2.6536033,3.0428576
-29.172068,2.6528227,3.0396733
-29.206837,2.6562784,3.0421925
-29.24136,2.6592345,3.0441275
-29.275497,2.661096,3.044682
-29.309433,2.662454,3.0446434
-29.34304,2.6627128,3.0432162
-29.37677,2.6636548,3.0427723
-29.411135,2.6676593,3.0464816
-29.444136,2.665803,3.042457
-29.474497,2.6509287,3.0211468
-29.505608,2.6385098,3.0031695
-29.536957,2.626165,2.985355
-29.560589,2.5679696,2.9064155
-29.589563,2.5354698,2.8618064
-29.624113,2.5352676,2.860373
-29.659084,2.5381405,2.8631215
-29.69407,2.5417025,2.866866
-29.728613,2.5423675,2.8668165
-29.763268,2.5443172,2.8685584
-29.79794,2.546955,2.8712935
-29.832554,2.549683,2.8742256
-29.866562,2.5459201,2.8685532
-29.90086,2.5452359,2.8670697
-29.93539,2.5482304,2.8705783
-29.96967,2.5477228,2.8694782
-30.003853,2.5449092,2.865366
-30.038246,2.5469725,2.8678508
-30.072609,2.549723,2.8713284
-30.106892,2.5507653,2.8725939
-30.141161,2.5548894,2.878055
-30.175364,2.5567076,2.8805046
-30.20957,2.5562174,2.87994
-30.243855,2.553421,2.8763633
-30.278217,2.5501149,2.872178
-30.31239,2.5522833,2.8753886
-30.346693,2.551548,2.8747888
-30.38073,2.5550895,2.8799806
-30.414837,2.5569234,2.8829613
-30.449278,2.5546565,2.8805337
-30.484001,2.5500877,2.8751025
-30.518175,2.5515878,2.8778577
-30.552252,2.5537736,2.8816023
-30.586445,2.554851,2.8839388
-30.621113,2.552433,2.881679
-30.655838,2.550105,2.8796153
-30.689764,2.5532398,2.8849196
-30.723936,2.5546708,2.888022
-30.758617,2.5532079,2.8873372
-30.793673,2.5500474,2.8844624
-30.827736,2.552341,2.888939
-30.862381,2.5517447,2.8896346
-30.897568,2.5488591,2.8873549
-30.93255,2.5472555,2.8868618
-30.967575,2.5457437,2.8865685
-31.003084,2.5425422,2.8841023
-31.038666,2.5394363,2.8818426
-31.073364,2.539984,2.8845224
-31.108063,2.5406222,2.8873978
-31.142244,2.5431283,2.8928308
-31.177988,2.5403948,2.8913798
-31.214716,2.5347998,2.88621
-31.248728,2.5381713,2.893022
-31.28503,2.534543,2.890625
-31.321018,2.532194,2.890007
-31.356445,2.5317104,2.8919425
-31.393175,2.5277874,2.8894038
-31.42781,2.5298493,2.8948684
-31.465567,2.523772,2.8896484
-31.500925,2.5242612,2.8931942
-31.537945,2.5207367,2.8915205
-31.573841,2.5202456,2.8939366
-31.609766,2.5198512,2.8965611
-31.645718,2.5195532,2.899396
-31.681173,2.5205207,2.9039798
-31.717426,2.5198321,2.906465
-31.754526,2.5174944,2.9068656
-31.793905,2.5106037,2.901373
-31.832594,2.505572,2.898418
-31.869099,2.505295,2.9017973
-31.918858,2.4790275,2.8711977
-24.710606,1.9836652,2.7706041
-24.835241,2.0350416,2.817225
-24.924217,2.061044,2.8344493
-25.013313,2.0879014,2.853044
-25.077997,2.0969048,2.850813
-25.150152,2.1120775,2.8561573
-25.212435,2.1200933,2.8532362
-25.28273,2.1348028,2.8585434
-25.366495,2.160759,2.8776002
-25.430439,2.1715364,2.8787336
-25.497839,2.1855645,2.8840132
-25.552673,2.1897738,2.8776717
-25.619541,2.2042792,2.8839874
-25.686697,2.219545,2.8914657
-25.708012,2.1964266,2.8524594
-25.761194,2.2003548,2.8464746
-25.820738,2.210091,2.847766
-25.878296,2.2185032,2.8476377
-25.93449,2.2260907,2.8466868
-25.990494,2.2338762,2.8461657
-26.037188,2.2335806,2.8358574
-26.089489,2.238623,2.8322883
-26.207169,2.3047175,2.9045382
-26.237514,2.290456,2.8774834
-25.432484,1.4815865,1.861825
-25.43269,1.4286022,1.7846494
-25.436012,1.3776138,1.709868
-25.41992,1.306494,1.6098056
-26.518242,2.345468,2.901534
-26.573933,2.3573818,2.9080305
-25.638931,1.357163,1.6408753
-26.686043,2.3833978,2.9243174
-26.729172,2.3836188,2.9165792
-26.780327,2.3925393,2.919969
-26.826277,2.3962667,2.9169335
-26.878536,2.4071345,2.9230952
-26.935438,2.4235742,2.936504
-26.97166,2.4175189,2.921442
-27.029497,2.4359374,2.9376907
-27.072266,2.4377346,2.9328861
-27.10279,2.425516,2.910262
-27.127499,2.406278,2.8787012
-27.155289,2.3903584,2.8514347
-27.203243,2.3985891,2.8552632
-27.238043,2.391061,2.8389406
-27.289286,2.4039705,2.8490462
-27.331955,2.406583,2.8460097
-27.379704,2.4159517,2.851821
-27.420427,2.4166229,2.84651
-27.462784,2.4196322,2.8443332
-27.505045,2.422769,2.842434
-27.548845,2.4282598,2.8437042
-27.593714,2.4355586,2.8474455
-27.638008,2.44244,2.8507643
-27.678991,2.444983,2.8485436
-27.72415,2.453813,2.8546386
-27.765669,2.4577322,2.8544345
-27.807077,2.4617755,2.8544998
-27.845041,2.460871,2.8481889
-27.887005,2.466281,2.8502517
-27.927393,2.4695559,2.8496184
-27.967333,2.4723837,2.8484983
-28.00684,2.47476,2.8468833
-28.1281,2.6130252,3.0243726
-28.167788,2.6186824,3.027454
-28.204687,2.6198993,3.0247755
-28.243162,2.6240733,3.0260916
-28.281847,2.628931,3.0284066
-28.320723,2.6344745,3.031726
-28.358538,2.638413,3.0330153
-28.395342,2.640739,3.0322566
-28.432966,2.6448925,3.034011
-28.4699,2.648003,3.0344715
-28.504179,2.6460326,3.0282664
-28.537634,2.6424222,3.0199556
-28.575249,2.6475635,3.023368
-28.61542,2.658595,3.034719
-28.651148,2.6604836,3.03398
-28.685793,2.6601522,3.0303612
-28.72042,2.6599135,3.0269437
-28.75626,2.662673,3.0276093
-28.791544,2.664368,3.0269337
-28.826775,2.6661592,3.0264668
-28.861723,2.6674633,3.0254273
-28.896847,2.6694453,3.025374
-28.931913,2.6715221,3.0255275
-28.966711,2.6731102,3.025103
-29.001255,2.6742065,3.024097
-29.035362,2.6742246,3.0217185
-29.07003,2.6760907,3.0218978
-29.10539,2.6803958,3.0254312
-29.140287,2.6836233,3.027595
-29.174406,2.6845956,3.0268035
-29.20832,2.6850703,3.025415
-29.242538,2.6868105,3.0258055
-29.276394,2.6874645,3.0248065
-29.309769,2.68644,3.0216184
-29.344023,2.689039,3.023387
-29.378628,2.6934984,3.027739
-29.412067,2.6933293,3.0259213
-29.445118,2.6914754,3.0219016
-29.477951,2.6885247,3.016471
-29.508877,2.6756086,2.9976501
-29.537214,2.64739,2.958219
-29.565287,2.6144981,2.9125228
-29.593334,2.5775218,2.8613548
-29.628782,2.583834,2.8687563
-29.662899,2.5819457,2.8651466
-29.697206,2.5813308,2.863329
-29.731592,2.5813968,2.862506
-29.766306,2.5845168,2.8658867
-29.80101,2.58832,2.8702655
-29.83519,2.5874672,2.8684163
-29.869234,2.5849216,2.864348
-29.903671,2.5872118,2.8668966
-29.938131,2.5907786,2.8712459
-29.972424,2.5926533,2.8733773
-30.006546,2.591647,2.8716788
-30.040802,2.5942917,2.8749962
-30.074936,2.594055,2.8744826
-30.109058,2.5927181,2.872551
-30.143211,2.5938444,2.8740263
-30.177353,2.593277,2.873279
-30.211508,2.592797,2.8727221
-30.245655,2.5929992,2.8731604
-30.279776,2.5938826,2.8745923
-30.31385,2.5954473,2.877019
-30.348034,2.594725,2.876419
-30.382113,2.5958714,2.8784218
-30.416264,2.5959182,2.879006
-30.450312,2.5972395,2.8813882
-30.484217,2.599835,2.8855648
-30.518398,2.5995514,2.8859167
-30.552662,2.5987632,2.8856578
-30.586792,2.5992486,2.8871937
-30.621082,2.5986373,2.887319
-30.655481,2.5975232,2.8868356
-30.690287,2.594129,2.8833447
-30.723959,2.5979283,2.8896484
-30.758842,2.5947149,2.886548
-30.793236,2.59455,2.887639
-30.828114,2.5921097,2.8857331
-30.86305,2.5897613,2.884025
-30.898045,2.5875058,2.8825178
-30.93323,2.5847518,2.8804145
-30.965916,2.5927048,2.8928232
-31.000828,2.59131,2.8926997
-31.037476,2.5835292,2.8840475
-31.071247,2.5870306,2.8906722
-31.105791,2.587678,2.8935256
-31.141712,2.5837145,2.8902493
-31.176836,2.5827837,2.8911314
-31.211807,2.582533,2.8930044
-31.247368,2.5806158,2.892715
-31.283567,2.5770366,2.8902717
-31.318039,2.5788233,2.895112
-31.354359,2.5754373,2.8930883
-31.390335,2.5733192,2.8928452
-31.425714,2.5730486,2.8951592
-31.461788,2.5711236,2.8953362
-31.498613,2.5675495,2.8933873
-31.533869,2.5681498,2.8971062
-31.57277,2.560126,2.8893762
-31.60738,2.562665,2.8958478
-31.64272,2.5635543,2.9001927
-31.678322,2.5639586,2.9039698
-31.714998,2.5621443,2.9048696
-31.753904,2.555807,2.8998308
-31.79268,2.5501606,2.895805
-31.830742,2.5463552,2.8943214
-31.8663,2.5478394,2.8999567
-31.910984,2.5315943,2.8821354
-24.775291,2.0745506,2.804222
-24.884443,2.114339,2.838378
-24.94827,2.1216726,2.8340902
-25.037277,2.1481898,2.853085
-25.110233,2.163372,2.8587718
-25.171312,2.1700325,2.854434
-25.251318,2.19164,2.8684187
-25.32897,2.2120888,2.8813004
-25.393637,2.2229657,2.8828158
-25.45431,2.2311096,2.881225
-25.522816,2.2459393,2.8880258
-25.58547,2.2565403,2.889885
-25.653355,2.2718778,2.8977857
-25.67075,2.24581,2.8548808
-25.71976,2.2459245,2.8443322
-25.774073,2.250747,2.8397636
-25.83237,2.259303,2.840004
-25.886946,2.2650194,2.8369045
-25.944843,2.2739825,2.8380299
-26.001947,2.282642,2.8389626
-26.05028,2.2838151,2.8307085
-26.13813,2.321126,2.8679433
-26.220734,2.3546739,2.900774
-25.449097,1.5946352,1.9341078
-25.46304,1.5561757,1.8746653
-26.377598,2.3746748,2.8990679
-26.47171,2.422346,2.9507837
-26.520395,2.4270444,2.9482942
-26.566822,2.4298093,2.9434915
-26.619984,2.4395528,2.9477148
-26.664064,2.4405298,2.9409127
-26.701897,2.4353106,2.926311
-26.748463,2.4391944,2.9234638
-26.784302,2.4320886,2.9066486
-26.821238,2.4261432,2.8914094
-26.856266,2.4181662,2.8736444
-26.904629,2.4247077,2.874682
-26.94507,2.4228392,2.8649964
-26.99557,2.4323628,2.8701534
-27.047262,2.4436712,2.87777
-27.081823,2.4357421,2.8605785
-27.12484,2.4376304,2.8562217
-27.165947,2.437484,2.849331
-27.207018,2.4374595,2.8427048
-27.252075,2.4424524,2.842733
-27.296112,2.4464974,2.8416433
-27.340467,2.4512255,2.841566
-27.382536,2.4533556,2.838203
-27.425377,2.4567087,2.836553
-27.468113,2.460193,2.835187
-27.510744,2.4638076,2.834103
-27.554495,2.4692068,2.8354816
-27.5977,2.4741883,2.8364234
-27.641966,2.4809642,2.839847
-27.684097,2.4851043,2.8399029
-27.726114,2.489372,2.8402348
-27.76801,2.4937658,2.8408422
-27.809032,2.4971707,2.8402429
-27.849955,2.5006971,2.8399072
-27.889679,2.5026658,2.8376036
-27.930052,2.5058713,2.8370404
-27.971035,2.5103176,2.8382306
-28.00981,2.5115108,2.8351846
-28.127022,2.6418073,3.0045424
-28.167765,2.649063,3.009945
-28.20535,2.6513572,3.0088158
-28.24384,2.655456,3.010192
-28.281898,2.659101,3.0110517
-28.3208,2.664558,3.014432
-28.358639,2.6684246,3.0157738
-28.395466,2.6706932,3.015058
-28.432816,2.6742046,3.016099
-28.468904,2.6755407,3.0143013
-28.503796,2.6746912,3.0096426
-28.542044,2.6808014,3.014439
-28.578497,2.6835852,3.0148416
-28.614603,2.6858978,3.0146914
-28.650114,2.6871624,3.0132074
-28.685062,2.6873746,3.0103812
-28.719986,2.6876807,3.0077586
-28.755127,2.6886578,3.0061202
-28.790707,2.6908839,3.0062518
-28.826454,2.6937842,3.0073762
-28.861439,2.6950488,3.006363
-28.896156,2.6958299,3.0047698
-28.931705,2.699021,3.0065236
-28.96675,2.7011497,3.0069137
-29.001322,2.7022126,3.0059319
-29.035065,2.7010453,3.0019927
-29.06939,2.7017102,3.000617
-29.104992,2.7065377,3.0049806
-29.139936,2.7097166,3.0071774
-29.174452,2.7118244,3.0079918
-29.20874,2.713441,3.0082111
-29.242819,2.7145658,3.0078325
-29.276705,2.7151964,3.006853
-29.31026,2.7147472,3.0044713
-29.3441,2.7155557,3.0038753
-29.378332,2.718207,3.0058694
-29.41183,2.718023,3.0040612
-29.444939,2.7161689,3.0000405
-29.478073,2.7143996,2.996204
-29.510427,2.7086103,2.9869394
-29.537752,2.6753316,2.9401374
-29.563679,2.6303697,2.8773947
-29.596062,2.6189244,2.8605614
-29.63022,2.617545,2.8575702
-29.664398,2.6162531,2.8547697
-29.698597,2.6150491,2.852159
-29.73325,2.617462,2.8545718
-29.76778,2.619376,2.8563747
-29.802204,2.620791,2.857565
-29.836317,2.6193526,2.854916
-29.87055,2.6191792,2.8540702
-29.904913,2.6208599,2.8558364
-29.939312,2.6238074,2.8594108
-29.973522,2.6244879,2.8599467
-30.007664,2.6240785,2.8590589
-30.041887,2.6261127,2.8615918
-30.07604,2.6270573,2.8627
-30.110165,2.6275,2.8631916
-30.144281,2.6297984,2.8662963
-30.178381,2.628649,2.8647437
-30.212502,2.6275876,2.863381
-30.24663,2.6272027,2.8630157
-30.28074,2.627495,2.8636494
-30.314734,2.630231,2.8677034
-30.348845,2.630109,2.867909
-30.382961,2.630075,2.8683052
-30.41708,2.6301286,2.8688908
-30.451307,2.6290932,2.8680534
-30.485266,2.6310878,2.871439
-30.519316,2.6319938,2.873403
-30.553352,2.6329865,2.8755555
-30.587528,2.6328905,2.876287
-30.621876,2.631708,2.8756008
-30.656343,2.6300266,2.8743029
-30.690474,2.630784,2.8764153
-30.724695,2.6310427,2.877915
-30.759453,2.628456,2.8755927
-30.793821,2.6283069,2.876677
-30.8282,2.6282468,2.877955
-30.862963,2.6265178,2.8770247
-30.897642,2.6254663,2.877092
-30.93194,2.6262612,2.8797536
-30.966377,2.6265595,2.8818097
-31.000818,2.626948,2.8840604
-31.034954,2.6285937,2.8880978
-31.070513,2.625075,2.8851638
-31.105324,2.6245682,2.8864117
-31.140503,2.6229873,2.8862705
-31.175549,2.6220825,2.8871255
-31.21118,2.6195245,2.8858051
-31.245735,2.6205509,2.889439
-31.281267,2.6187632,2.8893194
-31.317253,2.6159103,2.8878284
-31.35269,2.6148946,2.8889117
-31.388165,2.6139736,2.8902016
-31.423674,2.6131475,2.8916974
-31.459442,2.6118388,2.8926153
-31.496181,2.6083157,2.8906112
-31.532297,2.606626,2.891173
-31.567982,2.606187,2.893508
-31.605684,2.6012383,2.88982
-31.641214,2.601572,2.8933606
-31.67676,2.6020017,2.8971086
-31.714178,2.5985096,2.8956409
-31.752506,2.593403,2.8920813
-31.791512,2.5872624,2.887218
-31.82953,2.5835214,2.8856792
-31.866491,2.5821717,2.8874483
-31.9094,2.5695214,2.8741045
-24.787819,2.1346114,2.797202
-24.8996,2.1757417,2.834126
-24.958742,2.1795301,2.825983
-25.041859,2.201307,2.8400311
-25.114159,2.2157054,2.8453522
-25.180994,2.2265148,2.8465242
-25.258411,2.2458277,2.8584094
-25.353767,2.2795715,2.8884087
-25.40632,2.2809737,2.878726
-25.462536,2.2854972,2.873086
-25.527283,2.2971063,2.8764462
-25.601585,2.3168528,2.8901815
-25.66204,2.3260005,2.8909316
-25.687782,2.3070629,2.856687
-25.72644,2.2986298,2.8356762
-25.792006,2.3127904,2.843207
-25.850159,2.3211827,2.8436823
-25.906925,2.328778,2.84334
-25.958265,2.332038,2.8376842
-26.014101,2.3395162,2.837542
-26.073168,2.3502336,2.8416958
-26.125748,2.3555694,2.83918
-26.178173,2.3610854,2.8370543
-26.257154,2.3913338,2.866743
-26.33219,2.4188197,2.8931684
-26.37494,2.4167683,2.881905
-26.41227,2.4096904,2.8642874
-26.454515,2.4073694,2.8528943
-26.515362,2.4233243,2.8652234
-26.563213,2.4270256,2.861889
-26.61147,2.431404,2.8595695
-26.65598,2.4322834,2.8528438
-26.702469,2.435398,2.8491464
-26.749866,2.4397125,2.8471413
-26.798634,2.4457607,2.8475327
-26.848724,2.453553,2.8503428
-26.894693,2.4572814,2.8479762
-26.939575,2.460096,2.8445368
-26.984358,2.4630518,2.8414044
-27.036633,2.4746726,2.8497882
-27.082064,2.4789972,2.8487144
-27.125511,2.4813251,2.8451295
-27.173458,2.4891512,2.8489208
-27.219395,2.4949837,2.8502083
-27.265175,2.5009634,2.8518143
-27.309467,2.5054705,2.8515897
-27.351006,2.5068703,2.847355
-27.39507,2.5116467,2.847715
-27.438572,2.516018,2.8476505
-27.483631,2.5227003,2.8507805
-27.527689,2.5284348,2.8527637
-27.568726,2.5304823,2.8499331
-27.612108,2.5359366,2.8517632
-27.654549,2.540428,2.8524146
-27.696077,2.5439503,2.8518724
-27.73905,2.549799,2.854557
-27.781105,2.5546765,2.8560462
-27.820389,2.5558155,2.8526077
-27.859987,2.5576205,2.8501606
-27.900248,2.5606494,2.8494582
-27.941854,2.566018,2.8520112
-27.981901,2.5692868,2.851829
-28.020454,2.5704448,2.848887
-28.097404,2.6342087,2.9307976
-28.12981,2.626742,2.9164252
-28.18259,2.6534991,2.9485412
-28.219788,2.6546526,2.9460444
-28.258215,2.6581569,2.9468265
-28.310715,2.6870723,2.9822593
-28.34157,2.6778848,2.9659724
-28.373194,2.6698968,2.9513803
-28.415075,2.6811826,2.963128
-28.450571,2.6807246,2.9589539
-28.496067,2.7001762,2.9820457
-28.529362,2.6959689,2.9729228
-28.577003,2.7213593,3.004346
-28.607428,2.7116768,2.987897
-28.64171,2.710031,2.982511
-28.67626,2.7090454,2.9781027
-28.713324,2.7138548,2.9817142
-28.746826,2.7107766,2.974585
-28.786606,2.7226439,2.9880486
-28.822613,2.726048,2.9899778
-28.853052,2.7158072,2.9732256
-28.88657,2.71309,2.9668803
-28.920774,2.7121816,2.9630923
-28.957926,2.719405,2.9705753
-28.994091,2.724433,2.9751163
-29.026358,2.7186282,2.9648023
-29.060848,2.719239,2.9634008
-29.094748,2.7182124,2.9598117
-29.13028,2.7224665,2.963582
-29.164833,2.7239306,2.9635758
-29.198156,2.7214417,2.95818
-29.233149,2.7248209,2.9609637
-29.269787,2.7346585,2.9727526
-29.301666,2.7272282,2.96073
-29.335577,2.7274091,2.9593048
-29.369888,2.729417,2.9604788
-29.403746,2.729776,2.9594383
-29.437838,2.7313838,2.9601994
-29.471397,2.7307584,2.957934
-29.503458,2.7226644,2.9453835
-29.532936,2.7001157,2.9128513
-29.562557,2.6758878,2.8780413
-29.59579,2.6703486,2.8692117
-29.630228,2.6718783,2.870257
-29.66394,2.6688397,2.8650308
-29.698183,2.6693819,2.8648434
-29.73307,2.6752584,2.8721323
-29.767422,2.677729,2.8747625
-29.801163,2.6750393,2.870294
-29.834953,2.6724365,2.866014
-29.869287,2.6757548,2.8700275
-29.9032,2.6744938,2.8677478
-29.937132,2.673319,2.8656564
-29.97115,2.6734,2.865376
-30.005287,2.676487,2.8693428
-30.039299,2.67791,2.871066
-30.073294,2.6800053,2.8737907
-30.107227,2.68102,2.8750815
-30.141134,2.679201,2.8725023
-30.175043,2.681558,2.875794
-30.208902,2.6840012,2.8792753
-30.242794,2.6836126,2.8788862
-30.276697,2.6833107,2.878686
-30.31049,2.6854312,2.8819208
-30.344484,2.683552,2.879664
-30.378439,2.6829283,2.8792195
-30.412315,2.6835592,2.880587
-30.446129,2.6848598,2.8829536
-30.479801,2.687414,2.8871284
-30.513815,2.686556,2.886631
-30.54785,2.6857858,2.8863244
-30.582214,2.6827724,2.8829713
-30.616314,2.6821792,2.883048
-30.650255,2.6828387,2.8849325
-30.68438,2.682422,2.8853922
-30.718418,2.682675,2.8868494
-30.752354,2.6835978,2.8893042
-30.786503,2.6834455,2.8903375
-30.82102,2.6816387,2.8891463
-30.855085,2.682246,2.8913708
-30.88928,2.6823597,2.8929815
-30.924166,2.679664,2.89077
-30.958403,2.6799576,2.8927712
-30.99235,2.6814995,2.8965683
-31.02674,2.681392,2.8981528
-31.062107,2.6779041,2.8951344
-31.097227,2.6756673,2.89392
-31.132233,2.674102,2.8937068
-31.167286,2.67263,2.8936944
-31.201277,2.674711,2.8986616
-31.23543,2.6763036,2.9030223
-31.270548,2.6751068,2.9036083
-31.305302,2.675154,2.9059825
-31.341108,2.6724198,2.9045978
-31.376991,2.669783,2.9034247
-31.412285,2.6689653,2.9048314
-31.449192,2.6642308,2.900928
-31.484594,2.663606,2.9027538
-31.52003,2.6630762,2.9047866
-31.555492,2.6626427,2.9070258
-31.591982,2.6600223,2.906342
-31.629309,2.6557927,2.903533
-31.666222,2.6528068,2.902512
-31.70242,2.65163,2.904049
-31.73866,2.650552,2.9058022
-31.779116,2.6410666,2.89614
-31.818653,2.633968,2.8898363
-31.855463,2.6326427,2.8915067
-31.897934,2.6206865,2.8787599
-24.761671,2.19311,2.8159232
-24.911047,2.2213798,2.8250508
-24.97868,2.2312083,2.824699
-25.065626,2.2555752,2.8426065
-25.148815,2.2779093,2.8583164
-25.219303,2.2914703,2.8634048
-25.286285,2.3028977,2.866076
-25.35236,2.314096,2.8686948
-25.420677,2.3274813,2.8742847
-25.47557,2.3309224,2.867599
-25.53654,2.339431,2.8674803
-25.604053,2.3535435,2.874648
-25.695656,2.3875406,2.9072466
-25.691463,2.3446336,2.8425102
-25.755342,2.3569238,2.8479366
-25.810585,2.3625169,2.8450327
-25.860342,2.363832,2.8368316
-25.915886,2.3702967,2.8353753
-25.972412,2.3779562,2.8356256
-26.028738,2.3858163,2.8363109
-26.08257,2.3918645,2.834835
-26.13793,2.3996117,2.835719
-26.194775,2.4090707,2.8389869
-26.262522,2.4288762,2.855845
-26.304987,2.4260519,2.8435316
-26.354023,2.429476,2.8394623
-26.408903,2.438689,2.843081
-26.45496,2.4398892,2.8363986
-26.512646,2.4525485,2.8448377
-26.55897,2.454588,2.8395333
-26.608334,2.4598775,2.8386235
-26.664263,2.4720688,2.84693
-26.710695,2.4751055,2.843347
-26.759552,2.4808958,2.843523
-26.809248,2.4878926,2.8454304
-26.856777,2.492961,2.8449259
-26.904648,2.4987102,2.8454537
-26.95139,2.5035632,2.844925
-26.997988,2.508568,2.8447242
-27.046818,2.5163653,2.8483677
-27.087933,2.5158505,2.841062
-27.135517,2.5228894,2.8439455
-27.182457,2.5295522,2.846455
-27.226498,2.5331676,2.8450103
-27.272219,2.5390584,2.8467307
-27.314678,2.541346,2.8437333
-27.357489,2.5443008,2.8417397
-27.40063,2.5479243,2.840754
-27.443232,2.5511413,2.8393302
-27.48278,2.550709,2.833088
-27.52937,2.5595894,2.8395214
-27.572866,2.564825,2.841147
-27.615814,2.5696523,2.8423305
-27.659027,2.5751557,2.8445373
-27.701303,2.5797024,2.8455534
-27.743061,2.583832,2.8461075
-27.782402,2.5848038,2.8424673
-27.822067,2.5864384,2.8398218
-27.862778,2.589835,2.8396707
-27.905582,2.5966537,2.8442864
-27.946049,2.600297,2.8446703
-27.985344,2.602404,2.843051
-28.024563,2.604625,2.8416772
-28.078138,2.6302161,2.8724055
-28.118652,2.6354728,2.875404
-28.164345,2.6497376,2.8908596
-28.202528,2.6519105,2.889823
-28.241922,2.656421,2.8920875
-28.300106,2.6945236,2.9406605
-28.329317,2.6819904,2.9196744
-28.357237,2.6667228,2.8949723
-28.392595,2.664961,2.8889422
-28.430592,2.6683438,2.8900867
-28.467346,2.669587,2.8883615
-28.503208,2.6692443,2.8845243
-28.554447,2.7005417,2.924531
-28.599634,2.720735,2.9493046
-28.635164,2.721311,2.9470167
-28.670141,2.7208529,2.9433713
-28.706112,2.7227526,2.943069
-28.740791,2.721918,2.9390492
-28.773064,2.7155037,2.9273515
-28.806852,2.7125762,2.9205618
-28.844563,2.7193995,2.9273996
-28.881664,2.725192,2.9328856
-28.918627,2.7310894,2.9385977
-28.950178,2.7228365,2.924683
-28.986593,2.7277853,2.929225
-29.022886,2.7328358,2.9339848
-29.056934,2.731697,2.9301896
-29.0908,2.7300758,2.9257898
-29.124138,2.726824,2.9191818
-29.160856,2.734547,2.927969
-29.19469,2.733195,2.9241543
-29.229025,2.733653,2.922937
-29.264124,2.7370734,2.9259315
-29.298985,2.7400131,2.9283261
-29.333334,2.7413197,2.9285073
-29.36806,2.7444437,2.9313025
-29.401907,2.744205,2.9294586
-29.435236,2.7417498,2.9245758
-29.467632,2.7347665,2.913415
-29.500046,2.7272878,2.9016204
-29.531178,2.7123864,2.8794794
-29.563957,2.7050657,2.8680277
-29.59756,2.7018704,2.8624258
-29.631496,2.7004945,2.8594418
-29.666052,2.7032523,2.8623276
-29.7003,2.7043655,2.8629732
-29.734152,2.702675,2.8597493
-29.76803,2.701071,2.8567142
-29.802612,2.705922,2.862811
-29.836643,2.706231,2.862597
-29.87076,2.7077866,2.8642
-29.904795,2.7088506,2.865181
-29.93873,2.708843,2.8647232
-29.972597,2.7077641,2.8628259
-30.006483,2.7067726,2.8611183
-30.040424,2.707027,2.861227
-30.074411,2.7096875,2.8647852
-30.108328,2.7112753,2.8669024
-30.142202,2.7100525,2.8651352
-30.176092,2.7100759,2.8651853
-30.209957,2.711346,2.8670554
-30.243782,2.713282,2.8699274
-30.277702,2.7118278,2.8681002
-30.311481,2.7139387,2.8713503
-30.345428,2.7126584,2.8699012
-30.379238,2.7137837,2.8718987
-30.41317,2.7132578,2.8716426
-30.446957,2.7145567,2.8740168
-30.48078,2.715363,2.8757648
-30.51459,2.7162566,2.8777027
-30.549025,2.7120295,2.8725162
-30.583014,2.7119415,2.873209
-30.616928,2.7125196,2.874905
-30.65066,2.7143412,2.8784118
-30.684359,2.7162485,2.8821063
-30.718733,2.7142,2.8803163
-30.752945,2.713396,2.8803425
-30.787294,2.7121038,2.8797507
-30.821442,2.7120554,2.8809714
-30.85635,2.7086368,2.8775382
-30.89016,2.7104955,2.8815684
-30.924353,2.7107143,2.8833685
-30.95884,2.709871,2.88375
-30.993355,2.7091177,2.8843284
-31.027588,2.709605,2.8867102
-31.06118,2.7124774,2.892497
-31.095226,2.713715,2.8960643
-31.130125,2.7121742,2.8958178
-31.165606,2.7090075,2.8933725
-31.200611,2.7076545,2.8935332
-31.23452,2.7098258,2.898683
-31.269184,2.709799,2.9008365
-31.304876,2.707009,2.8992085
-31.34085,2.7037466,2.896997
-31.374771,2.7062802,2.9029322
-31.411295,2.7020702,2.8995514
-31.447699,2.698531,2.8971825
-31.484425,2.694523,2.8942409
-31.521492,2.690051,2.8907328
-31.555508,2.6930523,2.8976817
-31.591724,2.6910448,2.8977504
-31.628004,2.689137,2.898035
-31.665909,2.6839395,2.8938394
-31.701809,2.6833642,2.8961291
-31.73938,2.6795058,2.8939514
-31.779278,2.6712503,2.8857784
-31.815393,2.6709836,2.8887367
-31.852987,2.6680083,2.8880334
-31.897758,2.6516843,2.8689976
-24.74655,2.225683,2.781138
-24.846863,2.2570508,2.8076181
-24.936588,2.2818253,2.8262248
-25.021177,2.3036828,2.841505
-25.088318,2.313634,2.8421006
-25.17141,2.3356597,2.858173
-25.237284,2.3456852,2.8593588
-25.306099,2.35834,2.8641047
-25.3689,2.3669584,2.8639522
-25.44722,2.3877938,2.8795853
-25.508825,2.3964357,2.8799114
-25.568962,2.4043398,2.8794947
-25.628887,2.4124634,2.8795543
-25.673323,2.4086618,2.864461
-25.71535,2.4030504,2.847156
-25.767654,2.4058764,2.8408666
-25.821638,2.4103522,2.8368711
-25.875477,2.415016,2.8332825
-25.936214,2.4257884,2.8377995
-25.985037,2.4268837,2.8298984
-26.040136,2.4336011,2.8294778
-26.096764,2.4420056,2.8314304
-26.154306,2.45161,2.8351288
-26.213293,2.4629226,2.8412466
-26.270887,2.473444,2.8465042
-26.32214,2.4786317,2.8449068
-26.37488,2.4855087,2.8456883
-26.427975,2.4930732,2.8475332
-26.474953,2.4952345,2.8423715
-26.525564,2.501114,2.8422737
-26.577589,2.5086956,2.844584
-26.627846,2.5149193,2.8452334
-26.675343,2.518746,2.842826
-26.723227,2.523242,2.8414426
-26.769957,2.5268636,2.8390188
-26.817068,2.5311534,2.8376164
-26.864542,2.536115,2.8372416
-26.913342,2.5427911,2.8393002
-26.95953,2.5470228,2.8382006
-27.006067,2.5519261,2.838128
-27.051508,2.5559328,2.8369665
-27.098703,2.562183,2.8389583
-27.142939,2.565431,2.8370094
-27.188442,2.570399,2.8375058
-27.233345,2.574984,2.8375988
-27.278114,2.5797112,2.8380013
-27.3223,2.5840492,2.837987
-27.367231,2.5895884,2.8397222
-27.407248,2.5894086,2.8337665
-27.449791,2.5925503,2.8324428
-27.493916,2.5979621,2.8343287
-27.53789,2.603512,2.836515
-27.580479,2.6075876,2.8367887
-27.622538,2.611256,2.8366065
-27.665283,2.61613,2.8381834
-27.706709,2.6195147,2.8378148
-27.747639,2.6224823,2.8369708
-27.78847,2.6255722,2.836392
-27.8292,2.6287832,2.8360758
-27.869085,2.6310272,2.8345184
-27.909988,2.6350238,2.8354769
-27.950413,2.638595,2.8359418
-27.991083,2.6428337,2.8374257
-28.030933,2.6460974,2.8376503
-28.07206,2.6516728,2.8411765
-28.121494,2.6711152,2.8640628
-28.164509,2.680812,2.8735275
-28.20533,2.6873336,2.878677
-28.2447,2.6917682,2.8810134
-28.284578,2.697424,2.8851418
-28.32307,2.7009823,2.886434
-28.36146,2.704651,2.8879662
-28.400341,2.709541,2.8912907
-28.438507,2.7134316,2.893303
-28.475418,2.7152033,2.892435
-28.513388,2.7193089,2.8949142
-28.552622,2.7263145,2.9015403
-28.59034,2.7306395,2.9044957
-28.625303,2.7294734,2.8998265
-28.661297,2.7306428,2.8985085
-28.69951,2.7369604,2.9045
-28.733877,2.7349615,2.898881
-28.769703,2.7364268,2.8982053
-28.80243,2.7306707,2.8874383
-28.83708,2.7295055,2.8831992
-28.869062,2.7216618,2.8696165
-28.903572,2.7201076,2.8649626
-28.939358,2.7220354,2.8652897
-28.975288,2.724626,2.8666248
-29.010548,2.7256153,2.8657718
-29.044994,2.7244308,2.8619204
-29.080008,2.7250388,2.8606691
-29.11481,2.7251713,2.8588161
-29.149416,2.7248278,2.8563585
-29.184353,2.7257123,2.8557072
-29.21958,2.7278275,2.8568683
-29.255377,2.7323148,2.8614593
-29.290005,2.7329087,2.8606067
-29.32446,2.7330236,2.8591433
-29.358757,2.732658,2.8570652
-29.393183,2.732952,2.8559904
-29.428226,2.736193,2.8591642
-29.46319,2.7395275,2.8625398
-29.49738,2.7395215,2.8612432
-29.531225,2.737888,2.8577013
-29.565098,2.7363412,2.8543477
-29.599186,2.7360275,2.8528109
-29.633911,2.739813,2.8571653
-29.668379,2.7425432,2.8600883
-29.702381,2.7424965,2.85913
-29.736227,2.7413898,2.8567305
-29.770496,2.7438126,2.859416
-29.804523,2.7446034,2.8598452
-29.83836,2.7437592,2.858014
-29.872704,2.748745,2.8645434
-29.906458,2.7475014,2.8622756
-29.940384,2.748643,2.8634653
-29.974375,2.7515955,2.8672981
-30.008224,2.7529116,2.868867
-30.041927,2.7508664,2.865717
-30.075724,2.7512069,2.8660278
-30.109474,2.74876,2.8624353
-30.143284,2.750424,2.864758
-30.177048,2.7533243,2.868906
-30.210762,2.7557364,2.8724232
-30.244625,2.7513375,2.866311
-30.278355,2.7527735,2.868568
-30.312027,2.7548704,2.8718305
-30.34576,2.7553303,2.8728275
-30.37965,2.753579,2.8707423
-30.413815,2.749043,2.8647614
-30.447548,2.7503388,2.8671422
-30.4812,2.7522953,2.8705277
-30.514877,2.7537632,2.8732834
-30.54846,2.7558918,2.8770423
-30.582235,2.7563858,2.87854
-30.616505,2.7535257,2.8753376
-30.650482,2.753049,2.875587
-30.684765,2.7509408,2.8735847
-30.71829,2.7535036,2.878286
-30.751984,2.7550075,2.881546
-30.786106,2.7543092,2.8817453
-30.820374,2.7531276,2.8813243
-30.85405,2.7548935,2.8851533
-30.888485,2.7533197,2.8843088
-30.923101,2.7512643,2.8828506
-30.957487,2.750442,2.8832078
-30.991306,2.75199,2.8869925
-31.025105,2.7536259,2.890967
-31.059526,2.7530718,2.8919058
-31.09464,2.7503316,2.8898196
-31.128271,2.752803,2.895177
-31.163116,2.751384,2.8950968
-31.197083,2.752896,2.8992314
-31.232178,2.7510931,2.898748
-31.268507,2.745986,2.8936691
-31.30192,2.7494695,2.900794
-31.337156,2.747949,2.9009218
-31.372868,2.7453933,2.8996625
-31.407553,2.7457566,2.9025912
-31.443378,2.7433932,2.9017482
-31.479273,2.7411277,2.9011173
-31.51595,2.7372723,2.898325
-31.55175,2.7357676,2.8989162
-31.58935,2.7304308,2.894195
-31.626062,2.7274437,2.8928566
-31.662075,2.7262397,2.8940992
-31.698936,2.7234564,2.8932023
-31.736153,2.7202168,2.8917441
-31.773737,2.7165241,2.889732
-31.813414,2.7090375,2.882491
-31.850948,2.7061207,2.881732
-31.894487,2.6921945,2.8656669
-45.680912,0.31676364,2.5692663
-45.70423,0.3632419,2.6614761
-47.176697,0.7415836,3.888956
-47.339233,0.7460015,3.9576206
-24.809483,2.3118365,2.8139362
-24.866783,2.313373,2.8035998
-24.97366,2.3498244,2.8378978
-25.047535,2.3639722,2.8441358
-25.126297,2.382139,2.8557715
-25.194912,2.393602,2.8590875
-25.260017,2.4029803,2.8599534
-25.330635,2.4168437,2.866816
-25.40092,2.4309802,2.8742719
-25.473389,2.4472864,2.8847737
-25.537966,2.4581625,2.888473
-25.586742,2.4573402,2.877164
-25.64164,2.461473,2.8724551
-25.674988,2.4489698,2.8461747
-25.726124,2.450539,2.8383932
-25.778976,2.4537325,2.832892
-25.832302,2.4575946,2.828424
-25.88727,2.4631016,2.8262815
-25.945597,2.4717324,2.8284268
-26.003113,2.4800832,2.830379
-26.06098,2.4891317,2.8334293
-26.111734,2.4924717,2.829073
-26.169184,2.5019174,2.8329844
-26.224697,2.5100806,2.8353581
-26.278877,2.517445,2.8368282
-26.327873,2.5205095,2.8327036
-26.385525,2.53174,2.8396568
-26.437466,2.5381618,2.8403249
-26.484919,2.5407367,2.835968
-26.533867,2.5449805,2.8339858
-26.585316,2.5519156,2.8357673
-26.635002,2.5575042,2.8358722
-26.682972,2.5617347,2.8342752
-26.732857,2.5681608,2.835783
-26.781036,2.5732222,2.8355732
-26.826052,2.5753684,2.8315277
-26.875446,2.5822794,2.834086
-26.921207,2.585751,2.8320866
-26.967337,2.589886,2.8311105
-27.01574,2.5967555,2.8339934
-27.059671,2.5991178,2.830832
-27.10492,2.603177,2.8301053
-27.150505,2.6079006,2.8304067
-27.194567,2.6112041,2.8288703
-27.23988,2.6162155,2.829795
-27.284145,2.6203218,2.829585
-27.327839,2.624041,2.8289514
-27.372288,2.6289504,2.8300686
-27.416595,2.634,2.83149
-27.458187,2.636014,2.8288155
-27.500542,2.6392138,2.8278832
-27.543205,2.643074,2.827969
-27.586569,2.6481302,2.8298192
-27.629383,2.6527872,2.8312182
-27.67086,2.655973,2.8306699
-27.71223,2.6592839,2.8303924
-27.752716,2.6616464,2.828887
-27.793882,2.6652029,2.8291426
-27.835691,2.66996,2.8311734
-27.876247,2.6732256,2.831213
-27.9156,2.6749911,2.8292413
-27.9556,2.677953,2.8290362
-27.997992,2.6848276,2.834415
-28.038807,2.6896598,2.8370218
-28.078798,2.6935256,2.8383622
-28.12003,2.6996887,2.8430262
-28.16043,2.7048843,2.8464212
-28.200039,2.7091067,2.8485346
-28.239204,2.712898,2.8501272
-28.280153,2.7200916,2.8566117
-28.318441,2.7230165,2.8571548
