x,y,z
-37.067043,2.8666515,4.0370636
-37.190796,2.8414326,4.028669
-37.30077,2.8230505,4.0283155
-37.40521,2.8077316,4.03181
-37.522633,2.7874131,4.0304503
-37.644684,2.7658176,4.028318
-37.773956,2.7419004,4.0243406
-37.891712,2.7235887,4.0269337
-38.04411,2.6915846,4.015798
-38.15923,2.6758485,4.0223784
-38.286736,2.6557164,4.025014
-38.440598,2.625697,4.018183
-38.618454,2.587034,4.0033836
-38.7499,2.5678244,4.0092154
-38.847588,2.5625715,4.029748
-39.06647,2.5108147,4.0045137
-39.26158,2.4695725,3.9909058
-39.388523,2.4554381,4.0049486
-39.577705,2.4185522,3.9975939
-39.7,2.4077263,4.0164175
-22.952538,2.4060082,3.2261834
-23.322575,2.5560899,3.38665
-23.48144,2.602854,3.4254675
-23.724659,2.6938152,3.5180078
-23.825941,2.71381,3.5262098
-23.90741,2.7241776,3.5231953
-23.979362,2.7300298,3.5150247
-24.655916,3.0566568,3.8979712
-24.855852,3.134933,3.9803905
-24.963074,3.1648886,4.0043955
-25.065895,3.1932635,4.026904
-25.16812,3.2220984,4.050409
-25.190441,3.2072463,4.0201397
-25.107323,3.133036,3.9160204
-25.112162,3.107504,3.8722496
-25.125526,3.0865712,3.8342037
-24.726341,2.8264735,3.495461
-24.763073,2.8164072,3.4701595
-24.80066,2.8068812,3.4456415
-24.834764,2.7953212,3.4186473
-24.866167,2.7821329,3.389666
-24.889933,2.7642605,3.3547783
-24.916811,2.748172,3.3222141
-24.943935,2.7321422,3.2897754
-24.967815,2.7139773,3.2546406
-24.991287,2.6954145,3.219028
-25.006086,2.6711402,3.1760535
-26.257069,3.4471257,4.172126
-26.295483,3.4460707,4.1621127
-26.328451,3.4415684,4.147715
-26.376926,3.4475064,4.147071
-26.408531,3.4423528,4.132034
-26.468061,3.456314,4.1422176
-26.503534,3.4541552,4.131358
-26.55471,3.4630628,4.13522
-26.60176,3.4694219,4.1358747
-26.62733,3.4607952,4.116784
-26.681227,3.4725266,4.124837
-26.711931,3.4678092,4.1111336
-26.740784,3.461793,4.095771
-26.760305,3.4488695,4.0712276
-26.786263,3.4406588,4.053039
-26.818512,3.437209,4.04131
-26.860592,3.4413924,4.039952
-26.89889,3.442892,4.0350914
-26.934694,3.442627,4.0279503
-26.972254,3.443907,4.023
-27.01093,3.446268,4.019621
-27.061287,3.4583328,4.0295563
-27.082151,3.4465876,4.007181
-27.1229,3.4512568,4.007262
-27.14341,3.4391637,3.984518
-27.20454,3.4615092,4.009018
-27.237518,3.46029,4.0013533
-27.268236,3.4572246,3.991231
-27.300083,3.4552293,3.9826558
-27.340717,3.4611754,3.9851184
-27.3654,3.4530056,3.9681776
-27.40962,3.4626465,3.9759474
-27.438108,3.458109,3.9641786
-27.467707,3.454644,3.9539611
-27.489998,3.4443042,3.934247
-27.517132,3.4384985,3.9208872
-27.558725,3.4467607,3.9272125
-27.604683,3.459679,3.9401572
-27.63926,3.4617128,3.9379992
-27.668274,3.4583158,3.9283168
-27.693377,3.450962,3.913145
-27.710306,3.4350638,3.8860142
-27.74537,3.437963,3.8853471
-27.778427,3.438939,3.882056
-27.827463,3.4573555,3.903445
-27.859753,3.4580655,3.8999631
-27.88784,3.4542632,3.8901737
-27.912783,3.446943,3.8754613
-27.93784,3.4396837,3.8608804
-27.96746,3.4376435,3.853753
-28.010712,3.4517133,3.8695812
-28.043215,3.4535027,3.8680537
-28.079931,3.4605832,3.8741345
-28.096153,3.4428105,3.844871
-28.123158,3.438088,3.8342452
-28.146517,3.4287343,3.8170538
-28.17858,3.4304252,3.815699
-28.221804,3.446899,3.8355799
-28.250011,3.4440799,3.8279233
-28.285656,3.451342,3.834785
-28.30766,3.440255,3.8153808
-28.32835,3.4270983,3.7930353
-28.354887,3.421922,3.782198
-28.390694,3.4300745,3.7906036
-28.4339,3.4495,3.8153403
-28.459558,3.4435275,3.8035488
-28.49268,3.448816,3.8080626
-28.517721,3.4419205,3.7950437
-28.537113,3.4259903,3.7690022
-28.566158,3.4250956,3.7647443
-28.603395,3.437698,3.7800949
-28.637436,3.4455843,3.788695
-28.663685,3.4406552,3.7787805
-28.696539,3.447114,3.7854457
-28.722214,3.4412537,3.7742846
-28.743198,3.426804,3.750681
-28.77298,3.4280975,3.750009
-28.805586,3.4348965,3.7574105
-28.839432,3.444508,3.7689793
-28.868631,3.4455247,3.7680929
-28.897785,3.4466214,3.7673812
-28.924778,3.4434376,3.7604787
-28.949232,3.4348664,3.7457576
-28.9789,3.4372797,3.7471266
-29.008251,3.4392285,3.7478757
-29.036816,3.4396152,3.746397
-29.06982,3.450497,3.7603333
-29.099361,3.4537935,3.7632318
-29.124792,3.447282,3.7518177
-29.14969,3.4391818,3.7381177
-29.168398,3.4146223,3.7003193
-29.197691,3.417095,3.7022042
-29.230911,3.4306812,3.720459
-29.263044,3.4421577,3.7356863
-29.291534,3.4437819,3.736504
-29.320335,3.446589,3.7391129
-29.343254,3.4312057,3.7150307
-29.36683,3.416979,3.6926827
-29.398571,3.4294176,3.7096086
-29.423391,3.418644,3.6924295
-29.45421,3.4290278,3.7064452
-29.485085,3.4406104,3.7222886
-29.514433,3.447277,3.730948
-29.54014,3.4395585,3.718462
-29.565233,3.4285626,3.7011876
-29.591652,3.4226384,3.6914334
-29.619001,3.4206815,3.6875768
-29.646933,3.4215827,3.6879854
-29.678059,3.4398518,3.714077
-29.706724,3.4464884,3.7230587
-29.73395,3.445384,3.7206645
-29.760588,3.4404397,3.7126474
-29.786285,3.428297,3.694045
-29.812757,3.4201298,3.6813593
-29.840076,3.4176211,3.6770782
-29.868618,3.42581,3.6886535
-29.89748,3.439111,3.7078352
-29.924755,3.4379375,3.7056775
-29.951788,3.433475,3.6987062
-29.97929,3.4346807,3.7001605
-30.004835,3.4017975,3.6512685
-30.032595,3.4020202,3.6513648
-30.061089,3.4235992,3.6830873
-30.088923,3.43741,3.7033753
-30.116238,3.4344873,3.698969
-30.143627,3.437797,3.7038279
-30.171125,3.4198895,3.6773615
-30.1989,3.407655,3.6593332
-30.226656,3.4050152,3.6555414
-30.254261,3.4074886,3.6593585
-30.281063,3.4245925,3.684855
-30.308512,3.4255247,3.68649
-30.335777,3.4287667,3.691587
-30.364105,3.4186444,3.6769795
-30.391487,3.4209085,3.6807303
-30.419888,3.413173,3.6697521
-30.447483,3.4139018,3.671332
-30.475565,3.410788,3.667285
-30.503178,3.4116604,3.669176
-30.528942,3.4248948,3.6893735
-30.555948,3.428697,3.6956844
-30.584309,3.4241927,3.6897817
-30.614601,3.4097195,3.6692166
-30.644459,3.3992362,3.6545992
-30.67183,3.4022148,3.6598983
-30.699142,3.405263,3.6653476
-30.723764,3.420074,3.688191
-30.750313,3.4254794,3.6972065
-30.780327,3.4164906,3.6850557
-30.808681,3.4148107,3.6837316
-30.840672,3.3998756,3.662938
-30.867708,3.403906,3.6701317
-30.897251,3.3991303,3.664412
-30.920383,3.41605,3.6906676
-30.948017,3.4175112,3.694223
-30.973839,3.4245772,3.7060661
-31.001377,3.4261768,3.7099204
-31.034822,3.4107237,3.6887765
-31.065262,3.404755,3.6816287
-31.095034,3.4010773,3.6779037
-31.12051,3.4090495,3.6913266
-31.147121,3.4137802,3.7000384
-31.175856,3.4130795,3.7008367
-31.206438,3.408063,3.6953673
-31.23668,3.4042306,3.6916933
-31.272028,3.388976,3.6713662
-31.296726,3.3984628,3.6873002
-31.323994,3.4019918,3.6945648
-31.348389,3.4115968,3.7107544
-31.376526,3.4130754,3.7151194
-31.405724,3.4124494,3.7164664
-31.437965,3.4059196,3.709261
-31.472046,3.3962255,3.6975126
-31.50293,3.3931475,3.695475
-31.532158,3.3934083,3.698358
-31.554281,3.4067352,3.7202992
-31.583403,3.407137,3.7234888
-31.614391,3.4043815,3.7221498
-31.645462,3.4017158,3.7210045
-31.68173,3.390532,3.7075725
-31.714682,3.3853736,3.7029543
-31.739157,3.394256,3.7187362
-31.761786,3.4058704,3.7385106
-31.790703,3.4073744,3.7437034
-31.821009,3.4068236,3.745985
-31.859493,3.3941057,3.7307715
-31.8936,3.38843,3.7258039
-31.922014,3.3913531,3.733302
-31.947056,3.3991218,3.7478266
-31.974222,3.4037747,3.7579155
-32.00285,3.4063854,3.7651215
-32.038425,3.399588,3.758881
-32.074963,3.3918524,3.751379
-32.11369,3.3816092,3.7403727
-32.142555,3.3845952,3.7483916
-32.164833,3.3960252,3.7685385
-32.195625,3.396541,3.7731338
-32.22602,3.3976674,3.778665
-32.26452,3.389006,3.7703147
-32.310143,3.3721757,3.7504349
-32.336918,3.3782794,3.7632813
-32.366257,3.381353,3.7718768
-32.383923,3.3979023,3.799646
-32.415783,3.3980231,3.8041575
-32.45226,3.3931103,3.8016179
-32.49723,3.3791065,3.7863193
-32.534546,3.373943,3.7836227
-32.561092,3.3806148,3.7977014
-32.586098,3.3888774,3.8140717
-32.611454,3.3966932,3.829858
-32.646496,3.3944588,3.83158
-32.68162,3.3923364,3.8335445
-32.718834,3.3883138,3.8329353
-32.755157,3.3854175,3.8339944
-32.790047,3.384141,3.8374057
-32.81312,3.3944528,3.8570607
-32.84385,3.3973486,3.8664303
-32.8872,3.388422,3.8594356
-32.92652,3.3836098,3.8582718
-32.96437,3.3804123,3.8594513
-33.002872,3.3768497,3.860224
-33.01577,3.3964868,3.8931441
-33.053158,3.394096,3.8956864
-33.09899,3.3845098,3.8884215
-33.159122,3.362927,3.8648026
-33.198185,3.360021,3.8670003
-33.22019,3.3717582,3.8893576
-33.234493,3.3898084,3.9203818
-33.27292,3.3876739,3.9238653
-33.337837,3.3641057,3.8982596
-33.376656,3.3623004,3.9024568
-33.411377,3.3639603,3.911463
-33.42988,3.3785453,3.938065
-33.46934,3.3766003,3.9423454
-33.502785,3.3795056,3.9532802
-33.56576,3.35996,3.9340773
-33.601265,3.361746,3.9437447
-33.62553,3.3720496,3.9649246
-33.652786,3.3800843,3.9831178
-33.69325,3.3784583,3.9884768
-33.74657,3.3677368,3.9818401
-33.78213,3.3701093,3.9927785
-33.82936,3.3643441,3.9930253
-33.8513,3.376574,4.0172243
-33.89276,3.375194,4.0235023
-33.936943,3.3721468,4.027711
-33.970577,3.37649,4.0417633
-34.02027,3.3701382,4.041897
-34.06811,3.3653212,4.0441995
-34.123573,3.355772,4.0404906
-34.16901,3.3531148,4.0459323
-34.217304,3.348854,4.0494404
-34.27612,3.3381553,4.0447845
-34.323345,3.3351657,4.050277
-34.382603,3.324912,4.046586
-34.44211,3.314897,4.0434127
-34.49263,3.3107657,4.0479746
-34.556137,3.2990475,4.043039
-34.61202,3.292324,4.0446863
-34.671696,3.28368,4.044098
-34.718517,3.2829576,4.053734
-34.790234,3.267964,4.0455604
-34.85862,3.2553887,4.040698
-34.908836,3.2536263,4.0496235
-34.96879,3.2466059,4.0521708
-35.037136,3.2352378,4.0495396
-35.10125,3.2266474,4.0506134
-35.180664,3.210051,4.042055
-35.24225,3.2036731,4.0463815
-35.31696,3.1905828,4.0427203
-35.385075,3.181479,4.0442257
-35.45803,3.1702247,4.043387
-35.529705,3.160086,4.044195
-35.60473,3.1486425,4.0437183
-35.682358,3.1363196,4.042494
-35.749283,3.1298954,4.0486507
-35.848698,3.107529,4.0360794
-35.9367,3.0915105,4.0314775
-35.993225,3.091538,4.046215
-36.082565,3.0758197,4.042651
-36.161007,3.0659182,4.0462904
-36.2421,3.0551968,4.0493097
-36.363914,3.0256608,4.0308514
-36.41721,3.0290852,4.0510216
-36.551315,2.9951859,4.028509
-36.61968,2.9924445,4.042266
-36.752346,2.9607463,4.023367
-36.822815,2.9579916,4.037866
-36.965576,2.923287,4.016698
-37.01736,2.9297817,4.042368
-37.178635,2.888483,4.0150146
-37.234066,2.894198,4.040538
-37.392246,2.855961,4.017892
-37.482635,2.8476179,4.0287724
-37.635178,2.8135595,4.0120964
-37.731277,2.8040352,4.022733
-37.85067,2.785396,4.024038
-38.01332,2.7497468,4.0077734
-38.1,2.745916,4.02612
-38.270584,2.7088327,4.009839
-38.39416,2.691503,4.0151396
-38.590256,2.6463332,3.9921403
-38.664112,2.6500401,4.02065
-38.840363,2.6145403,4.009345
-38.945236,2.6073866,4.027825
-39.201767,2.5433862,3.9894915
-39.33568,2.5269692,4.0002494
-39.48496,2.5055811,4.006795
-39.648838,2.4796674,4.0097084
-22.97578,2.4659863,3.2157931
-23.418758,2.6498086,3.4211407
-23.625305,2.7198894,3.490068
-23.698103,2.7244198,3.4797878
-23.80972,2.7490296,3.494429
-23.903732,2.765385,3.4993625
-23.993505,2.7801464,3.5027022
-24.643707,3.0884929,3.8708224
-24.860687,3.1744747,3.9649203
-24.967968,3.2039075,3.989274
-25.060251,3.226079,4.0049577
-25.160324,3.253161,4.0271916
-25.27704,3.2901502,4.062345
-24.569962,2.8709602,3.519793
-25.119951,3.148145,3.859436
-24.773712,2.9237733,3.561706
-24.741722,2.8747985,3.4867916
-24.776926,2.8638852,3.4605236
-24.808653,2.8509614,3.431758
-24.839844,2.837699,3.4026303
-24.869078,2.8232388,3.372023
-24.900663,2.8101358,3.3432417
-24.931728,2.796686,3.3140793
-24.948217,2.7742453,3.273242
-24.97277,2.7565806,3.2386646
-24.996216,2.7380908,3.2030425
-25.015125,2.7165787,3.1634746
-26.265797,3.4827821,4.1639385
-26.298721,3.478122,4.1493683
-26.328297,3.4713545,4.132089
-26.358627,3.4651203,4.115594
-26.387024,3.4576392,4.097513
-26.448067,3.47218,4.1089363
-26.478416,3.4662943,4.093197
-26.549458,3.4884715,4.115221
-26.537357,3.4534402,4.060487
-26.554989,3.4387345,4.0330706
-26.621626,3.458722,4.052581
-26.68271,3.4753237,4.067728
-26.707998,3.4664454,4.048479
-26.740946,3.4631653,4.036899
-26.758959,3.4488854,4.0104055
-26.784014,3.4397397,3.9909487
-26.820248,3.439042,3.9831066
-26.865576,3.4454746,3.9851408
-26.921593,3.460515,3.9991367
-26.959278,3.4616613,3.9941769
-27.00105,3.4662395,3.9940515
-27.034428,3.4643364,3.9850852
-27.060783,3.4568381,3.9684553
-27.07449,3.438925,3.9374347
-27.11266,3.4410934,3.9343185
-27.160992,3.4520226,3.9434953
-27.203403,3.4583228,3.9463592
-27.242838,3.4623613,3.9461813
-27.280476,3.4650846,3.9442677
-27.280075,3.434451,3.8957186
-27.340736,3.4577699,3.922824
-27.366863,3.4505842,3.9072442
-27.413946,3.462554,3.9186776
-27.44326,3.4585009,3.9076571
-27.479956,3.4614222,3.9065452
-27.498373,3.4471912,3.8812745
-27.522186,3.4379368,3.863071
-27.547167,3.42973,3.8463926
-27.623152,3.471825,3.901179
-27.651852,3.4678588,3.8907177
-27.674671,3.4579725,3.871889
-27.69522,3.4456298,3.8495955
-27.716953,3.4343305,3.8288188
-27.746521,3.431135,3.8196566
-27.801138,3.4547863,3.8489723
-27.831877,3.4533396,3.8424852
-27.867682,3.4575644,3.8441997
-27.891958,3.4491901,3.8279047
-27.91502,3.439344,3.8095343
-27.943596,3.435678,3.8000972
-27.97705,3.4377224,3.798946
-28.019112,3.4501326,3.8128228
-28.054008,3.454461,3.815135
-28.087507,3.4573545,3.8154514
-28.108368,3.444859,3.793571
-28.133995,3.4380941,3.780021
-28.161362,3.4334664,3.7696147
-28.20244,3.4465756,3.7850084
-28.234495,3.4483728,3.7840655
-28.266087,3.4497447,3.7825713
-28.295692,3.448596,3.7774756
-28.32036,3.4407234,3.762641
-28.34479,3.432385,3.7471666
-28.373415,3.4298825,3.740252
-28.413654,3.444304,3.758118
-28.44321,3.443568,3.7539167
-28.47872,3.4518957,3.7630365
-28.506422,3.4486933,3.75535
-28.531445,3.4413242,3.7416053
-28.552258,3.427112,3.717865
-28.58188,3.426764,3.7145038
-28.621803,3.4435408,3.73636
-28.65215,3.4449825,3.7357635
-28.683683,3.4486475,3.7384977
-28.714499,3.4513345,3.7398562
-28.737442,3.4401789,3.720881
-28.764713,3.436584,3.7130866
-28.792902,3.4346714,3.7078228
-28.828442,3.4468224,3.723372
-28.860102,3.452081,3.7288175
-28.891354,3.456893,3.733667
-28.91983,3.4563944,3.7307239
-28.943897,3.446778,3.7143407
-28.967642,3.436133,3.6964722
-28.99456,3.4320455,3.6883545
-29.028543,3.4437656,3.7037144
-29.061779,3.4545028,3.7176876
-29.089485,3.4528294,3.7133145
-29.11743,3.4517722,3.709907
-29.139936,3.4371614,3.686418
-29.165283,3.4291449,3.6727586
-29.19346,3.428288,3.669784
-29.221437,3.426959,3.6661577
-29.259514,3.4541578,3.7050276
-29.286076,3.4497142,3.6968808
-29.31217,3.4436917,3.6864295
-29.33838,3.4377332,3.6761165
-29.364025,3.429643,3.6626706
-29.39016,3.4227126,3.6509948
-29.419119,3.4251952,3.6533995
-29.449987,3.4349093,3.666644
-29.481508,3.4480157,3.685009
-29.508526,3.4446795,3.6788921
-29.534796,3.4381034,3.6679845
-29.562737,3.4382136,3.6671062
-29.587976,3.4262495,3.6482391
-29.614628,3.4198694,3.6377573
-29.6446,3.429583,3.6513724
-29.675497,3.445462,3.6742597
-29.702507,3.4415116,3.6675568
-29.731894,3.4514668,3.6816945
-29.75882,3.4471054,3.6744723
-29.785673,3.441704,3.6657395
-29.811897,3.430829,3.6488614
-29.838894,3.4244528,3.6387596
-29.867262,3.429233,3.6454024
-29.89563,3.4351978,3.6538668
-29.923565,3.4379082,3.6575098
-29.951042,3.4356973,3.653833
-29.978073,3.4263415,3.639505
-30.005304,3.4170547,3.6253247
-30.032965,3.4128323,3.6187763
-30.061163,3.4214506,3.631506
-30.08925,3.4334736,3.6493835
-30.116882,3.4311318,3.6457958
-30.14457,3.431082,3.645688
-30.172276,3.428883,3.6424088
-30.200247,3.41565,3.622651
-30.228151,3.4141488,3.6205134
-30.256319,3.4071684,3.6102185
-30.283684,3.4185796,3.6275148
-30.310835,3.4295044,3.6441278
-30.338367,3.432173,3.6484246
-30.366268,3.4299183,3.6453981
-30.394382,3.4260724,3.640037
-30.424303,3.4062183,3.6107645
-30.452309,3.4064043,3.6115408
-30.48003,3.40888,3.6157913
-30.505999,3.423614,3.6384306
-30.53349,3.4262261,3.6429768
-30.56039,3.4322295,3.6526418
-30.590225,3.4205923,3.635974
-30.618797,3.417335,3.6318898
-30.64745,3.414153,3.6279678
-30.676065,3.4115992,3.6250377
-30.70295,3.4174047,3.634647
-30.730598,3.4194133,3.6386294
-30.75808,3.4220443,3.643589
-30.784552,3.4286034,3.6544604
-30.813334,3.4258628,3.651496
-30.84578,3.4099865,3.6289873
-30.875935,3.4035592,3.6206346
-30.902363,3.410408,3.6321335
-30.927149,3.422264,3.6511383
-30.954813,3.4242969,3.6555457
-30.984602,3.4198198,3.6503072
-31.013947,3.4170685,3.6476922
-31.045471,3.4083762,3.6362906
-31.076609,3.4014149,3.6275263
-31.105473,3.4011002,3.628705
-31.1285,3.4161468,3.6527658
-31.156597,3.4176064,3.6566753
-31.183577,3.421863,3.6647878
-31.2157,3.41367,3.6544704
-31.25198,3.3963304,3.630649
-31.28197,3.3943112,3.6296215
-31.310062,3.3967133,3.635202
-31.333866,3.4083986,3.654581
-31.36154,3.4114766,3.661254
-31.389431,3.414085,3.6672826
-31.420235,3.4108288,3.66469
-31.457157,3.3958004,3.6447635
-31.487432,3.39435,3.6449695
-31.51719,3.3940592,3.6469445
-31.538822,3.408883,3.671267
-31.566992,3.411415,3.6775022
-31.595133,3.4140213,3.683897
-31.627562,3.4092174,3.6794376
-31.66389,3.3981047,3.6657667
-31.690563,3.4036288,3.676628
-31.72431,3.3975134,3.6704416
-31.747606,3.4085011,3.6894245
-31.777437,3.4089289,3.6929588
-31.802486,3.4168537,3.7075348
-31.836458,3.4110906,3.7021132
-31.874481,3.3996277,3.688427
-31.909897,3.392504,3.6811728
-31.94184,3.3907514,3.68184
-31.960485,3.40799,3.7102818
-31.992361,3.4063902,3.7112803
-32.02086,3.4095907,3.7193365
-32.05669,3.402949,3.7131262
-32.100964,3.38548,3.6912584
-32.13486,3.3822093,3.690123
-32.163605,3.3857884,3.6990004
-32.18738,3.3956594,3.7170525
-32.21888,3.3957617,3.7209964
-32.25378,3.3918295,3.7191715
-32.29392,3.3818302,3.7086596
-32.33128,3.3755617,3.7036314
-32.356995,3.3832526,3.7188172
-32.382584,3.391005,3.734137
-32.416115,3.3896346,3.7363772
-32.448807,3.3893847,3.740303
-32.48154,3.3892329,3.7444406
-32.526855,3.375499,3.7291818
-32.553707,3.3821478,3.743225
-32.57713,3.3923938,3.762463
-32.601337,3.4016845,3.7803721
-32.636562,3.3994877,3.7819383
-32.665977,3.4034097,3.7923038
-32.725628,3.3769584,3.759522
-32.75528,3.3811219,3.7704115
-32.780323,3.3898382,3.7878213
-32.801132,3.4025774,3.8109741
-32.837227,3.4005318,3.8132396
-32.87393,3.3981102,3.8150623
-32.922333,3.3849978,3.8018966
-32.96679,3.375986,3.7946427
-32.99212,3.3847253,3.812474
-33.020027,3.391089,3.827016
-33.058258,3.3882961,3.8287783
-33.09327,3.3885374,3.8348858
-33.144497,3.3748827,3.8216608
-33.180298,3.3749077,3.8276706
-33.211033,3.3793683,3.8399487
-33.240574,3.3848753,3.8537505
-33.279293,3.382831,3.8571358
-33.340816,3.3623662,3.8351007
-33.376377,3.3634877,3.8431165
-33.4013,3.3732314,3.863125
-33.427864,3.381621,3.8813148
-33.45972,3.3858516,3.8938394
-33.50246,3.381754,3.8950052
-33.55817,3.3680115,3.88308
-33.59881,3.3661113,3.8875225
-33.62028,3.3787146,3.9118702
-33.65281,3.3830495,3.924992
-33.69602,3.379662,3.9276986
-33.748867,3.3695526,3.9214156
-33.796856,3.3633025,3.920521
-33.82505,3.3713424,3.9390702
-33.856377,3.3771923,3.9547312
-33.890903,3.3808763,3.9675589
-33.952385,3.3662143,3.955872
-34.006256,3.357183,3.9519265
-34.028355,3.3698077,3.9770648
-34.04891,3.383368,4.003488
-34.090195,3.3832242,4.011739
-34.1465,3.3735123,4.007435
-34.216057,3.3556676,3.99257
-34.23297,3.3718448,4.0228047
-34.278736,3.3697186,4.0289903
-34.319016,3.3712368,4.040101
-34.38529,3.3568878,4.0305815
-34.430714,3.35574,4.0385165
-34.485447,3.3491821,4.0395613
-34.53322,3.3471124,4.0466146
-34.599052,3.3345876,4.040307
-34.65795,3.3265715,4.0400505
-34.71634,3.3192136,4.0408506
-34.770535,3.314609,4.0453863
-34.82708,3.3089638,4.0487814
-34.90079,3.2939744,4.0404806
-34.945866,3.2954495,4.053357
-35.01487,3.2838993,4.0499067
-35.090164,3.2693558,4.042945
-35.131813,3.273509,4.0597677
-35.2296,3.247737,4.0392556
-35.298946,3.2377706,4.038867
-35.35014,3.2377539,4.051116
-35.436825,3.2195113,4.0409718
-35.507656,3.2100165,4.041979
-35.558495,3.2111292,4.056305
-35.653145,3.1903439,4.043999
-35.742737,3.1727266,4.0359554
-35.796425,3.1734653,4.050588
-35.89692,3.151495,4.0379457
-35.954082,3.1512275,4.0518837
-36.0505,3.1323524,4.043722
-36.152943,3.1112313,4.0332932
-36.207417,3.1133833,4.050989
-36.33484,3.0817146,4.0288606
-36.391285,3.0837283,4.0470004
-36.498413,3.062778,4.0384326
-36.59941,3.0452864,4.034385
-36.695015,3.0308352,4.0343237
-36.802517,3.011661,4.0292344
-36.87387,3.0090542,4.043685
-36.998688,2.9834905,4.032188
-37.105602,2.9664478,4.0309763
-37.217075,2.9480917,4.0287766
-37.3323,2.9288135,4.0260673
-37.433517,2.9160893,4.0312395
-37.58175,2.8844275,4.0158267
-37.65895,2.882889,4.0344567
-37.824383,2.845818,4.0143895
-37.909775,2.8420496,4.0315337
-38.079735,2.804964,4.0129223
-38.21666,2.782002,4.010417
-38.288948,2.7851233,4.036543
-38.481365,2.742031,4.013844
-38.671936,2.7008626,3.9942007
-38.80191,2.683886,4.00095
-38.90497,2.6777475,4.019655
-39.11045,2.6340127,4.000032
-39.270714,2.6082058,3.99992
-39.453613,2.575065,3.9932127
-39.623753,2.5476115,3.9932542
-39.736374,2.5416937,4.0157895
-23.243711,2.647025,3.3509479
-23.47382,2.7257485,3.4319134
-23.61413,2.7623153,3.4615107
-23.734064,2.7898173,3.48039
-23.815943,2.799125,3.4769783
-23.9131,2.8166196,3.484169
-23.992844,2.8258617,3.4813309
-24.633718,3.1246758,3.8453927
-24.771372,3.1678748,3.8875823
-24.956846,3.2373188,3.9637988
-25.014412,3.240494,3.9560268
-25.12686,3.2733915,3.9866047
-25.280579,3.3295321,4.0475607
-24.63159,2.9479043,3.543621
-24.681213,2.9448256,3.527295
-25.140934,3.1708364,3.8089304
-24.808304,2.9549217,3.5162992
-24.781868,2.9092412,3.4447794
-24.815742,2.897571,3.4176903
-24.84401,2.8826447,3.3863988
-24.872498,2.8677852,3.3552532
-24.901924,2.8534164,3.3248148
-24.928732,2.8374217,3.2922802
-24.952969,2.8197787,3.2576013
-24.971884,2.7987533,3.218449
-24.995323,2.7803257,3.182784
-25.007996,2.7550263,3.1379395
-25.025229,2.732313,3.0965562
-26.282791,3.5003786,4.1205835
-26.309761,3.491784,4.1008773
-26.322023,3.4736078,4.0682597
-26.347319,3.4638028,4.047001
-26.385393,3.4624686,4.037316
-26.443254,3.4745867,4.046075
-26.482445,3.4744549,4.0382824
-26.515068,3.4699845,4.024658
-26.540611,3.4606762,4.004476
-26.568218,3.4527855,3.986296
-26.625902,3.4662352,3.9975839
-26.679457,3.47719,4.0056086
-26.713882,3.474684,3.99517
-26.748306,3.4722884,3.9849718
-26.76292,3.45532,3.9546156
-26.799942,3.4549372,3.9473517
-26.842405,3.4588366,3.946155
-26.899244,3.4740138,3.960831
-26.940722,3.4777863,3.9597173
-26.97255,3.4742389,3.9484515
-27.020922,3.4838986,3.9558117
-27.050901,3.4791787,3.9430757
-27.06932,3.4651217,3.9172456
-27.090862,3.4534574,3.8948138
-27.121727,3.4494226,3.8832068
-27.174679,3.4640288,3.8980753
-27.225594,3.4774077,3.911355
-27.257292,3.474711,3.9019332
-27.285694,3.4692307,3.8886209
-27.302166,3.4532394,3.8603837
-27.331896,3.4488513,3.848725
-27.383081,3.4639125,3.8649378
-27.423828,3.4699442,3.8683634
-27.457052,3.4693012,3.8623223
-27.487123,3.4658322,3.8522987
-27.501268,3.4472742,3.8206415
-27.531555,3.4439378,3.810905
-27.571955,3.450531,3.8155487
-27.62165,3.4666371,3.834027
-27.65911,3.471057,3.8357463
-27.688124,3.4671698,3.8255305
-27.70848,3.4544141,3.8025203
-27.741972,3.455152,3.7991164
-27.773987,3.4544945,3.7937593
-27.81906,3.467957,3.8090074
-27.856873,3.4740503,3.81364
-27.887209,3.472218,3.806807
-27.905363,3.4568534,3.7802858
-27.935396,3.454659,3.7730253
-27.96896,3.4566023,3.7718778
-28.006794,3.463728,3.778391
-28.042717,3.4689424,3.7821898
-28.074675,3.4696817,3.7795038
-28.099045,3.4613166,3.7635114
-28.12108,3.4499345,3.743122
-28.148214,3.4447553,3.731893
-28.179844,3.445303,3.7291484
-28.220545,3.4577956,3.7440805
-28.25586,3.4637146,3.7494078
-28.286003,3.4630198,3.7450423
-28.31195,3.4567099,3.7324333
-28.33426,3.4452705,3.712278
-28.363049,3.4427204,3.7053185
-28.392584,3.4412906,3.7000737
-28.435688,3.4597812,3.7244368
-28.470629,3.466916,3.7320433
-28.501577,3.468398,3.7313242
-28.527363,3.4620981,3.7190938
-28.547903,3.4474502,3.6944838
-28.573334,3.4402092,3.6809292
-28.60503,3.4430482,3.6824374
-28.642345,3.455486,3.6983232
-28.671574,3.4548202,3.694735
-28.706903,3.46483,3.7071443
-28.732388,3.457973,3.6944222
-28.758585,3.45224,3.683422
-28.785458,3.4476357,3.6741538
-28.817772,3.4532213,3.6801877
-28.849386,3.4578357,3.6848302
-28.884125,3.4689515,3.6992807
-28.91197,3.4668036,3.6939077
-28.933617,3.4518745,3.6694036
-28.95937,3.4450307,3.6570668
-28.988712,3.4457643,3.6561556
-29.020674,3.4524903,3.6643047
-29.053173,3.4609234,3.6750832
-29.084547,3.4672985,3.682828
-29.112179,3.4651346,3.6777787
-29.135695,3.4527855,3.6574383
-29.161795,3.4464312,3.646164
-29.189253,3.4433866,3.6399193
-29.216759,3.4404116,3.6338267
-29.246449,3.4434686,3.6368809
-29.279066,3.4552865,3.6532097
-29.307577,3.4557984,3.652532
-29.335531,3.4547563,3.6495566
-29.359913,3.4423654,3.6294832
-29.38669,3.4371047,3.6202226
-29.414516,3.4351792,3.6160479
-29.44466,3.4415011,3.624393
-29.476994,3.456634,3.646122
-29.505327,3.457669,3.6465797
-29.532146,3.4527707,3.6381035
-29.557648,3.4419274,3.6206698
-29.58411,3.4344258,3.6083364
-29.612358,3.4346485,3.607748
-29.640919,3.4365878,3.609808
-29.67068,3.4451742,3.6219907
-29.701519,3.4609656,3.6451488
-29.729788,3.4636865,3.6485448
-29.757038,3.4604483,3.6429534
-29.783388,3.450695,3.6275268
-29.809874,3.4404578,3.6114063
-29.837393,3.4368742,3.6054244
-29.864738,3.4311635,3.5962596
-29.893936,3.4425526,3.6130896
-29.92218,3.4463265,3.6184125
-29.94959,3.4408302,3.6097126
-29.977192,3.436503,3.6028323
-30.004631,3.4278474,3.589427
-30.032566,3.42586,3.5861902
-30.060423,3.4206443,3.5780993
-30.089111,3.4446504,3.614421
-30.11694,3.4445295,3.6141586
-30.14477,3.4450305,3.6148877
-30.172638,3.4395523,3.6065845
-30.200768,3.4269962,3.5875816
-30.22884,3.4255128,3.5854373
-30.257011,3.4224515,3.580945
-30.284647,3.4310107,3.594141
-30.312023,3.4407392,3.609157
-30.339804,3.4422903,3.611806
-30.367884,3.4400663,3.6087708
-30.396599,3.431871,3.5967207
-30.425264,3.4259489,3.5881705
-30.45341,3.425594,3.5881162
-30.481426,3.4264097,3.5898848
-30.507883,3.438273,3.6084566
-30.535751,3.4392285,3.610529
-30.564232,3.4364169,3.606935
-30.59412,3.426007,3.5918713
-30.623331,3.42061,3.5844593
-30.651915,3.4191248,3.5830255
-30.68145,3.4133358,3.5751219
-30.707651,3.4234896,3.5914168
-30.733639,3.4337053,3.6078482
-30.761387,3.4357874,3.6120048
-30.790892,3.4308424,3.6055722
-30.821089,3.4237952,3.5960112
-30.851604,3.416286,3.5858073
-30.879494,3.4186697,3.5906181
-30.906858,3.4227586,3.5980535
-30.930628,3.4383407,3.6229014
-30.959276,3.4376645,3.6232228
-30.989033,3.433805,3.6187873
-31.018702,3.4305704,3.6153479
-31.054012,3.4116926,3.5883584
-31.081064,3.4167602,3.5975585
-31.110056,3.416483,3.5987444
-31.134884,3.427096,3.6163936
-31.16208,3.4312825,3.6243997
-31.191635,3.4296033,3.6236176
-31.227833,3.4123738,3.5994873
-31.259766,3.4060268,3.5918026
-31.289228,3.4056883,3.5932121
-31.317741,3.4075775,3.598024
-31.34122,3.4202719,3.6191134
-31.36778,3.4260483,3.6298504
-31.394497,3.431354,3.639925
-31.434795,3.4094658,3.6092668
-31.46628,3.4058638,3.6061034
-31.495907,3.4060833,3.608725
-31.523838,3.4095783,3.616302
-31.550844,3.4147391,3.6264205
-31.576574,3.4220915,3.6398592
-31.604593,3.425263,3.6470923
-31.641216,3.413686,3.6323576
-31.67497,3.4075117,3.6257625
-31.706003,3.4061894,3.62647
-31.732529,3.4123316,3.6383572
-31.758284,3.4195902,3.6519508
-31.787285,3.4216583,3.657864
-31.817642,3.4217067,3.660829
-31.855007,3.4113722,3.6484308
-31.890852,3.4037719,3.6401734
-31.921848,3.4035866,3.6429892
-31.947758,3.410779,3.656796
-31.970945,3.4216714,3.6761227
-32.002224,3.4211986,3.6786723
-32.038902,3.413567,3.6707053
-32.084316,3.3946848,3.6462078
-32.117966,3.3919547,3.6456509
-32.145317,3.3975625,3.6574516
-32.168533,3.4083765,3.6769667
-32.195248,3.4146252,3.6897988
-32.231842,3.4086602,3.6847305
-32.2745,3.3956666,3.669426
-32.313637,3.3874063,3.6611686
-32.342606,3.3914776,3.6710668
-32.363644,3.4047556,3.6944947
-32.391087,3.4104795,3.7069058
-32.426968,3.4066806,3.705459
-32.464787,3.4009798,3.7013211
-32.505524,3.392388,3.6930585
-32.538578,3.3924596,3.6975021
-32.56321,3.4016342,3.715251
-32.584835,3.413859,3.7374668
-32.61778,3.414178,3.7424479
-32.65124,3.4140997,3.7469249
-32.708828,3.389855,3.7165194
-32.735184,3.3974538,3.7322803
-32.764435,3.4021616,3.7439175
-32.787544,3.4128466,3.764225
-32.817642,3.4167187,3.774765
-32.854946,3.4138327,3.7756567
-32.901764,3.4022949,3.7642245
-32.94517,3.3943317,3.7580395
-32.974407,3.399611,3.7709155
-32.997658,3.4102874,3.791562
-33.03485,3.408482,3.7944398
-33.083088,3.397188,3.783892
-33.133827,3.3841555,3.7710066
-33.17316,3.381348,3.7727828
-33.191196,3.3967729,3.8005073
-33.221462,3.4017735,3.8134942
-33.259693,3.4002337,3.8173046
-33.31535,3.384664,3.8014207
-33.361465,3.37731,3.7972715
-33.39544,3.379971,3.8073297
-33.41222,3.3962913,3.836638
-33.444252,3.4005163,3.8490157
-33.491905,3.3927648,3.8447206
-33.553127,3.37501,3.8265994
-33.585396,3.3796391,3.8398535
-33.61207,3.3885016,3.8590693
-33.640472,3.396059,3.876526
-33.688816,3.3890877,3.8739233
-33.73735,3.382298,3.8717127
-33.794975,3.3693452,3.8611436
-33.80555,3.3900347,3.8970666
-33.840256,3.3936143,3.9094744
-33.878838,3.3946152,3.9184358
-33.94753,3.3752058,3.8995867
-33.9956,3.370318,3.9007857
-34.015987,3.384223,3.9277163
-34.0575,3.3840377,3.9355364
-34.093697,3.387517,3.9484422
-34.166405,3.3674626,3.9296253
-34.210976,3.3660388,3.9361897
-34.230286,3.3808537,3.964736
-34.277622,3.3779578,3.9695385
-34.316746,3.3804102,3.9816475
-34.401955,3.3546717,3.9562252
-34.42873,3.3652048,3.9794197
-34.45394,3.376659,4.0038977
-34.501728,3.3746166,4.0105505
-34.593235,3.3470175,3.983596
-34.6127,3.3622499,4.013406
-34.640602,3.372497,4.0366945
-34.70401,3.3624196,4.033433
-34.75816,3.3579912,4.037772
-34.814663,3.3525379,4.0409613
-34.88021,3.342381,4.038241
-34.944527,3.3333125,4.0371685
-35.008327,3.3249164,4.037194
-35.064835,3.3208318,4.0429935
-35.136593,3.3089118,4.0389533
-35.20636,3.2984989,4.037108
-35.26265,3.2955618,4.0450377
-35.337467,3.2833164,4.0413656
-35.420288,3.267439,4.033392
-35.48333,3.262144,4.039068
-35.54731,3.2567153,4.044813
-35.63649,3.239096,4.0355654
-35.70798,3.2307732,4.0382533
-35.76943,3.2277591,4.047803
-35.862724,3.2096705,4.0389667
-35.942074,3.198854,4.039465
-36.013683,3.1921687,4.045345
-36.118443,3.170331,4.033027
-36.178448,3.169958,4.0472317
-36.272583,3.1541696,4.043025
-36.37603,3.1347203,4.0348144
-36.46763,3.121266,4.03424
-36.578423,3.0997858,4.024484
-36.62947,3.1054082,4.0473986
-36.776524,3.0692036,4.021088
-36.840332,3.0700612,4.039033
-36.985973,3.0360966,4.016506
-37.0594,3.0337708,4.0314827
-37.167408,3.0172536,4.030344
-37.258884,3.0082552,4.038357
-37.38617,2.9849863,4.030443
-37.479057,2.9765384,4.040007
-37.624218,2.9474564,4.026639
-37.775948,2.9166532,4.01204
-37.868958,2.9100614,4.025273
-37.999233,2.88933,4.023217
-38.119537,2.8732338,4.0269227
-38.24365,2.8563514,4.0303526
-38.434322,2.8148315,4.0075326
-38.55496,2.8009067,4.015589
-38.74078,2.763322,3.9987988
-38.82524,2.7643142,4.0241833
-39.021812,2.7246933,4.00691
-39.212906,2.688257,3.9940376
-39.357597,2.6695924,4.0007544
-39.53916,2.6386533,3.9955115
-39.644466,2.6355407,4.019861
-22.9869,2.607948,3.235106
-23.373955,2.7577055,3.4068155
-23.487196,2.7797472,3.418932
-23.617271,2.8106744,3.4427648
-23.69959,2.8192062,3.4386249
-23.849604,2.8615835,3.4780226
-23.938871,2.8748481,3.480713
-24.04559,2.8974416,3.49574
-24.506563,3.1007743,3.744506
-24.677849,3.1598005,3.808339
-24.817427,3.2038345,3.8533878
-24.961372,3.2512927,3.903459
-25.026642,3.2583354,3.9012346
-25.155464,3.2997131,3.9442964
-25.203556,3.298591,3.9319158
-25.114307,3.22279,3.8210783
-25.150505,3.2147627,3.7995567
-25.224964,3.2280898,3.8064985
-25.267698,3.2240844,3.7906122
-24.883636,2.9778652,3.4512615
-24.85882,2.9329028,3.3798456
-24.887215,2.9180975,3.348773
-24.916548,2.9037762,3.3184094
-24.93971,2.8857522,3.283103
-24.961754,2.8669245,3.2467408
-24.982002,2.846861,3.2087283
-24.995619,2.8225713,3.1649828
-25.00204,2.7935762,3.1148086
-25.015167,2.76839,3.0698047
-25.020535,2.7380242,3.0176878
-25.02305,2.705443,2.9624815
-26.279217,3.4787607,4.0172615
-26.304115,3.4684105,3.995164
-26.32118,3.452876,3.9659429
-26.357014,3.449654,3.9538107
-26.403357,3.4536,3.9517314
-26.466509,3.4692159,3.9660387
-26.501444,3.4659986,3.9542608
-26.549885,3.4722528,3.9558153
-26.541988,3.4393291,3.90261
-26.589828,3.445354,3.90401
-26.651316,3.4614682,3.9197397
-26.693687,3.4642663,3.9168882
-26.72294,3.4576864,3.9009068
-26.75166,3.4507349,3.8844614
-26.77437,3.4392939,3.861714
-26.803923,3.4329457,3.8462343
-26.86236,3.448761,3.8623455
-26.9216,3.4657316,3.8802733
-26.955627,3.463489,3.8709517
-26.993748,3.4646053,3.8665118
-27.032372,3.4663162,3.863017
-27.056515,3.4564676,3.8430367
-27.082523,3.4480832,3.8252
-27.102434,3.434589,3.8000584
-27.141647,3.4371743,3.7981172
-27.18687,3.4450994,3.8039808
-27.229116,3.4508133,3.806765
-27.264097,3.4504852,3.8009071
-27.297413,3.4488342,3.793212
-27.317858,3.4357905,3.7690473
-27.354448,3.4371932,3.7659144
-27.396736,3.4440136,3.7707548
-27.44143,3.4533968,3.7794366
-27.47609,3.4537368,3.775028
-27.506107,3.4498146,3.7644653
-27.53364,3.4435415,3.7505217
-27.56026,3.4363647,3.7353039
-27.602306,3.4444318,3.7425032
-27.64071,3.4492083,3.7449708
-27.675098,3.4501762,3.7419238
-27.697943,3.4394112,3.7216706
-27.72996,3.4380906,3.7153764
-27.75869,3.4333935,3.704164
-27.804577,3.4471614,3.7202945
-27.843729,3.4541204,3.7264638
-27.873207,3.450725,3.7173872
-27.895136,3.4389038,3.6958728
-27.921244,3.43164,3.6811519
-27.955301,3.4334881,3.6800146
-27.990995,3.4374564,3.6821003
-28.034199,3.4506254,3.6979623
-28.068703,3.4538255,3.6990685
-28.093182,3.4449625,3.682253
-28.115776,3.4336145,3.661765
-28.140991,3.4253678,3.6459422
-28.17785,3.431975,3.6523786
-28.217657,3.44279,3.6651926
-28.252565,3.4475913,3.6690865
-28.286572,3.4514751,3.6716752
-28.312973,3.445179,3.6590538
-28.336899,3.4353423,3.6411567
-28.363546,3.4291704,3.6288042
-28.396011,3.4313362,3.6290398
-28.43191,3.4387755,3.637281
-28.46692,3.4452908,3.6442027
-28.495632,3.4425602,3.6372533
-28.520023,3.4331393,3.620257
-28.545246,3.4248147,3.6049528
-28.574821,3.423338,3.6000357
-28.607256,3.4266486,3.6024117
-28.649868,3.447341,3.631154
-28.681292,3.4498172,3.6324067
-28.712633,3.4523838,3.6338549
-28.734474,3.4382021,3.6099668
-28.759483,3.4293308,3.5941625
-28.790598,3.4315975,3.5953045
-28.821081,3.4328957,3.5950317
-28.856657,3.4443312,3.610221
-28.888773,3.4495199,3.6159825
-28.918676,3.4505582,3.615489
-28.942703,3.439463,3.5965781
-28.96844,3.4316106,3.5826402
-28.994324,3.4238186,3.5688329
-29.024601,3.425682,3.5697856
-29.06102,3.4420357,3.5928946
-29.091232,3.444615,3.5950565
-29.122238,3.4494162,3.600665
-29.144423,3.4323578,3.5729408
-29.171913,3.4282024,3.564959
-29.199675,3.424652,3.557949
-29.22905,3.4254675,3.5576582
-29.264414,3.4435565,3.5838442
-29.292614,3.441855,3.5798106
-29.319422,3.4359193,3.569343
-29.345833,3.428434,3.5565429
-29.370258,3.4140022,3.533143
-29.398632,3.4120347,3.5288773
-29.43008,3.4209404,3.541325
-29.461756,3.431555,3.55645
-29.490793,3.4330668,3.5576706
-29.519382,3.4330325,3.5565658
-29.5486,3.4357796,3.5597782
-29.575787,3.4299362,3.5498528
-29.60216,3.4198241,3.5334163
-29.630953,3.4206219,3.533774
-29.66128,3.429634,3.5467973
-29.69228,3.4436154,3.5675058
-29.720472,3.4430184,3.5658684
-29.74772,3.436517,3.555203
-29.776146,3.4371505,3.5555468
-29.804327,3.436226,3.5535421
-29.831705,3.4288461,3.541658
-29.859488,3.4237118,3.5332694
-29.888607,3.4306214,3.5434484
-29.917517,3.437063,3.552956
-29.94558,3.4348683,3.5492263
-29.973045,3.4234867,3.5314102
-30.000856,3.4138083,3.5162568
-30.029514,3.4178202,3.5222106
-30.057888,3.4164567,3.5199413
-30.086636,3.429334,3.539628
-30.11492,3.4292076,3.5393543
-30.1432,3.427519,3.5367222
-30.171543,3.4231787,3.5300555
-30.200048,3.4156418,3.518517
-30.228584,3.4125376,3.5138445
-30.257074,3.412232,3.513524
-30.285486,3.4136329,3.5158758
-30.312988,3.4287238,3.5393338
-30.340816,3.4351687,3.5495353
-30.369831,3.4264398,3.5364404
-30.39947,3.4134326,3.5168152
-30.428867,3.4054036,3.5048947
-30.457466,3.4056127,3.505691
-30.485205,3.4124222,3.5166812
-30.512177,3.4236493,3.5345068
-30.540747,3.422986,3.5340977
-30.570147,3.4175081,3.5263367
-30.60006,3.4099364,3.515408
-30.62984,3.4040742,3.5071578
-30.658901,3.4026318,3.505745
-30.687317,3.4045186,3.5094929
-30.714022,3.4140637,3.5250435
-30.742792,3.4139252,3.5257716
-30.770784,3.4171085,3.5316448
-30.801064,3.411168,3.5235672
-30.832638,3.4009862,3.509038
-30.86115,3.4027772,3.5129204
-30.890574,3.401403,3.5119991
-30.9168,3.4108934,3.5277734
-30.944845,3.413978,3.5337763
-30.973358,3.415519,3.5374594
-31.003294,3.4128287,3.5347147
-31.03665,3.4005442,3.5173411
-31.067225,3.396952,3.5133252
-31.096512,3.3971992,3.5152345
-31.123772,3.4028847,3.5255032
-31.151554,3.40703,3.533461
-31.178616,3.41285,3.544022
-31.21,3.4080482,3.5384126
-31.242418,3.4011998,3.5297384
-31.27641,3.3912456,3.5163894
-31.30705,3.3893833,3.515438
-31.334814,3.3939896,3.5243964
-31.35873,3.4066353,3.545641
-31.386501,3.4108396,3.55407
-31.4234,3.3965616,3.5344334
-31.45177,3.3998704,3.541607
-31.488329,3.387392,3.5248423
-31.515656,3.39298,3.5355859
-31.544027,3.3965259,3.543274
-31.566801,3.410148,3.5662913
-31.597042,3.410145,3.568686
-31.627613,3.4097002,3.570466
-31.666573,3.3951874,3.5510058
-31.700836,3.3891773,3.5444922
-31.73013,3.3916314,3.5508423
-31.751232,3.407206,3.5770645
-31.780994,3.408753,3.5821333
-31.808048,3.4145403,3.5936527
-31.84394,3.4068975,3.58497
-31.885971,3.3905568,3.563262
-31.917385,3.390398,3.5660057
-31.949554,3.3892956,3.567388
-31.977018,3.394987,3.5790434
-32.01109,3.3914862,3.5769405
-32.042244,3.3921962,3.5812244
-32.084152,3.378642,3.5641856
-32.1225,3.3703475,3.555119
-32.148838,3.3780057,3.5700088
-32.175846,3.384707,3.5835094
-32.201122,3.3935091,3.600193
-32.24022,3.3851137,3.5912519
-32.2787,3.377861,3.5841022
-32.317802,3.370228,3.5764713
-32.35326,3.3672628,3.5758739
-32.374096,3.3815148,3.600943
-32.399487,3.3902788,3.617886
-32.434494,3.3880806,3.6186094
-32.470936,3.3844922,3.6173468
-32.51841,3.3690531,3.5986218
-32.551994,3.369207,3.6030712
-32.579567,3.3759117,3.6172657
-32.60233,3.3876367,3.6389136
-32.63155,3.3924928,3.6504717
-32.67082,3.387084,3.6469774
-32.707325,3.3847537,3.6480994
-32.739006,3.3874404,3.6566691
-32.770176,3.3907077,3.6661549
-32.802326,3.3930893,3.6744046
-32.831425,3.3984818,3.6871262
-32.866608,3.3981347,3.6915188
-32.90962,3.3906438,3.6855674
-32.951263,3.3847504,3.6820512
-32.988853,3.3828475,3.684443
-33.017464,3.3892188,3.698944
-33.04437,3.3971019,3.715692
-33.084747,3.3931327,3.7153187
-33.132397,3.383121,3.7063036
-33.190273,3.3647542,3.685347
-33.216736,3.3735476,3.7037268
-33.239113,3.3857033,3.7269955
-33.271526,3.3894506,3.7382073
-33.334324,3.3684824,3.7140121
-33.376778,3.3645678,3.7144432
-33.410614,3.367778,3.7251773
-33.44443,3.3710923,3.736136
-33.46696,3.3832905,3.7598405
-33.516808,3.3743463,3.7534823
-33.561466,3.3697205,3.7534003
-33.59655,3.3725743,3.764048
-33.633465,3.3741717,3.7729993
-33.67596,3.371799,3.7764301
-33.71296,3.37365,3.7859335
-33.765648,3.3643436,3.7798185
-33.806587,3.3637795,3.7861428
-33.82087,3.3821697,3.8191545
-33.860466,3.3827124,3.8271914
-33.904625,3.3802767,3.8311732
-33.95994,3.3704696,3.8250024
-34.01028,3.3644085,3.82421
-34.03641,3.3748035,3.8464038
-34.095573,3.363368,3.8384182
-34.13231,3.366999,3.8514364
-34.185173,3.360323,3.85034
-34.235527,3.3555813,3.8520653
-34.26763,3.3626666,3.870172
-34.298283,3.3707075,3.8896637
-34.35437,3.3630211,3.887748
-34.42526,3.3466163,3.8741324
-34.44482,3.361876,3.9037883
-34.494373,3.3590178,3.908912
-34.535553,3.3613906,3.9212594
-34.596676,3.3521903,3.9181197
-34.64086,3.3532362,3.9289632
-34.68869,3.3523672,3.9373708
-34.72428,3.358697,3.9555526
-34.76054,3.3647304,3.9734375
-34.860462,3.3352861,3.9442422
-34.846134,3.3698258,4.000264
-34.92968,3.3503067,3.9847
-34.974957,3.3521328,3.9975777
-35.01951,3.3545265,4.011343
-35.053543,3.3626776,4.0327883
-35.12076,3.3534389,4.031624
-35.18746,3.3448758,4.031581
-35.25134,3.3381653,4.0341835
-35.33,3.3242726,4.0277295
-35.40205,3.3142269,4.0265317
-35.461945,3.3106916,4.0339594
-35.53211,3.3023827,4.0354958
-35.604057,3.2936,4.0366926
-35.667587,3.2893217,4.0438814
-35.75972,3.2716312,4.034339
-35.836372,3.2619035,4.035202
-35.9029,3.2573886,4.042907
-35.99683,3.240445,4.035327
-36.06619,3.2354374,4.042993
-36.169662,3.2152,4.032046
-36.252472,3.204982,4.033903
-36.324123,3.2002382,4.042827
-36.422943,3.1838083,4.037734
-36.513096,3.1717935,4.0384393
-36.605186,3.1594572,4.0391335
-36.712486,3.1411033,4.032956
-36.82019,3.1232343,4.0278296
-36.899883,3.1178415,4.0380907
-37.02335,3.0945663,4.027418
-37.13552,3.076736,4.0237465
-37.224415,3.0691073,4.0325894
-37.355072,3.045013,4.0225415
-37.46069,3.0317764,4.0257444
-37.56917,3.0179973,4.0287986
-37.711403,2.9915493,4.017763
-37.82233,2.9781668,4.022364
-37.96464,2.9532995,4.0144134
-38.091858,2.9350495,4.014635
-38.21337,2.919685,4.018711
-38.350914,2.8990035,4.017434
-38.509003,2.8715076,4.009273
-38.63251,2.8576274,4.016911
-38.80035,2.8283372,4.008289
-38.90691,2.8220491,4.0255265
-39.1501,2.7677321,3.9914565
-39.299164,2.748056,3.995789
-39.46734,2.7225573,3.9947023
-39.612747,2.7058647,4.0037894
-39.734276,2.6981068,4.0229864
-23.075897,2.6974823,3.2679124
-23.384064,2.8083866,3.3940663
-23.5338,2.847127,3.4286504
-23.634554,2.8636239,3.435101
-23.770245,2.8975682,3.4645572
-23.859062,2.9097116,3.4661798
-23.95456,2.925671,3.473113
-24.073656,2.953947,3.4965382
-24.420921,3.0973926,3.671835
-24.619604,3.1688309,3.7535963
-24.708485,3.185848,3.7641392
-24.839443,3.225194,3.8046484
-24.962746,3.2615964,3.8417406
-25.01991,3.2641306,3.8340588
-25.183022,3.3233593,3.9025233
-25.238625,3.326213,3.8958638
-25.186213,3.2706661,3.8106751
-25.195116,3.2478604,3.7694635
-25.295755,3.275689,3.7968607
-25.325272,3.2644713,3.7715497
-25.278355,3.2099805,3.687333
-24.886234,2.9571462,3.33185
-24.916273,2.9432456,3.3020415
-24.944387,2.9281774,3.2706885
-24.966381,2.9094272,3.2343178
-24.987276,2.8898745,3.1968646
-24.983402,2.85523,3.1385498
-24.998173,2.8314507,3.0952268
-25.005093,2.802583,3.044825
-25.010479,2.7723923,2.9925432
-25.01709,2.7425733,2.9407372
-25.037066,2.7208498,2.9002256
-26.26942,3.4770532,3.9511466
-26.293362,3.465817,3.927774
-26.31549,3.4533362,3.9026897
-26.36345,3.457891,3.9016948
-26.412554,3.4634995,3.9023256
-26.472498,3.4767551,3.9139364
-26.493494,3.463813,3.8885112
-26.530035,3.4615269,3.8782833
-26.551342,3.4487064,3.8531215
-26.592375,3.44974,3.8477862
-26.660814,3.4705906,3.8709238
-26.695892,3.4679403,3.860566
-26.722351,3.4590976,3.8413932
-26.739782,3.4435449,3.8126132
-26.780504,3.4452457,3.8087242
-26.798296,3.4297953,3.7801666
-26.865238,3.4518063,3.8058197
-26.929287,3.472259,3.8294117
-26.955904,3.4640164,3.8115406
-26.99834,3.4682922,3.811917
-27.029678,3.4639277,3.7998195
-27.055338,3.4550157,3.7811546
-27.069801,3.4368558,3.7490277
-27.10875,3.4387813,3.746286
-27.159843,3.4511425,3.7589216
-27.202347,3.4566483,3.7616363
-27.244678,3.4623034,3.7646732
-27.270054,3.4534535,3.7464743
-27.289131,3.4389772,3.7200274
-27.334497,3.4478235,3.7280087
-27.368048,3.4463444,3.7208486
-27.418247,3.4602666,3.7365403
-27.45056,3.4580765,3.728497
-27.477257,3.4506931,3.7128181
-27.49497,3.4347007,3.6844025
-27.549984,3.454497,3.709208
-27.58819,3.4585123,3.7106667
-27.62822,3.4645972,3.7152948
-27.664196,3.4669209,3.7144027
-27.679962,3.4488463,3.6831198
-27.699863,3.4347,3.6577196
-27.744844,3.4465995,3.671331
-27.780262,3.4488184,3.6705413
-27.818333,3.4541075,3.6744328
-27.855337,3.4585323,3.6771092
-27.880142,3.449698,3.6599307
-27.904215,3.4399269,3.6413808
-27.934559,3.4371777,3.6334443
-27.975681,3.4469862,3.6444983
-28.01697,3.4574337,3.65661
-28.047922,3.4559963,3.650858
-28.080109,3.4561534,3.6475754
-28.103676,3.4458377,3.6285028
-28.12703,3.4350681,3.6087756
-28.153362,3.4278839,3.5945168
-28.19861,3.445066,3.6172767
-28.241125,3.459364,3.6357598
-28.272255,3.4590688,3.6321545
-28.295856,3.448677,3.6132474
-28.320023,3.4388459,3.5952263
-28.35164,3.4392908,3.5928955
-28.371763,3.4234395,3.565775
-28.421078,3.4496849,3.6029148
-28.451761,3.4493885,3.599637
-28.48446,3.4522672,3.6012669
-28.511702,3.4469914,3.590487
-28.53738,3.4392018,3.5759034
-28.559319,3.4252648,3.5519438
-28.594883,3.4331307,3.5614223
-28.633987,3.4473338,3.5806885
-28.662943,3.4450336,3.5747118
-28.693422,3.4454122,3.5728984
-28.7218,3.4422264,3.5656614
-28.751087,3.4406805,3.5609918
-28.780663,3.439736,3.5572958
-28.811064,3.4404407,3.5561895
-28.846851,3.451714,3.5714083
-28.878643,3.45575,3.5755467
-28.90876,3.4567232,3.5750222
-28.93502,3.4498858,3.5625033
-28.95794,3.4357355,3.5387402
-28.987442,3.4353456,3.5362487
-29.020002,3.4419012,3.5445318
-29.052391,3.4485502,3.5530195
-29.084162,3.4542346,3.5600739
-29.112068,3.4510021,3.5533938
-29.136623,3.4393532,3.5337377
-29.164106,3.4346616,3.5248837
-29.192877,3.4332275,3.5211143
-29.22166,3.431868,3.517509
-29.256306,3.447091,3.5396447
-29.285107,3.4464304,3.5372229
-29.314613,3.4479778,3.5382724
-29.3386,3.4325202,3.5129929
-29.364897,3.4235258,3.4977732
-29.393284,3.4210098,3.4926481
-29.421556,3.418032,3.4868503
-29.455608,3.4360106,3.5136423
-29.485159,3.43855,3.5165129
-29.51558,3.444921,3.5253863
-29.542885,3.439035,3.5152588
-29.570185,3.4326787,3.5044427
-29.597614,3.4263906,3.4937735
-29.62595,3.4239326,3.4891028
-29.657152,3.4360669,3.5071774
-29.686989,3.4423692,3.51623
-29.71695,3.450367,3.5279703
-29.745165,3.4487517,3.524798
-29.772844,3.4434378,3.5159116
-29.799965,3.4333436,3.4996252
-29.82758,3.4254723,3.4868412
-29.857542,3.4365444,3.503601
-29.88663,3.4417632,3.5112925
-29.915092,3.4416623,3.5107446
-29.943773,3.4443336,3.5145597
-29.971895,3.440061,3.5076027
-29.99893,3.4158854,3.4696794
-30.027613,3.4149945,3.4680762
-30.056747,3.4260569,3.4851446
-30.08544,3.429634,3.4905944
-30.114027,3.4316654,3.493681
-30.142578,3.438631,3.5045013
-30.171093,3.4316273,3.4935985
-30.199764,3.4246974,3.4828553
-30.22876,3.4124413,3.4638586
-30.257278,3.4180803,3.4727912
-30.285267,3.431351,3.4936576
-30.313938,3.429576,3.491127
-30.342035,3.4359708,3.5013685
-30.370981,3.4311051,3.4941115
-30.400146,3.4252357,3.4853396
-30.430515,3.4097345,3.4616127
-30.459017,3.4126492,3.4666147
-30.487171,3.4177926,3.475131
-30.514675,3.4267776,3.4896717
-30.542986,3.4293678,3.494299
-30.572857,3.4223385,3.4839993
-30.603466,3.4121604,3.4688492
-30.6335,3.40637,3.4605765
-30.663242,3.4028106,3.455824
-30.691141,3.4084654,3.4654493
-30.717844,3.4190226,3.4827394
-30.745705,3.4237394,3.4909892
-30.776106,3.4177973,3.4827175
-30.805275,3.4172988,3.482955
-30.836481,3.4093766,3.4717078
-30.865631,3.4095721,3.4731197
-30.893854,3.4130526,3.4796782
-30.92023,3.4224846,3.4955158
-30.949938,3.420762,3.4940863
-30.978828,3.4217868,3.4969683
-31.009151,3.4186215,3.4933996
-31.04179,3.4091458,3.4801006
-31.075617,3.397104,3.4628863
-31.104986,3.3979244,3.4656534
-31.130281,3.4094462,3.4850354
-31.156805,3.4173095,3.4987893
-31.185541,3.419403,3.5036578
-31.21846,3.411509,3.4931312
-31.254986,3.3957763,3.4705486
-31.28442,3.397067,3.4743361
-31.311453,3.4037147,3.486442
-31.338116,3.410953,3.4995027
-31.366646,3.4140434,3.5062022
-31.3977,3.4119477,3.504953
-31.431452,3.4046857,3.4957957
-31.470491,3.387558,3.4715066
-31.495943,3.397275,3.4886217
-31.522886,3.4039092,3.50103
-31.547417,3.4147878,3.5200043
-31.57728,3.4158072,3.5238614
-31.60923,3.4132607,3.522293
-31.637928,3.4165268,3.529704
-31.681114,3.3954582,3.4998355
-31.709362,3.3999481,3.509241
-31.740747,3.3993325,3.510871
-31.765644,3.409143,3.5285182
-31.79534,3.4112673,3.5344415
-31.8284,3.408319,3.5326614
-31.864647,3.4008393,3.5240211
-31.901443,3.39296,3.514842
-31.938446,3.3851972,3.5059166
-31.958338,3.4021084,3.5346775
-31.989248,3.4032168,3.5393872
-32.023888,3.3993146,3.5365262
-32.05563,3.3995883,3.540084
-32.097748,3.3862414,3.523005
-32.13203,3.3836818,3.5223966
-32.16167,3.3872945,3.531217
-32.18407,3.400072,3.5539804
-32.21231,3.4053354,3.565392
