x,y,z
-34.28916,2.4851437,4.1304197
-34.34474,2.472274,4.1312633
-34.41707,2.4459755,4.1197047
-34.486485,2.4226997,4.1113553
-34.530827,2.4203198,4.1229095
-34.59745,2.4002564,4.1181836
-34.673206,2.3734589,4.1075487
-34.735744,2.3577237,4.1075273
-34.775883,2.359907,4.1242943
-34.846375,2.338745,4.119862
-34.929695,2.3083022,4.107339
-34.972977,2.30896,4.123472
-35.051376,2.2833557,4.116093
-35.134415,2.2549243,4.106595
-35.18875,2.2483587,4.117096
-35.263195,2.2273614,4.115025
-35.34874,2.1988614,4.1067147
-35.41232,2.1868215,4.11337
-35.496414,2.1605535,4.107893
-35.57433,2.1392837,4.107237
-35.636417,2.1296394,4.1170797
-35.752495,2.0828948,4.095285
-35.82774,2.065218,4.099077
-35.89803,2.0514092,4.1065755
-35.964024,2.0409243,4.117269
-36.027912,2.0322168,4.129812
-36.12368,2.0026808,4.1252713
-36.225185,1.9700634,4.118732
-36.3241,1.9398876,4.1148114
-36.398903,1.9260234,4.124863
-36.493923,1.8996214,4.1251144
-36.597824,1.8682209,4.1218805
-36.713814,1.8299278,4.113731
-36.80847,1.8058263,4.117632
-36.91522,1.7748446,4.116643
-37.042862,1.7317495,4.1067734
-37.155266,1.6988788,4.1057
-37.267315,1.666991,4.106089
-37.39653,1.6255646,4.0998383
-37.531902,1.5813954,4.092319
-37.66383,1.5402164,4.087941
-37.793064,1.5015266,4.086285
-37.940628,1.4530902,4.078204
-38.07742,1.4118834,4.0764394
-38.21882,1.3689742,4.0743265
-38.373047,1.3197625,4.068577
-38.5172,1.2772641,4.0686913
-38.67839,1.2262435,4.063699
-38.780533,1.2088866,4.0835605
-39.00181,1.1269114,4.058919
-39.152313,1.0849404,4.063521
-39.343513,1.0220304,4.054811
-39.564045,0.94477296,4.0377254
-39.729847,0.89803076,4.042678
-39.931717,0.83340263,4.03693
-40.144524,0.7644267,4.029777
-27.650528,2.1349788,3.2227125
-27.675236,2.1150272,3.1939144
-27.680355,2.0636039,3.130405
-27.713703,2.0560634,3.1153708
-27.88959,2.28106,3.3580189
-27.94359,2.311302,3.3854618
-27.996675,2.3411152,3.4126348
-28.045586,2.3648913,3.433291
-28.08189,2.3676314,3.430688
-28.128353,2.3885899,3.4485211
-28.168531,2.3990722,3.4548144
-28.206802,2.4065478,3.4578762
-28.25198,2.4273107,3.475944
-28.294796,2.4444568,3.4901133
-28.326895,2.441616,3.4819818
-28.352003,2.4250057,3.4584565
-28.44015,2.5345588,3.577011
-28.469013,2.5270472,3.5640106
-28.499208,2.5221348,3.554016
-28.53423,2.5274255,3.5556283
-28.568268,2.5309167,3.5553093
-28.599943,2.529429,3.5494542
-28.634436,2.534377,3.5509806
-28.66416,2.5286136,3.5404558
-28.705534,2.5502973,3.5611763
-28.735193,2.5447125,3.5510402
-28.768286,2.5474951,3.5505004
-28.800816,2.549092,3.5487041
-28.833057,2.5501387,3.546371
-28.86623,2.5538318,3.5471478
-28.901909,2.5646615,3.5561671
-28.980194,2.6954713,3.702404
-29.019524,2.721376,3.7289891
-29.05555,2.7390578,3.7462926
-29.090828,2.7555652,3.7623625
-29.129301,2.783114,3.7911997
-29.16647,2.808211,3.8173494
-29.201626,2.8282712,3.8378363
-29.236223,2.847793,3.8578138
-29.270096,2.8661296,3.876536
-29.302568,2.8806934,3.8910227
-29.335798,2.8992295,3.9101768
-29.368193,2.9159245,3.927312
-29.399641,2.9301267,3.9416718
-29.431133,2.9457145,3.9577208
-29.46012,2.951676,3.962758
-29.488564,2.9557717,3.9657226
-29.519928,2.974212,3.985327
-29.549126,2.9836588,3.994635
-29.57815,2.9931862,4.004117
-29.607113,3.0034432,4.0145235
-29.636114,3.015079,4.0266056
-29.664042,3.0215938,4.0328436
-29.69195,3.0288343,4.0399966
-29.720007,3.0381017,4.049572
-29.747536,3.0448413,4.0562973
-29.775356,3.0549095,4.066952
-29.802603,3.0617962,4.0739956
-29.727068,2.1377587,3.0019608
-29.736216,1.8851683,2.7080312
-29.758091,1.7211926,2.5168347
-29.767159,1.3675091,2.1056037
-29.786139,1.0613871,1.7495093
-29.831463,1.0755103,1.7650123
-29.883646,1.2169578,1.9283977
-29.928493,1.2567787,1.9739814
-29.97173,1.2732294,1.992558
-30.008081,1.0613992,1.7462492
-30.051126,0.9945276,1.6683068
-30.095863,0.9727948,1.642879
-30.14095,0.92702985,1.5896654
-30.776497,1.292022,2.0254154
-30.793648,1.4687338,2.2317352
-30.803854,1.6701396,2.466617
-30.804773,1.9066012,2.74201
-30.804644,2.1241138,2.9953818
-30.826477,2.1973028,3.0817628
-30.826063,2.3815522,3.2965364
-30.816435,2.595563,3.5456018
-30.841986,2.6206675,3.5763698
-30.83056,2.8150406,3.802577
-30.84976,2.8576484,3.8535452
-30.840603,3.018142,4.0404778
-30.857063,3.0613713,4.0921364
-30.883852,3.0606346,4.0931683
-30.893753,3.1246037,4.1687613
-30.909332,3.163365,4.2153344
-30.938314,3.1517944,4.204051
-30.966204,3.1448228,4.198138
-30.995762,3.1327739,4.1864758
-31.023561,3.127252,4.182391
-31.049227,3.1288862,4.186591
-31.076756,3.1248007,4.184306
-31.103502,3.1233602,4.1851273
-31.131168,3.1194248,4.1831684
-31.158457,3.116849,4.182842
-31.185335,3.1156292,4.184141
-31.212719,3.113202,4.1841373
-31.241617,3.1070135,4.179922
-31.270136,3.1021857,4.1773434
-31.297983,3.0993543,4.1771183
-31.324844,3.0991492,4.179962
-31.351719,3.0990171,4.182962
-31.38024,3.095141,4.181788
-31.41412,3.0792727,4.167103
-31.440634,3.0806494,4.17206
-31.472918,3.069418,4.1628275
-31.498627,3.0728507,4.17027
-31.528494,3.0674949,4.1678605
-31.558771,3.0615954,4.1649294
-31.581371,3.071558,4.179956
-31.607296,3.074639,4.187294
-31.634468,3.0752707,4.19195
-31.666565,3.06655,4.1861887
-31.695488,3.0642047,4.1876764
-31.725142,3.0606887,4.187942
-31.761423,3.0453696,4.175104
-31.794481,3.0364203,4.169504
-31.82664,3.029447,4.166217
-31.856403,3.0269346,4.1680007
-31.888422,3.0207765,4.165824
-31.920563,3.0147161,4.1638584
-31.94942,3.0143375,4.168297
-31.980598,3.0103254,4.1687994
-32.012245,3.0057888,4.1688232
-32.04359,3.0019655,4.169737
-32.0842,2.984064,4.155245
-32.11947,2.9749181,4.1505327
-32.148346,2.9757137,4.1568594
-32.178474,2.9747517,4.1613464
-32.207787,2.975101,4.167363
-32.241795,2.9688148,4.1662226
-32.28239,2.953489,4.155342
-32.32152,2.94074,4.147421
-32.356026,2.9348097,4.147052
-32.392433,2.9265642,4.1442924
-32.418144,2.9329658,4.1575155
-32.44925,2.9321823,4.163048
-32.488705,2.920639,4.1570816
-32.52744,2.9104352,4.152705
-32.566364,2.900364,4.1486173
-32.60643,2.8892264,4.143532
-32.632687,2.895573,4.1572924
-32.666176,2.8930342,4.161647
-32.710083,2.8780928,4.152916
-32.748775,2.8698478,4.151472
-32.791145,2.857583,4.145915
-32.82255,2.8584867,4.1544485
-32.85704,2.8559422,4.1594486
-32.901436,2.842315,4.1529074
-32.94869,2.8259091,4.143631
-32.98831,2.818476,4.1439476
-33.02434,2.8152728,4.148835
-33.053444,2.819775,4.1618834
-33.099316,2.806309,4.1563506
-33.155838,2.7819748,4.139743
-33.20504,2.765976,4.132005
-33.240032,2.7651906,4.1401615
-33.273365,2.7662473,4.15034
-33.335045,2.738649,4.1312575
-33.384045,2.7244954,4.126206
-33.42753,2.716247,4.1273847
-33.454308,2.7247043,4.1457214
-33.50967,2.7053392,4.1359444
-33.560642,2.6907315,4.1312227
-33.613056,2.6751857,4.12578
-33.656143,2.6688743,4.1298456
-33.692696,2.66891,4.1404395
-33.7384,2.6606412,4.142888
-33.803883,2.6346197,4.1278815
-33.851257,2.6256175,4.1300554
-33.88572,2.6284828,4.1441565
-33.947735,2.6070275,4.134447
-34.0139,2.582501,4.122024
-34.049313,2.5852907,4.136618
-34.101337,2.5738845,4.1375237
-34.15485,2.5615797,4.1377945
-34.218307,2.541275,4.1305823
-34.272293,2.5294082,4.131802
-34.317272,2.525359,4.140771
-34.399403,2.4911232,4.121101
-34.46676,2.469666,4.114017
-34.514343,2.4646397,4.1228395
-34.576187,2.4485152,4.1214027
-34.64848,2.4246135,4.1129637
-34.706123,2.412745,4.116153
-34.76259,2.4021652,4.1208215
-34.839966,2.3759127,4.1112294
-34.901066,2.3626583,4.114044
-34.945587,2.3622758,4.1289897
-35.02812,2.333734,4.118379
-35.10048,2.313385,4.1156693
-35.1575,2.3047926,4.12399
-35.256874,2.2658067,4.105196
-35.332382,2.2448413,4.1031227
-35.393745,2.2344964,4.1109304
-35.47272,2.2120738,4.1083283
-35.544,2.1956124,4.1114187
-35.646385,2.1580424,4.0963516
-35.72348,2.138697,4.0977907
-35.784534,2.1308017,4.109596
-35.89122,2.0924115,4.095378
-35.949726,2.0871243,4.1102076
-36.02263,2.0725641,4.117422
-36.08893,2.0627887,4.129093
-36.194168,2.027979,4.1200094
-36.27545,2.009451,4.1251926
-36.380802,1.9760096,4.118419
-36.448822,1.9670575,4.132533
-36.584393,1.9159052,4.112338
-36.6405,1.9154598,4.1343784
-36.81311,1.843078,4.0983915
-36.883068,1.8351638,4.1154127
-37.03673,1.7766328,4.092366
-37.111202,1.767113,4.109194
-37.253403,1.7174308,4.0948153
-37.350746,1.6954272,4.1029797
-37.494896,1.6464713,4.0908337
-37.63245,1.6024113,4.0833855
-37.716423,1.5903306,4.101234
-37.884132,1.530628,4.0835342
-38.074623,1.4591916,4.058142
-38.1859,1.4338958,4.0683727
-38.304058,1.4054193,4.076965
-38.47942,1.3459122,4.063633
-38.59351,1.3213749,4.076822
-38.72449,1.2882829,4.08461
-38.941666,1.2093327,4.060674
-39.119705,1.1529667,4.0541534
-39.302628,1.0952039,4.0478897
-39.461,1.0516384,4.0526886
-39.682373,0.97607064,4.0367446
-39.837715,0.93633795,4.0465674
-40.033463,0.8767357,4.044204
-40.298134,0.7831924,4.020837
-27.64078,2.2073967,3.2618089
-27.675406,2.2034383,3.2506437
-27.691437,2.1707692,3.2075615
-27.67633,2.0883772,3.1089377
-27.796944,2.2197897,3.2493148
-27.900764,2.3283298,3.3646212
-27.952772,2.3552809,3.3888564
-28.003176,2.3805637,3.4114075
-28.046925,2.3955045,3.4225073
-28.09362,2.4161646,3.4401999
-28.132515,2.423952,3.443532
-28.176123,2.4405584,3.456952
-28.222498,2.4629083,3.4770188
-28.266779,2.4823,3.493896
-28.304075,2.4893575,3.4969368
-28.3383,2.490903,3.493834
-28.362246,2.4725206,3.468175
-28.440575,2.5619488,3.5652747
-28.47005,2.5557125,3.55369
-28.50326,2.557088,3.5508637
-28.534645,2.554782,3.5439281
-28.565182,2.55067,3.5350127
-28.597782,2.5510495,3.5313182
-28.6298,2.550255,3.5263705
-28.665396,2.557762,3.5310287
-28.699495,2.562209,3.5322833
-28.73403,2.5680192,3.535201
-28.768963,2.5751953,3.539791
-28.802998,2.5805697,3.542409
-28.835936,2.5834994,3.5423079
-28.86881,2.5865197,3.5424037
-28.909615,2.6112697,3.5676727
-28.981619,2.724062,3.6947799
-29.02228,2.7536154,3.725947
-29.059343,2.7743678,3.7470646
-29.094751,2.7914026,3.7639956
-29.132113,2.8155775,3.789308
-29.169025,2.8398697,3.8148756
-29.203543,2.8578749,3.8332639
-29.239616,2.882393,3.8593197
-29.273403,2.9006102,3.8781686
-29.30579,2.9150782,3.8927598
-29.34168,2.9437695,3.923993
-29.372898,2.9565082,3.9367704
-29.403719,2.9686933,3.9489927
-29.435852,2.9874005,3.968904
-29.466896,3.0029833,3.9852676
-29.497082,3.0160794,3.9988198
-29.52634,3.0260382,4.0087967
-29.555803,3.038013,4.021209
-29.584293,3.0461988,4.0292783
-29.612867,3.0557537,4.039024
-29.64081,3.0628037,4.0459204
-29.668941,3.071867,4.0552464
-29.697004,3.0816534,4.0654955
-29.72498,3.092163,4.076666
-29.75231,3.0995135,4.084215
-29.779085,3.1037025,4.088135
-29.805779,3.1079612,4.092206
-29.83232,3.111643,4.0956717
-29.734974,1.9035513,2.679164
-29.755764,1.7282579,2.472684
-29.770658,1.444763,2.1393704
-29.80162,1.3070834,1.9770164
-29.84441,1.3114285,1.9812756
-29.886421,1.303566,1.9713264
-29.928848,1.3016462,1.9684544
-29.972277,1.3251278,1.9954896
-30.007385,1.0789163,1.7062306
-30.050047,0.98520637,1.5959744
-30.095299,0.97203493,1.5803237
-30.140778,0.9531424,1.558074
-30.74832,1.2134855,1.8741021
-30.775074,1.3373599,2.0207205
-30.790083,1.5272274,2.2446036
-30.8061,1.6879668,2.4343686
-30.807772,1.9191225,2.706472
-30.805025,2.1514728,2.9798746
-30.814276,2.2939594,3.1481347
-30.828537,2.3963878,3.2695503
-30.814508,2.6316824,3.5461092
-30.844925,2.6327844,3.5491443
-30.829676,2.844027,3.7974315
-30.854513,2.8612661,3.8193207
-30.834133,3.0690694,4.0633764
-30.841505,3.1480465,4.157178
-30.855457,3.195496,4.214239
-30.882092,3.1915598,4.2115126
-30.906878,3.1947575,4.2171545
-30.933783,3.1903195,4.2139864
-30.962452,3.180187,4.204278
-30.990927,3.1714182,4.1962366
-31.018576,3.1659317,4.1920843
-31.046944,3.1586037,4.185875
-31.073353,3.1577468,4.187243
-31.100216,3.1556835,4.1872864
-31.12801,3.1511412,4.184537
-31.15453,3.1505008,4.1863747
-31.182467,3.1461115,4.1839557
-31.21073,3.1411643,4.1809735
-31.23738,3.1407454,4.1832914
-31.264545,3.1391292,4.1843033
-31.293795,3.1325128,4.179639
-31.321083,3.1310499,4.1809845
-31.348671,3.1290298,4.1817665
-31.37658,3.1264539,4.1819887
-31.410109,3.1113267,4.1679044
-31.438238,3.1089215,4.168497
-31.46758,3.104075,4.166378
-31.494068,3.105606,4.1716347
-31.522043,3.1040652,4.173456
-31.554039,3.0944428,4.1661444
-31.57748,3.1024723,4.179036
-31.598568,3.1149383,4.197031
-31.631077,3.1049385,4.1895447
-31.664434,3.0937915,4.180863
-31.68864,3.1002097,4.1921988
-31.714443,3.1035738,4.200138
-31.759193,3.072805,4.1695633
-31.789062,3.0695226,4.17019
-31.821852,3.0613675,4.165413
-31.85118,3.0595055,4.16783
-31.880186,3.0583467,4.1711264
-31.911089,3.0541854,4.171137
-31.942835,3.0488844,4.169968
-31.97392,3.0449114,4.1703877
-32.00509,3.0410316,4.17101
-32.035942,3.0378594,4.1725216
-32.07886,3.0164127,4.1537695
-32.11204,3.010401,4.152351
-32.14205,3.009375,4.156579
-32.17293,3.0072184,4.159646
-32.20175,3.008194,4.166279
-32.232704,3.006217,4.169736
-32.27191,2.9928217,4.160697
-32.308304,2.9837947,4.156613
-32.345753,2.9736814,4.151463
-32.381153,2.9667058,4.14989
-32.404465,2.9760814,4.166345
-32.43862,2.9711058,4.1671734
-32.47427,2.9644432,4.166279
-32.519882,2.9453444,4.151973
-32.55684,2.937748,4.150345
-32.593468,2.930871,4.1496296
-32.62394,2.9318366,4.1575317
-32.656364,2.9305215,4.163069
-32.69772,2.9186583,4.1573515
-32.741287,2.9045792,4.149411
-32.780075,2.8965473,4.148129
-32.811375,2.897463,4.156568
-32.844734,2.8961267,4.1627054
-32.87865,2.8943098,4.1684446
-32.93357,2.8692515,4.1496067
-32.97677,2.8578038,4.1454353
-33.017506,2.8494153,4.1446705
-33.04978,2.8504426,4.153996
-33.08912,2.8440511,4.1556263
-33.14065,2.8251047,4.1442304
-33.183662,2.8155625,4.1429
-33.231316,2.8015816,4.137109
-33.260075,2.8072438,4.151967
-33.30295,2.798709,4.152176
-33.362587,2.7738085,4.1356144
-33.406494,2.7650547,4.1359935
-33.449394,2.7575917,4.1378803
-33.492435,2.7502806,4.1400976
-33.537975,2.7408686,4.140341
-33.59859,2.7175696,4.126606
-33.642185,2.7107706,4.1299334
-33.678642,2.7108352,4.140398
-33.724262,2.7026567,4.1426706
-33.789078,2.6774118,4.127943
-33.83637,2.6685061,4.12993
-33.880703,2.6625385,4.1350603
-33.920757,2.6605878,4.144381
-33.989944,2.6334977,4.12888
-34.041115,2.6225827,4.129736
-34.091194,2.612954,4.13209
-34.133698,2.6100473,4.1412764
-34.201607,2.5861177,4.130047
-34.264027,2.5673401,4.1241794
-34.2958,2.5741706,4.143506
-34.362617,2.5525906,4.1354356
-34.414444,2.5436153,4.139851
-34.50268,2.5059795,4.1169734
-34.534767,2.513472,4.1377354
-34.63406,2.4684982,4.1086254
-34.69029,2.4578319,4.1126027
-34.730865,2.4595141,4.128511
-34.811584,2.4308486,4.1160464
-34.880222,2.411957,4.1131597
-34.91624,2.4178834,4.1337533
-35.01136,2.380225,4.1140513
-35.07022,2.3699422,4.1201506
-35.14564,2.34801,4.115832
-35.235016,2.3166137,4.1032567
-35.30903,2.2968912,4.1017933
-35.355827,2.2968974,4.1185846
-35.46016,2.2568457,4.099503
-35.52264,2.246684,4.1078005
-35.58455,2.237277,4.117088
-35.687283,2.200422,4.1023555
-35.775703,2.1740565,4.0974593
-35.840607,2.1640644,4.1074142
-35.919933,2.1448748,4.1096888
-35.993507,2.1299872,4.1161284
-36.07109,2.1129363,4.121104
-36.177116,2.0780096,4.1111965
-36.23466,2.074915,4.1290092
-36.33378,2.04569,4.1250114
-36.406277,2.0339131,4.13626
-36.53249,1.9890368,4.1202683
-36.617245,1.9707676,4.12712
-36.724968,1.9389397,4.1232867
-36.83392,1.9071144,4.120105
-36.960693,1.8653036,4.1094694
-37.057114,1.842556,4.1149983
-37.187298,1.8004084,4.1055694
-37.286068,1.7776515,4.1123695
-37.43734,1.7249196,4.0961237
-37.56272,1.6882606,4.0934315
-37.67888,1.6577351,4.096295
-37.837696,1.603729,4.0818033
-37.943382,1.5807908,4.092082
-38.096043,1.5322475,4.0836267
-38.25838,1.4794052,4.0729494
-38.429653,1.4227893,4.060543
-38.508896,1.417494,4.0871353
-38.682938,1.3613524,4.0770473
-38.836002,1.3176444,4.0771403
-38.998814,1.2697544,4.0752645
-39.185734,1.2102346,4.0662413
-39.343887,1.1670082,4.06996
-39.583748,1.0824549,4.0460234
-39.75167,1.0365489,4.050384
-39.9959,0.9528196,4.0301714
-40.160004,0.91126704,4.0401006
-40.398254,0.83354974,4.027113
-40.630547,0.7603936,4.0188537
-27.643938,2.2467723,3.2482915
-27.678541,2.2428024,3.2371612
-27.714386,2.2407494,3.2282944
-27.720852,2.1931212,3.1679254
-27.850674,2.3388116,3.3267255
-27.917667,2.3885436,3.3771462
-27.968355,2.413446,3.3995967
-28.013025,2.429332,3.4119616
-28.058855,2.4478216,3.4274473
-28.10182,2.4621613,3.4383512
-28.144863,2.4772565,3.4502625
-28.184486,2.486942,3.456122
-28.227001,2.5023086,3.4686213
-28.266865,2.5134842,3.47645
-28.305847,2.5235465,3.4831257
-28.344633,2.533729,3.4900622
-28.381937,2.5415473,3.4943976
-28.421288,2.5538297,3.503995
-28.45236,2.550049,3.4951668
-28.49381,2.567542,3.511015
-28.52748,2.569566,3.5090957
-28.567822,2.5860553,3.5240302
-28.599823,2.5851567,3.5189261
-28.636322,2.594365,3.5256443
-28.668785,2.5949042,3.5223951
-28.702305,2.5980413,3.5222597
-28.736015,2.6019015,3.5230584
-28.771194,2.6096306,3.5284615
-28.807737,2.6212406,3.5384922
-28.840351,2.6235034,3.537722
-28.87267,2.625225,3.5364084
-28.917662,2.6611423,3.5751705
-28.986345,2.7642283,3.6926966
-29.02738,2.794814,3.7255774
-29.063261,2.8122349,3.7431598
-29.09839,2.8284965,3.7594938
-29.133213,2.8448648,3.7760587
-29.176971,2.8905482,3.8271627
-29.216177,2.9243078,3.8644004
-29.24851,2.9372072,3.8772292
-29.28078,2.950838,3.8910112
-29.314217,2.9696586,3.9109998
-29.346441,2.985393,3.9274516
-29.378368,3.0012217,3.9441075
-29.408876,3.012677,3.9556966
-29.43886,3.022941,3.965965
-29.468945,3.034568,3.9779267
-29.498951,3.0469198,3.9908285
-29.528315,3.0574365,4.0016437
-29.557873,3.0699558,4.0149097
-29.58607,3.076794,4.0215344
-29.614252,3.0843494,4.029084
-29.642519,3.0932631,4.038318
-29.670507,3.1016135,4.046959
-29.69834,3.1100392,4.055765
-29.726107,3.119182,4.0654945
-29.753702,3.1283998,4.075388
-29.780703,3.1344802,4.081632
-29.8072,3.1374202,4.08422
-29.833565,3.139786,4.086196
-29.861076,3.1537933,4.1020565
-29.754604,1.7428417,2.4263163
-29.772799,1.4980979,2.1347594
-29.803349,1.3575752,1.9669766
-29.845852,1.3586695,1.9674563
-29.887928,1.3527935,1.9597635
-29.93051,1.3553929,1.9622445
-29.974083,1.385138,1.997088
-30.013563,1.2946117,1.8891282
-30.049892,0.9666121,1.4990692
-30.096104,0.98701644,1.5231237
-30.141808,0.9380038,1.4647994
-30.756678,1.1998894,1.7865825
-30.76853,1.435905,2.068046
-30.776522,1.6686535,2.345581
-30.804758,1.7428281,2.4351182
-30.81293,1.9312229,2.6600142
-30.812992,2.1464846,2.9166675
-30.80514,2.3834362,3.1988988
-30.820936,2.4742017,3.3080063
-30.82363,2.6219442,3.4845042
-30.832228,2.72866,3.6124244
-30.832846,2.8628402,3.7727637
-30.860104,2.869745,3.7826886
-30.831295,3.1117973,4.070302
-30.832008,3.216366,4.1954584
-30.85488,3.2270827,4.2098618
-30.879765,3.2295642,4.214611
-30.907064,3.2231889,4.208989
-30.934126,3.218163,4.2050323
-30.961847,3.2113037,4.198992
-30.986229,3.2159653,4.2065754
-31.014505,3.2079833,4.1993628
-31.045795,3.191197,4.1818924
-31.071936,3.1909947,4.183977
-31.098518,3.1895947,4.1847267
-31.125578,3.1870005,4.1841493
-31.15292,3.183848,4.182991
-31.179863,3.1820347,4.1834755
-31.207802,3.1777697,4.1811676
-31.233871,3.1786287,4.184923
-31.261936,3.1745167,4.182946
-31.29111,3.1679664,4.1782074
-31.319624,3.163387,4.1758485
-31.347698,3.1601453,4.1751285
-31.37311,3.1632557,4.181873
-31.398474,3.1664314,4.188759
-31.431757,3.1521478,4.1754518
-31.462118,3.144847,4.1703463
-31.489662,3.143881,4.1726685
-31.519949,3.1373782,4.168663
-31.550364,3.1309662,4.164854
-31.576527,3.1333532,4.1712914
-31.596615,3.1476133,4.191485
-31.62002,3.155086,4.2039013
-31.663393,3.1248198,4.1729755
-31.687561,3.1312163,4.1843214
-31.71435,3.132729,4.1901245
-31.750813,3.1170387,4.1762924
-31.779133,3.1162567,4.1796427
-31.819616,3.0946388,4.1592684
-31.847813,3.094663,4.1637363
-31.875286,3.0959928,4.169773
-31.905737,3.0924983,4.1703987
-31.938156,3.0860386,4.1677475
-31.968016,3.0839524,4.170163
-31.999485,3.0795162,4.1700077
-32.02986,3.077001,4.172125
-32.066303,3.0654662,4.1641474
-32.106617,3.0485957,4.150279
-32.1382,3.045183,4.1517124
-32.168186,3.044283,4.1560693
-32.19525,3.047693,4.1653566
-32.224834,3.0475636,4.1707525
-32.26352,3.0349002,4.1622214
-32.303318,3.0211701,4.1526394
-32.340714,3.0111706,4.147361
-32.37561,3.0048828,4.146345
-32.404736,3.006461,4.1541824
-32.432476,3.0099072,4.164179
-32.466663,3.0051134,4.1651397
-32.51503,2.982644,4.146702
-32.552414,2.974556,4.144307
-32.584206,2.9736784,4.149974
-32.616997,2.971719,4.154557
-32.64837,2.9716253,4.161294
-32.682236,2.9686928,4.1650286
-32.74416,2.9330869,4.1332493
-32.774403,2.9351144,4.142693
-32.808193,2.933151,4.1478977
-32.839462,2.9342008,4.1564837
-32.87333,2.9324436,4.162137
-32.920364,2.9163241,4.15242
-32.970345,2.8974934,4.13998
-33.012108,2.8880694,4.137841
-33.04325,2.890286,4.148325
-33.074375,2.8925955,4.1590095
-33.129105,2.8704062,4.1437044
-33.178684,2.8541365,4.134923
-33.21849,2.8482966,4.1374025
-33.252777,2.84827,4.1461763
-33.297314,2.8381612,4.1444454
-33.352364,2.8180497,4.1323833
-33.39736,2.808292,4.1314125
-33.444286,2.797012,4.1290355
-33.469086,2.8071923,4.149216
-33.528683,2.78447,4.1352773
-33.586887,2.7636585,4.1235886
-33.624992,2.7619686,4.1319113
-33.667995,2.7559738,4.1359463
-33.70623,2.7545514,4.144848
-33.764194,2.7356277,4.135992
-33.82125,2.7180333,4.1287546
-33.875492,2.703402,4.124789
-33.911114,2.7053647,4.137877
-33.97143,2.6862068,4.129774
-34.0308,2.668376,4.1232862
-34.084053,2.6561937,4.122739
-34.1207,2.658245,4.136648
-34.184677,2.6378238,4.1283307
-34.24507,2.6208801,4.123767
-34.291897,2.6154032,4.130817
-34.352108,2.5994408,4.1277504
-34.404568,2.590093,4.1314535
-34.488136,2.556593,4.1118116
-34.523514,2.5614443,4.1299005
-34.599014,2.53538,4.118177
-34.668777,2.5143504,4.111696
-34.727165,2.5024915,4.114371
-34.77396,2.499712,4.1260076
-34.861977,2.4664931,4.1088676
-34.91684,2.4584737,4.1160827
-34.978195,2.446029,4.1193814
-35.04969,2.426642,4.116459
-35.135777,2.3973205,4.1046147
-35.16347,2.4101686,4.132472
-35.28191,2.359096,4.1012244
-35.343822,2.3485374,4.1079817
-35.41101,2.3346968,4.1120377
-35.507023,2.3015423,4.098821
-35.557102,2.3003333,4.115126
-35.62944,2.2843566,4.1183357
-35.74075,2.242858,4.099016
-35.79431,2.2404442,4.11523
-35.88101,2.2165532,4.112636
-35.980923,2.1846929,4.103488
-36.01371,2.1967804,4.1334815
-36.133327,2.1534603,4.1152573
-36.194542,2.1480217,4.1305914
-36.269703,2.1341324,4.138959
-36.3977,2.0878525,4.119995
-36.467285,2.0785599,4.133282
-36.603382,2.0290112,4.112909
-36.652344,2.0332837,4.1385736
-36.81311,1.9705795,4.1086016
-36.915432,1.9439461,4.1095257
-37.038788,1.9055753,4.101402
-37.117996,1.893907,4.1158457
-37.239826,1.857939,4.1110387
-37.37181,1.8169714,4.1029625
-37.476894,1.7922697,4.108704
-37.648,1.7308915,4.0860243
-37.753994,1.7072918,4.094156
-37.896263,1.66417,4.087716
-38.085873,1.5959258,4.0627656
-38.18828,1.576746,4.076695
-38.32068,1.5418873,4.0793395
-38.49169,1.4871218,4.067843
-38.640106,1.4455843,4.067363
-38.748936,1.4259303,4.084049
-38.90747,1.3808298,4.0827827
-39.110332,1.3137274,4.0666165
-39.295464,1.2571642,4.0594225
-39.48723,1.1984437,4.051967
-39.711166,1.124692,4.035262
-39.83283,1.1038721,4.05699
-40.082184,1.0200644,4.036147
-40.265617,0.9705467,4.040444
-40.46512,0.91429543,4.041497
-40.704136,0.8400996,4.03203
-40.93709,0.77039266,4.027249
-27.64832,2.293271,3.2455883
-27.684032,2.2910993,3.2365627
-27.700651,2.2600725,3.1945791
-27.727625,2.2441533,3.1699305
-27.853231,2.382017,3.322053
-27.91639,2.42526,3.3658533
-27.97574,2.4638865,3.4045782
-28.018795,2.4771924,3.4143076
-28.069267,2.503429,3.4391212
-28.109167,2.512763,3.4445567
-28.149942,2.5240545,3.452386
-28.18945,2.533639,3.4583645
-28.238037,2.5598907,3.483828
-28.270927,2.558699,3.4775424
-28.3108,2.5705009,3.4864783
-28.351095,2.5836587,3.4971204
-28.387281,2.5895495,3.4994087
-28.42429,2.5973992,3.5040917
-28.46238,2.6078305,3.5119061
-28.49661,2.610956,3.511282
-28.53525,2.6234684,3.5217586
-28.578627,2.6466427,3.5448666
-28.610645,2.6463687,3.5405717
-28.642653,2.646181,3.5364647
-28.675755,2.648569,3.5354753
-28.71069,2.655411,3.5398235
-28.744957,2.6611063,3.5429215
-28.77833,2.6650271,3.5440197
-28.812883,2.6721663,3.5490146
-28.848034,2.6812823,3.5564442
-28.88228,2.6886225,3.561874
-28.915907,2.6948068,3.566031
-28.983717,2.7945852,3.6812177
-29.030151,2.8399887,3.7321692
-29.067865,2.8629231,3.756607
-29.102804,2.879055,3.7730813
-29.144272,2.9160752,3.8144917
-29.17639,2.9261327,3.8239617
-29.212027,2.9482672,3.847899
-29.247246,2.9705129,3.8720775
-29.280209,2.9865494,3.8889623
-29.31144,2.9976268,3.9000268
-29.342802,3.0100584,3.912796
-29.375591,3.028912,3.9333205
-29.405937,3.0396278,3.9442186
-29.435457,3.0478935,3.9522717
-29.46556,3.0594127,3.964295
-29.499453,3.0887892,3.997767
-29.526756,3.0903268,3.9980164
-29.554943,3.0963845,4.0037494
-29.583387,3.104426,4.0119324
-29.612038,3.1144528,4.0225716
-29.641064,3.1277401,4.037195
-29.668976,3.1360157,4.0458865
-29.696117,3.1405454,4.050157
-29.723938,3.1502447,4.0607014
-29.751034,3.1561947,4.0668173
-29.777678,3.1596665,4.070027
-29.804565,3.1657596,4.076454
-29.831411,3.1725612,4.0838003
-29.858059,3.1787963,4.090534
-29.883556,3.1742492,4.0843754
-29.772285,1.5709057,2.156137
-29.800535,1.4058528,1.9567838
-29.844513,1.4299209,1.9849129
-29.887045,1.4368567,1.9925504
-29.92898,1.4343178,1.9888954
-29.971735,1.4516971,2.0093074
-30.01191,1.393775,1.9392304
-30.045902,0.98442984,1.4464297
-30.092112,0.9823041,1.4436722
-30.138334,0.9687922,1.4273276
-30.757637,1.2083511,1.7259302
-30.768923,1.4490349,2.0164862
-30.786774,1.6144593,2.2166467
-30.804052,1.7639384,2.3976521
-30.818462,1.914036,2.5793824
-30.816444,2.1423922,2.854929
-30.809858,2.3725445,3.1325202
-30.82334,2.4766607,3.2589626
-30.830397,2.603003,3.4120078
-30.827995,2.762963,3.6052537
-30.836687,2.8593392,3.7223163
-30.859844,2.885252,3.755062
-30.832777,3.118567,4.0358095
-30.830956,3.2331583,4.1744785
-30.851606,3.2526727,4.19952
-30.87767,3.250711,4.1989665
-30.903954,3.2481866,4.1978097
-30.929745,3.2476282,4.199067
-30.955366,3.2477696,4.201224
-30.98138,3.2467163,4.2020245
-31.008215,3.2432103,4.1999736
-31.041258,3.2208781,4.175607
-31.066515,3.2232013,4.180644
-31.093037,3.2218156,4.18134
-31.120033,3.2192445,4.1807
-31.147087,3.2167475,4.18022
-31.174896,3.2124434,4.177673
-31.201118,3.212603,4.180486
-31.226858,3.2140849,4.1849327
-31.255836,3.207505,4.179918
-31.28469,3.2016344,4.175823
-31.31104,3.2020867,4.179271
-31.338732,3.1994934,4.1791983
-31.3673,3.1951094,4.1770945
-31.395123,3.1926727,4.177363
-31.428982,3.1772692,4.162469
-31.451221,3.187414,4.1776795
-31.48158,3.1802554,4.1726437
-31.516005,3.1651425,4.1583796
-31.54426,3.1631222,4.15955
-31.572876,3.1605644,4.1601725
-31.597408,3.1661034,4.170331
-31.622503,3.1704717,4.179185
-31.652805,3.1650653,4.1767144
-31.6802,3.1652756,4.180872
-31.716469,3.14962,4.166664
-31.739523,3.157964,4.180438
-31.788485,3.1211207,4.141878
-31.806665,3.1381834,4.165921
-31.837257,3.1339402,4.1653566
-31.86757,3.1303973,4.1656923
-31.899832,3.1239066,4.1627216
-31.931843,3.118123,4.1606665
-31.963974,3.1124382,4.158827
-31.99388,3.1104815,4.1613674
-32.02423,3.1080089,4.163408
-32.059856,3.0977921,4.1566753
-32.097305,3.0852861,4.1474466
-32.128815,3.0819154,4.148773
-32.15873,3.081039,4.15304
-32.186985,3.0826435,4.16022
-32.216515,3.0825353,4.165536
-32.248226,3.0795317,4.167659
-32.28702,3.0671036,4.159216
-32.326054,3.0548098,4.151064
-32.364426,3.043836,4.1445403
-32.3971,3.0406852,4.14696
-32.42433,3.0447216,4.1575613
-32.463127,3.034099,4.1518
-32.503067,3.0224338,4.1450105
-32.54085,3.013842,4.141802
-32.578327,3.005964,4.1395226
-32.609646,3.0058093,4.1459713
-32.644913,3.0010834,4.147444
-32.681267,2.9953086,4.147875
-32.721245,2.9855895,4.1440716
-32.762924,2.974272,4.138653
-32.797672,2.9711938,4.1424646
-32.82888,2.9722648,4.1509533
-32.86061,2.972853,4.1590137
-32.906013,2.9586139,4.15096
-32.945847,2.9508407,4.150143
-32.987972,2.9409204,4.147137
-33.025963,2.935709,4.149407
-33.06188,2.9329,4.154419
-33.100616,2.9273732,4.156621
-33.165,2.8959568,4.1310616
-33.203064,2.8918896,4.135195
-33.239517,2.8896384,4.1414165
-33.27489,2.88863,4.1490984
-33.324657,2.8737395,4.1421003
-33.37354,2.8601542,4.1366987
-33.41566,2.8534355,4.1387844
-33.460274,2.844644,4.138843
-33.50861,2.8326917,4.135749
-33.553577,2.824234,4.13653
-33.610756,2.8049233,4.126117
-33.65796,2.7951765,4.1259546
-33.69249,2.7971058,4.138155
-33.741188,2.786584,4.1375456
-33.80622,2.7620869,4.122671
-33.844162,2.761745,4.133031
-33.893463,2.7517853,4.1336412
-33.946754,2.7387736,4.1313324
-33.989418,2.7351139,4.138817
-34.051456,2.7155132,4.1302423
-34.097645,2.7095315,4.1357765
-34.146553,2.701587,4.1395206
-34.210052,2.6821344,4.1318836
-34.26001,2.6740632,4.13597
-34.31477,2.6624844,4.1367702
-34.37643,2.6458554,4.132788
-34.436356,2.6310492,4.130906
-34.506023,2.609162,4.1223073
-34.558327,2.601112,4.1276736
-34.636166,2.5740476,4.114634
-34.67786,2.5747426,4.129093
-34.746647,2.555468,4.1243095
-34.822044,2.5318525,4.115663
-34.891506,2.5131645,4.1121507
-34.942192,2.5085433,4.1224833
-35.005047,2.495467,4.124971
-35.080276,2.47403,4.1198153
-35.15873,2.4508905,4.1134353
-35.225266,2.436636,4.1158338
-35.313114,2.4081194,4.1051974
-35.390457,2.3874736,4.102373
-35.469597,2.3661592,4.0993342
-35.53505,2.3545954,4.105716
-35.60514,2.3403354,4.1099553
-35.703804,2.307681,4.0977473
-35.774487,2.294073,4.1033983
-35.83182,2.2895384,4.1176195
-35.930874,2.2585022,4.108304
-36.003773,2.2448425,4.115078
-36.079178,2.2300394,4.121221
-36.17631,2.2021122,4.1161795
-36.24223,2.1942122,4.129271
-36.3385,2.1680126,4.1267424
-36.432823,2.143659,4.126365
-36.533764,2.1159418,4.1236286
-36.63354,2.0896115,4.1226654
-36.723442,2.0698056,4.127831
-36.839783,2.0350132,4.120855
-36.96299,1.9970348,4.111907
-37.06756,1.9707017,4.113405
-37.20701,1.9250609,4.0995617
-37.274582,1.9212615,4.120929
-37.440098,1.8625981,4.097971
-37.526016,1.8496188,4.1130033
-37.672455,1.8035953,4.10203
-37.83671,1.7488134,4.085019
-37.928585,1.7346106,4.1011004
-38.103947,1.6758416,4.082847
-38.29666,1.6090384,4.0595093
-38.386402,1.5982664,4.0805607
-38.51046,1.5698884,4.088726
-38.69012,1.5132542,4.076335
-38.83692,1.4748468,4.0787926
-38.969883,1.4444668,4.0881686
-39.16918,1.3811414,4.0742216
-39.352318,1.3273234,4.0685525
-39.567627,1.2586155,4.05342
-39.782944,1.19136,4.040821
-39.951965,1.1483102,4.0467806
-40.170494,1.0821555,4.0378013
-40.375168,1.0241342,4.0359716
-40.62032,0.9480059,4.0232534
-40.793507,0.9077108,4.03642
-41.08113,0.8144753,4.015599
-41.300915,0.7548747,4.0189795
-27.65453,2.3291585,3.238205
-27.686155,2.3209925,3.2223148
-27.703959,2.2919352,3.1822915
-27.727768,2.2712872,3.1520367
-27.868216,2.4310334,3.331501
-27.931223,2.4739873,3.3756537
-27.982883,2.5002933,3.400641
-28.028475,2.5177205,3.4154491
-28.073,2.5340912,3.4291744
-28.113604,2.5445497,3.4361281
-28.15861,2.563026,3.4526057
-28.195229,2.5676734,3.4530077
-28.237242,2.5821686,3.4650855
-28.277283,2.5937512,3.4738722
-28.317093,2.6054604,3.4829326
-28.35667,2.6172943,3.4922647
-28.395372,2.6280282,3.500421
-28.43007,2.631527,3.500146
-28.466549,2.6388073,3.5044427
-28.501657,2.643738,3.506064
-28.532177,2.6395416,3.496965
-28.58299,2.6779327,3.5384798
-28.621004,2.6905987,3.5496154
-28.645802,2.6749744,3.5272288
-28.67916,2.6779494,3.5270252
-28.712717,2.681636,3.5277634
-28.747782,2.689135,3.5331388
-28.781137,2.6930144,3.5342932
-28.813395,2.6945035,3.5326848
-28.849325,2.7054052,3.5424137
-28.884315,2.7145464,3.5501394
-28.918888,2.7231672,3.557342
-28.994064,2.8422437,3.697003
-29.032211,2.8648968,3.7213264
-29.073425,2.897665,3.7579074
-29.112106,2.9249444,3.7880282
-29.145916,2.9392076,3.802628
-29.181063,2.9585824,3.8234715
-29.216036,2.9786916,3.8453035
-29.251003,3.0001628,3.8688788
-29.282988,3.0129533,3.8820992
-29.31615,3.0308638,3.9015808
-29.348799,3.048244,3.9205203
-29.379782,3.060689,3.9335952
-29.408438,3.0650396,3.9369807
-29.438244,3.0745072,3.9466236
-29.469055,3.0891006,3.9625435
-29.498444,3.0987372,3.972553
-29.529291,3.1160285,3.991903
-29.557972,3.1245697,4.000747
-29.587238,3.13698,4.014352
-29.615671,3.1463122,4.0243063
-29.64415,3.1569867,4.035962
-29.671238,3.1607819,4.0393515
-29.698658,3.1671796,4.045968
-29.726048,3.1742842,4.0535107
-29.75303,3.179562,4.0589075
-29.77966,3.18301,4.062151
-29.806686,3.190332,4.070164
-29.83343,3.1964574,4.0767927
-29.860317,3.2051897,4.0866566
-29.8871,3.2146277,4.0974455
-29.766832,1.514818,2.0313
-29.803637,1.4510584,1.9529238
-29.846832,1.4648218,1.9688568
-29.88892,1.464097,1.9672852
-29.930895,1.4609401,1.9628596
-29.9734,1.4699564,1.9733386
-30.01401,1.4212923,1.9137812
-30.048067,1.008183,1.4111323
-30.094454,1.009886,1.4130116
-30.140734,0.9697895,1.3641701
-30.763813,1.2156789,1.6735678
-30.777794,1.4364915,1.9431086
-30.785692,1.6705546,2.2286787
-30.78903,1.9058099,2.5156255
-30.819853,1.949893,2.570691
-30.82223,2.1508808,2.8159938
-30.816643,2.3745372,3.088676
-30.810959,2.5772176,3.3358326
-30.833519,2.6231623,3.3931217
-30.826618,2.80295,3.612412
-30.846657,2.8469915,3.6673875
-30.838448,3.0089526,3.8649592
-30.845846,3.0939264,3.969378
-30.838362,3.2317564,4.137606
-30.852308,3.2776053,4.194687
-30.877827,3.2775564,4.196395
-30.904411,3.2738032,4.1937
-30.930162,3.2732623,4.1949453
-30.956118,3.2721624,4.195584
-30.981522,3.273012,4.1986356
-31.012695,3.2557616,4.1799774
-31.037634,3.2586365,4.185607
-31.064636,3.2553213,4.1838617
-31.091276,3.2533298,4.183777
-31.120186,3.2451684,4.176361
-31.14492,3.2489414,4.1833315
-31.171698,3.247169,4.1837215
-31.201635,3.237377,4.1745844
-31.22931,3.233893,4.1730776
-31.255297,3.2348356,4.176935
-31.283848,3.2296407,4.1735325
-31.308039,3.2350664,4.182878
-31.338314,3.2263095,4.1753798
-31.365198,3.2256846,4.1776533
-31.393784,3.2214258,4.1756763
-31.430735,3.1993537,4.1526113
-31.451221,3.2131557,4.1722565
-31.481554,3.206067,4.167167
-31.514448,3.1941504,4.1564474
-31.544802,3.187865,4.1524935
-31.570578,3.1908686,4.159611
-31.603014,3.1810784,4.1516867
-31.622974,3.1952426,4.172117
-31.64963,3.1966176,4.1775174
-31.680304,3.1907449,4.1744604
-31.708708,3.189229,4.1766148
-31.737846,3.1865773,4.177518
-31.77516,3.170044,4.162229
-31.810995,3.1566684,4.1507654
-31.839088,3.156732,4.155135
-31.86424,3.1617103,4.165324
-31.892689,3.1613197,4.169316
-31.924582,3.1555882,4.1671667
-31.95505,3.1523607,4.1680307
-31.984028,3.151627,4.1718817
-32.011448,3.1533751,4.1786957
-32.05533,3.130659,4.157259
-32.091896,3.1194563,4.149296
-32.122906,3.116726,4.151236
-32.160667,3.1045632,4.1424007
-32.18639,3.1097631,4.153676
-32.211178,3.1162157,4.1664567
-32.23977,3.1174006,4.173259
-32.28549,3.0956202,4.153849
-32.32717,3.0799067,4.141549
-32.3633,3.0719957,4.1383038
-32.39322,3.0724287,4.1446857
-32.420387,3.0764675,4.1552563
-32.450294,3.0770688,4.162002
-32.499973,3.0532317,4.141158
-32.534866,3.0482326,4.1418076
-32.56987,3.0433462,4.1427016
-32.603516,3.0403137,4.1458025
-32.636745,3.037967,4.149784
-32.67053,3.0351467,4.153345
-32.7114,3.024364,4.148106
-32.75096,3.0154505,4.1451063
-32.792744,3.0043788,4.1398454
-32.822857,3.006623,4.14955
-32.858166,3.0032437,4.1531067
-32.89408,2.9994097,4.1562834
-32.944435,2.9803443,4.142761
-32.984943,2.9722471,4.141531
-33.016407,2.973909,4.1511803
-33.047318,2.9762292,4.1616545
-33.103012,2.9533107,4.144615
-33.15467,2.9351044,4.132956
-33.20218,2.921577,4.126604
-33.237488,2.9205165,4.13398
-33.269985,2.9223557,4.1446195
-33.316856,2.9104025,4.1404715
-33.36917,2.893636,4.1313295
-33.413605,2.8848088,4.1309357
-33.45349,2.8805518,4.1356134
-33.49644,2.8736846,4.1376553
-33.551506,2.8560076,4.128353
-33.603874,2.8412795,4.1224217
-33.643127,2.838744,4.1296215
-33.67509,2.8428633,4.1439953
-33.734787,2.8226943,4.1329184
-33.78178,2.8141112,4.134263
-33.84147,2.7949278,4.124718
-33.878147,2.7958553,4.136404
-33.93771,2.7776275,4.1283264
-33.987995,2.7676444,4.129055
-34.046844,2.7509336,4.1230574
-34.085873,2.7509031,4.1344795
-34.12819,2.7483602,4.1434784
-34.213306,2.7117026,4.117815
-34.263966,2.7032635,4.1212854
-34.30745,2.700777,4.131012
-34.373795,2.6806962,4.12315
-34.44723,2.655685,4.110645
-34.498684,2.6480951,4.115957
-34.550278,2.6407008,4.1216936
-34.62676,2.6149611,4.1094213
-34.688457,2.6008372,4.1090326
-34.73857,2.5956564,4.117755
-34.797882,2.5840375,4.120378
-34.863728,2.5680828,4.1190434
-34.935513,2.548349,4.114351
-34.996944,2.5364785,4.1176386
-35.075047,2.5132976,4.1103115
-35.130493,2.5064678,4.1190853
-35.204884,2.4868855,4.115932
-35.282505,2.465629,4.1115665
-35.35023,2.4516304,4.1144733
-35.460117,2.4098046,4.0915112
-35.524082,2.3994184,4.0986223
-35.576324,2.397118,4.113589
-35.684647,2.3584623,4.0950823
-35.76204,2.340682,4.0964413
-35.823112,2.3338661,4.108268
-35.930553,2.2979162,4.093814
-35.977596,2.3008168,4.1152205
-36.06824,2.2766619,4.112432
-36.153873,2.2562308,4.113485
-36.208134,2.25559,4.1326556
-36.308994,2.2268543,4.127191
-36.407944,2.1999748,4.123937
-36.519836,2.1660492,4.1150813
-36.610985,2.1452007,4.118253
-36.71272,2.1187212,4.117076
-36.83389,2.0816135,4.1073685
-36.95082,2.0478144,4.1012044
-37.032227,2.0351315,4.113616
-37.154,2.0000215,4.107634
-37.26255,1.973172,4.1092834
-37.400658,1.9305602,4.0985246
-37.490555,1.915538,4.1113057
-37.640278,1.8682642,4.0983005
-37.803776,1.8145659,4.0810413
-37.889015,1.8041542,4.0995846
-38.05947,1.7487037,4.082759
-38.238983,1.6896682,4.0642076
-38.34939,1.6681497,4.076206
-38.48847,1.6323535,4.0778065
-38.65149,1.5850937,4.0714836
-38.77896,1.5570903,4.0809093
-38.915234,1.5253861,4.0883594
-39.127285,1.4564142,4.0688224
-39.33258,1.3922689,4.054309
-39.525913,1.3354225,4.0465503
-39.687458,1.2954214,4.0523367
-39.907845,1.2278175,4.0393953
-40.115303,1.1679051,4.0334535
-40.329544,1.1060925,4.027626
-40.522873,1.0555599,4.0311384
-40.722885,1.0030849,4.034671
-40.98626,0.9223349,4.0204363
-41.183296,0.87393785,4.0297885
-41.49571,0.77389264,4.00637
-41.637882,0.75320053,4.037092
-27.660818,2.3705301,3.2364826
-27.67899,2.3427978,3.1976714
-27.703232,2.323402,3.1686468
-27.721895,2.295109,3.1292133
-27.88322,2.485293,3.3467388
-27.93956,2.5177736,3.3792634
-27.98924,2.54088,3.4009366
-28.036245,2.5605607,3.4187365
-28.073706,2.5653815,3.4191232
-28.116833,2.5799427,3.4311514
-28.16145,2.5976584,3.44706
-28.202923,2.610694,3.4575577
-28.244135,2.623863,3.4683456
-28.284071,2.6353486,3.4772592
-28.323109,2.645747,3.485001
-28.360298,2.6532326,3.489386
-28.397652,2.6614375,3.4947414
-28.434204,2.6685383,3.498886
-28.471851,2.6781867,3.5061836
-28.505945,2.6812363,3.505691
-28.539066,2.6825502,3.5032096
-28.57391,2.6876268,3.505334
-28.60922,2.694029,3.5091486
-28.645525,2.7029881,3.5161371
-28.680264,2.7089846,3.5196652
-28.715145,2.7156973,3.5241513
-28.748827,2.7200494,3.5258884
-28.785528,2.7318897,3.536756
-28.82911,2.7611096,3.5687246
-28.877344,2.8034403,3.616685
-28.908283,2.803916,3.614163
-28.958855,2.8558226,3.6740012
-28.997587,2.8788066,3.698964
-29.037453,2.9062538,3.7294574
-29.076576,2.9332106,3.75948
-29.113476,2.9553273,3.7837453
-29.150572,2.979424,3.8105278
-29.185995,2.9999065,3.833027
-29.220829,3.019876,3.8550062
-29.253374,3.0337224,3.8696313
-29.28528,3.0464182,3.882945
-29.317833,3.0623264,3.9002647
-29.349215,3.0752094,3.9139848
-29.381348,3.0919323,3.9324777
-29.41074,3.0993714,3.9397237
-29.438896,3.1025114,3.9417949
-29.469229,3.115119,3.95551
-29.499172,3.1271858,3.9686456
-29.532875,3.1575165,4.0042057
-29.560465,3.1616087,4.0077496
-29.588726,3.1695402,4.0160637
-29.616713,3.176921,4.023776
-29.64444,3.1837504,4.030884
-29.672464,3.1931672,4.041236
-29.699286,3.1963744,4.044044
-29.727581,3.2097151,4.0593486
-29.753992,3.2118087,4.0609274
-29.780613,3.2158597,4.064973
-29.807545,3.2231288,4.0730352
-29.834482,3.2317286,4.0827994
-29.86032,3.2315812,4.0818872
-29.887007,3.2403224,4.091955
-29.91336,3.2472427,4.0998545
-29.801334,1.4739027,1.920145
-29.843544,1.47117,1.9159956
-29.886097,1.4735897,1.9182816
-29.928194,1.4679205,1.9107275
-29.970875,1.4743435,1.9181399
-30.01214,1.4386091,1.8738227
-30.046053,1.022541,1.361959
-30.09237,0.9977274,1.331254
-30.139147,0.971771,1.2992554
-30.764181,1.240067,1.6393595
-30.78019,1.4462197,1.8938766
-30.790268,1.6661751,2.1652932
-30.791542,1.9156203,2.4728165
-30.800566,2.0907953,2.6891851
-30.823105,2.1710465,2.7891622
-30.817076,2.3963788,3.066907
-30.805344,2.6291146,3.3535986
-30.834513,2.6415038,3.3703928
-30.818956,2.8608708,3.6405334
-30.848827,2.8594942,3.6405091
-30.827124,3.0786443,3.91018
-30.848282,3.1048288,3.943858
-30.835228,3.2642808,4.1403494
-30.851213,3.301704,4.1877346
-30.876709,3.3016639,4.1894245
-30.902918,3.2991943,4.1882153
-30.928635,3.2986658,4.189439
-30.955492,3.2944663,4.1862555
-30.980698,3.2959456,4.190055
-31.007477,3.2925122,4.1879396
-31.034533,3.2885303,4.1852283
-31.06083,3.2871087,4.185698
-31.087376,3.2851367,4.1855683
-31.115305,3.2795162,4.181081
-31.140152,3.282649,4.1872807
-31.165886,3.2833683,4.1906176
-31.193775,3.2785916,4.187366
-31.22078,3.2763643,4.187276
-31.24859,3.2723606,4.185108
-31.277,3.2672029,4.1816235
-31.305254,3.262743,4.179058
-31.333603,3.2583632,4.176669
-31.361494,3.2552931,4.1759353
-31.386936,3.2578251,4.182017
-31.424335,3.2346807,4.157299
-31.447031,3.2434978,4.1710863
-31.47492,3.2413604,4.171782
-31.503164,3.2386913,4.1719165
-31.529928,3.2391515,4.1758757
-31.558268,3.2366395,4.1763506
-31.586985,3.2336001,4.176275
-31.611546,3.2385402,4.1858006
-31.638344,3.2392955,4.1904
-31.67321,3.2255864,4.177849
-31.701166,3.2246945,4.1806526
-31.721512,3.2371688,4.1994085
-31.771282,3.1990242,4.158157
-31.797398,3.2020192,4.1658344
-31.834753,3.1864448,4.1516085
-31.860218,3.1908069,4.161066
-31.888243,3.1910396,4.165715
-31.920084,3.1853664,4.1634827
-31.950499,3.182182,4.164277
-31.980206,3.1802816,4.16667
-32.00917,3.1796591,4.17065
-32.038162,3.1791208,4.1748114
-32.084705,3.1531541,4.149304
-32.112743,3.1546054,4.156004
-32.14286,3.1531787,4.1594257
-32.173023,3.151842,4.163041
-32.202797,3.1511836,4.167535
-32.23086,3.1529644,4.1749487
-32.269905,3.1401544,4.165533
-32.308304,3.1286523,4.1577663
-32.34963,3.1137745,4.1462355
-32.380768,3.1124601,4.1504917
-32.410564,3.1129866,4.156963
-32.4427,3.1106954,4.160285
-32.47725,3.1056051,4.1605005
-32.52239,3.0878992,4.146389
-32.560158,3.0795965,4.1431923
-32.597122,3.0725741,4.1415863
-32.626366,3.0748723,4.1507144
-32.657074,3.075534,4.1580715
-32.695824,3.0671313,4.1552486
-32.73981,3.053152,4.146259
-32.778942,3.04503,4.144046
-32.812553,3.043295,4.149165
-32.84047,3.0479026,4.161524
-32.876232,3.0441027,4.1645365
-32.922188,3.0296993,4.155811
-32.968956,3.0149038,4.146826
-33.010586,3.005897,4.144472
-33.043095,3.0065608,4.153016
-33.079475,3.0034137,4.157444
-33.12985,2.9864547,4.1467295
-33.177166,2.9730241,4.140112
-33.221344,2.9630966,4.1375375
-33.257713,2.9610698,4.1438026
-33.290688,2.962472,4.153949
-33.35211,2.937029,4.134906
-33.403458,2.921707,4.1271496
-33.441513,2.9191623,4.133476
-33.47309,2.9227462,4.1465745
-33.52921,2.904124,4.135808
-33.58748,2.884097,4.1237717
-33.632717,2.8761997,4.125006
-33.66523,2.8797915,4.1387167
-33.708206,2.8743427,4.1428895
-33.764996,2.8572538,4.134855
-33.813942,2.847338,4.134673
-33.87129,2.830679,4.1275706
-33.902218,2.8365579,4.1444626
-33.96318,2.817638,4.1354184
-34.027058,2.796853,4.1246996
-34.075718,2.7889583,4.127716
-34.107525,2.7948842,4.145302
-34.179413,2.7690096,4.130062
-34.231205,2.7595944,4.132149
-34.291847,2.7436233,4.1277227
-34.34203,2.7361798,4.13231
-34.407894,2.7170577,4.1251965
-34.47341,2.6987202,4.119191
-34.524204,2.6919265,4.125188
-34.597145,2.6689801,4.115113
-34.650402,2.661102,4.120533
-34.71843,2.6427763,4.1157393
-34.76926,2.6373672,4.1241446
-34.848385,2.6120057,4.1129775
-34.93148,2.5844731,4.100063
-34.97084,2.5882964,4.11842
-35.055313,2.56087,4.106329
-35.121506,2.546712,4.1076083
-35.161118,2.5511172,4.1272283
-35.27209,2.5073864,4.100511
-35.34861,2.487709,4.0975237
-35.386417,2.4942608,4.12002
-35.48336,2.461985,4.1057043
-35.576363,2.4330478,4.0950747
-35.631683,2.4291549,4.108544
-35.724663,2.4014177,4.099925
-35.78711,2.393736,4.1105094
-35.88233,2.3657823,4.1026044
-35.961212,2.3487039,4.105251
-36.012005,2.3494735,4.1246853
-36.114395,2.318851,4.1157312
-36.19637,2.3013575,4.119255
-36.27706,2.28515,4.124381
-36.407974,2.2395005,4.103573
-36.45723,2.2431068,4.1273823
-36.582066,2.2026055,4.112405
-36.64975,2.196205,4.1281357
-36.810505,2.1365771,4.0977454
-36.90511,2.1159449,4.1021624
-37.007233,2.091648,4.1039624
-37.093616,2.0768259,4.114462
-37.22708,2.03633,4.1036425
-37.324623,2.0165615,4.1111155
-37.473763,1.9691936,4.0960555
-37.578606,1.9468731,4.102733
-37.69525,1.9188476,4.105332
-37.880684,1.8549478,4.0792994
-38.03062,1.8111315,4.070756
-38.1355,1.7918985,4.0829434
-38.2948,1.7450385,4.073722
-38.454742,1.6989224,4.066114
-38.55152,1.6860728,4.0856266
-38.725098,1.6349034,4.075945
-38.884148,1.5921755,4.073907
-39.000504,1.5716794,4.0898685
-39.191994,1.5148163,4.079093
-39.374832,1.463448,4.073717
-39.617428,1.3843222,4.0490184
-39.81894,1.3265846,4.041676
-40.001354,1.2792437,4.043255
-40.216347,1.2176604,4.0358653
-40.40435,1.1700935,4.0399156
-40.6399,1.1016135,4.0306005
-40.84051,1.0507267,4.0351496
-41.066223,0.9896116,4.0341053
-41.309334,0.922035,4.0303016
-41.597244,0.83589196,4.015852
-41.887054,0.75075555,4.004176
-27.669367,2.4167643,3.2325072
-27.67769,2.3750973,3.1768231
-27.700352,2.353448,3.1449022
-27.755735,2.380289,3.1707516
-27.90163,2.5458496,3.3622017
-27.952007,2.5691676,3.3844562
-27.992104,2.5772202,3.3886294
-28.036871,2.5931315,3.4023328
-28.082424,2.6109796,3.4185038
-28.1222,2.6200292,3.4242616
-28.164282,2.633387,3.4353166
-28.206444,2.6474793,3.4473882
-28.246944,2.6593106,3.4568672
-28.285847,2.6688693,3.463728
-28.323885,2.6773455,3.4693985
-28.361746,2.6859386,3.4753218
-28.398783,2.6934414,3.4800367
-28.436295,2.7022634,3.486455
-28.473934,2.7118037,3.4938555
-28.508015,2.7147996,3.4934201
-28.554024,2.7421389,3.5226588
-28.592438,2.7550697,3.5345216
-28.6508,2.8106558,3.5984344
-28.684053,2.814751,3.599803
-28.717213,2.8189397,3.6013765
-28.748919,2.820174,3.599432
-28.782713,2.8263798,3.6036444
-28.812214,2.8229043,3.596109
-28.844564,2.8262346,3.5969753
-28.872112,2.8180175,3.5837808
-28.905144,2.8233554,3.5872674
-28.96201,2.8907745,3.6670165
-29.00001,2.911718,3.689898
-29.038956,2.9364715,3.7175746
-29.077862,2.962582,3.7470374
-29.116907,2.9906657,3.7790465
-29.15291,3.011478,3.8022213
-29.188107,3.0311677,3.8241177
-29.221935,3.0478783,3.8424425
-29.25601,3.0665457,3.8632774
-29.28806,3.0797486,3.8774633
-29.319847,3.093046,3.8918533
-29.352068,3.1089146,3.9095073
-29.383142,3.1217782,3.9235349
-29.412672,3.1297686,3.9316173
-29.440332,3.1310124,3.9314258
-29.474394,3.1590405,3.96447
-29.501879,3.1610682,3.9654
-29.530972,3.170632,3.975738
-29.562515,3.1927214,4.0016828
-29.590984,3.20183,4.011612
-29.618435,3.206657,4.0163
-29.646015,3.212803,4.022695
-29.673904,3.221518,4.0323486
-29.701214,3.2278132,4.0390663
-29.728495,3.234806,4.0467186
-29.754911,3.2368774,4.048322
-29.782469,3.2477615,4.060945
-29.810131,3.2612185,4.0768375
-29.836222,3.263503,4.0789022
-29.86367,3.2789822,4.097445
-29.889236,3.2782793,4.0959206
-29.914923,3.2788925,4.0960956
-29.940691,3.2808235,4.097972
-29.843145,1.4909325,1.8692002
-29.885612,1.4883206,1.865272
-29.928217,1.4876964,1.8639183
-29.97078,1.4859293,1.8612413
-30.012545,1.4573545,1.8252797
-30.046375,1.0294836,1.2921028
-30.093246,1.020513,1.2807398
-30.140263,1.0003939,1.2556028
-30.765793,1.280519,1.6145816
-30.787395,1.4451249,1.8207135
-30.794163,1.6877434,2.1237874
-30.800316,1.905324,2.3956804
-30.799603,2.1390421,2.687542
-30.805277,2.3121843,2.9040956
-30.821878,2.4098656,3.0269322
-30.81555,2.6140342,3.2818742
-30.823704,2.7296927,3.4269342
-30.825891,2.862726,3.593495
-30.850664,2.8850186,3.6227665
-30.831688,3.0906677,3.8791866
-30.850075,3.1284719,3.927651
-30.83063,3.3115182,4.155858
-30.85182,3.3281837,4.1781282
-30.882244,3.3101873,4.1575947
-30.920946,3.2644157,4.10283
-30.94723,3.2639542,4.1041403
-30.973152,3.2647996,4.1071277
-30.989573,3.2959876,4.1476
