x,y,z
-26.413073,2.6607811,1.0719914
-27.162434,3.2843766,2.272694
-27.200008,3.2783873,2.2593174
-27.23008,3.2654982,2.232644
-26.164082,2.2230902,0.21787024
-26.222298,2.2207797,0.21099997
-26.818373,2.226941,0.20115614
-26.878096,2.2295067,0.20417404
-26.939848,2.23481,0.2125392
-27.000994,2.2398744,0.22048426
-27.05764,2.2399843,0.21886253
-27.116982,2.243691,0.22425508
-27.173033,2.2437024,0.22251844
-27.227974,2.2425811,0.21861935
-27.283516,2.242478,0.2167306
-27.336683,2.2395027,0.209301
-28.099834,3.1960986,2.0657253
-28.142323,3.1982615,2.0687509
-28.180668,3.1948905,2.06105
-28.134306,2.8055804,1.2984147
-28.177265,2.801334,1.2890124
-28.634996,3.2207837,2.10045
-28.729477,3.2527218,2.160983
-28.896608,3.201222,2.0568614
-28.92767,3.1841757,2.0229363
-28.955702,2.963272,1.5901909
-28.98658,2.9355364,1.5354395
-29.023827,2.9231524,1.510644
-29.103989,2.9126172,1.4888797
-29.187704,2.9124181,1.48737
-29.225365,2.8987021,1.4600806
-29.621151,3.2204847,2.0850177
-29.658329,3.2205358,2.084835
-29.81324,2.9468603,1.5492225
-29.855242,2.9601607,1.5750251
-29.896643,2.9708407,1.5957322
-29.939268,3.0030353,1.6584878
-29.936392,2.259533,0.20612717
-30.065947,3.232891,2.1072173
-30.086485,2.2862597,0.25810337
-30.135992,2.2866154,0.25877666
-30.175829,3.2768714,2.193077
-30.235678,2.2571793,0.20131826
-30.285137,2.2693102,0.22507334
-30.323616,3.2291389,2.100061
-30.361519,3.2155142,2.0735545
-30.483799,2.2739983,0.23474836
-30.533552,2.2740095,0.23496914
-30.582567,2.2805204,0.2479105
-30.633387,2.272141,0.23179913
-30.59607,2.8755953,1.4105673
-30.735308,2.258515,0.20578003
-30.784462,2.2641735,0.2171669
-30.710186,2.9362924,1.5299306
-30.744251,2.9713793,1.5987606
-30.780375,2.9924695,1.6402779
-31.036758,2.2585132,0.20822382
-30.888084,3.0458035,1.7455373
-31.138449,2.255632,0.20364094
-30.959839,3.0737712,1.8009882
-31.027267,3.111555,1.8756647
-31.069965,3.217712,2.0838027
-31.105629,3.2237277,2.0960622
-31.469467,3.0034845,1.6710134
-31.857607,2.248754,0.2007699
-31.908974,2.2500823,0.20433617
-31.962097,2.2479818,0.2012496
-31.60827,3.2841892,2.223433
-32.33099,2.2475166,0.2082696
-31.80872,3.2051606,2.073135
-31.831097,3.2332332,2.128714
-32.488556,2.2517266,0.22033453
-32.543118,2.2503438,0.21900034
-32.194855,2.8608396,1.4075541
-32.646095,2.257654,0.23602486
-32.700253,2.2575867,0.23734713
-32.754486,2.2576702,0.23899746
-32.34949,2.8983655,1.4853926
-32.86668,2.253518,0.23400879
-32.41372,2.9337056,1.5566306
-32.44671,2.9495187,1.5886645
-33.036488,2.2478526,0.22789383
-33.090977,2.2493062,0.23241568
-33.14517,2.2513413,0.23810053
-33.20045,2.2522414,0.24161768
-33.2533,2.256293,0.25128412
-33.312317,2.25323,0.24718857
-32.544704,3.2038295,2.0916886
-33.432762,2.2455084,0.23602724
-33.50185,2.232378,0.2125516
-33.556324,2.2359786,0.2215333
-33.61786,2.2321324,0.21613026
-33.681988,2.2259483,0.20624638
-32.997353,3.000064,1.7063804
-33.106182,2.984807,1.6803498
-33.20298,2.9831557,1.6807837
-33.240986,2.9927115,1.7011108
-33.263542,3.0168366,1.7495999
-33.282898,3.0434499,1.8028965
-34.221725,2.2247677,0.22463894
-33.197865,3.2070053,2.122365
-33.197865,3.2476053,2.2025614
-34.415592,2.2171748,0.21767282
-33.220734,3.3061514,2.3192186
-33.255127,3.3148987,2.3379889
-33.31003,3.3063521,2.323473
-33.357002,3.3048477,2.3225608
-33.413933,3.2954607,2.3065157
-33.452347,3.3014917,2.3201795
-47.68656,1.8105006,0.3328805
-47.614,1.8842695,0.4796071
-47.70484,1.9195609,0.56062794
-47.726803,1.9707522,0.6687808
-47.707687,2.0309563,0.7921672
-47.70407,2.0872889,0.90892124
-47.749207,2.1326594,1.0071945
-47.67007,2.2046788,1.1501274
-47.75795,2.2405639,1.2325335
-47.75824,2.2949538,1.345859
-47.699097,2.361257,1.4788475
-47.747795,2.4050908,1.5745707
-47.66794,2.4745603,1.7124658
-47.66266,2.5286317,1.8249044
-47.6734,2.579308,1.9317441
-47.76045,2.6152685,2.0147052
-47.820656,2.656515,2.1063867
-48.9726,2.6076035,2.107739
-47.61775,2.9004495,2.5991526
-47.68657,2.9394689,2.6872778
-47.990467,2.9387794,2.7134886
-47.97363,2.9931169,2.8261142
-48.056458,3.0308034,2.9129152
-48.3853,3.0291328,2.9395456
-48.63284,3.0419898,2.9893513
-48.938194,3.0470638,3.0281577
-49.224487,3.0565665,3.0746074
-49.6606,3.0450513,3.0906615
-49.90287,3.0642562,3.1536446
-50.055943,3.0974686,3.2379904
-50.127136,3.1429045,3.3406153
-50.948845,3.0845737,3.2939348
-50.971207,3.1391191,3.411416
-50.99179,3.1938305,3.5291586
-51.0262,3.246665,3.6443005
-51.4888,3.2449048,3.6840506
-52.03295,3.2353196,3.714961
-52.65008,3.2196124,3.7398434
-53.449265,3.1853547,3.7426157
-54.134525,3.1685348,3.7717423
-54.91576,3.1443033,3.7942963
-4.306877,2.496377,2.1515474
-4.349661,2.4305456,2.0084786
-5.041212,2.4554017,2.0060105
-5.642725,2.4710248,1.9912276
-5.9615116,2.4486556,1.9185252
-5.905443,2.3722646,1.761271
-5.965082,2.3127735,1.630693
-5.990036,2.2480164,1.4917955
-5.9565372,2.173966,1.3379412
-5.384573,2.0135145,1.0439873
-5.7154655,1.9961658,0.9814153
-8.315304,2.1009684,0.99986887
-8.501207,2.070045,0.9204278
-9.367102,2.1642945,1.051919
-9.566956,2.1395836,0.9846072
-9.701286,2.1033897,0.8982601
-10.135246,2.1251905,0.9108572
-11.011349,2.2354765,1.0755272
-11.183378,2.2114089,1.0119543
-11.257086,2.168325,0.91602993
-11.199842,2.0986636,0.7743707
-12.361578,2.280843,1.0683703
-12.621645,2.280334,1.0477548
-12.661579,2.234171,0.9481673
-12.935062,2.2385118,0.936811
-13.243635,2.2519722,0.94195986
-13.7921505,2.3205404,1.0444837
-13.954792,2.3050745,1.0001483
-13.99951,2.2633057,0.90967035
-14.30252,2.2815537,0.9254513
-14.804777,2.3484159,1.0280442
-14.951689,2.3333135,0.98583746
-15.308265,2.3696575,1.0355773
-15.357969,2.3326716,0.9549675
-15.580988,2.3388395,0.951674
-15.798122,2.34469,0.9481983
-16.12268,2.3791454,0.9965229
-16.508606,2.431377,1.0774436
-16.64839,2.4213061,1.0465641
-16.730211,2.3964558,0.9891672
-16.97823,2.4166212,1.0134606
-17.238419,2.4415076,1.0467324
-17.47245,2.460659,1.0700002
-17.66069,2.468312,1.0726919
-17.869045,2.482678,1.0879283
-18.085258,2.500464,1.1097412
-18.228006,2.498111,1.0950093
-18.404541,2.5064101,1.1000228
-18.55846,2.5089228,1.0946679
-18.734802,2.5190024,1.1034584
-18.902973,2.527557,1.1096945
-19.304321,2.5260487,1.0795426
-19.47559,2.538925,1.0946469
-19.528234,2.5142312,1.0402694
-19.521238,2.4699705,0.9495802
-19.55762,2.4397187,0.88491106
-19.412846,2.3483481,0.7064009
-19.360153,2.2868085,0.5832715
-19.530758,2.3014834,0.6023612
-19.439466,2.2257056,0.45254898
-19.330639,2.1425529,0.2887578
-19.349487,2.103708,0.20780134
-25.010653,2.7592406,1.220684
-25.159292,2.8128097,1.3217564
-25.322042,2.8770788,1.4437675
-25.450607,2.9211478,1.5266719
-25.863728,3.153339,1.9755831
-25.853909,3.1107378,1.8902512
-26.010933,2.9919825,1.644578
-26.396572,3.2329924,2.1126099
-26.431805,3.2222304,2.089528
-26.487505,3.226733,2.0962753
-26.225092,2.9904838,1.6327024
-26.272339,2.9859345,1.6216664
-26.316053,2.9787734,1.6055527
-26.369825,2.9796214,1.6051307
-26.391834,2.9553182,1.5555358
-26.452953,2.8756864,1.3936005
-26.432783,2.8137527,1.270288
-26.366985,2.7110205,1.0669756
-26.389261,2.6824117,1.0088825
-26.40489,2.6473367,0.9381099
-27.169224,3.2848022,2.1865878
-27.204582,3.2763758,2.1684842
-27.232597,3.2611065,2.1369705
-26.231627,2.276984,0.20328999
-26.773033,2.28654,0.20499897
-26.831976,2.2879882,0.20612907
-26.891888,2.290872,0.2101202
-26.950516,2.2926712,0.21201134
-27.00646,2.2916887,0.20845795
-27.062328,2.2908664,0.20525074
-27.753454,3.0055425,1.6108346
-27.45422,2.2938237,0.20085955
-27.510569,2.2959874,0.2037921
-28.20054,3.1979568,1.9827147
-28.143898,2.8573523,1.3062801
-28.7337,3.2914393,2.1574297
-28.855688,3.2273333,2.0279837
-28.8901,3.217871,2.0086408
-28.988623,2.9741578,1.5233574
-29.067036,2.9599428,1.4941287
-29.106861,2.954095,1.4820347
-29.149776,2.9572618,1.4878125
-29.1893,2.9502826,1.4735184
-29.240417,2.9809084,1.5337229
-29.529066,3.1687188,1.9035778
-29.577335,3.2160666,1.9971075
-29.618443,3.2334929,2.031373
-29.653048,2.7282832,1.0294514
-29.738815,2.3119795,0.20371151
-29.857262,3.0048778,1.5768995
-29.898922,3.0199308,1.606606
-29.888683,2.3174884,0.21414804
-29.938435,2.318231,0.21550798
-30.020956,3.0562866,1.6783957
-30.038101,2.3282084,0.23512983
-30.087605,2.3266332,0.2319665
-30.137167,2.3305905,0.23979187
-30.177277,3.271519,2.1049433
-30.23342,2.446528,0.46964216
-30.280846,2.4598641,0.49612904
-30.328186,2.4679172,0.51216507
-30.375834,2.4679856,0.5123973
-30.431744,2.3623917,0.30321503
-30.401676,3.2259307,2.014976
-30.532536,2.3384447,0.25606823
-30.581161,2.3457892,0.2708192
-30.63091,2.3433633,0.26622963
-30.680609,2.3419652,0.26370096
-30.635185,2.935604,1.4404359
-30.782501,2.3260822,0.23278141
-30.832453,2.325527,0.23199558
-30.884605,2.314332,0.21015167
-30.934868,2.3135922,0.20905113
-30.985176,2.3129847,0.20823479
-31.035957,2.3107154,0.2041521
-31.08557,2.313503,0.21011305
-30.92317,3.1019583,1.77248
-30.958576,3.1165125,1.8016906
-30.994673,3.127574,1.8239985
-31.289215,2.3076265,0.20046997
-31.04081,3.227553,2.0228496
-31.077744,3.2307818,2.0296822
-31.110216,3.2465696,2.061401
-31.542063,2.3118632,0.21191692
-31.85299,2.3060422,0.2049079
-31.904398,2.3069544,0.20755482
-31.956488,2.3066828,0.20788765
-32.009758,2.3043523,0.20417356
-31.63112,3.2772422,2.1304164
-32.272823,2.303637,0.20764828
-32.32641,2.302615,0.2066884
-32.3793,2.303047,0.20862961
-32.432785,2.3027532,0.20916462
-32.485245,2.3043427,0.213449
-32.540558,2.3017411,0.20948362
-32.59198,2.3053532,0.2178173
-32.218266,2.9326742,1.4575319
-32.695656,2.3116932,0.23282003
-32.748558,2.3135655,0.23780107
-32.801174,2.3160121,0.24394226
-32.854763,2.3173158,0.24785805
-32.91034,2.3162005,0.24703074
-32.967022,2.3139637,0.24402237
-33.025192,2.3101857,0.2380085
-33.08083,2.3099825,0.23907566
-32.49038,3.10106,1.7996755
-32.511887,3.127877,1.8537154
-33.247597,2.3111734,0.24601364
-32.517296,3.2228634,2.0432482
-32.532967,3.2533977,2.1045942
-33.421104,2.30708,0.24283314
-32.68091,3.1837468,1.9699936
-32.823288,3.0770683,1.7613907
-33.60053,2.299525,0.23315096
-33.664,2.2939022,0.22389078
-32.988132,3.0487704,1.7100015
-33.97115,2.2823498,0.21073532
-34.033363,2.2803602,0.2088499
-34.087456,2.2863207,0.22261047
-34.149025,2.2855093,0.22311306
-34.206264,2.2889473,0.23199129
-34.27623,2.2812161,0.218997
-34.338737,2.2805803,0.21996307
-33.2394,3.287622,2.1961331
-33.22804,3.3361397,2.29287
-33.294804,3.317689,2.2583933
-33.330452,3.3258164,2.2760148
-33.404846,3.3022254,2.2315645
-33.44265,3.3090503,2.2466974
-47.494766,1.9599705,0.3647008
-47.70761,1.9673882,0.3958578
-47.72406,2.0199318,0.5067663
-47.69767,2.0817282,0.6338849
-47.69126,2.1386695,0.7524018
-47.74357,2.1826231,0.84820366
-47.711494,2.244473,0.9751873
-47.720795,2.2971747,1.0861869
-47.732952,2.3490462,1.1957221
-47.742428,2.4012408,1.3057904
-47.723183,2.4589355,1.425272
-47.715088,2.514039,1.5402241
-47.661263,2.5776663,1.6696367
-47.786083,2.6066709,1.7400594
-47.68824,2.6779041,1.882196
-47.733006,2.7219841,1.978271
-47.756393,2.769956,2.080943
-47.85461,2.8044565,2.1611047
-47.871513,2.9054708,2.3750973
-47.832214,2.9638054,2.4949603
-47.83481,3.014694,2.602448
-48.07894,3.0257633,2.6448722
-48.69886,2.9774742,2.5915084
-48.799313,3.014729,2.678062
-48.509796,3.1129403,2.8627796
-49.09494,3.075858,2.830532
-49.433884,3.0787473,2.8634272
-49.781815,3.0820198,2.8979058
-50.012222,3.103978,2.9626822
-50.12545,3.1435783,3.0555778
-50.552155,3.1401916,3.0824027
-50.981255,3.1386545,3.1134062
-50.994774,3.1945539,3.233097
-51.019135,3.2489204,3.3504715
-51.431614,3.2537677,3.3938923
-52.102043,3.2285252,3.3941832
-52.692253,3.2165494,3.416287
-53.3692,3.1972635,3.4299097
-54.04692,3.181383,3.4509182
-54.881325,3.151158,3.4541397
0.044366837,1.9188013,0.82758856
-5.4473896,2.516945,1.7379599
-5.7275543,2.487553,1.6570802
-5.946251,2.4505537,1.5641327
-5.9395237,2.381156,1.4171934
-5.959772,2.3155231,1.2765498
-5.424963,2.1644063,0.99074936
-6.380905,2.1065612,0.8061242
-8.269663,2.2861476,1.0646338
-8.454119,2.2537606,0.9842458
-9.355135,2.3468478,1.1234093
-9.502703,2.3116298,1.0395117
-9.834774,2.3101916,1.0152969
-9.749125,2.2340372,0.85986423
-9.916464,2.2041004,0.7860341
-9.840431,2.128895,0.63210535
-9.85512,2.070332,0.5076208
-11.313118,2.2929163,0.8852954
-10.825808,2.1389017,0.5912051
-12.501659,2.416545,1.0713811
-12.660011,2.394398,1.014854
-13.112602,2.3272624,0.84549904
-14.070185,2.4809656,1.1096568
-14.444906,2.5122883,1.152461
-14.601605,2.4970703,1.1108904
-14.287074,2.3759336,0.8757038
-14.506339,2.3749616,0.8603163
-14.578627,2.3408883,0.78443336
-15.450912,2.4957864,1.0565767
-15.885336,2.5513167,1.1468186
-16.025688,2.5380611,1.1106076
-15.653553,2.3993688,0.84233856
-16.005196,2.438325,0.9029398
-15.980391,2.3841944,0.79110813
-16.71558,2.5242198,1.0405498
-17.073296,2.5709765,1.1172342
-17.097435,2.5321434,1.0346279
-16.791376,2.4051592,0.787179
-16.941986,2.398998,0.76552105
-17.295519,2.4490612,0.8495116
-17.330353,2.4129834,0.7721877
-17.49621,2.413583,0.7638736
-17.677061,2.4192905,0.76538897
-17.867607,2.428751,0.77421093
-18.060925,2.4400597,0.7867651
-18.223988,2.4435039,0.784688
-18.41523,2.4562287,0.80038023
-18.594872,2.4665139,0.8116832
-18.751328,2.4706876,0.8116026
-18.928963,2.4822617,0.825768
-19.527748,2.6271758,1.093833
-19.572744,2.6001983,1.0352707
-19.542528,2.5489905,0.9305377
-19.392332,2.4151235,0.6607652
-19.442707,2.3886225,0.6030297
-19.514458,2.3693578,0.559185
-19.356464,2.2716637,0.3650751
-19.329588,2.2176597,0.25455523
-24.909283,2.7853267,1.1575022
-25.047895,2.8304615,1.244226
-25.2215,2.8988361,1.3770499
-25.368633,2.9525905,1.4810791
-25.444899,2.9628134,1.4990249
-25.793571,3.149635,1.8668752
-25.784918,3.1076884,1.7816682
-26.007843,3.0327075,1.6208258
-26.052162,3.0251622,1.6039133
-26.40314,3.2406394,2.0302267
-26.44195,3.23221,2.0117416
-26.472622,3.2177234,1.9812331
-26.301043,3.0499291,1.6457849
-26.343449,3.0420272,1.6283064
-26.376953,3.0272405,1.5971446
-26.393934,2.999257,1.5397224
-26.445602,2.8682256,1.2719469
-26.348763,2.7406409,1.0159335
-26.392948,2.7309294,0.99487734
-26.425863,2.7113624,0.95418215
-27.175472,3.286829,2.0993862
-27.213522,3.2804387,2.0853238
-27.22949,3.2535799,2.0304103
-27.365644,3.2550788,2.0296474
-27.790379,3.0341063,1.5719829
-28.02617,3.1673093,1.8360972
-28.14159,3.2092154,1.9183803
-28.104385,2.9063804,1.3075709
-28.459,3.1223428,1.7371497
-28.80622,3.240178,1.9694657
-28.52747,2.3611035,0.20112371
-28.581135,2.3661797,0.2106781
-28.63239,2.366152,0.20999432
-28.683056,2.364945,0.20696163
-29.069498,3.0042493,1.4907861
-29.111237,3.0041647,1.4901872
-29.153978,3.0072713,1.4960237
-29.250414,3.050435,1.5820713
-29.337137,3.0685456,1.6178098
-29.381437,3.0828626,1.6462927
-29.426771,3.103054,1.6866131
-29.473427,3.1313426,1.7432446
-29.521275,3.1686256,1.8179936
-29.570038,3.215358,1.911778
-29.61224,3.23564,1.952364
-29.650364,3.2369676,1.9548273
-29.60033,2.7191975,0.9127226
-29.739716,2.366942,0.20306063
-29.858107,3.050082,1.5777769
-29.899033,3.0578318,1.5932665
-29.941097,3.084366,1.6465783
-29.97895,3.0522995,1.5819631
-29.988798,2.3832824,0.23537827
-30.065443,3.2469409,1.9736152
-30.103159,3.2601197,2.000114
-30.136915,2.3710427,0.21063805
-30.177443,3.2916615,2.0635915
-30.25244,3.2577353,1.9953594
-30.33524,2.369258,0.20718288
-30.38458,2.3733556,0.21551418
-30.366081,3.2376118,1.9550476
-30.482609,2.3854861,0.24015522
-30.531384,2.3917382,0.25288105
-30.580372,2.395003,0.259614
-30.630354,2.3903973,0.25052786
-30.591917,2.9849384,1.447187
-30.630482,3.0016623,1.4810262
-30.779814,2.3849094,0.2401495
-30.830076,2.3817136,0.23398209
-30.881079,2.3755462,0.22185516
-30.93237,2.3690717,0.20913124
-30.980078,2.3791156,0.22966337
-31.032738,2.3680375,0.20771885
-31.082067,2.3712544,0.21455574
-31.132181,2.3715038,0.2154417
-31.183332,2.3683505,0.2095046
-31.23301,2.3706286,0.21451283
-31.284046,2.3686256,0.21092987
-31.335175,2.3667583,0.20764208
-31.082918,3.2497168,1.9837832
-31.113718,3.2706318,2.026226
-31.484518,2.3742716,0.22427797
-31.536495,2.3711805,0.21861458
-31.58948,2.3660378,0.20884705
-31.641926,2.3627923,0.20291758
-31.79629,2.3622086,0.20365667
-31.846897,2.3643224,0.20858574
-31.897924,2.3656983,0.21205378
-31.94962,2.3659048,0.21319294
-32.003155,2.3627744,0.20765018
-32.056145,2.3610933,0.20504332
-32.10807,2.3617241,0.20710278
-32.16197,2.3590329,0.20251274
-32.212547,2.362539,0.21039152
-32.26461,2.3635905,0.2133627
-32.31827,2.3621979,0.21144962
-31.824768,3.249293,1.993032
-32.42726,2.3577127,0.20428419
-32.589867,2.3549116,0.20160007
-32.642113,2.3574083,0.20763636
-32.694668,2.3596203,0.21312428
-32.74602,2.363674,0.22232771
-32.799534,2.3648965,0.22587776
-32.853096,2.3662667,0.22974777
-32.906704,2.3677855,0.23393965
-32.962337,2.3669233,0.23338413
-33.017082,2.3674822,0.23570251
-33.07122,2.369036,0.24003983
-33.13165,2.3631985,0.22959757
-33.189865,2.360473,0.22541666
-33.247543,2.3587532,0.223279
-33.30209,2.3609505,0.22901058
-32.565544,3.2524412,2.0147972
-33.415432,2.3612454,0.23234844
-33.469395,2.3647408,0.24075603
-33.529167,2.3622,0.23711538
-33.57696,2.3725927,0.25937176
-33.612247,2.3958256,0.30732393
-33.601017,2.4657764,0.44868326
-33.64934,2.4742978,0.4672284
-33.707085,2.4735785,0.46732903
-33.789753,2.4490702,0.4199314
-33.95325,2.3487115,0.22108078
-33.99971,2.361377,0.24805737
-33.22731,3.1291008,1.7825117
-33.23071,3.169197,1.863913
-34.19955,2.3447578,0.22011662
-34.255386,2.3496366,0.23166227
-33.23953,3.2849867,2.0990567
-33.230656,3.3318853,2.1939635
-33.283535,3.3255975,2.1828203
-33.32196,3.3317232,2.1964478
-33.377617,3.3237903,2.1820836
-33.42582,3.322327,2.1806393
-33.49725,3.3026447,2.1429453
-47.63685,2.033437,0.25559998
-47.697582,2.0760236,0.34876537
-47.71492,2.1281457,0.4593544
-47.67298,2.1928136,0.5927186
-47.727856,2.2363522,0.68767023
-47.70775,2.2955956,0.8110714
-47.688465,2.354235,0.9333
-47.716167,2.4029207,1.0375447
-47.65523,2.46919,1.1733427
-47.711823,2.5116775,1.2664328
-47.67856,2.5716286,1.3907442
-47.689934,2.6225917,1.4989586
-47.70424,2.672802,1.6058183
-47.71214,2.7240164,1.7144384
-47.703274,2.7780635,1.8280249
-47.7114,2.8287683,1.935679
-47.768684,2.8706355,2.0278373
-47.79799,2.91743,2.1286736
-47.817135,2.9658847,2.2324176
-47.89909,3.0037336,2.3178
-48.042343,3.0317764,2.3864179
-48.03012,3.0854747,2.4993868
-48.124863,3.1219559,2.5828414
-49.01314,3.0893228,2.571364
-48.53687,3.2142472,2.8054242
-49.563362,3.1155918,2.6630402
-49.96287,3.1128263,2.683329
-50.098602,3.1493483,2.769846
-50.84355,3.102103,2.7183867
-50.969757,3.142727,2.8131056
-50.998554,3.1967874,2.9300418
-51.03723,3.2495222,3.0448637
-51.39206,3.2620275,3.0950103
-52.076088,3.235292,3.0834532
-52.669518,3.2231572,3.097052
-53.296852,3.2100413,3.110876
-54.05201,3.185286,3.1084547
-54.81501,3.1635556,3.1130757
-4.9879055,2.3944225,1.1106968
-6.1442776,2.490726,1.2571998
-6.118267,2.418777,1.1051254
-5.787689,2.3005817,0.8699827
-6.1012077,2.278972,0.8080783
-9.326643,2.4718852,1.0565405
-9.435663,2.4293664,0.9606962
-9.741602,2.4214096,0.9285555
-9.792095,2.3698502,0.81649685
-10.079094,2.360784,0.78302574
-9.950386,2.2772188,0.61194754
-9.895893,2.206356,0.46421814
-11.074394,2.367468,0.7481723
-10.776127,2.1931643,0.39309692
-10.814419,2.141251,0.28118515
-12.601582,2.440613,0.8287134
-13.131971,2.4412205,0.8043351
-14.238314,2.6204271,1.1304259
-14.4807005,2.6219182,1.1219387
-14.608277,2.5997834,1.0690017
-14.774857,2.5867405,1.0334654
-14.809639,2.5450735,0.9437165
-14.8504505,2.504692,0.856431
-15.779406,2.668101,1.157783
-15.929544,2.6559854,1.1251173
-16.006504,2.6272805,1.0608916
-16.16195,2.61757,1.0331187
-16.185299,2.5765228,0.94541025
-16.249023,2.5452545,0.8764863
-16.990452,2.6831732,1.1329994
-17.171947,2.6842194,1.1268282
-17.279613,2.667273,1.0861611
-17.381235,2.6491835,1.0433927
-17.483807,2.631732,1.0019526
-17.474045,2.584708,0.90338326
-17.117954,2.443672,0.6226425
-17.444248,2.4866443,0.69834375
-17.522667,2.462832,0.6447263
-17.551056,2.425174,0.5642595
-17.729452,2.430074,0.56660604
-18.034153,2.4723446,0.6419139
-18.484554,2.5155394,0.71277714
-18.678223,2.5296776,0.73397064
-19.453688,2.721416,1.1026039
-19.529064,2.7036598,1.0620623
-19.569088,2.675138,1.0004916
-19.530647,2.6218612,0.89040756
-19.350342,2.47992,0.600554
-19.566387,2.5073755,0.64890146
-19.554386,2.4607306,0.551692
-19.350342,2.3492758,0.3268628
-19.353083,2.3058474,0.2358203
-24.910328,2.8388774,1.1381817
-25.072008,2.8970387,1.2535338
-25.226032,2.952323,1.3631873
-25.3801,3.0093708,1.4765015
-25.417583,2.9949915,1.4456472
-25.728176,3.1542494,1.7656279
-26.009653,3.0809152,1.6060896
-26.041716,3.0646987,1.5717354
-26.083555,3.0553224,1.5512447
-26.341608,3.2028785,1.8487024
-26.439241,3.2367501,1.9159608
-26.46081,3.2150857,1.8707085
-26.344511,3.088813,1.6133761
-26.370485,3.068357,1.5705299
-26.392448,3.0444734,1.5207343
-26.417116,2.8925989,1.2071939
-26.3444,2.7865875,0.99061966
-26.390457,2.7784314,0.97272205
-26.42109,2.7570386,0.92795086
-26.420168,2.707707,0.8264203
-27.16576,3.2786298,1.9842935
-27.205761,3.2733939,1.972619
-27.253527,3.2754433,1.9757724
-27.369072,3.2563598,1.9340196
-27.441418,3.2390287,1.896873
-27.636272,3.057192,1.5194988
-27.79371,3.0817976,1.5672035
-27.893503,3.0944462,1.5914564
-27.989729,3.16167,1.7278023
-28.045858,3.1787293,1.7618866
-28.097416,3.1905346,1.7852788
-28.130358,3.1773412,1.7576952
-28.0728,2.971856,1.33711
-28.118002,2.971632,1.3359776
-28.171822,2.9846256,1.3618402
-28.730055,3.2858193,1.9718761
-28.478577,2.419693,0.20039654
-28.531633,2.4232183,0.20707321
-28.584723,2.427321,0.21494675
-28.637459,2.4311368,0.2222538
-29.068624,3.0472376,1.4799085
-29.204973,3.0819917,1.5499926
-29.250565,3.0965893,1.5795465
-29.333603,3.1021988,1.5904727
-29.375372,3.1066957,1.5994163
-29.419674,3.1217804,1.6300263
-29.515007,3.187725,1.7644587
-29.599556,3.219227,1.8285136
-29.8566,3.0950382,1.5735507
-29.897432,3.1026745,1.5890851
-29.938725,3.119634,1.6237059
-29.937328,2.4312124,0.21532059
-30.019032,3.1358764,1.656826
-30.100216,3.253975,1.8983707
-30.175627,3.2886071,1.9692116
-30.365469,3.2537086,1.8980079
-30.729092,2.4260044,0.20558834
-30.778908,2.4253664,0.20447397
-30.828424,2.4266086,0.20722008
-30.8782,2.426666,0.20755959
-30.928188,2.4259775,0.2063899
-30.978016,2.426293,0.20728827
-30.845297,3.1616755,1.7114725
-31.078983,2.4225113,0.20011139
-31.129168,2.4223456,0.2000742
-31.229242,2.423713,0.20352316
-31.026833,3.2153754,1.8225279
-31.3301,2.4234283,0.20365763
-31.086494,3.2691607,1.9330697
-31.429075,2.4293134,0.2164712
-31.479563,2.4296288,0.21753263
-31.532284,2.424447,0.20737123
-31.221184,3.3180676,2.0343246
-31.45599,3.1411707,1.674326
-31.550041,3.2766907,1.9529443
-31.611319,3.3088682,2.0195923
-31.699915,3.2914262,1.9849463
-32.687992,2.4155045,0.20303345
-32.739872,2.4187376,0.21047401
-32.79331,2.4200191,0.21395111
-32.374252,3.0421817,1.483674
-32.898067,2.4259431,0.22781706
-32.432163,3.0833428,1.5691013
-32.438416,3.131166,1.6673622
-32.460808,3.1578007,1.7224221
-33.121174,2.4233882,0.22641611
-32.489147,3.2280085,1.8670654
-33.238945,2.4166987,0.21481419
-33.292664,2.4197757,0.2221303
-33.350838,2.4180872,0.21975946
-33.402035,2.424333,0.23357105
-33.45621,2.427456,0.24104023
-33.51196,2.4291034,0.24552631
-33.569733,2.428884,0.24623251
-33.62922,2.4272165,0.2440157
-32.96771,3.1468315,1.7096047
-33.748672,2.4244223,0.24075174
-33.80822,2.4236977,0.24052525
-33.86286,2.4279575,0.2504592
-33.161144,3.1414635,1.7026968
-33.975616,2.4337552,0.26485777
-34.048225,2.4222088,0.24272537
-33.203182,3.2324362,1.8908033
-34.18583,2.4077568,0.21612215
-34.2379,2.4158306,0.23394918
-33.22343,3.3360786,2.1046047
-33.276142,3.3303297,2.0940218
-33.326767,3.3267088,2.0877833
-33.379974,3.32131,2.07796
-33.42767,3.3207421,2.0779653
-33.474033,3.3214855,2.0806513
-47.516365,2.2275112,0.36876154
-47.60697,2.2633185,0.44887018
-47.737335,2.291072,0.5138817
-47.696243,2.3546076,0.6464238
-47.681557,2.4122262,0.7677493
-47.689823,2.464872,0.8796897
-47.7,2.5168955,0.9904432
-47.76023,2.559011,1.0826707
-47.70114,2.6239243,1.2174478
-47.67715,2.6816258,1.3386841
-47.701576,2.7299864,1.4425178
-47.6692,2.7885282,1.5651994
-47.698563,2.8356059,1.6666274
-47.718765,2.884211,1.7708821
-47.74668,2.9313564,1.872457
-47.78709,2.9763076,1.9700255
-47.876915,3.013027,2.0525956
-47.956825,3.051659,2.1387763
-48.02011,3.0931983,2.2303452
-48.13881,3.2294953,2.5265589
-48.17196,3.2759094,2.62714
-48.244656,3.3165176,2.7173882
-49.859062,3.1360352,2.4146566
-50.10262,3.157371,2.4725819
-50.778576,3.1202347,2.4278631
-50.99193,3.1491792,2.5005636
-51.021496,3.2034235,2.617906
-51.03381,3.259861,2.7390895
-51.579384,3.2485657,2.7430344
-52.216034,3.228795,2.733603
-52.67769,3.233552,2.7676225
-53.43187,3.20598,2.747672
-54.17845,3.1832178,2.737667
-54.869484,3.1706119,2.7465649
-4.791586,2.4406283,0.83892775
-5.6774826,2.4946015,0.92159796
-5.831188,2.4473906,0.81481075
-6.1189194,2.42055,0.74670553
-8.347881,2.5614815,0.96609354
-9.348318,2.5968885,1.0051403
-9.595779,2.576881,0.95333815
-9.706842,2.5351586,0.8601351
-9.852146,2.499657,0.77900887
-9.925716,2.4522681,0.6751261
-9.896303,2.3868296,0.5364561
-9.834494,2.3150954,0.3855462
-9.904964,2.266855,0.28005219
-13.127829,2.5427542,0.75352955
-14.425873,2.7546718,1.1592612
-14.553144,2.7316744,1.1057949
-14.627012,2.6979518,1.031385
-14.784515,2.6822803,0.99250937
-14.829199,2.6428506,0.9070196
-15.436516,2.7272482,1.0655265
-15.835717,2.7687907,1.1400867
-15.944588,2.7468472,1.0896502
-16.010818,2.7155192,1.0207462
-16.204472,2.714038,1.010953
-16.226807,2.6730223,0.9230037
-16.622265,2.721336,1.0122046
-17.049374,2.7796936,1.121695
-17.21228,2.7754855,1.1072459
-17.297985,2.7527797,1.0561342
-17.370823,2.7270916,0.99914503
-17.50208,2.7166004,0.9724817
-17.519932,2.677175,0.8882146
-17.54534,2.6395464,0.8075304
-17.585104,2.6056063,0.7342162
-16.974487,2.3953683,0.30846786
-17.484676,2.4881527,0.48844862
-17.519882,2.4521239,0.41092062
-17.540443,2.4118636,0.32492113
-19.480614,2.7999063,1.0843191
-19.494556,2.7635765,1.0069599
-19.529781,2.7334867,0.94215155
-19.52192,2.6900384,0.85045433
-19.388866,2.6070967,0.6791625
-19.364506,2.5570955,0.57415867
-19.456379,2.543719,0.5430021
-19.333403,2.4610772,0.37208605
-19.348255,2.4222636,0.28957605
-24.924974,2.895213,1.1316519
-25.088327,2.9533694,1.2497935
-25.254562,3.0150828,1.3753347
-25.418304,3.0771847,1.5017557
-25.528765,3.1082575,1.5643873
-25.645626,3.144451,1.6376123
-25.795483,3.054226,1.4455924
-26.08088,3.0952783,1.5256319
-26.134857,3.094556,1.523046
-26.355213,3.2147171,1.7699051
-26.411327,3.2177658,1.7751846
-26.461163,3.2164876,1.7715502
-26.389997,3.1239784,1.5795932
-26.388535,3.0825393,1.4930358
-26.397081,2.9629385,1.243043
-26.340761,2.8275716,0.9613738
-26.387337,2.8197706,0.9442649
-26.417109,2.7977593,0.89779377
-26.445597,2.7254035,0.7462802
-27.143066,3.2948916,1.923017
-27.177282,3.2840767,1.8998814
-27.203976,3.2662637,1.8622785
-27.387136,3.266177,1.859191
-27.389154,3.223262,1.76967
-27.637724,3.0965772,1.5020461
-27.68596,3.0991313,1.5067215
-27.734726,3.1026444,1.5133996
-27.896242,3.1345916,1.577887
-27.967075,3.1683536,1.6473289
-28.017963,3.1776376,1.6660476
-28.066654,3.1846025,1.6799736
-28.111395,2.9996119,1.2943535
-28.257587,3.0841453,1.4687462
-28.325966,3.1224194,1.5476966
-28.646576,3.2384284,1.7860222
-28.845854,3.2326758,1.7724142
-28.876448,3.2119296,1.7290387
-29.113907,3.0911772,1.4763927
-29.163033,3.1130211,1.5215216
-29.20581,3.1178362,1.5312958
-29.252367,3.1352303,1.5672073
-29.292673,3.133835,1.5641036
-29.333979,3.1359875,1.5683789
-29.3772,3.145572,1.5881019
-29.463268,3.1672525,1.6327982
-29.550621,3.2014945,1.7036328
-29.81554,3.1143496,1.5218167
-29.856953,3.1239393,1.5416684
-29.898043,3.133205,1.5608578
-29.939606,3.1525478,1.6009932
-30.020817,3.1863568,1.6711636
-30.177027,3.2916493,1.8898983
-30.215807,3.25274,1.8090615
-30.2538,3.262931,1.8302569
-30.33197,3.2380853,1.7786984
-30.624317,3.108391,1.509759
-30.665115,3.1074998,1.5080218
-30.702927,3.1222732,1.5388389
-30.889866,3.182807,1.665348
-30.966879,3.1924055,1.6856494
-31.036781,3.2230105,1.7496171
-31.067574,3.248947,1.8036971
-31.104765,3.2547846,1.816042
-31.451054,3.1903827,1.6844358
-31.541567,3.2533975,1.816206
-31.68314,3.2882888,1.8900146
-31.773636,3.2715824,1.8561044
-31.864756,3.2562582,1.8251114
-32.097008,3.1599002,1.6270018
-32.27773,3.0914197,1.486476
-32.327953,3.084145,1.4719172
-32.368603,3.0897942,1.4841657
-32.403988,3.1021256,1.5102754
-32.428234,3.1280735,1.5646148
-32.45585,3.149128,1.6088152
-32.4751,3.1796172,1.6725712
-33.40692,2.4684598,0.20343876
-33.463062,2.4696565,0.206738
-33.52044,2.4698107,0.20789623
-32.89674,3.1646466,1.6472416
-33.029114,3.1723845,1.6653891
-33.08255,3.1663725,1.6536865
-33.133312,3.1632986,1.6480794
-33.9114,2.4882452,0.25236893
-33.9638,2.494833,0.26696587
-34.003902,2.512528,0.3045478
-34.060017,2.5158575,0.3124323
-34.145294,2.4940484,0.2683587
-33.21498,3.3422945,2.022933
-33.276207,3.3297107,1.9977264
-33.325817,3.327377,1.9937234
-33.373722,3.326742,1.9932466
-33.421753,3.3262572,1.9930978
-33.46751,3.327835,1.9972234
-47.71451,2.3481908,0.35811663
-47.676197,2.4109893,0.49055243
-47.74299,2.4522498,0.58083487
-47.682495,2.5186439,0.72020626
-47.69535,2.5701728,0.83051825
-47.711067,2.620946,0.93934965
-47.74633,2.6678662,1.04069
-47.70852,2.728195,1.1680455
-47.682663,2.7858531,1.2901602
-47.6959,2.8361177,1.3979273
-47.710213,2.8860133,1.5049739
-47.720924,2.9363596,1.6128798
-47.74398,2.9844284,1.7163963
-47.80111,3.0267162,1.8088288
-47.87274,3.0667293,1.8969536
-48.009995,3.0963848,1.9653649
-48.113853,3.131875,2.0450563
-48.20308,3.1700058,2.1298852
-48.15397,3.2294497,2.2552438
-48.159096,3.2803087,2.3642607
-48.193974,3.326634,2.4647026
-48.281723,3.3653684,2.550879
-48.301926,3.4138932,2.65554
-50.233376,3.199075,2.2672563
-50.9728,3.1557627,2.2020206
-51.001144,3.2103386,2.3200364
-51.0499,3.2622209,2.433076
-51.589817,3.2520082,2.431419
-52.22737,3.2325,2.413525
-52.668236,3.240118,2.446454
-53.354195,3.2209735,2.431229
-54.173492,3.1899893,2.3956604
-54.902653,3.1734536,2.3877368
-6.4267826,2.53735,0.6258898
-7.246542,2.524485,0.57921267
-8.613289,2.605278,0.72129154
-9.619802,2.7025585,0.9071593
-9.767469,2.6664412,0.82616997
-9.812277,2.6139653,0.7124181
-9.896223,2.5680385,0.6118579
-9.880859,2.505373,0.47763443
-11.308334,2.6929128,0.8478403
-11.6549015,2.6977353,0.8503313
-11.927473,2.6910658,0.8298454
-12.569012,2.6997297,0.8339772
-13.095625,2.693035,0.80780745
-13.960173,2.8089063,1.0370312
-14.456852,2.8569932,1.129097
-14.5804,2.8328288,1.0745416
-14.810243,2.8308797,1.0652742
-14.741955,2.7682374,0.93250513
-14.869744,2.7461827,0.88242435
-15.671289,2.8687458,1.1274838
-15.833093,2.857289,1.0994
-15.980414,2.8434012,1.0664353
-16.135653,2.8319511,1.0385375
-16.19122,2.798613,0.96593475
-16.414616,2.8039713,0.97258615
-16.8969,2.870956,1.1056247
-17.108477,2.876751,1.1134934
-17.245771,2.8658285,1.0871806
-17.319998,2.840173,1.030695
-17.46243,2.8315663,1.0092554
-17.49704,2.7966273,0.9337721
-17.539112,2.7635098,0.8620415
-17.572197,2.7280545,0.7855129
-17.59039,2.688622,0.7008033
-17.622086,2.6525598,0.6230316
-17.613453,2.605579,0.522768
-19.40831,2.8905535,1.0949588
-19.502579,2.8777297,1.0656557
-19.545433,2.8501804,1.0059476
-19.52843,2.8048065,0.9093895
-19.557552,2.772861,0.84059286
-19.34327,2.6664877,0.6177516
-19.521217,2.679344,0.6416669
-19.557226,2.6487865,0.5757332
-19.357826,2.5435011,0.3549552
-19.32993,2.4912984,0.24410677
-24.975046,2.972854,1.170505
-25.119656,3.01926,1.2668934
-25.259819,3.0645566,1.3609977
-25.385698,3.1027675,1.4402795
-25.487797,3.1278157,1.4919829
-25.59988,3.1599855,1.5586586
-26.147915,3.1465814,1.5230074
-26.204735,3.1481295,1.525578
-26.377222,3.2337408,1.7048292
-26.425392,3.2307699,1.6979456
-26.45652,3.2152956,1.6647873
-26.38511,3.1222208,1.4684925
-26.402805,3.09499,1.4106078
-26.416792,3.064364,1.345582
-26.366886,2.8941138,0.9856458
-26.410383,2.8840678,0.96388817
-26.410297,2.7899892,0.764729
-26.408955,2.7400918,0.65912485
-26.445002,2.7216733,0.61975574
-27.137417,3.2865536,1.8079782
-27.19208,3.2935905,1.8223009
-27.233725,3.289148,1.8124714
-27.349012,3.267109,1.7646866
-27.35114,3.2242024,1.6738954
-27.398705,3.2253332,1.6758318
-27.607826,3.1539478,1.5229487
-27.64632,3.1454628,1.5046749
-27.685318,3.1374745,1.487453
-27.72962,3.1356204,1.4831619
-27.778965,3.1399407,1.4918904
-27.885193,3.1591568,1.5316615
-27.94917,3.183429,1.5824676
-27.996914,3.1879938,1.5917501
-28.035164,3.180474,1.5755682
-28.077803,3.1787655,1.5716434
-28.097296,3.083473,1.370122
-28.18249,3.0768375,1.3555136
-28.462116,3.1719291,1.5546327
-28.564695,3.2025666,1.6187487
-28.622917,3.2318747,1.6803265
-28.66981,3.242186,1.701848
-28.719662,3.258905,1.7368922
-28.824022,3.2231603,1.6608663
-28.857027,3.2063649,1.6252384
-29.117634,3.1386352,1.4811182
-29.161568,3.1457746,1.4960332
-29.202982,3.1462538,1.4968987
-29.289959,3.1615493,1.5289068
-29.332384,3.167039,1.5403671
-29.377457,3.1828487,1.5736122
-29.425184,3.2107003,1.632278
-29.46202,3.1982436,1.6058846
-29.506176,3.215699,1.6426239
-29.544746,3.2102582,1.6310492
-29.579596,3.186147,1.5800753
-29.589851,3.0298212,1.2500587
-29.64052,3.0771084,1.3497825
-29.731417,3.1293986,1.4600091
-29.773718,3.1407716,1.4839544
-29.85752,3.1659925,1.5370898
-29.980865,3.212138,1.634387
-30.177456,3.2848725,1.7878594
-30.255806,3.2458272,1.7054644
-30.334755,3.2315924,1.6754613
-30.4617,3.147934,1.4989924
-30.541416,3.157009,1.5182514
-30.581718,3.15764,1.5196428
-30.621803,3.1596549,1.523963
-30.661844,3.1617725,1.5285058
-30.740084,3.174418,1.5553579
-30.933594,3.2049632,1.6203303
-30.974146,3.20363,1.6176357
-31.008259,3.2232006,1.6590605
-31.042395,3.241148,1.6970639
-31.082859,3.2392542,1.6932039
-31.171114,3.2167573,1.6460252
-31.218794,3.1978827,1.6063557
-31.258253,3.2011025,1.6133122
-31.34299,3.1939445,1.5985537
-31.383797,3.1945367,1.5999861
-31.454517,3.219131,1.6522532
-31.55514,3.2626755,1.7447228
-31.584892,3.2830389,1.7878909
-31.625118,3.2834394,1.7889562
-31.710754,3.2758348,1.773377
-31.758635,3.2641194,1.7489104
-31.799568,3.264572,1.750113
-31.847797,3.2535481,1.7271218
-31.930481,3.2546368,1.729949
-32.041893,3.214659,1.6462202
-32.095955,3.1986444,1.6127515
-32.163204,3.165195,1.5425396
-32.320244,3.1327162,1.4750452
-32.364883,3.1330616,1.4761133
-32.401176,3.1440787,1.499681
-32.431633,3.1620588,1.5379276
-32.485115,3.20543,1.6300454
-32.50827,3.2303834,1.6829939
-32.538555,3.2465262,1.7173786
-32.64821,3.2238522,1.6703811
-32.692192,3.225142,1.6734977
-32.80622,3.2011328,1.6237526
-32.850357,3.2032626,1.6286659
-32.891777,3.2082798,1.639667
-32.934746,3.2118347,1.6475954
-33.06569,3.2212644,1.668828
-33.119587,3.2151804,1.656497
-34.02577,2.5417168,0.24069118
-33.28173,3.241507,1.7138972
-33.19294,3.35898,1.9615912
-33.26188,3.3400645,1.9223013
-33.313572,3.336285,1.9148688
-33.35155,3.3440833,1.9317999
-33.407272,3.337576,1.9186502
-33.457115,3.3361707,1.9162431
-47.697937,2.4575932,0.31386948
-47.67237,2.517311,0.44135714
-47.697952,2.5666604,0.5477643
-47.682343,2.6237192,0.669806
-47.7127,2.6717691,0.77356863
-47.680466,2.731268,0.9005065
-47.725845,2.7762074,0.99796724
-47.741806,2.8263974,1.106051
-47.70395,2.8858578,1.2328324
-47.720978,2.935364,1.3395061
-47.76059,2.9808888,1.4381628
-47.795784,3.0271337,1.5382814
-47.87253,3.0665429,1.6246867
-47.95066,3.1059403,1.7111154
-48.13861,3.1282356,1.763339
-48.353935,3.1471534,1.8089547
-48.61856,3.1595976,1.8418112
-48.148987,3.2827787,2.095736
-48.174892,3.3306093,2.1991696
-48.21913,3.3757467,2.297258
-48.279907,3.4186063,2.3908477
-50.16388,3.2106333,1.9874768
-50.965588,3.1590214,1.8951926
-51.01677,3.2107887,2.0077777
-51.03741,3.2665727,2.1283092
-51.573505,3.2570925,2.1205134
-52.254265,3.2324982,2.0836134
-52.662834,3.2443728,2.1188254
-53.28087,3.2335577,2.1101527
-54.07827,3.2052472,2.06807
-54.95675,3.171976,2.0172496
-6.253996,2.5082035,0.22326612
-7.9394035,2.6240978,0.4563532
-8.141872,2.5907707,0.38231802
-8.865318,2.6397247,0.48067856
-8.952473,2.5913577,0.37535572
-9.830114,2.6713402,0.5391712
-9.855968,2.6156378,0.41864777
-9.865923,2.5571308,0.29223967
-10.994673,2.6896815,0.5670419
-11.362501,2.696312,0.5776682
-11.763651,2.7107658,0.6048565
-12.184914,2.730977,0.6442795
-12.6095295,2.7540736,0.68990374
-12.995209,2.772231,0.72526264
-13.294634,2.7761521,0.7307639
-13.667238,2.7957046,0.76927805
-14.097813,2.8286083,0.8360357
-14.537725,2.865768,0.91188955
-14.742543,2.8579972,0.8931246
-14.881158,2.8376763,0.84793854
-15.21589,2.8587375,0.89011335
-15.782631,2.9306443,1.0397134
-16.014153,2.9340346,1.0447888
-16.145226,2.916775,1.0063047
-16.190983,2.8812335,0.929224
-16.510044,2.9069707,0.9816675
-17.018547,2.9776106,1.129128
-17.1655,2.9678855,1.1067638
-17.285942,2.952644,1.0727634
-17.359158,2.9266996,1.0161438
-17.518879,2.921795,1.0040679
-17.5203,2.878999,0.9118109
-17.552769,2.8435998,0.8352113
-17.567696,2.8037066,0.7490945
-17.602207,2.768587,0.67309046
-17.631287,2.7319822,0.59394073
-17.64306,2.6907222,0.50492716
-17.638588,2.644898,0.40623283
-17.664589,2.6068926,0.32411194
-19.49184,2.9814978,1.1145425
-19.53582,2.9543996,1.055778
-19.386332,2.83108,0.7915096
-19.509777,2.826515,0.78058195
-19.483955,2.7779484,0.6762247
-19.46893,2.7320945,0.5776181
-19.405333,2.6708694,0.44634438
-19.33665,2.6071916,0.30984068
-19.316875,2.5579643,0.20402813
-24.979376,3.0207822,1.1553802
-25.105608,3.0557091,1.2295794
-25.243559,3.0987208,1.3210707
-25.341053,3.1192448,1.3645301
-25.44066,3.1418924,1.4125385
-25.51539,3.1503472,1.430232
-25.602184,3.1667593,1.4649386
-25.6754,3.1754515,1.4831557
-26.159592,3.1949348,1.52216
-26.20753,3.1901758,1.5116787
-26.324884,3.2350974,1.6074405
-26.395323,3.2476172,1.6339245
-26.43226,3.2361848,1.6091914
-26.396637,3.1304746,1.3825393
-26.415035,3.103462,1.324481
-26.440298,3.0812733,1.2767406
-26.37355,2.9418957,0.9780345
-26.418816,2.9333732,0.95952463
-26.434423,2.8058193,0.6858039
-26.445492,2.766299,0.6009731
-26.491486,2.756457,0.57964516
-27.11677,3.2625563,1.6623492
-27.17083,3.2682328,1.6742783
-27.239668,3.287931,1.716217
-27.646135,3.1820922,1.4875526
-27.685484,3.1745203,1.471168
-27.727026,3.1694307,1.4601007
-28.049704,3.1771886,1.4756098
-28.137566,3.1136267,1.3390756
-28.189894,3.1243474,1.3618975
-28.255285,3.155166,1.4277639
-28.563158,3.2346523,1.5972872
-28.60652,3.2372077,1.6026545
-28.643167,3.2279363,1.5826931
-28.712955,3.2802255,1.6945915
-28.776531,3.244496,1.6178713
-28.813383,3.2356324,1.5987945
-28.848078,3.2218802,1.5692477
-29.070309,3.1585624,1.4331346
-29.112438,3.1596012,1.4352889
-29.15851,3.172045,1.4618797
-29.202187,3.1787598,1.4762001
-29.247131,3.1902034,1.5006533
-29.289623,3.1950638,1.5110087
-29.333807,3.2063348,1.5350986
-29.374674,3.2072284,1.5369601
-29.413242,3.1998234,1.5210457
-29.461967,3.2320483,1.5900373
-29.501333,3.2290685,1.5836086
-29.538788,3.217347,1.558454
-29.555855,3.1062841,1.320468
-29.595139,3.0934293,1.2928896
-29.637794,3.0975392,1.3016591
-29.678577,3.0912132,1.2880745
-29.733694,3.1795397,1.477284
-29.81481,3.1797204,1.4776206
-29.897715,3.200604,1.5223255
-29.939135,3.2169151,1.5572586
-29.979887,3.2303765,1.5860882
-30.060236,3.258886,1.6471534
-30.099503,3.2587059,1.6467624
-30.177668,3.296289,1.7272849
-30.217371,3.256233,1.6414657
-30.25682,3.252651,1.6337972
-30.296492,3.2470565,1.6218185
-30.336557,3.238183,1.602818
-30.579273,3.2074378,1.5370674
-30.6182,3.2149203,1.5531273
-30.65996,3.2060544,1.5341654
-30.700987,3.2023592,1.5262823
-30.78111,3.2053971,1.5328689
-30.860817,3.2101078,1.5430512
-30.8994,3.217028,1.5579252
-30.941063,3.212707,1.5487185
-30.973766,3.2387059,1.6044717
-31.007338,3.2597394,1.6495881
-31.054062,3.2393732,1.6060162
-31.099525,3.2245882,1.5744033
-31.145151,3.210772,1.5448704
-31.188229,3.2050254,1.532628
-31.230696,3.2014852,1.5251131
-31.272629,3.1997275,1.5214229
-31.308348,3.213076,1.5500937
-31.348974,3.21444,1.5530934
-31.464092,3.2332642,1.5936699
-31.526354,3.2733006,1.6796093
-31.637756,3.2942457,1.724761
-31.681173,3.2898948,1.7155442
-31.727663,3.2807407,1.696044
-31.772993,3.2741864,1.6821146
-31.998615,3.2503464,1.63165
-32.10491,3.2211568,1.5694013
-32.165855,3.1971157,1.5180569
-32.210163,3.1966968,1.5173001
-32.2619,3.1867347,1.4961123
-32.307144,3.1857812,1.4942174
-32.35122,3.186561,1.4960394
-32.39535,3.1874647,1.4981289
-32.432957,3.1964839,1.5175958
-32.45765,3.220743,1.5696964
-32.479675,3.247413,1.6269584
-32.636528,3.222756,1.5746775
-32.683517,3.221312,1.571764
-32.726948,3.2239408,1.5775723
-32.759888,3.2376764,1.6071582
-32.80852,3.2350411,1.6017041
-32.844185,3.245828,1.6249833
-32.93277,3.2501683,1.634665
-32.9749,3.2546585,1.6444774
-33.019867,3.2565606,1.6487527
-33.070683,3.2531993,1.6417685
-33.1133,3.2576823,1.6515746
-33.15036,3.2672634,1.6722941
-33.177227,3.3274448,1.8015103
-33.20478,3.344387,1.8379831
-33.24629,3.3492577,1.8486295
-33.29638,3.3470721,1.8441849
-33.341602,3.349187,1.8489432
-33.39802,3.3424351,1.8347363
-33.44254,3.3455963,1.8417425
-47.674225,2.616422,0.3927002
-47.687912,2.6678905,0.5038934
-47.716366,2.7164176,0.60889196
-47.753273,2.7632954,0.7104211
-47.740543,2.818995,0.8305063
-47.725002,2.8748376,0.9508772
-47.798492,2.9149265,1.0381441
-47.719864,2.9810343,1.180058
-47.759323,3.0267072,1.2790518
-47.85697,3.0628214,1.3580031
-47.967327,3.097218,1.433384
-48.11207,3.1265864,1.4982615
-48.298943,3.1500244,1.5507693
-48.630997,3.1522112,1.5588694
-48.934322,3.1603785,1.5796003
-49.227646,3.1715293,1.6066809
-49.67788,3.1616015,1.5898476
-49.973118,3.1758368,1.6236258
-50.178123,3.2039688,1.6865058
-50.954803,3.1558237,1.5904946
-50.988518,3.2100987,1.7081065
-51.034843,3.262708,1.8222599
-51.595863,3.2501817,1.8010058
-52.142563,3.2423482,1.7897534
-52.74416,3.2306983,1.7708325
-53.382538,3.2178214,1.7496519
-54.08873,3.2004242,1.7194176
-54.886223,3.1764069,1.6758399
-9.735292,2.8984942,0.6971202
-9.827444,2.6740634,0.21004438
-13.324797,2.7822256,0.45981312
-13.587217,2.7803981,0.4569378
-14.002819,2.809854,0.52266836
-14.131886,2.784719,0.46858788
-14.863587,2.8816893,0.6823249
-14.948038,2.8503656,0.61460686
-15.237516,2.861963,0.64099836
-15.471705,2.863439,0.6451664
-15.651087,2.8543713,0.62619305
-16.195854,2.9257755,0.7835913
-16.279882,2.898562,0.72478867
-16.518122,2.9062157,0.7423873
-16.830994,2.9321501,0.800015
-17.096258,2.9488702,0.8374238
-17.442362,2.986031,0.91958
-17.513521,2.9598303,0.8629136
-17.55038,2.9255362,0.788517
-17.576569,2.8885758,0.7082801
-17.611095,2.853553,0.63228464
-17.632488,2.8151462,0.54887915
-17.637497,2.772382,0.455935
-17.644142,2.7297444,0.36326885
-17.649029,2.6863542,0.26895857
-19.440052,3.0396395,1.0439577
-19.529215,3.0248475,1.0121384
-19.344452,2.8930278,0.72481775
-19.41219,2.8717122,0.6787262
-19.392578,2.8250613,0.5772114
-19.527939,2.8237498,0.5748677
-19.32544,2.7218716,0.35257053
-19.324234,2.6791582,0.25968075
-25.023424,3.0572622,1.1012158
-25.131493,3.0815887,1.154469
-25.231665,3.102293,1.1998134
-25.346035,3.1322508,1.2653403
-25.4376,3.1496973,1.3035655
-25.50636,3.1541176,1.3133702
-25.587166,3.166369,1.3402543
-25.64962,3.1678505,1.3436408
-26.102945,3.4159906,1.8850751
-25.905024,3.255218,1.5345163
-25.867596,3.194253,1.4016781
-25.924025,3.1935024,1.4001832
-25.993586,3.2017653,1.4183464
-26.0517,3.2028353,1.4208183
-26.110146,3.2044551,1.4244852
-26.157051,3.198412,1.4114375
-26.253452,3.2272801,1.4745288
-26.308975,3.2281127,1.4764724
-26.362827,3.2280438,1.4764457
-26.469404,3.266922,1.5613546
-26.48769,3.2415144,1.5060649
-26.542841,3.243466,1.5104384
-26.610222,3.255117,1.5359612
-26.663889,3.2567246,1.5395799
-26.71457,3.256294,1.5387516
-26.893833,3.2790155,1.5886159
-27.137474,3.278113,1.5871401
-27.19337,3.2851946,1.6026745
-27.24235,3.286384,1.6053586
-28.267895,3.2118242,1.4445562
-28.679966,3.255106,1.53933
-28.734238,3.2786703,1.5907283
-28.766079,3.2599921,1.5500603
-28.808743,3.2622044,1.5549207
-29.898418,3.2329905,1.4918694
-30.179386,3.2797935,1.593883
-30.420937,3.2362359,1.4989371
-30.577803,3.2627351,1.556644
-30.61712,3.2663813,1.5645771
-30.657757,3.2626433,1.5564175
-31.160797,3.2102003,1.4418736
-31.31313,3.243593,1.514523
-31.441774,3.2346117,1.494843
-31.481728,3.2383916,1.5030427
-31.512974,3.2594142,1.548821
-31.753769,3.277411,1.5877857
-31.845673,3.2652838,1.5612583
-32.168995,3.2349236,1.4947042
-32.30854,3.2263937,1.475925
-32.350395,3.2300158,1.4837556
-32.39384,3.2317774,1.4875293
-32.550926,3.259187,1.5469985
-32.691837,3.2548583,1.5373392
-32.811825,3.2741444,1.5791445
-32.88887,3.2899456,1.6134276
-32.927395,3.2977993,1.630465
-33.133224,3.2825263,1.5968089
-33.13855,3.3204124,1.6793189
-33.152374,3.3499508,1.7436295
-33.203056,3.3472185,1.7375774
-33.250835,3.3472648,1.7375813
-33.30545,3.341869,1.7257175
-33.3549,3.341113,1.7239671
-33.401733,3.3427334,1.7273989
-33.444458,3.3478174,1.7383809
-47.695152,2.728815,0.3407488
-47.71158,2.7796135,0.45104456
-47.73085,2.8297184,0.5598173
-47.741028,2.8812535,0.6717334
-47.853775,2.914906,0.7443638
-47.91528,2.9576397,0.8369341
-47.84443,3.0224845,0.9780979
-48.033745,3.0441608,1.0243759
-48.422653,3.0347,1.0021625
-48.51248,3.0743573,1.0879164
-48.606514,3.1136413,1.1728387
-48.79775,3.1384976,1.2260036
-49.05106,3.1549964,1.2607441
-49.821434,3.097354,1.1322217
-50.091393,3.1154144,1.1702747
-50.167404,3.16194,1.2709851
-51.503204,3.0358686,0.9913883
-51.65661,3.075981,1.0778265
-51.02066,3.2205124,1.3944592
-51.11068,3.2678106,1.4967713
-51.71855,3.250218,1.4559054
-52.631516,3.1982675,1.3390913
-53.39514,3.1691518,1.272512
-54.868324,3.060697,1.0305376
-14.095371,2.8292089,0.3045497
-14.181187,2.7954898,0.23224545
-14.718862,2.853146,0.3677392
-14.912754,2.843499,0.349967
-15.220922,2.8585773,0.38827562
-15.466894,2.8621995,0.40042305
-15.531174,2.828127,0.32691193
-16.264595,2.9399629,0.5843253
-16.334541,2.909576,0.5189581
-16.616348,2.9269152,0.56170845
-16.762932,2.915018,0.53811884
-16.804302,2.879471,0.46093178
-17.52774,3.0039191,0.7457466
-17.576366,2.9723606,0.67739916
-17.618574,2.9392774,0.6055918
-17.603958,2.8922548,0.50227785
-17.64226,2.8579562,0.42772102
-17.641188,2.8136797,0.33062935
-19.373865,2.9764526,0.7157521
-19.355122,2.9307904,0.6152544
-19.401184,2.9031088,0.5552354
-19.357174,2.8494248,0.4367118
-19.33546,2.8015697,0.33132362
-19.313148,2.7530036,0.22435713
-25.02267,3.0697632,1.000915
-25.151718,3.1056204,1.0814767
-25.241386,3.119939,1.1140738
-25.33901,3.1396492,1.1586499
-25.452868,3.169879,1.2266092
-25.51447,3.1697292,1.2269549
-25.590374,3.1786413,1.2474465
-26.101904,3.4579554,1.8693604
-25.975983,3.3449426,1.6185989
-25.861416,3.2363617,1.3777323
-25.87764,3.2094717,1.3185492
-25.931166,3.206538,1.3126283
-25.995132,3.2107496,1.3225846
-26.083813,3.2319937,1.3703895
-26.137657,3.2303853,1.3673806
-26.17914,3.2204797,1.3459225
-26.275316,3.2489305,1.4096994
-26.312004,3.2361813,1.3819041
-26.367714,3.2370734,1.3844118
-26.467758,3.270722,1.4596872
-26.503752,3.2580776,1.4321003
-26.547634,3.2512827,1.4175019
-26.594418,3.2467797,1.4079876
-26.395699,3.0518885,0.9756155
-26.420357,3.0273678,0.9216647
-26.821615,3.2627382,1.445291
-26.883453,3.2718813,1.4660358
-26.955896,3.2904565,1.5077085
-27.002874,3.288217,1.5031605
-27.049793,3.2861168,1.4989128
-27.064875,3.2562492,1.4330244
-27.156826,3.2942703,1.517818
-27.199665,3.289249,1.5070653
-27.262882,3.3031092,1.538209
-27.29788,3.291225,1.5122118
-27.344198,3.2899842,1.5098286
-27.388493,3.2869866,1.50354
-27.436224,3.2875285,1.5050974
-27.481182,3.28555,1.5010581
-27.527584,3.285225,1.5006781
-27.571688,3.2827418,1.4955058
-27.623718,3.288812,1.5092993
-27.666214,3.28506,1.5012989
-27.711874,3.284888,1.5012336
-27.75813,3.28562,1.5031652
-27.804607,3.2868736,1.5062466
-27.850288,3.2874877,1.507904
-27.895205,3.2874565,1.5081239
-27.945494,3.294171,1.5232964
-27.991077,3.2955794,1.5266948
-28.037462,3.2982924,1.5329795
-28.082163,3.2991822,1.5352159
-28.123178,3.2954893,1.5272856
-28.16656,3.295051,1.5265646
-28.210161,3.2951272,1.526979
