x,y,z
-30.665333,3.257486,4.036335
-41.392525,0.63116455,3.2678442
-41.41126,0.6685951,3.3371673
-41.42945,0.70602703,3.4064937
-41.46958,0.73305964,3.4679222
-41.51626,0.7570245,3.527207
-41.628708,0.75108075,3.5644684
-41.750793,0.7412987,3.5996065
-41.907986,0.7164154,3.6245394
-42.05668,0.6961386,3.6538272
-17.177227,0.79320264,4.14097
-17.359753,0.8205178,4.108057
-17.622952,0.881562,4.098621
-18.013733,0.9964385,4.1270056
-18.211647,1.0340867,4.1060143
-18.496593,1.109143,4.112062
-18.769947,1.1810887,4.1179852
-18.994488,1.2340128,4.1124606
-19.199795,1.2800517,4.1035924
-19.396595,1.3236339,4.0943627
-19.599897,1.3712156,4.0893927
-19.804352,1.4205344,4.0870843
-20.016052,1.4743166,4.0894885
-20.237518,1.5337913,4.0976143
-20.442547,1.5872593,4.102647
-20.631258,1.6345959,4.104316
-20.80119,1.6744878,4.101431
-20.899942,1.6824386,4.0745325
-21.075024,1.7265482,4.07693
-21.276882,1.7843959,4.091459
-21.456612,1.8330579,4.0998645
-21.542145,1.8376844,4.0734816
-21.701324,1.8783622,4.0772657
-21.88356,1.9313282,4.092244
-21.967451,1.9370673,4.068826
-22.13508,1.984832,4.0813546
-22.342937,2.053906,4.113052
-22.433283,2.0650334,4.0963507
-22.54916,2.0896673,4.091832
-22.725779,2.146292,4.115846
-22.798714,2.1503272,4.0948024
-22.937958,2.1894517,4.1051497
-23.022732,2.2007337,4.091543
-23.160984,2.2410004,4.1043663
-23.222502,2.2409425,4.08162
-23.373516,2.2897277,4.1035333
-23.429016,2.2873058,4.079525
-23.583693,2.3399005,4.106388
-23.626072,2.3310547,4.0772777
-23.751814,2.3691897,4.0921
-23.822485,2.3769803,4.0792
-23.895374,2.386412,4.0682
-24.008774,2.4196572,4.080145
-24.073353,2.4252548,4.066351
-24.171152,2.4507265,4.0719233
-24.244614,2.4624267,4.0647397
-24.314795,2.4725919,4.0564356
-24.410774,2.498756,4.06406
-24.46677,2.5012116,4.0489717
-24.568104,2.5318418,4.0618663
-24.660639,2.5577729,4.070642
-24.72876,2.5690732,4.0653505
-24.824993,2.5985792,4.0785666
-24.894028,2.6114554,4.075588
-24.951767,2.6174827,4.0660353
-25.0556,2.6538153,4.0874324
-25.10481,2.6551385,4.073751
-25.16341,2.6629004,4.066856
-25.242064,2.6844192,4.07434
-25.306698,2.6970577,4.073054
-25.359674,2.702169,4.064274
-25.414667,2.7089496,4.0574584
-25.504799,2.7404616,4.0766788
-25.540363,2.734466,4.0570593
-25.592737,2.740439,4.0501475
-25.65746,2.755536,4.053088
-25.73223,2.7783587,4.064503
-25.765507,2.7715344,4.044742
-25.8152,2.7768388,4.038035
-25.887089,2.798921,4.0495
-25.93976,2.8071742,4.04643
-25.978912,2.805503,4.032875
-26.03862,2.8197107,4.0366454
-26.105303,2.8397617,4.0470176
-26.150017,2.8432097,4.039597
-26.201143,2.8519483,4.0381303
-26.244343,2.854704,4.0303106
-26.30926,2.875168,4.0421295
-26.360424,2.8850172,4.0425196
-26.403807,2.8888242,4.03643
-26.449602,2.89487,4.032985
-26.499624,2.9047415,4.0339756
-26.55748,2.921619,4.042983
-26.592308,2.9192595,4.030696
-26.636892,2.9254527,4.0281234
-26.68436,2.9344516,4.0288754
-26.738235,2.9494624,4.0365953
-26.785273,2.9588265,4.038139
-26.820312,2.9576867,4.027944
-26.867052,2.9673643,4.030169
-26.924044,2.9868758,4.0437837
-26.967989,2.9947686,4.044345
-26.999205,2.9909434,4.031637
-27.038387,2.9947877,4.027834
-27.085892,3.0069041,4.0336914
-27.141499,3.027357,4.049348
-27.181818,3.0332983,4.048436
-27.209978,3.0273454,4.033875
-27.24851,3.0318875,4.031585
-27.288008,3.0376587,4.0308566
-27.332691,3.0490751,4.036851
-27.372398,3.0556803,4.0373797
-27.407787,3.0579913,4.0330105
-27.443626,3.0609703,4.02954
-27.480917,3.0657353,4.0282845
-27.520123,3.0728543,4.029927
-27.56669,3.0884924,4.041764
-27.600046,3.089732,4.036728
-27.629427,3.0865831,4.0265894
-27.660782,3.0857682,4.019306
-27.7003,3.094636,4.023637
-27.73773,3.1013775,4.025564
-27.780182,3.1144748,4.035203
-27.811207,3.114096,4.0288644
-27.844055,3.116085,4.0254526
-27.885479,3.1290066,4.035263
-27.914059,3.1260774,4.0261526
-27.950663,3.1335316,4.029624
-27.985788,3.139384,4.03128
-28.02295,3.1482232,4.0366516
-28.047941,3.1410632,4.0227833
-28.081919,3.1460795,4.0237274
-28.111607,3.145422,4.0178885
-28.142523,3.1465864,4.014345
-28.193306,3.1762662,4.0455923
-28.22146,3.174177,4.038304
-28.248053,3.1698365,4.0283413
-28.274315,3.1649828,4.0178175
-28.301802,3.1619484,4.0095835
-28.338041,3.1724458,4.017999
-28.37145,3.178959,4.021638
-28.409868,3.1937943,4.035597
-28.439287,3.1946478,4.032482
-28.467602,3.193818,4.0273743
-28.496965,3.194837,4.0246167
-28.522833,3.190032,4.0147505
-28.562723,3.2095475,4.034995
-28.586832,3.2019472,4.0218267
-28.624886,3.2193232,4.0396385
-28.649334,3.2124667,4.0275307
-28.677073,3.2116184,4.0229335
-28.705433,3.2120376,4.0199795
-28.733158,3.2113416,4.0157127
-28.761179,3.2113183,4.012352
-28.79184,3.216755,4.0158634
-28.826721,3.231264,4.030771
-28.855923,3.2344925,4.031702
-28.881989,3.2312007,4.0245647
-28.906197,3.2237682,4.012312
-28.93746,3.2320385,4.01976
-28.965162,3.2325704,4.017603
-28.992584,3.2325745,4.0148535
-29.02722,3.2501602,4.0342236
-29.05469,3.2509341,4.032592
-29.082844,3.2535977,4.0334005
-29.103977,3.238172,4.011541
-29.132627,3.2421849,4.014173
-29.160969,3.2456715,4.016216
-29.188587,3.2474146,4.0161324
-29.212824,3.2395067,4.003953
-29.247541,3.2626834,4.031031
-29.274319,3.2628326,4.029149
-29.300318,3.260616,4.0243425
-29.324867,3.2535872,4.0135164
-29.349901,3.247838,4.004361
-29.376076,3.2458153,3.9999762
-29.403452,3.2481391,4.001152
-29.429806,3.2468657,3.9978397
-29.461628,3.2670822,4.0218105
-29.488253,3.2677965,4.0211525
-29.513416,3.2624526,4.0128765
-29.54033,3.2645292,4.0140686
-29.567595,3.268518,4.017751
-29.593765,3.2676685,4.0153575
-29.619701,3.2656584,4.011551
-29.644756,3.2587986,4.001643
-29.672215,3.2649112,4.008276
-29.698214,3.263102,4.0049047
-29.7255,3.269358,4.0118484
-29.750029,3.257836,3.9962468
-29.773756,3.238985,3.9713738
-29.797607,3.2183409,3.9442685
-29.824404,3.219318,3.944732
-29.852112,3.2289934,3.9563305
-29.88024,3.2449076,3.9759388
-29.909485,3.2769313,4.016131
-29.935802,3.2800474,4.019577
-29.961325,3.2727442,4.0098114
-29.986984,3.2655056,4.000186
-30.01325,3.267589,4.0024953
-30.039371,3.267271,4.0018063
-30.065422,3.2645512,3.9981165
-30.091667,3.2686887,4.0032244
-30.117773,3.2679548,4.0021853
-30.143911,3.2759304,4.0123057
-30.169968,3.2740965,4.009985
-30.196146,3.2673912,4.001515
-30.222103,3.2737157,4.009711
-30.248323,3.2696142,4.0046797
-30.274366,3.2711349,4.006873
-30.300346,3.273339,4.009997
-30.326406,3.273759,4.010907
-30.352877,3.2686942,4.0048914
-30.379028,3.2686324,4.005309
-30.404833,3.2723374,4.0105834
-30.431856,3.263779,4.000304
-30.458344,3.261456,3.9980254
-30.484573,3.261666,3.9990327
-30.51031,3.2656384,4.004887
-30.535973,3.269676,4.0108833
-30.563255,3.2627015,4.002933
-30.588877,3.2668724,4.0092177
-30.615482,3.2649596,4.0078287
-30.641905,3.2643456,4.0081525
-30.665165,3.280387,4.0296917
-41.67606,0.21690631,2.5714602
-41.742973,0.23411584,2.6253262
-41.36857,0.65748906,3.1708622
-41.359516,0.70809627,3.250795
-41.3678,0.75015616,3.323781
-41.38929,0.78579617,3.391676
-41.431908,0.81155944,3.4519491
-41.465454,0.84138465,3.5155115
-41.556934,0.8450744,3.5593739
-41.656193,0.8456435,3.6014338
-41.791336,0.8307755,3.6326447
-41.9618,0.8011322,3.6538887
-42.15994,0.76042676,3.668251
-42.37271,0.71457267,3.6802788
-42.577164,0.67350197,3.6971593
-17.284641,0.91521525,4.132989
-17.505936,0.9573457,4.1113715
-17.900595,1.070046,4.1389422
-18.018076,1.0734067,4.0945883
-18.333595,1.1579108,4.1072874
-18.622156,1.2333093,4.115843
-18.837585,1.2801881,4.106134
-19.12088,1.3567135,4.119285
-19.377497,1.4237697,4.1275043
-19.524536,1.4457879,4.1042385
-19.741817,1.498764,4.1050606
-19.929409,1.5402122,4.09864
-20.110332,1.5798652,4.0920916
-20.31781,1.6323128,4.0966086
-20.502815,1.6760612,4.0957127
-20.651628,1.7047024,4.084117
-20.842468,1.7532384,4.0892973
-21.031773,1.8022833,4.0961204
-21.15332,1.8213043,4.079803
-21.3166,1.8604056,4.080666
-21.495558,1.9078851,4.089473
-21.638079,1.9392812,4.086002
-21.745361,1.9547217,4.0699916
-21.929356,2.0077085,4.086436
-22.067923,2.039859,4.086214
-22.14893,2.0446515,4.0632544
-22.34194,2.1052413,4.08919
-22.516544,2.1580112,4.109469
-22.630573,2.1814988,4.104987
-22.76492,2.2160048,4.110948
-22.823761,2.2126908,4.08386
-22.979483,2.2596962,4.1023993
-23.070713,2.2741537,4.0923247
-23.191021,2.30444,4.0972056
-23.288956,2.3236403,4.0925736
-23.410805,2.3562565,4.1008925
-23.495941,2.3698542,4.0921817
-23.607277,2.3982382,4.0977798
-23.66074,2.39551,4.0746512
-23.792032,2.436212,4.09297
-23.855474,2.4398494,4.0766497
-23.958973,2.4664445,4.082672
-24.025991,2.472929,4.0698357
-24.096785,2.481932,4.0597706
-24.221748,2.5228102,4.081161
-24.25718,2.5121427,4.0526533
-24.335823,2.5270748,4.049526
-24.449404,2.5633674,4.0679665
-24.49459,2.5593123,4.046803
-24.621664,2.6052108,4.075851
-24.658983,2.5970578,4.0511804
-24.769184,2.6341228,4.0723724
-24.869045,2.665614,4.088472
-24.929005,2.6727023,4.0801735
-25.007286,2.6917958,4.084454
-25.088898,2.7135835,4.0918865
-25.140156,2.7162683,4.0799565
-25.205877,2.7286725,4.0783424
-25.271364,2.7413445,4.0773077
-25.307137,2.7346025,4.056234
-25.385168,2.7564042,4.065312
-25.449297,2.7693465,4.065401
-25.511059,2.7810917,4.064508
-25.553623,2.7799263,4.0501466
-25.60945,2.788203,4.046038
-25.688705,2.813388,4.060299
-25.73093,2.8127975,4.0471845
-25.793024,2.826693,4.0498796
-25.847353,2.83538,4.0471964
-25.919785,2.8577209,4.0595946
-25.952774,2.8513818,4.04101
-26.007236,2.8611887,4.040217
-26.054192,2.8656714,4.033799
-26.119513,2.8844604,4.0433373
-26.15695,2.8822422,4.0299206
-26.215225,2.8964086,4.034816
-26.263527,2.9031572,4.0316973
-26.334146,2.927988,4.0489554
-26.36605,2.9223218,4.032367
-26.409418,2.926017,4.0263934
-26.454576,2.931415,4.022497
-26.536411,2.9675395,4.053484
-26.571135,2.965043,4.041078
-26.608946,2.9652622,4.0318704
-26.652822,2.9708343,4.0288906
-26.711096,2.9891477,4.040625
-26.759401,2.999277,4.0432224
-26.788431,2.9927077,4.0268264
-26.840601,3.0068483,4.034356
-26.880173,3.0100486,4.02946
-26.938269,3.0304065,4.044552
-26.983856,3.039791,4.0471478
-27.009228,3.030619,4.0283365
-27.048912,3.034919,4.0252876
-27.099735,3.0501118,4.035097
-27.153595,3.0687318,4.049112
-27.192173,3.0729618,4.0464478
-27.21696,3.063768,4.0281286
-27.251654,3.0644178,4.021468
-27.294907,3.0738964,4.025343
-27.343815,3.0895371,4.036663
-27.388718,3.1015275,4.0438337
-27.418741,3.098308,4.0330887
-27.453455,3.1001291,4.0284286
-27.490158,3.1042664,4.026641
-27.529293,3.1112895,4.0284195
-27.575802,3.126759,4.0404444
-27.610073,3.129067,4.0368404
-27.636896,3.1231303,4.023431
-27.669157,3.1234026,4.0175667
-27.707165,3.130485,4.0200124
-27.745014,3.1376946,4.0227337
-27.795424,3.1601987,4.044092
-27.825823,3.1592479,4.03719
-27.852072,3.1533093,4.024314
-27.8866,3.1576138,4.023964
-27.915625,3.15523,4.0155687
-27.951786,3.1620107,4.018435
-28.001413,3.1865413,4.043112
-28.030159,3.1844726,4.0353994
-28.05892,3.1824846,4.027862
-28.084732,3.1765728,4.015582
-28.128183,3.1948001,4.0330477
-28.14817,3.181024,4.0112467
-28.195667,3.20583,4.037059
-28.227411,3.20891,4.0362062
-28.255114,3.2063122,4.0284224
-28.285969,3.2084174,4.026531
-28.308676,3.1984465,4.009753
-28.348635,3.2146416,4.0255017
-28.38041,3.2187657,4.026376
-28.413925,3.2258978,4.0310802
-28.44983,3.2372174,4.041099
-28.474056,3.229961,4.028055
-28.502625,3.2297826,4.023904
-28.52806,3.224411,4.0133324
-28.555965,3.2232108,4.008041
-28.596611,3.2444205,4.030896
-28.628263,3.2504673,4.0348625
-28.659458,3.256021,4.0382967
-28.683525,3.248682,4.025613
-28.71053,3.2467208,4.019746
-28.738783,3.2471979,4.0170155
-28.768816,3.2513084,4.018935
-28.796686,3.2513535,4.0158043
-28.832655,3.2681103,4.033847
-28.86118,3.270112,4.033346
-28.886032,3.264451,4.023224
-28.909885,3.2564657,4.010213
-28.940819,3.264058,4.0169935
-28.97107,3.2705476,4.022456
-29.000668,3.275928,4.026592
-29.02965,3.2801964,4.0293903
-29.057802,3.282747,4.03008
-29.086132,3.2859764,4.0317016
-29.10788,3.27246,4.0120792
-29.135084,3.2728226,4.0101757
-29.16227,3.2732582,4.0084305
-29.190079,3.2755744,4.009148
-29.218458,3.2797751,4.0123396
-29.248978,3.2906957,4.0241823
-29.275526,3.2902257,4.02155
-29.302456,3.2910352,4.0206156
-29.32713,3.2846546,4.0105457
-29.352997,3.2819676,4.0052586
-29.379948,3.2829835,4.004772
-29.407036,3.284677,4.0052166
-29.432787,3.2815874,3.999593
-29.463898,3.2992132,4.0205956
-29.490149,3.298699,4.018404
-29.517988,3.3049421,4.0249476
-29.54376,3.302743,4.020717
-29.570095,3.3030446,4.0197573
-29.595152,3.2973237,4.0111194
-29.620916,3.2947118,4.0065327
-29.647757,3.2976544,4.0091467
-29.672901,3.2915163,4.000142
-29.699186,3.2915444,3.9991271
-29.72653,3.2983577,4.0069065
-29.7541,3.3076873,4.0179896
-29.777828,3.2908154,3.995394
-29.801561,3.271554,3.9697695
-29.82786,3.2706923,3.9679017
-29.854708,3.2747912,3.972486
-29.882448,3.28875,3.9898403
-29.91135,3.318695,4.02787
-29.936167,3.3052607,4.0100384
-29.962194,3.3053567,4.0097094
-29.987919,3.3006206,4.0032067
-30.01392,3.2996259,4.001587
-30.04042,3.310334,4.015122
-30.066324,3.3088608,4.0130033
-30.092093,3.3001032,4.001546
-30.118261,3.310402,4.0147314
-30.144203,3.3109665,4.0154166
-30.170113,3.3146603,4.020199
-30.196316,3.29698,3.997464
-30.22209,3.3081589,4.0120196
-30.24812,3.3065398,4.0101223
-30.273724,3.314787,4.0210114
-30.299822,3.311464,4.017034
-30.326069,3.3069844,4.0116243
-30.352356,3.303185,4.0071516
-30.378721,3.2994537,4.0028276
-30.404518,3.3025227,4.007331
-30.431417,3.2946463,3.9977834
-30.45798,3.291122,3.993907
-30.48385,3.2937808,3.9980588
-30.510578,3.289783,3.9936938
-30.540384,3.2650828,3.9627326
-30.568794,3.252684,3.947684
-30.59605,3.2489104,3.9438055
-30.620945,3.2592442,3.9581418
-30.646652,3.2641478,3.965546
-30.664965,3.306913,4.02169
-41.595123,0.28211904,2.4881344
-41.649704,0.30539465,2.5466695
-41.69133,0.33500028,2.6108594
-41.318077,0.66001225,3.001933
-41.314472,0.7084527,3.0806022
-41.323853,0.750381,3.153758
-41.33692,0.7902725,3.2251887
-41.340794,0.83408785,3.2997465
-41.37255,0.8648579,3.3637724
-41.395187,0.8996062,3.4310427
-41.451237,0.9192238,3.4864883
-41.50263,0.9409709,3.5438595
-41.618435,0.93446827,3.5797873
-41.72553,0.93229175,3.6197157
-41.8819,0.90932035,3.6446805
-42.0156,0.8968756,3.6784835
-42.227318,0.8520272,3.6893663
-42.428932,0.8126538,3.7056646
-42.704006,0.74385023,3.7022638
-42.87996,0.717613,3.730906
-43.013245,0.70975614,3.7735806
-43.219246,0.67304516,3.7972655
-43.398663,0.6481459,3.8304229
-44.75924,0.4600823,4.090766
-16.167553,0.65846133,3.9776793
-17.24382,1.0222774,4.16482
-17.339401,1.0140369,4.109741
-17.663898,1.0954745,4.1165013
-18.003643,1.1848903,4.1311255
-18.178556,1.2109113,4.103686
-18.457262,1.279485,4.1077123
-18.756588,1.3581004,4.1209316
-18.969234,1.4031937,4.111784
-19.193775,1.4544339,4.1086254
-19.39902,1.4990005,4.1020045
-19.58599,1.5371189,4.091885
-19.798058,1.586951,4.0919642
-20.027945,1.6456859,4.1003385
-20.229843,1.6938047,4.101943
-20.41184,1.7345176,4.0990214
-20.636013,1.7948322,4.1129174
-20.781977,1.8219781,4.101544
-20.8721,1.8250308,4.071475
-21.09436,1.88802,4.0911713
-21.268358,1.9305462,4.095325
-21.413425,1.9609003,4.090384
-21.51614,1.9725282,4.0705214
-21.705635,2.0252085,4.0862083
-21.869719,2.0671802,4.093878
-21.94344,2.067265,4.066285
-22.138634,2.1259136,4.090195
-22.321173,2.179795,4.111108
-22.422493,2.1952863,4.0990987
-22.555279,2.2268445,4.102009
-22.675938,2.2532268,4.101033
-22.758087,2.2610512,4.0839324
-22.946527,2.3230746,4.1167316
-23.003334,2.3192825,4.090167
-23.149406,2.3616726,4.106604
-23.205124,2.3581262,4.0810943
-23.33477,2.3935463,4.092378
-23.425835,2.409447,4.0859733
-23.552868,2.445094,4.0987964
-23.610357,2.4441626,4.0773864
-23.710957,2.4668982,4.078986
-23.828663,2.4996748,4.090827
-23.896748,2.5058143,4.0774097
-23.996233,2.5298421,4.0818133
-24.04275,2.524678,4.0580373
-24.147108,2.5525575,4.067123
-24.241663,2.5755472,4.0718946
-24.316477,2.5877433,4.066367
-24.401844,2.6065564,4.0678496
-24.456993,2.6081004,4.0523295
-24.538778,2.6257534,4.053393
-24.672604,2.6752295,4.08729
-24.721771,2.6744733,4.070451
-24.800974,2.6923006,4.0729403
-24.87387,2.7067685,4.0723386
-24.962854,2.731746,4.0829935
-25.037338,2.74826,4.0852566
-25.091648,2.75246,4.0749702
-25.153908,2.7620344,4.070572
-25.22471,2.7775164,4.072693
-25.297392,2.7947114,4.076956
-25.335197,2.7894027,4.057585
-25.39597,2.7994833,4.0548077
-25.478598,2.8246496,4.068493
-25.514067,2.8184476,4.0487556
-25.579153,2.832622,4.0511866
-25.631378,2.8383436,4.0447245
-25.71336,2.8651655,4.0614743
-25.749939,2.8606281,4.044299
-25.801674,2.8669817,4.0392065
-25.866909,2.8833585,4.0453644
-25.927082,2.8965492,4.0482826
-25.964085,2.8931541,4.03306
-26.01852,2.9027917,4.032468
-26.086718,2.9231033,4.044012
-26.136028,2.929696,4.0404863
-26.169443,2.9244318,4.0238323
-26.223122,2.9348755,4.0249867
-26.292767,2.9581513,4.040862
-26.354252,2.9756346,4.0504675
-26.386032,2.9699814,4.0340166
-26.436893,2.979722,4.03522
-26.484404,2.9870973,4.0339155
-26.546116,3.0064516,4.046529
-26.573349,2.997739,4.0271144
-26.631474,3.0149186,4.037633
-26.667274,3.0136802,4.027087
-26.739426,3.0437303,4.052932
-26.76891,3.0376048,4.03703
-26.80265,3.0352216,4.0255737
-26.84824,3.0434265,4.0265923
-26.900108,3.0575795,4.0347424
-26.945864,3.066659,4.037132
-26.990847,3.075376,4.0392613
-27.026476,3.0757737,4.031738
-27.067179,3.081071,4.0301204
-27.117323,3.0955715,4.0395465
-27.163265,3.106519,4.0449395
-27.19349,3.1026287,4.0328364
-27.225948,3.1009762,4.023487
-27.263842,3.1048093,4.020793
-27.308092,3.1152508,4.0261354
-27.357983,3.1318076,4.038974
-27.394865,3.1355243,4.036549
-27.427986,3.1355526,4.0297976
-27.465223,3.1400483,4.0285378
-27.500296,3.14248,4.0249004
-27.537834,3.1477644,4.024829
-27.586308,3.1652637,4.0397086
-27.615517,3.162014,4.029518
-27.642298,3.1560862,4.016142
-27.679882,3.1624022,4.0177813
-27.717802,3.1693974,4.0203695
-27.760334,3.1820776,4.0300436
-27.798355,3.1898959,4.0338917
-27.838535,3.2006328,4.0414476
-27.859581,3.1885726,4.0210648
-27.885843,3.1827202,4.008376
-27.931562,3.2010908,4.0256696
-27.971567,3.2128735,4.0349684
-28.003845,3.2152054,4.032687
-28.034317,3.2153752,4.0278144
-28.059612,3.2088394,4.0146923
-28.093481,3.2137136,4.015827
-28.126816,3.2181263,4.0164843
-28.164997,3.2294765,4.025894
-28.201311,3.238673,4.032732
-28.2326,3.2411304,4.031245
-28.259457,3.2373815,4.022069
-28.288708,3.237146,4.0173655
-28.32257,3.243889,4.0215044
-28.357424,3.2524662,4.0280457
-28.388718,3.2559652,4.0282955
-28.423615,3.265334,4.03603
-28.45213,3.2649803,4.0315943
-28.478127,3.2606506,4.0222063
-28.505947,3.2592893,4.016634
-28.539669,3.2678852,4.0237412
-28.569794,3.2707655,4.023697
-28.598837,3.271985,4.0216246
-28.633448,3.2832127,4.032341
-28.66166,3.2834413,4.029167
-28.687298,3.2790644,4.0202017
-28.71363,3.2759252,4.0128717
-28.742771,3.2781386,4.0124297
-28.770947,3.2786713,4.0099154
-28.796724,3.2745721,4.0015526
-28.83795,3.3017778,4.033286
-28.864119,3.2990296,4.0268025
-28.88921,3.2939858,4.0174394
-28.916567,3.2937374,4.0142794
-28.945786,3.297709,4.016601
-28.974125,3.2999842,4.016817
-29.00266,3.3029323,4.017968
-29.030624,3.3047712,4.0177627
-29.063177,3.3179913,4.0322747
-29.088545,3.31404,4.0247564
-29.111183,3.302999,4.008156
-29.138561,3.3039436,4.007059
-29.166569,3.3067536,4.0084343
-29.194078,3.308445,4.0084324
-29.22259,3.313203,4.0124593
-29.250383,3.3162436,4.0143347
-29.280478,3.3265533,4.0256824
-29.304224,3.3177528,4.0123663
-29.330547,3.3168132,4.009281
-29.356876,3.3159428,4.0063457
-29.384605,3.3199515,4.0097966
-29.412918,3.3264437,4.016535
-29.438984,3.325185,4.013281
-29.468819,3.3384573,4.0289555
-29.49432,3.3355339,4.023665
-29.520304,3.3344855,4.0208683
-29.546576,3.3347118,4.019786
-29.573233,3.3368192,4.0212107
-29.599842,3.3389974,4.022788
-29.626278,3.3406405,4.0237303
-29.65302,3.3441684,4.0271864
-29.67838,3.3405032,4.021336
-29.703598,3.3356903,4.0140452
-29.72968,3.3357882,4.01321
-29.757666,3.3486829,4.0291133
-29.78403,3.351952,4.0325327
-29.81001,3.3528643,4.032939
-29.83626,3.356271,4.0366564
-29.86143,3.3506422,4.0286446
-29.887257,3.3505409,4.027901
-29.913301,3.3529353,4.030472
-29.938261,3.3426416,4.0165386
-29.964287,3.3445606,4.0186033
-29.990496,3.3501928,4.0255737
-30.016308,3.3504238,4.0255504
-30.04176,3.3422122,4.0145597
-30.067505,3.3383203,4.0092664
-30.093246,3.3308468,3.9993515
-30.119398,3.345324,4.0181627
-30.145222,3.3416314,4.0133004
-30.171091,3.3416524,4.0133457
-30.19697,3.3411317,4.012741
-30.222876,3.3400702,4.011487
-30.248848,3.3378594,4.00879
-30.274776,3.337539,4.00862
-30.300714,3.337285,4.0085936
-30.32674,3.3358831,4.007126
-30.352934,3.3327258,4.0034246
-30.379086,3.330851,4.001457
-30.405045,3.3314734,4.0028057
-30.431444,3.3279128,3.9987547
-30.45693,3.3329177,4.005937
-30.48339,3.329493,4.002181
-30.508442,3.3370543,4.01281
-30.53167,3.356196,4.0385895
-30.55952,3.3432717,4.0226216
-30.585827,3.3413281,4.0210285
-30.6126,3.337032,4.0164304
-30.638903,3.3358333,4.015928
-30.663345,3.3443818,4.0281734
-41.642937,0.284585,2.3510108
-41.65143,0.33098054,2.4301162
-41.660908,0.3764937,2.5083556
-41.737095,0.38949966,2.558044
-41.27977,0.65734076,2.8295465
-41.277363,0.7056534,2.908615
-41.27765,0.7522557,2.9860716
-41.307144,0.7848692,3.0515428
-41.29075,0.83845305,3.1347036
-41.327736,0.86713076,3.1968818
-41.32721,0.91268325,3.2731094
-41.353718,0.9457216,3.3389778
-41.376266,0.9803457,3.4061885
-41.400055,1.0142269,3.472834
-41.44606,1.0382249,3.53168
-41.52325,1.0487239,3.5801244
-41.637177,1.0437047,3.6169353
-41.756435,1.0369372,3.6531
-41.89785,1.021388,3.683329
-42.064262,0.9961202,3.707158
-42.289642,0.9473512,3.7146277
-42.530785,0.8934436,3.719863
-42.773487,0.840327,3.7273378
-42.912884,0.8302305,3.7672915
-43.099983,0.8017614,3.7951884
-43.281982,0.7763059,3.8264732
-44.642414,0.4929645,3.9013414
-44.717087,0.5148504,3.9723783
-44.77124,0.5445106,4.048741
-44.981937,0.5166464,4.090004
-17.21426,1.0949767,4.120749
-17.457024,1.1421974,4.1044273
-17.701038,1.1912796,4.0911226
-17.98872,1.2586763,4.0925636
-18.226917,1.308455,4.0833163
-18.572311,1.4019113,4.107634
-18.800898,1.4510403,4.101563
-19.037792,1.5048554,4.100558
-19.258835,1.5536661,4.0973644
-19.502346,1.6129882,4.1037135
-19.67593,1.6449428,4.0904636
-19.836721,1.6725566,4.074935
-20.056183,1.7257397,4.0807114
-20.267883,1.7769916,4.086375
-20.499891,1.838253,4.101516
-20.634104,1.858758,4.084838
-20.84377,1.91289,4.0967474
-21.013607,1.9508466,4.0965114
-21.109367,1.9569671,4.0705533
-21.280914,1.9974847,4.0743413
-21.482807,2.052789,4.0918493
-21.593086,2.0676556,4.075684
-21.71765,2.0896919,4.0664024
-21.919292,2.148233,4.0899096
-22.051384,2.1755679,4.087022
-22.155174,2.1903305,4.0736876
-22.336166,2.2424877,4.09456
-22.485323,2.2805667,4.10376
-22.576227,2.291339,4.0889072
-22.705244,2.321271,4.0921597
-22.796461,2.33334,4.079608
-22.970913,2.3874354,4.106723
-23.058098,2.3988519,4.0947948
-23.168034,2.4223046,4.0946965
-23.254723,2.434531,4.0845256
-23.397299,2.4761536,4.1029353
-23.458218,2.4761662,4.0820746
-23.57798,2.5074291,4.09178
-23.649841,2.514052,4.0781193
-23.751154,2.5368419,4.080661
-23.819435,2.5424118,4.0667553
-23.91772,2.564715,4.0697713
-24.004566,2.5813618,4.067654
-24.087975,2.5966344,4.064597
-24.166412,2.6096306,4.0596595
-24.262508,2.633103,4.0657187
-24.338821,2.6459212,4.061415
-24.437254,2.671967,4.0710163
-24.483044,2.6680503,4.050297
-24.608286,2.710993,4.0781937
-24.67275,2.7188828,4.0703363
-24.742344,2.730205,4.0663543
-24.83955,2.7586422,4.0806317
-24.898075,2.7642143,4.071315
-24.960197,2.7723103,4.0649242
-25.045109,2.7949343,4.074239
-25.103083,2.8012748,4.0665894
-25.169708,2.8134158,4.065402
-25.248482,2.8337562,4.073332
-25.299332,2.8366427,4.0627775
-25.356586,2.8439512,4.057227
-25.413681,2.8514838,4.0521617
-25.500542,2.8791347,4.069319
-25.540127,2.8757794,4.0528736
-25.592415,2.8811505,4.046179
-25.66138,2.8982196,4.052619
-25.724447,2.911726,4.0554113
-25.765797,2.910524,4.0421057
-25.820883,2.9191546,4.0399313
-25.876469,2.928485,4.0387645
-25.944754,2.9473038,4.0484886
-25.985687,2.946815,4.0367303
-26.044022,2.959245,4.039737
-26.098106,2.968947,4.0398846
-26.151981,2.978858,4.0404854
-26.194477,2.9805355,4.031895
-26.246044,2.989338,4.0316205
-26.306496,3.0053349,4.039813
-26.357613,3.0145516,4.0404377
-26.407251,3.0229557,4.040318
-26.444012,3.0214496,4.0289
-26.50219,3.037284,4.0377593
-26.5663,3.0584292,4.0530376
-26.594604,3.0507827,4.0349307
-26.637188,3.0549736,4.030771
-26.68394,3.0629044,4.0311556
-26.732944,3.073065,4.0343347
-26.780525,3.0823774,4.036694
-26.814163,3.0799623,4.025345
-26.860256,3.0885525,4.0271573
-26.921444,3.110846,4.045435
-26.96178,3.1151125,4.042459
-26.99796,3.1158538,4.0354047
-27.032372,3.1151378,4.0267205
-27.079275,3.1261144,4.032179
-27.12876,3.1399035,4.0411882
-27.168457,3.1448789,4.0397487
-27.20028,3.1425593,4.0296245
-27.237053,3.1451254,4.025509
-27.273746,3.1478128,4.021656
-27.314672,3.1549015,4.0232697
-27.363441,3.1701794,4.034997
-27.403961,3.1775725,4.037271
-27.43541,3.1759403,4.028638
-27.473082,3.1808887,4.028159
-27.50909,3.1843376,4.025957
-27.55416,3.1976802,4.0360365
-27.591394,3.2030206,4.0364065
-27.624016,3.203573,4.0309815
-27.651669,3.1987562,4.019009
-27.685238,3.2005932,4.0153503
-27.719229,3.2030845,4.0126014
-27.761738,3.215597,4.0224075
-27.800203,3.2238436,4.027042
-27.83615,3.2294545,4.028509
-27.865036,3.2268686,4.019845
-27.897596,3.228807,4.016916
-27.939116,3.24198,4.0281553
-27.97991,3.254741,4.039011
-28.011185,3.2559054,4.0354223
-28.039803,3.2538033,4.027807
-28.067144,3.2500973,4.0182447
-28.095806,3.2481523,4.0109706
-28.130764,3.2547383,4.014551
-28.161022,3.2552273,4.010517
-28.206345,3.2767293,4.0331926
-28.237944,3.2797,4.0325007
-28.263504,3.2742524,4.0211983
-28.292278,3.273418,4.0158234
-28.32182,3.2738037,4.012075
-28.353992,3.2782683,4.0136037
-28.380432,3.2742584,4.0043993
-28.42171,3.2932177,4.024619
-28.451311,3.2945447,4.022401
-28.477642,3.2907867,4.0137444
-28.503317,3.2859473,4.0037603
-28.53497,3.2909682,4.006496
-28.56377,3.2914681,4.003504
-28.597918,3.3012965,4.012586
-28.630531,3.3089175,4.018921
-28.659079,3.3096833,4.016506
-28.68887,3.312851,4.0172606
-28.715757,3.3108733,4.011444
-28.74482,3.3130424,4.011052
-28.773216,3.3141274,4.009329
-28.799797,3.31179,4.0032425
-28.829311,3.3153667,4.004884
-28.858168,3.3178575,4.00519
-28.88696,3.3204298,4.0056715
-28.914864,3.3213234,4.0040436
-28.943268,3.3234682,4.0041084
-28.971352,3.3251042,4.00358
-28.999132,3.3262289,4.0024524
-29.029879,3.3345013,4.010708
-29.059467,3.340505,4.016083
-29.087254,3.3424592,4.0162454
-29.113358,3.3403533,4.0111685
-29.14017,3.340089,4.0085583
-29.166307,3.3381195,4.003779
-29.195057,3.3433323,4.0084577
-29.222853,3.3462524,4.010204
-29.249966,3.3474665,4.00978
-29.278229,3.3523202,4.0141897
-29.304083,3.350113,4.009404
-29.329409,3.3461862,4.0024185
-29.356243,3.3470898,4.001831
-29.386358,3.359397,4.016287
-29.412348,3.3580642,4.012888
-29.438677,3.3579936,4.0112066
-29.467346,3.3669562,4.0214686
-29.492817,3.364039,4.016163
-29.519638,3.3665721,4.018089
-29.546259,3.3685784,4.0193815
-29.571505,3.364663,4.012931
-29.5972,3.3626103,4.00899
-29.623655,3.3642218,4.0099363
-29.651333,3.3725038,4.019741
-29.676332,3.3670526,4.011489
-29.701744,3.363466,4.0057507
-29.728579,3.3683567,4.0112586
-29.75385,3.3637,4.004219
-29.78151,3.3753438,4.0187664
-29.807268,3.37443,4.0167847
-29.83238,3.3681664,4.0077896
-29.85842,3.3691893,4.008479
-29.884617,3.3720858,4.0117025
-29.910421,3.3714368,4.0102954
-29.935642,3.3636253,3.9994724
-29.961277,3.3594928,3.993569
-29.987436,3.362657,3.9973726
-30.013594,3.367094,4.0029182
-30.039408,3.365571,4.000634
-30.065075,3.3586888,3.9913166
-30.091183,3.3657386,4.0004883
-30.117144,3.372253,4.0090084
-30.142946,3.3667753,4.001717
-30.168806,3.367996,4.0033455
-30.19465,3.368681,4.0043197
-30.220566,3.366417,4.00145
-30.24648,3.365426,4.0003204
-30.272501,3.3626933,3.9969428
-30.298439,3.3624392,3.9969003
-30.324303,3.3634562,3.9985967
-30.350195,3.3639374,3.9996397
-30.375973,3.3656898,4.0024204
-30.401836,3.366304,4.0037518
-30.428852,3.3561478,3.9909012
-30.455086,3.3544898,3.9893453
-30.480284,3.3613243,3.9990683
-30.505844,3.364612,4.004159
-30.53046,3.3739774,4.0173326
-30.555367,3.3803973,4.0266666
-30.581757,3.3772664,4.023445
-30.60885,3.3706026,4.0156198
-30.6344,3.3730159,4.019832
-30.65967,3.376693,4.0257673
-30.687107,3.3696413,4.0176105
-41.61817,0.2742331,2.155787
-41.62715,0.32093382,2.2356448
-41.60624,0.38180304,2.3283916
-41.630466,0.42019963,2.4004345
-41.702026,0.43567157,2.45181
-41.19867,0.7711477,2.8261242
-41.27662,0.78137875,2.8717432
-41.274307,0.8289218,2.9503694
-41.312347,0.8575585,3.0124588
-41.28904,0.9139354,3.0985222
-41.317425,0.94648004,3.16399
-41.32374,0.98869777,3.2376943
-41.311234,1.0388899,3.3179893
-41.364075,1.0600085,3.3739672
-41.390434,1.0926545,3.4396553
-41.42594,1.1212091,3.5020757
-41.504025,1.1315439,3.5499563
-41.60746,1.131419,3.5899324
-41.69764,1.1372766,3.6352382
-41.854095,1.1159909,3.659902
-41.97265,1.1111038,3.698215
-42.143757,1.0853603,3.7213645
-42.345528,1.0481689,3.7370148
-42.570137,1.002985,3.748073
-42.833897,0.94358516,3.7502155
-42.980526,0.93172383,3.7886896
-43.155224,0.9096532,3.8208227
-43.36814,0.8737576,3.8443775
-44.683388,0.51939845,3.757214
-44.699398,0.56357527,3.8428078
-44.71752,0.6067345,3.927724
-44.743282,0.64688945,4.0107117
-44.900856,0.6392634,4.0634627
-45.259293,0.5604744,4.0729837
-15.992258,0.8080118,3.947565
-15.81983,0.6960809,3.8167582
-17.271221,1.1856937,4.104618
-17.561342,1.2497191,4.1017222
-17.956726,1.3552823,4.130711
-18.108438,1.3702569,4.096547
-18.389858,1.4359889,4.1008334
-18.723503,1.5237339,4.1235094
-18.956406,1.5740147,4.120151
-19.191334,1.6264777,4.1200323
-19.390762,1.6661539,4.1115823
-19.587883,1.7060595,4.1046224
-19.805763,1.755574,4.1065636
-19.999954,1.7966757,4.1031923
-20.228867,1.8533366,4.113666
-20.43499,1.9018916,4.118998
-20.58693,1.9288305,4.1077924
-20.661549,1.9236747,4.0707564
-20.851292,1.9683242,4.076072
-21.073402,2.0282063,4.0955195
-21.215815,2.054625,4.0876613
-21.365604,2.085136,4.0842
-21.4874,2.1040568,4.071523
-21.68866,2.1594355,4.0916486
-21.779682,2.1660733,4.069741
-21.928509,2.1996572,4.0724454
-22.104824,2.246889,4.0883336
-22.228811,2.270868,4.084135
-22.339775,2.2894554,4.075706
-22.531046,2.34686,4.1037054
-22.609306,2.351396,4.0837054
-22.761654,2.3921714,4.0980244
-22.855225,2.4052634,4.0871286
-22.971727,2.430181,4.0879498
-23.089464,2.4564447,4.090695
-23.176395,2.4679983,4.079943
-23.310528,2.5039434,4.093237
-23.39603,2.5159512,4.083968
-23.490234,2.5329275,4.080002
-23.59544,2.5562012,4.0827284
-23.667278,2.5626254,4.0693088
-23.796625,2.5999095,4.0869975
-23.86157,2.6036642,4.071769
-23.955786,2.6235394,4.073093
-24.033056,2.6347847,4.0661483
-24.10539,2.6437607,4.0572667
-24.227652,2.6808543,4.0775266
-24.269,2.6735294,4.0526953
-24.353098,2.690473,4.053133
-24.454636,2.7179132,4.0648932
-24.506512,2.717476,4.048033
-24.635582,2.7621386,4.078737
-24.682459,2.759612,4.060331
-24.759626,2.7751975,4.0613046
-24.86361,2.807325,4.080244
-24.912308,2.8068929,4.064888
-24.970673,2.8125482,4.056265
-25.070435,2.8439808,4.0756865
-25.11946,2.8447049,4.0623393
-25.172838,2.8483715,4.052388
-25.27355,2.8822646,4.075654
-25.31123,2.8767238,4.0561814
-25.37062,2.8852758,4.052348
-25.442741,2.902477,4.058318
-25.503826,2.912941,4.0571375
-25.546246,2.9114003,4.042857
-25.59712,2.9156837,4.0352383
-25.680834,2.9424725,4.0530443
-25.727104,2.944365,4.0432253
-25.783,2.953123,4.0413294
-25.830446,2.9563377,4.0333834
-25.9079,2.9809299,4.0499067
-25.946127,2.978284,4.0357175
-26.001255,2.9879003,4.0356836
-26.058187,2.9991922,4.0377893
-26.12955,3.021461,4.0527573
-26.155436,3.0106726,4.029864
-26.201218,3.014716,4.02421
-26.258654,3.0278153,4.029242
-26.330093,3.0520444,4.047465
-26.361744,3.046239,4.0309005
-26.413303,3.055995,4.0326595
-26.460201,3.0624428,4.0307283
-26.506948,3.0690637,4.029172
-26.56982,3.088954,4.043458
-26.594372,3.0782716,4.0217876
-26.643766,3.0879254,4.024322
-26.70458,3.1074271,4.03876
-26.74495,3.1103396,4.0336375
-26.785833,3.113903,4.02943
-26.824224,3.1155558,4.0230684
-26.872639,3.1260884,4.027507
-26.924942,3.1404152,4.0366907
-26.969358,3.1482115,4.0381804
-26.998539,3.1426678,4.0236745
-27.041573,3.1497045,4.0245113
-27.0833,3.15585,4.02441
-27.13504,3.1715674,4.036113
-27.174704,3.1764555,4.0347776
-27.202597,3.170423,4.0202065
-27.234417,3.168162,4.010331
-27.288034,3.187172,4.0266857
-27.32615,3.191527,4.0251904
-27.373241,3.2050571,4.0351334
-27.407335,3.2059577,4.029627
-27.43666,3.2021523,4.0183926
-27.47382,3.206473,4.017319
-27.51138,3.2114553,4.0171814
-27.559507,3.227878,4.0314083
-27.5957,3.2320576,4.030525
-27.625294,3.2293172,4.0211024
-27.652443,3.2239485,4.0084677
-27.689436,3.2295306,4.009632
-27.72001,3.2281485,4.0021596
-27.777836,3.2580032,4.034073
-27.808578,3.2574174,4.02783
-27.836496,3.2536297,4.0176277
-27.865849,3.2515683,4.009679
-27.900696,3.256206,4.0102863
-27.939041,3.2653751,4.016741
-27.978073,3.2757807,4.0248814
-28.011585,3.2796628,4.024846
-28.040205,3.2775364,4.017251
-28.068836,3.2754896,4.0098305
-28.100033,3.2768714,4.00686
-28.134533,3.28282,4.0098124
-28.163923,3.282156,4.0043945
-28.205153,3.297853,4.0200305
-28.23194,3.294013,4.0107107
-28.265537,3.299821,4.013856
-28.296251,3.301784,4.012145
-28.331932,3.3111877,4.0201025
-28.35597,3.3037171,4.0063915
-28.389896,3.3110538,4.011857
-28.421066,3.31452,4.012411
-28.451418,3.3169408,4.011693
-28.481697,3.3194518,4.011169
-28.511908,3.3220506,4.010837
-28.54135,3.3235936,4.009211
-28.570396,3.3246489,4.007024
-28.601421,3.3292289,4.009495
-28.632668,3.334476,4.0129166
-28.661839,3.3363645,4.012038
-28.690311,3.3371835,4.009836
-28.720947,3.3421218,4.0130844
-28.748692,3.34195,4.0097284
-28.775816,3.3406963,4.005022
-28.805616,3.3447309,4.007305
-28.835611,3.349432,4.010537
-28.862926,3.3489923,4.0070972
-28.889395,3.3468814,4.001525
-28.918352,3.3500812,4.0029936
-28.94535,3.3492813,3.999271
-28.972612,3.3491378,3.9964728
-29.0014,3.3525739,3.9984534
-29.030603,3.3572612,4.0021524
-29.05823,3.3585181,4.001396
-29.085098,3.3580909,3.998481
-29.113827,3.3624306,4.0019236
-29.140862,3.3627386,4.000105
-29.167877,3.3631191,3.998444
-29.193792,3.3606281,3.9930434
-29.22331,3.368221,4.001053
-29.24981,3.367642,3.9983048
-29.275711,3.3653622,3.9933617
-29.302223,3.3649204,3.9909132
-29.329105,3.3657312,3.9901853
-29.35704,3.3701644,3.9943266
-29.384878,3.3746734,3.9986339
-29.412107,3.3774812,4.0007434
-29.436665,3.370874,3.9903963
-29.463856,3.3738217,3.9928086
-29.490673,3.3756542,3.9937997
-29.51672,3.3745878,3.9909894
-29.544031,3.3789396,3.9954526
-29.569782,3.3768203,3.9913554
-29.595058,3.372387,3.9842277
-29.621384,3.3727803,3.9835906
-29.647694,3.373243,3.9831016
-29.673658,3.3719857,3.9803755
-29.700468,3.3755665,3.9841611
-29.726421,3.3744445,3.9817286
-29.752663,3.3751805,3.981832
-29.777092,3.3634434,3.9653344
-29.800875,3.3451943,3.9401872
-29.827517,3.3473186,3.9423072
-29.855053,3.357881,3.9557612
-29.88176,3.362538,3.9613833
-29.90787,3.3618827,3.9599621
-29.934383,3.3660798,3.9650838
-29.960201,3.361969,3.9591548
-29.986998,3.3722868,3.9725747
-30.013836,3.387463,3.992552
-30.039705,3.387146,3.991865
-30.065325,3.379114,3.9809132
-30.091413,3.3849163,3.9885216
-30.117273,3.3818054,3.9842627
-30.143206,3.3835506,3.9865556
-30.169092,3.3865604,3.990595
-30.194952,3.3878407,3.9923751
-30.22095,3.3831997,3.986291
-30.246702,3.3876061,3.9923642
-30.272768,3.3836975,3.9873698
-30.29867,3.3840463,3.9881263
-30.32473,3.3820677,3.9858263
-30.350597,3.3831487,3.987672
-30.3765,3.3836973,3.988862
-30.402216,3.386107,3.9925942
-30.427887,3.3885813,3.996468
-30.453936,3.387536,3.995693
-30.479778,3.3883505,3.9974585
-30.505692,3.3886335,3.9985702
-30.530455,3.3967457,4.010192
-30.556004,3.39895,4.013977
-30.582417,3.3958504,4.0107374
-30.609215,3.3910313,4.0052614
-30.634542,3.394629,4.0110717
-30.659924,3.397694,4.016226
-41.628372,0.2845037,2.0343232
-41.629814,0.33520436,2.1183953
-41.611355,0.3951013,2.2109694
-41.652954,0.42541575,2.2757015
-41.64968,0.47704458,2.3602934
-41.600212,0.5500412,2.464364
-41.447483,0.6705792,2.6113458
-41.202274,0.83235335,2.79453
-41.245426,0.85884786,2.8544607
-41.271976,0.89286184,2.9212465
-41.29032,0.9303973,2.9911942
-41.290077,0.9760134,3.0682192
-41.29174,1.0203822,3.144031
-41.33513,1.0460172,3.2035904
-41.338234,1.0891833,3.2782874
-41.35463,1.1262546,3.3477259
-41.37921,1.1595802,3.4140134
-41.412064,1.1892252,3.477294
-41.46293,1.2111933,3.5343728
-41.569847,1.2098417,3.5727134
-41.669697,1.2118714,3.6144066
-41.79254,1.2049019,3.6495166
-41.91457,1.1988387,3.6860948
-42.07765,1.1768508,3.7110171
-42.27138,1.1435235,3.728263
-42.48973,1.1015673,3.740222
-42.738255,1.0490639,3.7457232
-42.878456,1.039954,3.7851434
-43.07653,1.0093076,3.8096914
-43.268623,0.9820044,3.8380065
-44.662685,0.503078,3.5454712
-44.692726,0.54245543,3.6278648
-44.707596,0.5872891,3.7141333
-44.719994,0.63277864,3.8008285
-44.73541,0.67691255,3.8865738
-44.72999,0.72829986,3.977106
-44.74869,0.77072525,4.061633
-45.14129,0.6810808,4.0616894
-45.571854,0.58045506,4.057826
-46.033176,0.4717028,4.0522532
-15.811165,0.8259585,3.8592105
-17.235016,1.2925272,4.1356006
-17.419834,1.3157043,4.104162
-17.696274,1.3736513,4.0992904
-18.00556,1.4454434,4.1065536
-18.193521,1.4734857,4.0832467
-18.538244,1.5620317,4.107016
-18.7503,1.6019084,4.0958347
-19.027401,1.6681464,4.1065207
-19.249853,1.7147563,4.103654
-19.408247,1.7374504,4.083253
-19.626024,1.7846093,4.083511
-19.819159,1.8231864,4.0782127
-20.042755,1.8752346,4.085202
-20.24088,1.9182472,4.0861363
-20.44807,1.9661976,4.0924597
-20.646667,2.0118465,4.098144
-20.848091,2.0599122,4.107133
-20.934498,2.0604653,4.0764313
-21.08091,2.0870743,4.0688677
-21.271137,2.133459,4.0795317
-21.485723,2.1916714,4.10182
-21.560734,2.1899042,4.071886
-21.691563,2.2132235,4.0649242
-21.89133,2.2681906,4.087429
-21.990475,2.2790027,4.070751
-22.138718,2.3127394,4.0757427
-22.328756,2.3666592,4.1003246
-22.4226,2.3771772,4.0854278
-22.534754,2.396779,4.07959
-22.696827,2.4406679,4.097409
-22.786427,2.4510422,4.0841327
-22.940676,2.4930582,4.1017585
-22.991554,2.485846,4.0725865
-23.15717,2.5351105,4.0986757
-23.226665,2.5379353,4.080148
-23.380371,2.5831895,4.103828
-23.432262,2.5781655,4.078434
-23.530466,2.5968986,4.0769973
-23.59843,2.6006947,4.061059
-23.69608,2.620216,4.0613317
-23.830238,2.6594682,4.082149
-23.879938,2.6550684,4.0590734
-23.985287,2.68051,4.066865
-24.042727,2.6808796,4.0492983
-24.146578,2.7067099,4.0584164
-24.231153,2.7226894,4.057776
-24.306065,2.7338514,4.0524917
-24.414139,2.7639794,4.067543
-24.455982,2.7575533,4.0444264
-24.560963,2.7871664,4.059813
-24.659283,2.8137312,4.0724545
-24.717506,2.817764,4.0613804
-24.787752,2.829124,4.058459
-24.870583,2.8483503,4.064375
-24.94104,2.860772,4.0632725
-25.027666,2.8833742,4.073607
-25.07897,2.8851385,4.0614815
-25.139069,2.8925369,4.0557704
-25.207813,2.905636,4.05662
-25.288708,2.9267883,4.0667124
-25.330692,2.9239664,4.0504436
-25.387138,2.9305062,4.0448046
-25.46498,2.9511452,4.055233
-25.515276,2.9544659,4.046482
-25.58465,2.9705656,4.0523863
-25.648758,2.9836762,4.0551934
-25.706276,2.9928179,4.053746
-25.741272,2.9870925,4.035533
-25.786037,2.9881077,4.0251656
-25.879673,3.0230272,4.0539894
-25.928814,3.0278287,4.0484486
-25.960815,3.0208454,4.0294404
-26.016575,3.030776,4.0301876
-26.080175,3.0467117,4.0381527
-26.138777,3.0595176,4.042716
-26.1739,3.0555568,4.0278454
-26.23277,3.069255,4.0338593
-26.297237,3.0875878,4.0455723
-26.345741,3.094406,4.043921
-26.375372,3.0871258,4.025719
-26.43777,3.1051269,4.0376787
-26.487715,3.1139612,4.0389495
-26.539352,3.1244764,4.0424137
-26.576342,3.1237135,4.032542
-26.623264,3.131082,4.032566
-26.666925,3.1361127,4.0299387
-26.725779,3.1538928,4.0428705
-26.769669,3.15978,4.0416174
-26.794704,3.150113,4.021625
-26.839642,3.1572843,4.022188
-26.889757,3.1692083,4.028706
-26.94138,3.1828556,4.037512
-26.988035,3.192597,4.0417147
-27.010712,3.1814182,4.0203767
-27.05425,3.1888626,4.0220156
-27.109013,3.2068105,4.036762
-27.154926,3.217189,4.042347
-27.19165,3.2194114,4.0379815
-27.20998,3.2045383,4.012501
-27.256065,3.2158504,4.0196257
-27.294813,3.220512,4.0186157
-27.344784,3.2363508,4.031688
-27.381039,3.2391949,4.0286703
-27.40767,3.232641,4.013977
-27.447514,3.239409,4.0160837
-27.48616,3.2452517,4.0171504
-27.5226,3.249094,4.015815
-27.570148,3.2648058,4.029578
-27.60374,3.2662396,4.025437
-27.634277,3.2645597,4.0174437
-27.670254,3.2688866,4.0171576
-27.702692,3.269557,4.012327
-27.740408,3.2762713,4.0152845
-27.782272,3.2879882,4.0247364
-27.81252,3.2868233,4.0178604
-27.844164,3.2873785,4.013264
-27.875769,3.2880297,4.008877
-27.912363,3.294788,4.0124116
-27.947443,3.3000245,4.014098
-27.983284,3.3064713,4.0174413
-28.017649,3.3113856,4.0189123
-28.049273,3.3131032,4.016352
-28.082558,3.3171253,4.0168552
-28.115738,3.3212514,4.017584
-28.144613,3.3199377,4.011352
-28.179703,3.3270373,4.0161114
-28.209312,3.3270159,4.011714
-28.240911,3.3298676,4.0111303
-28.273624,3.3344908,4.0129366
-28.305437,3.3380961,4.013503
-28.334057,3.3373134,4.008422
-28.366102,3.3416653,4.0101237
-28.397661,3.3455522,4.011301
-28.425417,3.3439002,4.0053024
-28.455368,3.3457108,4.0039105
-28.48634,3.3493042,4.0049353
-28.51545,3.3501592,4.002438
-28.547651,3.3562016,4.006839
-28.578001,3.3595026,4.007712
-28.605232,3.3577719,4.002026
-28.63446,3.359534,4.001012
-28.666239,3.3659441,4.0062103
-28.693392,3.3644505,4.001038
-28.722754,3.3670359,4.0013266
-28.751734,3.3691325,4.001039
-28.780048,3.370164,3.9994075
-28.808619,3.3718483,3.9987102
-28.834808,3.36901,3.9920723
-28.859322,3.3627825,3.9809873
-28.888418,3.365845,3.9823098
-28.918257,3.3707228,3.9861188
-28.951199,3.3826265,3.9993608
-28.976274,3.3778424,3.9904373
-28.999634,3.369063,3.9762356
-29.024155,3.362658,3.965249
-29.049278,3.3574748,3.9559443
-29.07473,3.3529348,3.9475515
-29.105389,3.361267,3.9564319
-29.138142,3.3755157,3.9733086
-29.166382,3.3787823,3.9755573
-29.19411,3.380959,3.9764092
-29.21989,3.3779516,3.9703724
-29.241842,3.363895,3.9495633
-29.267035,3.3586679,3.9406455
-29.29482,3.3611202,3.9420962
-29.325525,3.3730319,3.9563215
-29.354353,3.379751,3.9636393
-29.383907,3.389488,3.9750838
-29.409037,3.384613,3.9669318
-29.432789,3.3745067,3.9517856
-29.458616,3.3715196,3.9462762
-29.484795,3.3697767,3.942497
-29.510708,3.366922,3.937274
-29.53806,3.3700314,3.9401493
-29.568665,3.3879685,3.963088
-29.594196,3.384146,3.9567335
-29.620525,3.383933,3.955305
-29.64489,3.3737385,3.9404523
-29.67142,3.3742485,3.9401085
-29.697931,3.3748274,3.9399133
-29.724424,3.3754754,3.9398675
-29.751627,3.3809292,3.9463763
-29.777178,3.375792,3.938621
-29.801716,3.3624227,3.9197845
-29.829086,3.3698611,3.9291449
-29.855694,3.3720345,3.9314415
-29.882313,3.3748717,3.934692
-29.908762,3.3765905,3.936485
-29.934332,3.3682892,3.9247706
-29.960802,3.3701432,3.9268563
-29.987345,3.3738465,3.9315028
-30.013746,3.376431,3.9346898
-30.040041,3.3778958,3.9364157
-30.066883,3.3972456,3.962418
-30.093107,3.406569,3.974898
-30.119045,3.4082377,3.977067
-30.14494,3.4052215,3.9729435
-30.170969,3.3927686,3.9560938
-30.197079,3.389886,3.9522614
-30.223766,3.3686595,3.92364
-30.249426,3.3855112,3.9466426
-30.274343,3.41074,3.9810417
-30.30021,3.4110928,3.9818065
-30.326157,3.4103248,3.9811084
-30.352352,3.406656,3.9765375
-30.377728,3.4131432,3.9857683
-30.403385,3.4155416,3.9895186
-30.42958,3.4126673,3.9861872
-30.454775,3.418755,3.995036
-30.480541,3.4195714,3.996806
-30.506874,3.4163063,3.9931102
-30.533102,3.414295,3.9911664
-30.55909,3.4141288,3.9917724
-30.584883,3.4152129,3.9941235
-30.611408,3.4122233,3.9910243
-30.635859,3.420537,4.0032496
-30.662285,3.418273,4.0012407
-41.59674,0.37869453,2.017939
-41.629505,0.41379,2.0872645
-41.677578,0.4413495,2.1494346
-41.53961,0.5572436,2.2958221
-41.5971,0.5794549,2.3526797
-41.636578,0.61010504,2.4176846
-41.19492,0.9095354,2.7681766
-41.21929,0.94453883,2.835853
-41.27476,0.96534896,2.8906407
-41.268204,1.0138543,2.9706726
-41.282425,1.0527308,3.041912
-41.28227,1.0976255,3.1184664
-41.30223,1.1334133,3.1868768
-41.30081,1.1781662,3.2631245
-41.317913,1.2146583,3.3320932
-41.355453,1.2422962,3.3934689
-41.38645,1.2726028,3.4572444
-41.440754,1.2931454,3.5129023
-41.48417,1.3182235,3.5725927
-41.6033,1.3125045,3.6070805
-41.676353,1.3258975,3.6578703
-41.857765,1.2962568,3.6743274
-42.02619,1.2727568,3.6968484
-42.182396,1.254946,3.7249365
-42.418667,1.2068624,3.7304087
-42.648376,1.1626778,3.7404666
-42.82995,1.1381443,3.7670312
-42.96932,1.1305008,3.807497
-43.14954,1.1082363,3.8380141
-44.6796,0.5869334,3.5043378
-44.704178,0.6283295,3.5882907
-44.71628,0.67407465,3.6753898
-44.73139,0.71847343,3.7615027
-44.69173,0.78216743,3.8609324
-44.702682,0.82737684,3.9473534
-44.717594,0.8709438,4.0326295
-45.008972,0.81846285,4.05467
-45.41106,0.72958493,4.055317
-45.820637,0.6404853,4.0588665
-46.32042,0.5233624,4.04806
-15.972917,1.015985,3.9462037
-15.591672,0.8336916,3.7626991
-17.258408,1.3776636,4.1045547
-17.5721,1.4463196,4.107871
-17.963238,1.5449362,4.1357703
-18.145006,1.5692496,4.1100817
-18.392632,1.6188917,4.1050377
-18.696548,1.690994,4.1191125
-18.947191,1.7448676,4.120894
-19.138641,1.7777097,4.1075935
-19.380768,1.8310955,4.112074
-19.588158,1.8724706,4.108354
-19.761072,1.9015696,4.0958576
-20.010952,1.9620516,4.1105595
-20.193441,1.9972169,4.105582
-20.421402,2.0517535,4.1181917
-20.577145,2.0783715,4.1082973
-20.667442,2.079041,4.0768843
-20.890926,2.135234,4.094495
-21.069006,2.1738868,4.0980186
-21.240398,2.2108107,4.1010785
-21.325277,2.211965,4.073065
-21.481943,2.2443314,4.0737576
-21.665699,2.2893941,4.086952
-21.766224,2.2992208,4.068821
-21.911121,2.329163,4.0698905
-22.109318,2.3837485,4.0948124
-22.182434,2.3834047,4.0691843
-22.336067,2.4199286,4.0788894
-22.520353,2.47149,4.1038284
-22.594387,2.4733257,4.0819874
-22.756409,2.5165668,4.100622
-22.856728,2.5318396,4.092891
-22.969257,2.553492,4.091949
-23.100473,2.5848002,4.101145
-23.193169,2.5983143,4.093357
-23.293837,2.6162553,4.0904703
-23.40647,2.6407044,4.094653
-23.46237,2.6376293,4.071554
-23.594671,2.673157,4.0880203
-23.650286,2.6707115,4.066285
-23.78165,2.7072587,4.084962
-23.846579,2.7104132,4.0697355
-23.913818,2.7150817,4.056382
-24.014345,2.7376106,4.0620365
-24.085953,2.745439,4.0527177
-24.19365,2.773012,4.064613
-24.244347,2.7704835,4.0450463
-24.344254,2.7950337,4.054613
-24.452255,2.8247437,4.0702024
-24.504774,2.8243523,4.0538597
-24.608082,2.8527243,4.068897
-24.65799,2.8515594,4.0522857
-24.746767,2.8728538,4.0604277
-24.850307,2.9033084,4.07904
-24.883076,2.8932483,4.0534716
-24.963293,2.911168,4.058992
-25.062584,2.940987,4.078105
-25.081041,2.9230378,4.0443497
-25.16779,2.946357,4.056883
-25.240116,2.9614997,4.060606
-25.29458,2.966095,4.0527287
-25.356197,2.975441,4.050457
-25.4205,2.986858,4.0507975
-25.492468,3.0035706,4.0574555
-25.541216,3.0058804,4.0479093
-25.595568,3.012063,4.043004
-25.66037,3.0254035,4.0465765
-25.714354,3.032034,4.0426416
-25.774462,3.043074,4.0440435
-25.830162,3.0515432,4.0426874
-25.89257,3.0649338,4.0473065
-25.930696,3.0620522,4.033078
-25.98178,3.0683029,4.029729
-26.03203,3.0742717,4.0262375
-26.111055,3.1009555,4.047473
-26.139433,3.092047,4.0267496
-26.199797,3.1062944,4.033696
-26.251286,3.114511,4.0336704
-26.306515,3.125829,4.0375524
-26.347183,3.126674,4.0290556
-26.398132,3.1354604,4.030267
-26.44439,3.1410165,4.0277586
-26.49687,3.1516507,4.031566
-26.557964,3.1693804,4.044185
-26.585426,3.1611714,4.025447
-26.63294,3.1688967,4.0262356
-26.677177,3.174313,4.0243626
-26.742138,3.1968489,4.043647
-26.78167,3.1991336,4.038272
-26.816288,3.1975389,4.028241
-26.849699,3.1950474,4.0172057
-26.905718,3.2118526,4.030167
-26.946634,3.2162127,4.0278845
-26.989185,3.2222407,4.027808
-27.024624,3.222305,4.0204353
-27.067503,3.2291274,4.021612
-27.113068,3.2386656,4.02633
-27.161243,3.2509408,4.0346346
-27.19457,3.2499943,4.026479
