x,y,z
-22.743977,1.073669,4.0473113
-22.79657,1.06864,4.015899
-22.959707,1.1380355,4.0372295
-23.056606,1.1638925,4.0287256
-23.168505,1.2006276,4.0286164
-23.289854,1.2446816,4.0345016
-23.37954,1.2676711,4.0258574
-23.490086,1.3058512,4.0288806
-23.601648,1.3455803,4.0337443
-23.66183,1.3495715,4.0127735
-23.813549,1.419563,4.041473
-23.8621,1.4161978,4.0159464
-23.992546,1.4727802,4.036082
-24.04448,1.4726684,4.0138106
-24.159925,1.5199246,4.0281568
-24.235525,1.5383091,4.0209227
-24.314495,1.5597334,4.016482
-24.407553,1.5924425,4.0213156
-24.465857,1.5991638,4.0062637
-24.54256,1.6204469,4.003035
-24.649382,1.6658411,4.0194216
-24.719707,1.6833899,4.0141735
-24.799583,1.7090206,4.015814
-24.868673,1.7266014,4.0113955
-24.923693,1.7332482,3.9984617
-25.035673,1.7867749,4.024124
-25.081291,1.7866449,4.0063715
-25.132347,1.791199,3.9926982
-25.211704,1.8197773,3.9992108
-25.29736,1.8543789,4.011187
-25.340494,1.8533676,3.993802
-25.38961,1.8576558,3.981072
-25.495972,1.9120975,4.010997
-25.570122,1.9393528,4.018439
-25.627615,1.952467,4.0142097
-25.673931,1.9559495,4.0020113
-25.722761,1.9619186,3.992166
-25.782976,1.9785526,3.9917707
-25.844841,1.9971731,3.993404
-25.895107,2.0054865,3.986362
-25.956488,2.02456,3.988977
-26.012619,2.0391583,3.9879665
-26.062986,2.048652,3.9827237
-26.136433,2.08084,3.9978218
-26.175411,2.080067,3.983993
-26.233068,2.09788,3.9869137
-26.296429,2.1218843,3.9956632
-26.356451,2.1431463,4.0022626
-26.378468,2.1262336,3.9747076
-26.389637,2.0979285,3.9368849
-26.372255,2.0394502,3.8716216
-26.378185,2.0043876,3.8275032
-26.386925,1.9717026,3.785501
-26.403513,1.9468834,3.7506785
-26.39243,1.8916218,3.6878314
-26.37162,1.8246269,3.613977
-26.38493,1.7941556,3.5737357
-26.38777,1.7514062,3.522066
-26.37934,1.6950665,3.4576416
-26.376072,1.6435289,3.397551
-26.365614,1.5826287,3.328555
-26.347656,1.511689,3.249946
-26.378368,1.4970016,3.2241774
-26.390657,1.4600096,3.1773953
-26.38864,1.4049308,3.1134257
-26.38341,1.3447592,3.0444899
-26.372578,1.2763395,2.967546
-26.376266,1.2246926,2.9064589
-26.381748,1.1742253,2.8464112
-26.380693,1.1142528,2.7771487
-26.373327,1.0447214,2.6985545
-26.396233,1.0135889,2.656879
-26.414886,0.9761441,2.6091142
-26.398071,0.8898661,2.51396
-26.421528,0.8567693,2.4703054
-35.649017,0.34251475,2.3579764
-35.21967,0.8348408,2.8192682
-35.22456,0.8819852,2.8781881
-35.258175,0.89984417,2.910832
-35.240093,0.96831465,2.9886456
-35.263657,0.9950824,3.029213
-35.267174,1.0408001,3.0865593
-35.25764,1.0982363,3.1541204
-35.27715,1.1272917,3.1966085
-35.303127,1.1499002,3.2334738
-35.31867,1.18191,3.2785697
-35.296223,1.248327,3.3534498
-35.313766,1.2773044,3.3957691
-35.34184,1.2964196,3.4296184
-35.365738,1.319061,3.4665546
-35.390614,1.3405833,3.502584
-35.419113,1.3586953,3.5357766
-35.451317,1.3734255,3.566196
-35.484634,1.3870919,3.595827
-35.532482,1.388304,3.6151667
-35.580982,1.3891091,3.6343827
-35.63082,1.3889456,3.6530175
-35.68475,1.3855646,3.6692348
-35.741463,1.3801248,3.6840262
-35.809975,1.3653517,3.691494
-35.868282,1.3592381,3.7063441
-35.9476,1.3366113,3.708178
-36.00337,1.3332081,3.7258658
-36.073288,1.3189268,3.7351594
-36.16681,1.2866964,3.7306046
-36.250065,1.2631211,3.73342
-36.31141,1.2568958,3.7503061
-36.398773,1.2312198,3.752366
-36.460392,1.2255247,3.770402
-36.562862,1.1896546,3.7655492
-36.641647,1.1720848,3.77531
-36.755234,1.1294923,3.7665172
-36.795433,1.1411352,3.799358
-36.89119,1.112742,3.802361
-36.964157,1.1012967,3.8185644
-37.036507,1.0906744,3.835792
-37.113495,1.077163,3.8513117
-37.223957,1.0407429,3.8505864
-37.312054,1.0205812,3.8623223
-38.64219,0.51717114,3.7765455
-38.645508,0.55876446,3.8371024
-38.66101,0.59222674,3.8921838
-38.682453,0.62166715,3.944622
-38.703484,0.6511314,3.9971118
-38.70716,0.691067,4.0563536
-38.784775,0.68535113,4.0864987
-39.001358,0.59557843,4.064283
-39.146385,0.5505645,4.071509
-39.319717,0.4895804,4.069935
-21.563885,0.74256086,4.040402
-21.703636,0.78632593,4.035896
-21.879017,0.8530772,4.047599
-21.952835,0.85779977,4.018976
-22.117443,0.91991305,4.029591
-22.283682,0.9842968,4.042886
-22.355103,0.9893677,4.016514
-22.536663,1.0656936,4.040008
-22.625584,1.0833228,4.0236754
-22.756443,1.1289189,4.0276237
-22.90461,1.1869028,4.041242
-22.969265,1.1904664,4.016833
-23.145586,1.2692375,4.0471225
-23.231169,1.28812,4.035002
-23.341717,1.3245506,4.036268
-23.409245,1.3321905,4.016961
-23.534931,1.3805053,4.028298
-23.603523,1.3898816,4.0112615
-23.72071,1.433893,4.020741
-23.812708,1.4609172,4.0180535
-23.904352,1.4883347,4.016217
-24.019264,1.5332439,4.028392
-24.080671,1.5400517,4.011764
-24.205595,1.5939167,4.0321465
-24.251236,1.5900204,4.008004
-24.345417,1.6225882,4.012851
-24.433395,1.6512105,4.0151224
-24.50523,1.6682036,4.008621
-24.611012,1.7117643,4.02385
-24.653154,1.7069063,4.0006123
-24.746082,1.7418649,4.009896
-24.837818,1.7766695,4.019593
-24.899115,1.7880168,4.0105653
-24.972717,1.8096182,4.0103188
-25.07217,1.8527339,4.02832
-25.10804,1.8447628,4.004311
-25.162392,1.852067,3.9932437
-25.230846,1.871407,3.992579
-25.325233,1.9130661,4.011158
-25.364895,1.9092095,3.9915862
-25.465034,1.9572289,4.0164824
-25.536755,1.9817302,4.021776
-25.595001,1.9950829,4.0178447
-25.662819,2.0172653,4.021847
-25.694715,2.008073,3.998927
-25.757599,2.0266683,4.0003834
-25.806795,2.033358,3.9917207
-25.864765,2.04835,3.9905963
-25.924395,2.0653095,3.9914951
-25.980013,2.0789986,3.9897866
-26.03045,2.0882158,3.9843616
-26.088142,2.104658,3.9856339
-26.154762,2.1301465,3.9953098
-26.195467,2.1311255,3.9832315
-26.260881,2.1564884,3.993384
-26.324705,2.1809266,4.0030236
-26.367945,2.185402,3.994793
-26.383987,2.1626067,3.9618096
-26.371122,2.1099405,3.9014282
-26.379375,2.0781019,3.8600473
-26.369686,2.027012,3.8008423
-26.379627,1.9956632,3.759776
-26.386646,1.9606667,3.7152867
-26.417793,1.9510353,3.6944046
-26.383347,1.8699315,3.606742
-26.379982,1.8213928,3.5493321
-26.380106,1.7758019,3.4945765
-26.38256,1.7319613,3.4413729
-26.371704,1.6721368,3.3729458
-26.357512,1.6072664,3.2995543
-26.354897,1.5545316,3.2375298
-26.368286,1.5195632,3.1923542
-26.40867,1.5160649,3.1772943
-26.3859,1.4365742,3.089395
-26.380157,1.3761001,3.019558
-26.378386,1.3192344,2.9530606
-26.3805,1.2660022,2.8899574
-26.382957,1.2120626,2.8260684
-26.373058,1.14116,2.7455778
-26.380737,1.0914099,2.6855412
-26.370998,1.0177481,2.6020575
-26.40651,1.0024278,2.5755663
-26.425837,0.9651325,2.527587
-26.393803,0.85712576,2.4099946
-26.4346,0.8468931,2.3885555
-35.59534,0.39079094,2.318869
-35.639896,0.40305018,2.3476915
-35.182793,0.9188113,2.8359451
-35.205227,0.9478185,2.8786597
-35.266342,0.93836474,2.8865614
-35.236664,1.0176861,2.9748425
-35.250374,1.0537708,3.023934
-35.23155,1.1203659,3.100316
-35.24767,1.1527984,3.1459737
-35.268295,1.1805472,3.1874537
-35.275944,1.2199571,3.239272
-35.274143,1.2674453,3.2981415
-35.27801,1.3090396,3.351705
-35.310127,1.3245728,3.3823938
-35.33039,1.3505478,3.4222713
-35.34637,1.3799834,3.465168
-35.370422,1.4019694,3.5016265
-35.397446,1.4211369,3.5357118
-35.42816,1.4369416,3.5669909
-35.458645,1.4528184,3.598425
-35.518417,1.4438725,3.608922
-35.556717,1.4531987,3.6351213
-35.606422,1.4530783,3.6535425
-35.662273,1.4480839,3.6681237
-35.709946,1.4499979,3.688716
-35.788696,1.4270086,3.6889415
-35.83996,1.4265499,3.708126
-35.88912,1.4279313,3.7290573
-35.924896,1.4399633,3.7588806
-35.96403,1.4493468,3.7866993
-36.09118,1.3908975,3.7601142
-36.201267,1.3466749,3.7456918
-36.302624,1.3100121,3.7379446
-36.376305,1.294944,3.7478724
-36.4589,1.2736847,3.753344
-36.540314,1.2538438,3.760398
-36.623455,1.2332644,3.767344
-36.693592,1.2226586,3.782463
-36.80461,1.1830108,3.7757177
-36.840202,1.1980293,3.8112698
-36.911488,1.187743,3.827829
-37.00469,1.1624484,3.83352
-37.084614,1.147006,3.8471198
-37.15486,1.1386967,3.8664708
-37.25111,1.1129353,3.8733926
-38.652103,0.52446914,3.6871114
-38.655964,0.56599927,3.7480097
-38.664825,0.6039486,3.806377
-38.67795,0.63885856,3.862637
-38.6938,0.6717591,3.917529
-38.696316,0.71257854,3.9776335
-38.696655,0.7543118,4.038225
-38.72076,0.7812283,4.0891113
-38.863354,0.73678446,4.0943875
-39.044838,0.6701064,4.08658
-39.217236,0.6100981,4.0842657
-39.401817,0.54413533,4.079505
-39.63421,0.4516449,4.059825
-21.319752,0.74239135,4.0390763
-21.478455,0.7950063,4.039466
-21.687624,0.87907577,4.0618463
-21.738285,0.8686342,4.0223374
-21.911415,0.9331279,4.0338135
-22.103798,1.0107739,4.0554695
-22.184265,1.0203896,4.0315766
-22.31871,1.0642004,4.031948
-22.472418,1.1211205,4.042406
-22.569427,1.1431012,4.0291862
-22.741568,1.213891,4.0513797
-22.831482,1.2328496,4.0374756
-22.965551,1.2811515,4.0453835
-23.04939,1.2974153,4.030771
-23.166225,1.3360491,4.03312
-23.269505,1.3664637,4.0301185
-23.375452,1.3993928,4.029634
-23.440617,1.4053326,4.009506
-23.581514,1.4635227,4.0293193
-23.646193,1.4701672,4.0107193
-23.79189,1.5336382,4.0361147
-23.844067,1.5325847,4.01256
-23.99443,1.6013727,4.043616
-24.03434,1.5924773,4.0147934
-24.148008,1.6368561,4.028133
-24.211987,1.6460052,4.0142293
-24.272202,1.6527288,3.998736
-24.41426,1.7203765,4.0324526
-24.44646,1.7072921,4.0018835
-24.551315,1.7489178,4.015854
-24.647732,1.7850347,4.0259485
-24.707441,1.7938013,4.0141506
-24.791733,1.821918,4.0186353
-24.846848,1.8279178,4.0052385
-24.912344,1.8423731,3.9991736
-25.019964,1.8907411,4.0218954
-25.06617,1.8908792,4.0045915
-25.128834,1.9045038,3.9989252
-25.185844,1.913918,3.9899983
-25.28609,1.9593084,4.0121317
-25.335144,1.9631007,3.9990826
-25.404896,1.9844973,4.0014668
-25.476324,2.0078683,4.00593
-25.555336,2.038317,4.016938
-25.61287,2.0509415,4.012771
-25.666292,2.0603724,4.00608
-25.709845,2.0614424,3.9922638
-25.765614,2.073535,3.9884105
-25.820557,2.0852652,3.9845052
-25.876587,2.0983527,3.9820752
-25.948193,2.1260839,3.9930592
-26.000568,2.136742,3.9890285
-26.058374,2.152817,3.9901433
-26.122108,2.1749358,3.9970245
-26.164639,2.177462,3.9863658
-26.214432,2.1871552,3.9824443
-26.285828,2.2181528,3.99831
-26.33574,2.2288504,3.9958339
-26.365828,2.2202659,3.9757524
-26.383041,2.19875,3.9437733
-26.370678,2.1470122,3.8836722
-26.382961,2.1195064,3.8460388
-26.363348,2.058618,3.777101
-26.369287,2.0232391,3.731933
-26.370094,1.9818256,3.6810145
-26.385616,1.9553442,3.644135
-26.416058,1.9445071,3.622106
-26.37525,1.8559396,3.5261612
-26.381927,1.8178661,3.478085
-26.378317,1.7676251,3.4182954
-26.372253,1.7136378,3.3547854
-26.337643,1.6260538,3.2587729
-26.34519,1.5851855,3.20757
-26.367538,1.5607777,3.1722531
-26.378311,1.5223005,3.1233
-26.424183,1.5249364,3.114346
-26.370552,1.4077027,2.9885216
-26.376362,1.3604152,2.9307356
-26.37842,1.3075018,2.8673534
-26.384779,1.2588403,2.808055
-26.375734,1.1896362,2.7284212
-26.358576,1.1084743,2.6367974
-26.350397,1.0370958,2.5546503
-26.380411,1.0142727,2.520568
-26.41642,0.9990072,2.494071
-26.399664,0.9123764,2.3964586
-26.407753,0.8575816,2.3304634
-35.575565,0.40694427,2.2409005
-35.562622,0.477911,2.3243556
-35.616943,0.48003697,2.3436346
-35.16944,0.9812162,2.8251643
-35.2079,0.9941647,2.853239
-35.254612,0.9989896,2.873969
-35.230186,1.0724905,2.9577832
-35.230957,1.1206458,3.0181847
-35.225452,1.1739511,3.0831504
-35.2477,1.2004049,3.1236362
-35.2633,1.2326727,3.169394
-35.27527,1.2678161,3.2177196
-35.237896,1.347295,3.305695
-35.26699,1.3655858,3.3387518
-35.300316,1.379926,3.3683763
-35.321136,1.4052024,3.4077764
-35.343536,1.428788,3.4457107
-35.366898,1.4512644,3.482709
-35.393227,1.4709425,3.5173063
-35.423912,1.4867177,3.548575
-35.455032,1.502002,3.579514
-35.48996,1.513994,3.6077151
-35.54771,1.5070632,3.6198263
-35.598076,1.5064783,3.637629
-35.653923,1.501622,3.6520371
-35.70433,1.5014014,3.67063
-35.757507,1.4991477,3.687747
-35.837883,1.4756129,3.6873293
-35.878662,1.4836864,3.7136354
-35.956654,1.4628994,3.716241
-35.942146,1.5138407,3.7782817
-36.062943,1.460855,3.7550836
-36.090675,1.4793406,3.790762
-36.19517,1.4401479,3.7798653
-36.26692,1.4261472,3.7898507
-36.33958,1.4118979,3.8000307
-36.506763,1.3290527,3.7561002
-36.589096,1.3092456,3.7630296
-36.673904,1.2881877,3.7694488
-36.753056,1.2717099,3.779931
-36.829433,1.2576613,3.792746
-36.88575,1.2580838,3.8171334
-36.957104,1.2482615,3.8339772
-37.04598,1.226749,3.8423443
-37.132843,1.2071669,3.8526974
-37.220715,1.1874328,3.8634534
-37.341053,1.1464477,3.8589396
-38.655315,0.4958179,3.5293965
-38.644577,0.54738426,3.5979266
-38.663963,0.5792742,3.6524
-38.673378,0.617157,3.7110653
-38.683857,0.6540048,3.7689543
-38.698624,0.6878495,3.8247318
-38.7081,0.7246375,3.882491
-38.709,0.76629186,3.9434652
-38.691517,0.8186104,4.0114255
-38.71153,0.8478968,4.0639224
-38.802094,0.8350754,4.0889325
-39.011482,0.75273013,4.0695577
-39.130623,0.7246628,4.086449
-39.30612,0.66462827,4.083907
-39.458294,0.6192117,4.09179
-39.71392,0.5157635,4.0648003
-21.069824,0.7463186,4.042971
-21.261724,0.81545734,4.0532784
-21.434801,0.8749695,4.0585427
-21.484045,0.8627076,4.0168467
-21.691902,0.9447534,4.0393066
-21.903606,1.0306911,4.0658894
-21.94334,1.0144088,4.023391
-22.116623,1.0794203,4.0377007
-22.243507,1.1172497,4.0340924
-22.347622,1.1418428,4.021933
-22.506989,1.2015486,4.0355334
-22.622137,1.234647,4.031022
-22.751825,1.2777412,4.03451
-22.869213,1.3139019,4.03376
-22.971317,1.3410244,4.0270844
-23.13445,1.4085035,4.051063
-23.20543,1.4168897,4.0318274
-23.311733,1.4489837,4.030894
-23.384655,1.4595642,4.014258
-23.510101,1.5058467,4.0253797
-23.593155,1.524364,4.015877
-23.708471,1.5654619,4.024391
-23.8127,1.599807,4.0283394
-23.902983,1.6252325,4.025901
-24.00857,1.6620233,4.0329914
-24.084734,1.678813,4.0247808
-24.18354,1.7122421,4.0303407
-24.242245,1.7175605,4.013809
-24.346888,1.7565191,4.02488
-24.424103,1.7762427,4.020872
-24.4967,1.7930808,4.014926
-24.576971,1.8161111,4.0144887
-24.653337,1.8367872,4.012545
-24.71874,1.8496838,4.0045285
-24.827808,1.8964119,4.0252504
-24.863052,1.887119,3.9993448
-24.952284,1.919905,4.0092673
-25.045206,1.9563537,4.022814
-25.093344,1.9580879,4.007144
-25.14764,1.964947,3.9961114
-25.207302,1.9764276,3.9893413
-25.29667,2.0125122,4.0042567
-25.354448,2.0234177,3.9976788
-25.42615,2.04625,4.00185
-25.516838,2.0855908,4.0209465
-25.580431,2.102886,4.021029
-25.640467,2.1176212,4.019156
-25.681961,2.11679,4.003682
-25.731258,2.122889,3.9945993
-25.789495,2.1371121,3.9930568
-25.848148,2.1521287,3.9925156
-25.904655,2.1656592,3.990909
-25.964743,2.1828396,3.9929
-26.015137,2.191642,3.9875202
-26.062267,2.1977499,3.9798946
-26.13097,2.224232,3.9912596
-26.180197,2.233045,3.9866219
-26.247585,2.2594519,3.9985433
-26.29699,2.2692504,3.9953227
-26.34623,2.2792287,3.9924908
-26.375015,2.2694907,3.9713774
-26.395061,2.2510266,3.9421372
-26.36721,2.1843598,3.867392
-26.370705,2.14814,3.8212423
-26.369556,2.1065428,3.7699084
-26.365608,2.0613062,3.7150035
-26.373175,2.0272613,3.6706905
-26.373371,1.9848378,3.6182857
-26.383736,1.9524856,3.5754843
-26.404036,1.9302802,3.5424504
-26.378479,1.8577073,3.4606547
-26.379145,1.8125803,3.4052663
-26.384302,1.7715924,3.353817
-26.34726,1.6822209,3.2550278
-26.347725,1.6337445,3.1959753
-26.363152,1.6015663,3.152831
-26.373875,1.5632968,3.1036777
-26.39397,1.5353544,3.064681
-26.409904,1.5019267,3.020267
-26.373726,1.4048309,2.9126453
-26.389727,1.3694115,2.8660727
-26.383461,1.3057041,2.791267
-26.378218,1.2418702,2.716186
-26.351149,1.1489041,2.6117625
-26.352043,1.0897164,2.541
-26.367218,1.0477843,2.487502
-26.389658,1.0145209,2.4427247
-26.40517,0.9713166,2.387907
-26.378984,0.87074494,2.274909
-26.42005,0.85985947,2.2527466
-35.570484,0.46256757,2.215981
-35.614246,0.4759643,2.2457476
-35.15744,1.0384746,2.8091125
-35.200638,1.0467186,2.8327436
-35.209896,1.0877154,2.887092
-35.214874,1.1321468,2.9445715
-35.22592,1.1701312,2.9959855
-35.237625,1.2069199,3.046247
-35.24504,1.2471304,3.0996113
-35.252476,1.2867098,3.1523247
-35.261833,1.3239408,3.202826
-35.273808,1.3582692,3.2506323
-35.299976,1.3794603,3.2865033
-35.282047,1.4393353,3.357317
-35.294975,1.4712651,3.4028
-35.323082,1.4896145,3.436109
-35.34501,1.5130897,3.4740553
-35.36725,1.5360293,3.5115585
-35.396465,1.5528383,3.5436869
-35.429447,1.5663631,3.5730114
-35.476376,1.5682888,3.5922966
-35.514465,1.5775814,3.6182013
-35.557877,1.5825627,3.6405153
-35.61424,1.5772116,3.654098
-35.667236,1.5748136,3.6704865
-35.72096,1.5720577,3.6868176
-35.779606,1.5656745,3.7003226
-35.84396,1.5551584,3.7106218
-35.890114,1.5589883,3.7333164
-35.916336,1.5781035,3.7690048
-35.965115,1.5800371,3.7904673
-36.089905,1.525248,3.7652202
-36.130367,1.5341349,3.7931232
-36.190273,1.5287566,3.8095255
-36.218178,1.5469756,3.8454294
-36.453148,1.4154735,3.7603526
-36.55079,1.3847759,3.7578373
-36.62665,1.3702626,3.7688255
-36.70717,1.3529158,3.777986
-36.795387,1.3306832,3.7837505
-36.853115,1.330131,3.8070192
-36.916866,1.3256509,3.827527
-36.99886,1.3090346,3.838993
-37.07802,1.2948143,3.8527741
-37.15812,1.280407,3.8668694
-37.25146,1.2576597,3.8751159
-38.62266,0.5321238,3.4475932
-38.64303,0.56394315,3.5021925
-38.66216,0.596272,3.5571756
-38.67449,0.6325741,3.615017
-38.69347,0.66440344,3.6696362
-38.70002,0.70361805,3.729475
-38.704422,0.74375606,3.7898774
-38.705048,0.78577924,3.851489
-38.667114,0.85054445,3.928588
-38.68185,0.88311267,3.9833703
-38.698574,0.91422725,4.03716
-38.755722,0.921376,4.074966
-38.858665,0.9020088,4.095578
-39.054825,0.82939553,4.0820556
-39.208046,0.7827821,4.086767
-39.413185,0.70767784,4.07432
-39.538486,0.6790199,4.0927773
-39.784283,0.58372664,4.070376
-40.00017,0.5068021,4.0611773
-20.804962,0.72900033,4.0475593
-20.977549,0.7841933,4.047434
-21.091705,0.80724907,4.0272474
-21.278008,0.8724041,4.0359616
-21.47665,0.94602895,4.0516977
-21.652346,1.0077143,4.0606875
-21.713396,1.003161,4.0252976
-21.900166,1.0734072,4.0422144
-22.061035,1.1295521,4.050531
-22.121485,1.1262734,4.0179043
-22.319788,1.2070382,4.045578
-22.418926,1.2285502,4.031968
-22.531315,1.2588446,4.025349
-22.689228,1.3182542,4.0407457
-22.752592,1.3194351,4.0142436
-22.95329,1.4079199,4.0529847
-23.015299,1.4094446,4.0279365
-23.163658,1.4668746,4.045421
-23.236126,1.4761488,4.0272512
-23.370173,1.5261543,4.0406876
-23.424479,1.5245016,4.015129
-23.556767,1.5750098,4.0303645
-23.635883,1.5908339,4.019308
-23.764761,1.6408656,4.0356364
-23.8176,1.6399534,4.012394
-23.958199,1.6997478,4.037838
-24.014383,1.7020438,4.018007
-24.118813,1.7384186,4.0259895
-24.212385,1.767931,4.029018
-24.277609,1.7779026,4.016614
-24.357323,1.7986672,4.013434
-24.43747,1.8202925,4.01141
-24.515137,1.8406608,4.00879
-24.61843,1.8805146,4.0228977
-24.669586,1.8823621,4.0056386
-24.752054,1.90798,4.0087285
-24.853981,1.9490039,4.025374
-24.892616,1.9424472,4.0019426
-24.995083,1.9852841,4.0211015
-25.060005,1.9997795,4.0163784
-25.115711,2.0074477,4.0060687
-25.171299,2.015326,3.9962153
-25.223347,2.0206718,3.9844131
-25.323597,2.0652816,4.007415
-25.367065,2.064509,3.9908547
-25.457571,2.1026497,4.0090466
-25.539482,2.1345134,4.0221334
-25.606972,2.1550207,4.025484
-25.65305,2.157915,4.01333
-25.700384,2.162093,4.00254
-25.750902,2.1692502,3.9946685
-25.810999,2.1850524,3.994905
-25.86892,2.1993914,3.9940958
-25.924059,2.2116838,3.9916863
-25.976465,2.2219098,3.9876308
-26.029335,2.2329006,3.9845252
-26.085148,2.2469497,3.9845061
-26.13763,2.2583418,3.9822693
-26.20655,2.2854624,3.9949975
-26.260977,2.2995944,3.9958663
-26.327913,2.3260791,4.008632
-26.363716,2.3232534,3.9940004
-26.386404,2.307745,3.9674635
-26.401617,2.2846994,3.9338007
-26.364819,2.2096303,3.850428
-26.360718,2.1659484,3.7968297
-26.359615,2.124519,3.7452822
-26.372368,2.0965567,3.7066283
-26.359917,2.0420074,3.6422281
-26.373184,2.0133643,3.6028075
-26.374008,1.9710598,3.5500703
-26.389385,1.9435508,3.5116916
-26.40464,1.9154427,3.472723
-26.37447,1.8371234,3.38443
-26.361784,1.77654,3.3133254
-26.346306,1.7116034,3.2377453
-26.352058,1.6693723,3.1844583
-26.36585,1.6355281,3.139432
-26.376526,1.5974336,3.0901527
-26.389872,1.561729,3.0432177
-26.40583,1.5284302,2.9986663
-26.378725,1.4427886,2.901585
-26.37057,1.3782601,2.8254719
-26.388296,1.3441515,2.779872
-26.381481,1.2788069,2.7026968
-26.343103,1.1722169,2.5835881
-26.35175,1.1231318,2.5225291
-26.370722,1.0863132,2.4738894
-26.393112,1.0531943,2.429017
-26.4067,1.0077164,2.3715262
-26.42656,0.9696419,2.321581
-26.410986,0.88251305,2.2212758
-26.42932,0.83998823,2.1666436
-35.562576,0.4555757,2.1334486
-35.599834,0.47599483,2.1699233
-35.167557,1.0674486,2.7838612
-35.191616,1.0943265,2.8251252
-35.197723,1.1380203,2.8822923
-35.222664,1.1631675,2.9219298
-35.219593,1.2142613,2.985927
-35.241714,1.2411203,3.0271502
-35.231667,1.2972066,3.095591
-35.24522,1.3308725,3.1430664
-35.26143,1.3616667,3.1878595
-35.269535,1.399266,3.2389016
-35.252735,1.4583321,3.3095503
-35.258255,1.4968958,3.3612657
-35.295647,1.5072525,3.3872647
-35.320473,1.5283768,3.4231424
-35.337093,1.556256,3.46516
-35.358593,1.5796707,3.5031676
-35.391068,1.5936546,3.5327783
-35.419987,1.6104925,3.565032
-35.4554,1.6218665,3.5925279
-35.496754,1.6283798,3.6158652
-35.548256,1.6267834,3.6322517
-35.598408,1.6264637,3.6499887
-35.655476,1.6208618,3.66336
-35.705677,1.6209092,3.6818938
-35.76497,1.6140852,3.6947427
-35.821545,1.6096447,3.7099237
-35.880306,1.6037977,3.7241821
-35.965446,1.5783129,3.7220898
-35.94734,1.6307383,3.7861385
-36.072884,1.5758522,3.7599936
-36.202152,1.5582902,3.7864218
-36.246162,1.5649176,3.812841
-36.30181,1.5632813,3.8326845
-36.518982,1.4471684,3.7595587
-36.58807,1.4374893,3.7740145
-36.672184,1.4176855,3.7806964
-36.776775,1.3842483,3.7769556
-36.823154,1.3915153,3.80618
-36.881516,1.390713,3.829249
-36.956573,1.3788619,3.8439589
-37.040936,1.3611932,3.85456
-37.122463,1.3459098,3.867497
-37.2265,1.3162837,3.8698936
-38.644722,0.5222821,3.3512607
-38.65081,0.5635903,3.4131808
-38.67048,0.5959034,3.4683552
-38.673096,0.638602,3.5311613
-38.710022,0.6595664,3.5780334
-38.694862,0.71248674,3.6481175
-38.715767,0.74278736,3.7017636
-38.706524,0.79108834,3.768211
-38.680496,0.84893155,3.8411708
-38.70224,0.8776424,3.8934975
-38.713013,0.9126167,3.950189
-38.724926,0.9466059,4.006163
-38.69626,1.0038769,4.0778823
-38.816338,0.9747436,4.09127
-39.01753,0.89995337,4.075133
-39.150105,0.8655343,4.086985
-39.315437,0.8134985,4.088286
-39.480522,0.7626965,4.0915527
-39.664566,0.7024796,4.0900006
-39.90297,0.61364436,4.071765
-40.144905,0.52457786,4.055155
-20.543808,0.7276635,4.056547
-20.669937,0.7545109,4.0367503
-20.863243,0.81933594,4.0428786
-21.079021,0.89806247,4.0596466
-21.250849,0.9535737,4.062297
-21.4113,1.003797,4.062537
-21.48248,1.0039597,4.029458
-21.689487,1.0828419,4.0514383
-21.796902,1.105278,4.03531
-21.917858,1.1362882,4.0259314
-22.116085,1.2138007,4.0505137
-22.223095,1.2383945,4.0383673
-22.324993,1.26056,4.025135
-22.518536,1.3389401,4.053688
-22.583698,1.3403103,4.0267096
-22.74954,1.4040465,4.046497
-22.85297,1.430249,4.0392303
-22.951347,1.4539442,4.0307074
-23.097952,1.5087643,4.0464854
-23.158873,1.5100694,4.0221524
-23.30592,1.5670137,4.0411434
-23.384218,1.5805347,4.027277
-23.456957,1.5908577,4.0113516
-23.591572,1.6423881,4.028356
-23.66985,1.6575167,4.017278
-23.797224,1.7060544,4.0333652
-23.859005,1.7112272,4.0153275
-23.99509,1.7674148,4.0389466
-24.068336,1.7814946,4.0290775
-24.168165,1.8144758,4.0351157
-24.214973,1.81107,4.0117126
-24.306757,1.8395805,4.0150228
-24.398865,1.8690076,4.0196238
-24.447542,1.867898,3.9991088
-24.54264,1.900636,4.0074067
-24.6351,1.9322019,4.0152507
-24.712748,1.9535685,4.014912
-24.800781,1.983233,4.0221186
-24.849352,1.9839296,4.0048237
-24.916958,1.9992545,4.0004396
-25.01521,2.0384858,4.017244
-25.080776,2.0533538,4.013262
-25.131554,2.0571275,3.9998527
-25.182268,2.0610862,3.9868455
-25.277473,2.1006098,4.005676
-25.338009,2.1132438,4.0010295
-25.396313,2.1244702,3.9954205
-25.46723,2.1463623,3.999704
-25.568573,2.1939,4.027553
-25.611357,2.1937761,4.012658
-25.671967,2.2087734,4.0117435
-25.720524,2.213994,4.002167
-25.77747,2.226643,3.9996433
-25.827732,2.233914,3.9924245
-25.886234,2.2486668,3.9923716
-25.940666,2.260267,3.989664
-26.005692,2.2816718,3.9963727
-26.05651,2.2908783,3.9919567
-26.11531,2.3076541,3.9948983
-26.168865,2.3201022,3.994028
-26.205559,2.3173327,3.9789677
-26.29494,2.3639264,4.011039
-26.343464,2.3730054,4.007739
-26.37313,2.3644114,3.9877129
-26.382568,2.3362682,3.9489813
-26.390062,2.3057837,3.90796
-26.403336,2.2804887,3.8719215
-26.361443,2.1999073,3.7821794
-26.367239,2.165708,3.7372818
-26.360907,2.118594,3.6797056
-26.367876,2.0842698,3.6345377
-26.363495,2.0375588,3.577139
-26.368273,1.9995844,3.528236
-26.376434,1.9645073,3.482133
-26.401697,1.947154,3.4535613
-26.38183,1.880585,3.3760915
-26.336464,1.7846794,3.2691436
-26.342075,1.7433186,3.2163796
-26.359526,1.7144506,3.1760788
-26.366879,1.6736038,3.123732
-26.375929,1.6339073,3.0724878
-26.377848,1.5851414,3.0120258
-26.389782,1.5471499,2.962389
-26.412476,1.5212154,2.924965
-26.375242,1.4226239,2.8135862
-26.383924,1.377768,2.7567277
-26.351933,1.28177,2.647489
-26.343464,1.212939,2.5658116
-26.367012,1.1830533,2.5239983
-26.365242,1.120141,2.4481888
-26.381039,1.0785806,2.3942966
-26.382084,1.0167234,2.3193812
-26.385067,0.9559994,2.2455297
-26.400473,0.9106047,2.1875038
-26.431984,0.88619304,2.1512904
-35.626816,0.43839288,2.0475144
-35.15782,1.1198106,2.7727332
-35.185997,1.1425288,2.8101492
-35.19141,1.1865635,2.8680139
-35.253517,1.1766346,2.8743453
-35.214954,1.260695,2.9702387
-35.224636,1.2988462,3.0223103
-35.22001,1.3494594,3.08608
-35.230938,1.3852129,3.1357403
-35.25081,1.4124496,3.1773815
-35.260715,1.4481514,3.2269297
-35.250835,1.5006745,3.2920547
-35.2634,1.5328813,3.3382034
-35.291733,1.5510948,3.3714247
-35.307358,1.5799496,3.414485
-35.32782,1.6043539,3.4534683
-35.35388,1.6237934,3.487955
-35.379658,1.6432807,3.5225458
-35.409843,1.6589637,3.5537624
-35.443172,1.671974,3.5826669
-35.489223,1.6746826,3.6024694
-35.527718,1.6835399,3.6279426
-35.577087,1.6838193,3.6459613
-35.627846,1.6831872,3.6633954
-35.69879,1.6670816,3.66748
-35.747585,1.6684725,3.6872106
-35.806217,1.6625257,3.7007842
-35.867058,1.655196,3.713449
-35.92801,1.6480975,3.726613
-35.902462,1.7054379,3.795219
-36.040146,1.6419992,3.7607527
-36.115807,1.6250329,3.7664528
-36.140804,1.6451304,3.8037596
-36.21888,1.6270807,3.8091998
-36.264874,1.6322906,3.8344269
-36.446693,1.5420818,3.7809224
-36.579315,1.4879203,3.758215
-36.650787,1.4771564,3.77179
-36.717907,1.4697602,3.7884884
-36.818264,1.4401093,3.787582
-36.874374,1.4409723,3.8117404
-36.945667,1.4318845,3.8282542
-37.017075,1.4230819,3.8453865
-37.097805,1.4085174,3.8583837
-37.17332,1.3978009,3.8748484
-37.277626,1.3688917,3.8776393
-38.61219,0.55312514,3.2755423
-38.648396,0.57541466,3.323172
-38.664658,0.61014485,3.380365
-38.68673,0.64092755,3.4345713
-38.70915,0.67124057,3.4884539
-38.72001,0.708406,3.5474443
-38.708004,0.75913906,3.6163478
-38.66085,0.8305218,3.7000766
-38.673843,0.8649614,3.756639
-38.692814,0.89554286,3.8104076
-38.71783,0.9223151,3.8614898
-38.731888,0.9553113,3.9170113
-38.655636,1.0403671,4.0087934
-38.674988,1.0693357,4.0611544
-38.76304,1.0589104,4.086609
-38.951103,0.9923446,4.0746164
-39.07366,0.9638603,4.089472
-39.245594,0.9086206,4.087411
-39.424004,0.8509605,4.0849757
-39.63825,0.77487946,4.0718546
-39.818924,0.7185302,4.072959
-40.036476,0.64349794,4.063504
-40.24895,0.5726664,4.0582833
-40.4461,0.5113919,4.060548
-20.244053,0.71832275,4.048676
-20.418255,0.76857805,4.04304
-20.656567,0.85449195,4.0621943
-20.831896,0.9078963,4.0613394
-21.040804,0.98085,4.074904
-21.13659,0.992826,4.0483465
-21.267885,1.025043,4.036342
-21.46072,1.0925975,4.049797
-21.594322,1.1280172,4.042009
-21.704548,1.1509516,4.0262504
-21.904316,1.2260277,4.0485096
-22.047005,1.2695014,4.0493155
-22.126762,1.2771454,4.0249615
-22.307323,1.3446023,4.045026
-22.453245,1.3928325,4.0520535
-22.53289,1.4023726,4.031127
-22.672232,1.4483967,4.0381455
-22.760937,1.4645584,4.023392
-22.938803,1.5360298,4.051478
-23.032232,1.5565901,4.0414863
-23.156757,1.5971596,4.047591
-23.234673,1.6092505,4.032197
-23.367619,1.6567516,4.0451465
-23.411697,1.6482923,4.014527
-23.566063,1.71122,4.0411425
-23.606058,1.700841,4.009771
-23.754597,1.7618902,4.036406
-23.795914,1.7530546,4.0070167
-23.94095,1.8136787,4.0347767
-23.993317,1.8129992,4.01284
-24.104107,1.8522832,4.024345
-24.195704,1.8792641,4.026227
-24.266151,1.8922553,4.016876
-24.355589,1.9189374,4.0194755
-24.427023,1.9335823,4.012347
-24.480717,1.936053,3.995193
-24.622261,2.0017958,4.032687
-24.656626,1.9912899,4.0051336
-24.742882,2.0186834,4.0106387
-24.839449,2.054346,4.0238414
-24.885014,2.052895,4.005007
-24.969471,2.0807788,4.012258
-25.0528,2.1084886,4.019813
-25.094475,2.1050408,4.0000577
-25.139671,2.1044111,3.9830046
-25.21733,2.129208,3.9890199
-25.307653,2.164578,4.004998
-25.350334,2.1629946,3.9879227
-25.437803,2.197389,4.003833
-25.516644,2.2256217,4.014569
-25.572931,2.236154,4.0094376
-25.650352,2.264441,4.0209723
-25.683,2.256213,3.9990401
-25.732855,2.262419,3.9906669
-25.783909,2.2699127,3.9837232
-25.840021,2.2820344,3.9813547
-25.89529,2.2938128,3.9789257
-25.956762,2.3113832,3.982232
-26.016674,2.3280747,3.9849992
-26.07694,2.345562,3.9888067
-26.137547,2.3638477,3.9936652
-26.188515,2.3739011,3.9909053
-26.246105,2.3903708,3.9945555
-26.302807,2.406496,3.998139
-26.348888,2.4131587,3.992803
-26.37431,2.400572,3.9689245
-26.381329,2.3702953,3.927835
-26.369183,2.321038,3.868104
-26.395012,2.3079064,3.8437252
-26.396437,2.2705948,3.7955685
-26.37172,2.2066,3.7209377
-26.369349,2.1638656,3.6671648
-26.36194,2.1152263,3.607408
-26.385357,2.0973694,3.5782413
-26.360695,2.02929,3.498845
-26.37225,1.997915,3.4560585
-26.383745,1.9659302,3.41263
-26.412733,1.952173,3.3875766
-26.338215,1.8257627,3.24856
-26.342176,1.7828853,3.1937938
-26.358557,1.7529852,3.1521578
-26.36643,1.7129791,3.100206
-26.371283,1.6687548,3.0438843
-26.371662,1.6184967,2.9812999
-26.378508,1.5747311,2.9252892
-26.39318,1.5393026,2.8778076
-26.380222,1.4702067,2.7955256
-26.38535,1.4214246,2.734097
-26.34438,1.3152454,2.6130219
-26.343761,1.2565324,2.5409746
-26.369726,1.2298346,2.5021887
-26.391335,1.1970968,2.457129
-26.37372,1.1132605,2.3585763
-26.385582,1.0658104,2.2979894
-26.39313,1.0115986,2.2302442
-26.396534,0.95058775,2.155261
-26.391441,0.87661123,2.0664916
-26.42964,0.86024976,2.0385208
-35.465755,0.7146499,2.2562575
-35.180046,1.1509535,2.7322521
-35.164356,1.2153654,2.8105164
-35.189545,1.2402694,2.8501887
-35.203342,1.2754359,2.8998313
-35.212288,1.3145435,2.9532456
-35.22745,1.347383,3.0005727
-35.22148,1.3988047,3.065679
-35.23549,1.4315543,3.112811
-35.24963,1.463722,3.1593642
-35.260727,1.4981053,3.2079926
-35.27194,1.5318971,3.2560186
-35.2917,1.5578794,3.2966652
-35.28761,1.6038098,3.3560047
-35.30905,1.6275461,3.3945088
-35.32881,1.6524057,3.4340835
-35.35219,1.6739881,3.4706454
-35.377243,1.693963,3.5057688
-35.410076,1.7074385,3.534986
-35.444065,1.7199111,3.5633926
-35.47787,1.7324741,3.5919962
-35.526566,1.7332468,3.6100416
-35.57181,1.7368777,3.6308756
-35.619087,1.739049,3.6505895
-35.657967,1.7477977,3.6763802
-35.735294,1.7273543,3.676393
-35.789658,1.7247534,3.6925821
-35.851868,1.7165277,3.7040792
-35.892086,1.7248917,3.7304006
-35.89274,1.7622902,3.782155
-35.988743,1.729949,3.7734237
-36.077255,1.7037628,3.7705364
-36.0991,1.7257955,3.8094401
-36.155785,1.7229881,3.827227
-36.211037,1.7214246,3.8463473
-36.34921,1.6624548,3.8174005
-36.537323,1.5702939,3.7615094
-36.593693,1.5699012,3.783167
-36.716927,1.5244474,3.7678351
-36.771355,1.5261636,3.7920203
-36.83561,1.5215161,3.811275
-36.899925,1.5171173,3.831069
-36.98726,1.4979427,3.8392916
-37.06793,1.4836268,3.8519082
-37.1457,1.4716327,3.8668294
-37.232933,1.4540181,3.8777523
-38.63933,0.60279703,3.235435
-38.664673,0.6320243,3.2885723
-38.68015,0.66715217,3.3463182
-38.699078,0.6998303,3.402164
-38.70881,0.7378452,3.4620762
-38.650322,0.8168521,3.5528855
-38.663498,0.8517208,3.6100698
-38.680996,0.88369536,3.6650705
-38.685947,0.9228194,3.7253418
-38.69844,0.9571364,3.782011
-38.711258,0.9909582,3.8382897
-38.673862,1.0534503,3.9151206
-38.680626,1.0899127,3.97303
-38.693455,1.1225967,4.028207
-38.70417,1.1561925,4.0839953
-38.832737,1.1237116,4.094062
-39.054684,1.0403175,4.0701394
-39.191814,1.0051224,4.0804596
-39.332684,0.96873,4.090914
-39.53354,0.900795,4.0814095
-39.70067,0.85231066,4.0861096
-39.881012,0.79787016,4.088129
-40.110268,0.718806,4.0756407
-40.33533,0.64350843,4.0672245
-40.53651,0.58211637,4.069179
-19.92625,0.70681953,4.0486155
-20.157772,0.7838249,4.0591364
-20.350266,0.8419831,4.0588803
-20.456795,0.85604763,4.030543
-20.6482,0.91579485,4.033731
-20.837212,0.97554183,4.0382566
-21.058098,1.0538051,4.056855
-21.240538,1.1126835,4.0635076
-21.326801,1.1199436,4.035125
-21.490747,1.1706574,4.038115
-21.678783,1.2359483,4.0526543
-21.79949,1.2646482,4.0420103
-21.909214,1.2878463,4.0281277
-22.103394,1.3600812,4.051037
-22.191925,1.3727379,4.031012
-22.314266,1.4055538,4.026617
-22.486923,1.468723,4.0459175
-22.547245,1.4666512,4.016689
-22.733831,1.5402126,4.045818
-22.827934,1.5595353,4.0342298
-22.940006,1.5903337,4.0321465
-23.07691,1.6370964,4.0432825
-23.173897,1.6602156,4.036582
-23.272919,1.6852169,4.031959
-23.36848,1.7086914,4.0266986
-23.456743,1.7281568,4.018762
-23.557085,1.7558928,4.018061
-23.659342,1.7855515,4.0195246
-23.77112,1.8221242,4.027286
-23.85802,1.843216,4.0228767
-23.963558,1.877209,4.0297246
-24.03091,1.8865077,4.0164595
-24.131138,1.9183013,4.02255
-24.215221,1.9398856,4.020546
-24.289333,1.9552093,4.0136566
-24.397217,1.9943365,4.0276265
-24.437607,1.9872816,4.0023017
-24.537348,2.0220447,4.0134945
-24.638752,2.058793,4.026985
-24.68604,2.0576265,4.0077434
-24.775099,2.0868015,4.015511
-24.83865,2.0980859,4.007888
-24.926947,2.1279585,4.017168
-24.997791,2.1455917,4.0159554
-25.05287,2.151908,4.0049143
-25.113443,2.1626673,3.9981585
-25.179413,2.1779118,3.9957795
-25.239603,2.189158,3.990077
-25.328505,2.223095,4.0054965
-25.379948,2.228445,3.9950347
-25.455082,2.2528229,4.0024285
-25.537937,2.2839913,4.016524
-25.603512,2.301969,4.0187325
-25.648117,2.303363,4.005712
-25.704618,2.3147264,4.0022697
-25.755001,2.321384,3.9946432
-25.807886,2.330421,3.9895
-25.860615,2.3396556,3.9847865
-25.920284,2.3551579,3.9863086
-25.984182,2.3747673,3.992055
-26.040752,2.3885245,3.9924679
-26.093925,2.3997152,3.9906573
-26.150045,2.413897,3.9919915
-26.201561,2.424374,3.9899716
-26.249798,2.4322348,3.985621
-26.326773,2.4667397,4.0076184
-26.370852,2.471634,4.0008492
-26.359142,2.4245818,3.9429545
-26.3644,2.3927302,3.8999686
-26.396988,2.3864558,3.8823528
-26.383522,2.335742,3.8205318
-26.382015,2.295761,3.7692795
-26.405598,2.2798035,3.742034
-26.356657,2.1913853,3.6419187
-26.369293,2.1632159,3.6022344
-26.34829,2.1003294,3.5273924
-26.378437,2.088861,3.5045323
-26.36184,2.0286388,3.4321246
-26.377228,2.0008826,3.3926682
-26.366158,1.9444997,3.323903
-26.393002,1.9277923,3.295701
-26.357018,1.842469,3.196947
-26.37052,1.8098226,3.152236
-26.373959,1.7653644,3.0952873
-26.367105,1.7084248,3.0253153
-26.3669,1.6578763,2.9618473
-26.381927,1.6238596,2.9155035
-26.369476,1.5571029,2.8349433
-26.37932,1.5152354,2.7802682
-26.411327,1.4990201,2.7524643
-26.345177,1.3636975,2.5994558
-26.339535,1.2993577,2.520793
-26.370806,1.2793925,2.4888692
-26.372194,1.2215219,2.4168792
-26.37407,1.1629534,2.3440442
-26.370346,1.0958214,2.262002
-26.385372,1.0516045,2.2042398
-26.377733,0.97637963,2.1133413
-26.412626,0.9563937,2.0813742
-26.405691,0.87915874,1.9881234
-26.438608,0.8549304,1.9516368
-35.45571,0.7161312,2.1661372
-35.50905,0.7195065,2.1854897
-35.141422,1.2800288,2.8057976
-35.187126,1.2855544,2.8264704
-35.20213,1.3194084,2.875134
-35.225246,1.34537,2.916048
-35.21377,1.402189,2.9870954
-35.227703,1.4353738,3.034978
-35.217793,1.4891598,3.1027923
-35.23816,1.5155678,3.1440034
-35.243412,1.5547333,3.1975002
-35.26995,1.5750499,3.2328596
-35.25924,1.6268103,3.298287
-35.256863,1.6707373,3.3560896
-35.28862,1.6855469,3.3861938
-35.312885,1.7064362,3.4221263
-35.334843,1.7289963,3.4596748
-35.361816,1.7472441,3.4932232
-35.38919,1.7650051,3.5263834
-35.41698,1.7822828,3.559165
-35.453377,1.7926369,3.5856247
-35.492374,1.8009531,3.6103415
-35.536774,1.8051181,3.6314054
-35.583897,1.8073013,3.6508474
-35.63379,1.8075249,3.6687136
-35.687897,1.804754,3.6840992
-35.746296,1.7990208,3.6970735
-35.814022,1.7866871,3.7044272
-35.871223,1.7824628,3.719336
-35.932083,1.7758467,3.7324004
-35.948986,1.8011279,3.7738442
-36.041763,1.7721045,3.7677422
-36.07292,1.7872853,3.8006573
-36.114864,1.7948439,3.827073
-36.147846,1.8086774,3.8590722
-36.180626,1.8226013,3.8912673
-36.445667,1.6781845,3.7887373
-36.562305,1.636735,3.7750797
-36.65245,1.6139464,3.7778172
-36.737633,1.5950546,3.7843237
-36.804848,1.588522,3.8015804
-36.865284,1.5867367,3.8231134
-36.94491,1.5727777,3.8349667
-37.02164,1.5611248,3.8491445
-37.110138,1.5424032,3.8580246
-37.183342,1.5338602,3.8756027
-38.648045,0.6556828,3.1990018
-38.68049,0.6804862,3.2487693
-38.700756,0.7126229,3.3044066
-38.704742,0.75441074,3.3676
-38.675564,0.81580806,3.4458995
-38.664665,0.8654885,3.514841
-38.6835,0.8969343,3.5696502
-38.706703,0.92554307,3.6223187
-38.72546,0.9565418,3.676827
-38.695145,1.0157342,3.7523518
-38.68191,1.0643947,3.8197494
-38.690865,1.0998645,3.877266
-38.697678,1.1362224,3.9353719
-38.710564,1.1688411,3.9907184
-38.703167,1.2124658,4.0538826
-38.798767,1.1988299,4.0764647
-38.9361,1.1628561,4.084039
-39.092213,1.1175463,4.0860806
-39.27567,1.0585377,4.0798135
-39.439655,1.0111585,4.0827165
-39.641296,0.9449012,4.0741053
-39.808186,0.89825845,4.079941
-40.019737,0.829407,4.07239
-40.249973,0.7523258,4.0610337
-40.4529,0.69078994,4.0613217
-40.670227,0.6232481,4.0592837
-40.930424,0.5355122,4.0462203
-19.637665,0.7015197,4.0639663
-19.788437,0.7342739,4.044271
-20.010586,0.8042598,4.050085
-20.23106,0.8748653,4.0579004
-20.390461,0.91532373,4.0470214
-20.633957,1.0006738,4.067743
-20.817413,1.0561309,4.069663
-20.954002,1.087924,4.056431
-21.09692,1.1239226,4.047056
-21.281944,1.183533,4.055353
-21.442118,1.230895,4.056157
-21.555325,1.2535491,4.040199
-21.686417,1.2867494,4.032646
-21.861488,1.3453126,4.044588
-21.95062,1.3567698,4.022759
-22.115505,1.4116566,4.0339603
-22.277231,1.465915,4.045772
-22.375896,1.4849582,4.031845
-22.530771,1.5372708,4.0440397
-22.617476,1.5507166,4.027179
-22.732006,1.5810945,4.024023
-22.90588,1.6476326,4.049971
-22.976496,1.6534023,4.028957
-23.133152,1.7117145,4.0502143
-23.184376,1.7067199,4.0216374
-23.34298,1.7681468,4.0470195
-23.372833,1.7506924,4.009175
-23.51706,1.8049734,4.030238
-23.600233,1.8217397,4.021234
-23.698557,1.848685,4.0211544
-23.7896,1.8716178,4.01829
-23.898605,1.9068305,4.026275
-23.999512,1.9375529,4.031098
-24.062977,1.9442527,4.0160437
-24.181936,1.988293,4.0333085
-24.224741,1.9820504,4.0079417
-24.326397,2.0158525,4.0174685
-24.42681,2.049593,4.027521
-24.470753,2.0451002,4.0046325
-24.568966,2.0785534,4.0153766
-24.646996,2.0985947,4.0147886
-24.723267,2.1179326,4.01399
-24.815098,2.1489468,4.0240464
-24.858414,2.145639,4.003727
-24.93457,2.1664002,4.005357
-25.02671,2.1994805,4.018579
-25.066864,2.1947308,3.9977632
-25.12741,2.205352,3.991212
-25.198238,2.2241194,3.9924626
-25.285397,2.2558732,4.0060954
-25.33072,2.2561495,3.9909186
-25.378767,2.2587152,3.978075
-25.48597,2.3079429,4.009217
-25.555866,2.3286967,4.0141172
-25.618029,2.34382,4.0140405
-25.665915,2.3478568,4.0037313
-25.711067,2.3499026,3.991733
-25.768703,2.362423,3.9899564
-25.82678,2.3757102,3.9891858
-25.887888,2.3919544,3.99154
-25.941608,2.4024103,3.9885745
-25.993864,2.4119697,3.98498
-26.051691,2.426686,3.98665
-26.122562,2.4532375,4.0001774
-26.162182,2.4529066,3.987627
-26.206783,2.4571557,3.9797492
-26.260597,2.4699268,3.9804897
-26.341879,2.5080738,4.0066676
-26.357782,2.4871044,3.9743495
-26.372799,2.465021,3.940929
-26.366505,2.4226358,3.887157
-26.445057,2.4598942,3.9133806
-26.371937,2.3528652,3.794385
-26.364025,2.3068016,3.73658
-26.39883,2.3016722,3.720199
-26.36662,2.2303345,3.636519
-26.361378,2.1845455,3.5786529
-26.367117,2.1489935,3.531149
-26.370604,2.1105108,3.4805784
-26.366882,2.063881,3.4215455
-26.366135,2.019466,3.3646865
-26.350718,1.9587152,3.290814
-26.364624,1.9280522,3.2479944
-26.391983,1.9113703,3.2197132
-26.36021,1.8298614,3.1238399
-26.365305,1.787358,3.0684962
-26.367416,1.7406807,3.0087032
-26.367172,1.6903944,2.9450297
-26.37703,1.6506343,2.8923464
-26.359982,1.5789065,2.8058472
-26.373936,1.5419574,2.7559738
-26.403503,1.5228009,2.7249556
-26.345226,1.3977714,2.5813923
-26.359634,1.3582253,2.5285172
-26.381483,1.3270204,2.4845233
-26.363523,1.2455237,2.386703
-26.371151,1.1944385,2.3212986
-26.36272,1.1216433,2.2324848
-26.375021,1.0740063,2.1706114
-26.389954,1.0287416,2.1112518
-26.397919,0.97316337,2.0407066
-26.385265,0.8884294,1.9384975
-26.405994,0.84723806,1.8833694
-35.336845,0.65018034,1.9747453
-35.4478,0.59570026,1.9341879
-35.37442,0.7275479,2.0846462
-35.142143,1.3186209,2.7890587
-35.17811,1.3331833,2.8186598
-35.186863,1.3724713,2.8729486
-35.242596,1.3687115,2.8845167
-35.205013,1.4486604,2.97898
-35.230755,1.4711356,3.0165353
-35.22647,1.5196669,3.0796905
-35.230965,1.5598028,3.134503
-35.25853,1.5795085,3.1693416
-35.260002,1.6212113,3.2255788
-35.257584,1.6655653,3.284277
-35.281925,1.6869144,3.320706
-35.29344,1.7186294,3.3671203
-35.311096,1.7448964,3.4082952
-35.33301,1.7673857,3.4458818
-35.35191,1.7920563,3.485568
-35.380554,1.8086872,3.5176826
-35.40963,1.8248456,3.54943
-35.439835,1.8400035,3.5803223
-35.481495,1.8461971,3.6029549
-35.525146,1.8509336,3.6243987
-35.572212,1.8531728,3.643714
-35.62625,1.8503103,3.6585426
-35.68104,1.84712,3.673317
-35.738724,1.8420396,3.686623
-35.805027,1.8309262,3.6947374
-35.858627,1.8294132,3.711833
-35.903625,1.8342996,3.7349186
-35.913834,1.8640668,3.7803955
-35.94978,1.875325,3.8094068
-36.071095,1.8268473,3.7858076
-36.101276,1.8426132,3.819333
-36.13566,1.855408,3.8503609
-36.16614,1.8708291,3.8837972
-36.42622,1.7311366,3.7833767
-36.534626,1.6956053,3.7740436
-36.596077,1.6920521,3.792633
-36.694683,1.6643288,3.7910266
-36.81119,1.6256218,3.780725
-36.834232,1.6482165,3.822483
-36.92606,1.6265507,3.8274364
-37.009705,1.6106691,3.8377008
-37.086597,1.5995319,3.852336
-37.15352,1.5950313,3.8728147
-37.26741,1.5617406,3.8703127
-38.684658,0.728961,3.2248893
-38.694656,0.767267,3.285595
-38.657368,0.8337412,3.3685908
-38.678795,0.86422014,3.422843
-38.697388,0.8961389,3.4782438
-38.70349,0.9351418,3.539145
-38.718697,0.96844625,3.5955787
-38.67199,1.0372984,3.6791286
-38.681946,1.0727496,3.7369308
-38.688137,1.1100204,3.7960477
-38.70443,1.1412361,3.8505821
-38.716995,1.1742892,3.9064722
-38.715088,1.2150991,3.9680037
-38.700195,1.262645,4.0342813
-38.72781,1.2864707,4.083309
-38.872528,1.2467656,4.0872765
-39.040295,1.1956081,4.084161
-39.20113,1.1492553,4.0855455
-39.368412,1.100538,4.086406
-39.55147,1.0446396,4.083527
-39.72926,0.9926846,4.0845985
-39.940807,0.92448044,4.076074
-40.119892,0.8742821,4.080953
-40.346596,0.80107355,4.0720963
-40.588737,0.72161555,4.060863
-40.82231,0.6480427,4.0551596
-41.060173,0.57388043,4.0508084
-19.495445,0.7352736,4.0605426
-19.762016,0.82387495,4.0771236
-19.952045,0.8760576,4.071529
-20.172256,0.9446368,4.0782537
-20.257816,0.9463062,4.0412188
-20.50654,1.0318615,4.0621657
-20.639881,1.0595868,4.0448427
-20.841276,1.1235063,4.0537252
-21.038513,1.1866121,4.063425
-21.203945,1.234232,4.0634255
-21.337872,1.2661242,4.0532007
-21.471409,1.2986238,4.044293
-21.641037,1.3515353,4.0512495
-21.733955,1.3636291,4.0290728
-21.887661,1.4097457,4.0329113
-22.077684,1.4771147,4.0537896
-22.125433,1.4660406,4.016228
-22.323956,1.5403638,4.0444407
-22.449305,1.5744383,4.0428205
-22.525734,1.5811856,4.0206666
-22.721148,1.6573555,4.0535297
-22.782509,1.6565945,4.026713
-22.956398,1.722492,4.0534353
-23.034016,1.73243,4.036265
-23.14948,1.7654982,4.038269
-23.244787,1.7871516,4.0316586
-23.370382,1.8279071,4.0412955
-23.456348,1.8451698,4.032263
-23.579388,1.8859918,4.043335
-23.632175,1.8837001,4.0190077
-23.755886,1.9264259,4.032918
-23.822218,1.9335122,4.0173073
-23.931957,1.9688575,4.026186
-24.003187,1.9800355,4.0149307
-24.113567,2.0172462,4.0265617
-24.20684,2.044014,4.029748
-24.264515,2.0477371,4.013299
-24.344482,2.0667057,4.0105457
-24.428608,2.089027,4.0111885
-24.513126,2.1122088,4.0130534
-24.631771,2.1595562,4.036984
-24.665028,2.1484625,4.0090594
-24.752169,2.1752262,4.0154643
-24.848999,2.2095327,4.029188
-24.885689,2.201601,4.004892
-24.955343,2.2175121,4.0026073
-25.054571,2.2554474,4.0209727
-25.097408,2.2527797,4.002283
-25.157833,2.26329,3.9960327
-25.21389,2.2708983,3.987362
-25.30105,2.3023403,4.001328
-25.358727,2.312035,3.995246
-25.447784,2.3462605,4.012665
-25.521976,2.369735,4.0203266
-25.581554,2.382347,4.0179873
-25.641592,2.3957255,4.016665
-25.670628,2.3847108,3.9921389
-25.730402,2.3984802,3.991663
-25.78796,2.4108663,3.9901257
-25.844646,2.4229345,3.9885426
-25.899822,2.4341364,3.986373
-25.953505,2.4444604,3.9835906
-26.023726,2.46917,3.9952207
-26.071815,2.475564,3.98908
-26.126125,2.4876204,3.9887633
-26.180853,2.5004334,3.989441
-26.230978,2.5095906,3.9867096
-26.280313,2.5183787,3.9838228
-26.364002,2.5584393,4.0126047
-26.358925,2.5186791,3.961244
-26.372091,2.4950142,3.9260664
-26.356102,2.443909,3.8630142
-26.421661,2.4684453,3.8768487
-26.348553,2.3620677,3.7571974
-26.352537,2.3274987,3.7106385
-26.359995,2.2957046,3.6668692
-26.3865,2.2820315,3.6417418
-26.357481,2.2132244,3.559668
-26.35865,2.173284,3.5072722
-26.356512,2.1292667,3.450553
-26.370216,2.100639,3.4097772
-26.359386,2.0461333,3.3419328
-26.363216,2.0058951,3.2888904
-26.356243,1.9534619,3.2229586
-26.384747,1.9379659,3.1958141
-26.372223,1.8778386,3.1215882
-26.36388,1.8210511,3.050733
-26.362791,1.7711303,2.9870229
-26.36253,1.7211144,2.9231052
-26.375998,1.6856518,2.87461
-26.359379,1.6149387,2.7884026
-26.366215,1.5699384,2.7295532
-26.350243,1.4971619,2.640808
-26.390059,1.4892192,2.6216507
-26.367632,1.4061632,2.5215888
-26.373817,1.3561332,2.456995
-26.375551,1.2994921,2.3851676
-26.372528,1.2356074,2.305376
-26.385166,1.1901186,2.2454677
-26.36413,1.1003077,2.1372113
-26.376835,1.0522573,2.0743303
-26.385794,0.9981568,2.0047832
-26.417255,0.972888,1.9667735
-26.395786,0.875298,1.8493958
-35.229443,0.6883249,1.9163656
-35.295486,0.67905045,1.9214239
-35.277264,0.7558813,2.0163774
-35.31002,0.7799635,2.056332
-35.080704,1.3682222,2.764557
-35.09914,1.3988304,2.8102708
-35.176857,1.3748052,2.8007698
-35.18188,1.4172335,2.8585606
-35.21161,1.4368639,2.8933792
-35.204876,1.4886079,2.9603972
-35.209255,1.5297503,3.0166917
-35.228794,1.5570843,3.0591779
-35.229443,1.6003134,3.117414
-35.249935,1.6259742,3.1582098
-35.2597,1.6603627,3.207602
-35.27413,1.6903672,3.2526536
-35.296608,1.7133207,3.2908063
-35.289093,1.7605801,3.3526182
-35.30736,1.7861996,3.393324
-35.320564,1.8155799,3.4376655
-35.34608,1.8347878,3.4722133
-35.365902,1.8583035,3.5109391
-35.394203,1.8749344,3.5431256
-35.436623,1.8805153,3.5649052
-35.463825,1.8978336,3.5979376
-35.508774,1.9015439,3.6182418
-35.55089,1.9074976,3.6408315
-35.601334,1.9073226,3.657874
-35.6539,1.9057646,3.6738563
-35.710754,1.9012861,3.687376
-35.769825,1.8954687,3.6999307
-35.83401,1.8862722,3.7096744
-35.883217,1.8880966,3.7297626
-35.908497,1.9069581,3.7654953
-35.94078,1.9207778,3.7967496
-36.04753,1.8829374,3.7818165
-36.095993,1.8860025,3.8039489
-36.130352,1.8988047,3.8349319
-36.17568,1.9041796,3.8594923
-36.246334,1.8927193,3.8694901
-36.49137,1.766057,3.7794223
-36.581333,1.7437165,3.7813177
-36.64963,1.7360826,3.7963848
-36.74852,1.7090414,3.795187
-36.796516,1.7152581,3.822863
-36.88056,1.6987052,3.8314996
-36.950943,1.6912532,3.8482528
-37.03772,1.6739187,3.857129
-37.120846,1.6593611,3.8688016
-37.228447,1.63027,3.8689666
-38.650604,0.80286646,3.2165532
-38.654892,0.844275,3.2798767
-38.671272,0.8780272,3.3369246
-38.689556,0.91035366,3.392817
-38.695377,0.9497299,3.4543157
-38.696617,0.9913833,3.5175247
-38.66581,1.051117,3.594768
-38.665737,1.092519,3.657432
-38.68214,1.1241395,3.7124386
