x,y,z
-29.58692,2.152142,1.5803399
-29.636292,2.2013204,1.6550655
-29.680618,2.2190921,1.6815925
-29.72757,2.263646,1.7493782
-29.765148,2.2266912,1.691894
-29.808117,2.2399101,1.7116365
-29.850304,2.247253,1.7224112
-29.893372,2.2699559,1.7568846
-29.935486,2.285146,1.7798715
-29.97657,2.285737,1.780467
-30.017693,2.2880683,1.7838068
-30.058788,2.2915952,1.789053
-30.099981,2.308851,1.8154893
-30.140753,2.3093197,1.8161621
-30.181896,2.2668443,1.750824
-30.211876,2.827143,2.6130176
-30.246628,2.834975,2.625197
-30.281324,2.8401716,2.6333766
-30.31576,2.8481805,2.6459389
-30.349314,2.8671699,2.6754484
-30.382736,2.8824298,2.6992726
-30.415825,2.8977723,2.7232766
-30.448788,2.9110188,2.7441068
-30.481401,2.9248908,2.765952
-30.514105,2.9355783,2.78295
-30.546576,2.9463468,2.8001223
-30.579903,2.9495838,2.8057685
-30.613583,2.950188,2.8074226
-30.646898,2.9530523,2.8126035
-30.680637,2.9532862,2.8137965
-30.71428,2.9541504,2.8160138
-30.74694,2.9599833,2.8259153
-30.778572,2.9702356,2.8426552
-30.810707,2.9773118,2.854569
-30.84572,2.9714708,2.8467069
-30.880478,2.9673483,2.8415413
-30.9141,2.9681866,2.8440442
-30.948006,2.9680307,2.8450794
-30.981178,2.9706645,2.8504467
-31.014463,2.9728432,2.8551702
-31.049013,2.9707925,2.8534684
-31.083792,2.9682958,2.8511415
-31.117949,2.968046,2.8523154
-31.151407,2.9700377,2.8569775
-31.185398,2.970504,2.8593602
-31.220167,2.968911,2.8586502
-31.255188,2.9668748,2.8573232
-31.287624,2.9719021,2.8668504
-31.320179,2.9764748,2.8757358
-31.358694,2.9661498,2.8619251
-31.396353,2.9586105,2.8524404
-31.431015,2.9586535,2.854591
-31.466635,2.9566562,2.8536901
-31.50304,2.953158,2.8505645
-31.540773,2.947102,2.8436089
-31.575653,2.9475305,2.8465967
-31.61132,2.9464607,2.847364
-31.647827,2.9438984,2.8459249
-31.68415,2.9419672,2.8455114
-31.720268,2.940666,2.8461199
-31.758408,2.9357688,2.8413339
-31.795824,2.932564,2.8391871
-31.832758,2.9305184,2.8388686
-31.86947,2.929103,2.839573
-31.906246,2.9277902,2.8404999
-31.941845,2.9286773,2.8448238
-31.980923,2.9239042,2.8406496
-32.0211,2.917679,2.8343558
-32.056553,2.9194,2.8401456
-32.094326,2.917571,2.84064
-32.133526,2.9137704,2.8382306
-32.17216,2.9111242,2.8376384
-32.21019,2.9096267,2.838851
-32.24829,2.9082384,2.8403
-32.284294,2.910059,2.8466482
-32.320663,2.911463,2.852437
-32.36076,2.9078226,2.8507175
-32.399467,2.9063568,2.8523417
-32.440926,2.9014158,2.848833
-32.479427,2.9006953,2.8517303
-32.519955,2.897534,2.8510504
-32.561398,2.8934758,2.849112
-32.602158,2.8905618,2.848969
-32.6422,2.8887868,2.8506083
-32.68233,2.8871312,2.852508
-32.723804,2.8840804,2.8524098
-32.76411,2.8826694,2.8548393
-32.80536,2.8803737,2.8560367
-32.84758,2.8771996,2.8560147
-32.891693,2.8721533,2.8533063
-32.934166,2.869247,2.8538651
-32.977657,2.865476,2.8532352
-33.023582,2.8593554,2.849227
-33.0669,2.8563628,2.8499413
-33.11174,2.852021,2.8487606
-33.158634,2.8458486,2.8449826
-33.204266,2.8413095,2.8437161
-33.246155,2.840849,2.8485494
-33.291058,2.837577,2.8493447
-33.336582,2.833961,2.8497367
-33.38274,2.8300054,2.8497362
-33.429043,2.8262005,2.8500624
-33.477016,2.8210933,2.8485932
-33.525677,2.8156621,2.846765
-33.572937,2.8118417,2.8474016
-33.622982,2.8057737,2.8448787
-33.671078,2.8017948,2.8455133
-33.71932,2.7979767,2.8464966
-33.763893,2.7976575,2.852665
-33.81457,2.7922518,2.8515778
-33.86764,2.7851243,2.8481312
-33.919807,2.7791288,2.8464508
-33.970467,2.7747276,2.8471994
-34.020145,2.7714396,2.8496757
-34.06881,2.7692573,2.8538618
-34.117004,2.7677047,2.8590713
-34.172886,2.7602663,2.855978
-34.225452,2.7558103,2.857294
-34.28115,2.7492275,2.8557143
-34.32628,2.7511358,2.8663683
-34.38591,2.7421713,2.8616824
-34.43668,2.7402902,2.8672075
-34.490005,2.7367592,2.8705292
-34.54594,2.7315986,2.8716888
-34.6089,2.7216585,2.866259
-34.665234,2.7169182,2.8683314
-34.71732,2.715528,2.8752651
-34.761868,2.7196941,2.890129
-34.81281,2.7195396,2.899056
-34.863182,2.7200053,2.9089832
-34.913612,2.7206438,2.9192858
-34.965416,2.720572,2.9287357
-35.027836,2.7136478,2.9288158
-35.08981,2.7073965,2.9300122
-35.154655,2.6996331,2.9293013
-35.257404,2.6677873,2.8955865
-35.36833,2.6316252,2.856285
-35.422134,2.6325805,2.8683043
-35.488342,2.6259992,2.8701577
-35.558212,2.6175334,2.8696394
-35.62764,2.609766,2.8702922
-35.70219,2.5993006,2.8674965
-35.7693,2.5937748,2.8716383
-35.84084,2.5859847,2.8729286
-35.914043,2.5776384,2.8736982
-35.98964,2.5683312,2.873414
-36.06478,2.5597398,2.874339
-36.130035,2.5572283,2.883644
-36.20926,2.547155,2.8830705
-36.288765,2.5374014,2.8831906
-36.367073,2.5287843,2.885088
-36.45378,2.5160222,2.8817735
-36.55274,2.4971635,2.870728
-36.634182,2.4883635,2.873258
-36.71212,2.4818923,2.8791227
-36.80086,2.470166,2.8783965
-36.880028,2.463953,2.8851638
-36.954815,2.4604218,2.895688
-37.062782,2.4403389,2.8850756
-37.13958,2.4367068,2.8960667
-37.251434,2.4159284,2.8853173
-37.323246,2.4157012,2.901291
-37.441353,2.3931086,2.889009
-37.522213,2.3893628,2.9011273
-9.262402,1.0064025,3.858665
-9.210253,0.93226194,3.727234
-8.816723,0.7744074,3.5322232
-9.177914,0.7998712,3.4751053
-9.267092,0.7593367,3.3687725
-9.345455,0.7162874,3.2609396
-9.410206,0.66990757,3.150828
-9.453821,0.618129,3.0365858
-9.480217,0.56177473,2.9186826
-9.484766,0.49945903,2.7957597
-9.515684,0.44388032,2.6785498
-9.511662,0.3786757,2.552987
-9.4916935,0.30871606,2.4230428
-9.556158,0.26165366,2.313427
-17.40847,0.693908,1.0221653
-17.841,0.8213377,1.147255
-18.050764,0.8578546,1.1625252
-18.171139,0.857543,1.1331902
-18.246866,0.8385434,1.0811257
-18.364693,0.83803344,1.0523486
-18.40145,0.80241823,0.9800706
-18.45992,0.7762666,0.91974545
-18.525242,0.75319767,0.8634696
-19.115494,0.9680414,1.1089115
-19.319748,1.0110939,1.1383514
-19.46703,1.0291824,1.1367235
-19.542946,1.0148063,1.0940237
-19.627726,1.0048103,1.0571976
-19.745712,1.0109162,1.0414486
-19.824959,0.9989822,1.0027266
-20.130222,1.0971491,1.1075215
-20.336945,1.1493886,1.1535864
-20.485989,1.1745343,1.1649542
-20.593569,1.1798666,1.1508212
-20.726212,1.1984313,1.1545086
-20.827847,1.2019587,1.1387682
-20.964186,1.2239122,1.1478267
-21.078823,1.2354167,1.1434522
-21.200607,1.2513454,1.1453772
-21.304764,1.2586312,1.1361384
-21.415335,1.2699261,1.1326275
-21.504864,1.2704253,1.1149344
-21.64496,1.2990968,1.1355934
-21.758043,1.3137753,1.1377716
-21.864887,1.3256557,1.136518
-21.951862,1.32692,1.1211419
-22.033657,1.325634,1.1025429
-22.078936,1.3035994,1.0557556
-22.135191,1.2878938,1.0177503
-22.208584,1.2823467,0.99386406
-22.285477,1.279145,0.9734163
-22.36998,1.2808337,0.959949
-22.458485,1.2853632,0.95066357
-22.535759,1.2834466,0.932673
-22.626635,1.290309,0.9271269
-22.726086,1.3030639,0.93007755
-23.023655,1.4422636,1.110333
-23.098885,1.4420912,1.0961242
-23.13203,1.4149551,1.0442066
-23.102102,1.3462119,0.93370056
-23.099129,1.2941835,0.8465886
-22.966602,1.1545582,0.63543177
-23.05269,1.160306,0.62977743
-23.094786,1.1364033,0.5822344
-22.948177,0.9816742,0.3485427
-22.95437,0.93082786,0.26234627
-28.882492,1.8596003,1.0710983
-28.935734,1.8804643,1.1015129
-28.991995,1.9137917,1.151372
-29.046898,1.9451468,1.1982732
-29.099945,1.9723799,1.2388716
-29.154245,2.0072753,1.2914734
-29.205809,2.0342846,1.3319163
-29.256622,2.0609078,1.371851
-29.307283,2.089826,1.4154458
-29.355288,2.1092157,1.4443102
-29.403358,2.1314294,1.4776492
-29.450127,2.1494732,1.5045829
-29.503876,2.2107089,1.5988111
-29.540236,2.1724837,1.5383329
-29.587736,2.2032952,1.585372
-29.636686,2.2498684,1.6570344
-29.689903,2.3386345,1.7944813
-29.726551,2.3013728,1.7357635
-29.764029,2.2641957,1.6772275
-29.806791,2.2751284,1.6936831
-29.849125,2.2840142,1.7070198
-29.893908,2.3307955,1.7794619
-29.935175,2.3361282,1.7874007
-29.975801,2.3307688,1.7787461
-30.017117,2.3411741,1.7947178
-30.058125,2.348986,1.8067136
-30.09884,2.3488023,1.8063159
-30.139534,2.3395422,1.7918377
-30.180645,2.3055418,1.738872
-30.211052,2.852764,2.5916505
-30.245811,2.8621461,2.6063933
-30.280521,2.8678377,2.615439
-30.314787,2.879556,2.6339283
-30.348583,2.8945994,2.6576514
-30.3804,2.9313166,2.7151904
-30.414223,2.93573,2.722453
-30.447683,2.9429264,2.7341042
-30.480158,2.9577587,2.7576976
-30.512568,2.9705129,2.7781034
-30.545622,2.9763389,2.7877712
-30.579018,2.9790149,2.7925854
-30.612947,2.9780066,2.791716
-30.645832,2.9835465,2.8010926
-30.67707,2.9977796,2.8240461
-30.708813,3.0077837,2.840466
-30.743248,3.0033484,2.8344727
-30.77825,2.9968553,2.8253365
-30.811611,2.9985125,2.82893
-30.845829,2.9964983,2.826869
-30.88037,2.9935017,2.8233366
-30.912922,2.998638,2.8324962
-30.946812,2.9984982,2.8335109
-30.979822,3.00166,2.839707
-31.01184,3.0081146,2.851066
-31.046806,3.0044925,2.8468356
-31.082542,2.9988286,2.839497
-31.111816,3.0135415,2.8638215
-31.145454,3.014456,2.8667922
-31.18225,3.006402,2.8559175
-31.219435,2.9979203,2.8444457
-31.254063,2.9969893,2.8447332
-31.285883,3.0035877,2.8567338
-31.318623,3.007611,2.864797
-31.357763,2.9958122,2.8484392
-31.391209,2.998429,2.8544426
-31.427122,2.9953132,2.8516397
-31.462896,2.9928253,2.8498693
-31.49875,2.9904363,2.8483124
-31.533459,2.9907813,2.851038
-31.568686,2.9901671,2.8523417
-31.606781,2.9838638,2.8449326
-31.641626,2.9844987,2.8482862
-31.67998,2.9784079,2.841339
-31.715754,2.9776683,2.8426995
-31.753254,2.9738877,2.8394442
-31.791441,2.9691694,2.834815
-31.824219,2.974474,2.8456564
-31.860779,2.9730892,2.8462777
-31.898922,2.9692059,2.8431282
-31.935946,2.9675112,2.8434067
-31.973986,2.9643652,2.841527
-32.01277,2.9602942,2.8382998
-32.053314,2.9537525,2.8313632
-32.087727,2.9571378,2.839693
-32.12582,2.954948,2.8395557
-32.161934,2.9559536,2.8443718
-32.20121,2.9524384,2.84235
-32.23776,2.95314,2.846836
-32.279022,2.9472926,2.8414054
-32.316788,2.9466786,2.844027
-32.357216,2.9426057,2.8414536
-32.394375,2.9432328,2.8461084
-32.431175,2.9444737,2.8517632
-32.47655,2.9346683,2.840715
-32.51705,2.9315858,2.8399615
-32.56007,2.9255974,2.8348832
-32.600018,2.9237747,2.8362012
-32.64005,2.9220707,2.8377776
-32.68183,2.9184804,2.8365822
-32.717827,2.9220269,2.8462477
-32.761494,2.9166818,2.8425646
-32.80532,2.9114761,2.8391833
-32.84712,2.9088955,2.839847
-32.890354,2.9049563,2.838553
-32.933277,2.9016476,2.838297
-32.97723,2.8974867,2.8368511
-33.02179,2.892973,2.834971
-33.064632,2.8905675,2.8363442
-33.107582,2.888297,2.8380089
-33.153015,2.8837159,2.8363118
-33.194748,2.8831844,2.8407593
-33.239956,2.8793755,2.8404074
-33.28235,2.878625,2.844709
-33.326305,2.8765543,2.8471365
-33.36986,2.8751056,2.8505845
-33.418583,2.8689814,2.8471885
-33.464417,2.8659022,2.8484173
-33.513485,2.8600998,2.8457193
-33.562214,2.8549416,2.844088
-33.607414,2.8532798,2.8477325
-33.65538,2.849391,2.8481946
-33.704563,2.8447158,2.847611
-33.751736,2.8420951,2.8501644
-33.798477,2.8401017,2.8537474
-33.84699,2.8368545,2.8556018
-33.9029,2.8276908,2.8489094
-33.952866,2.8238578,2.850151
-34.00184,2.821124,2.853119
-34.05438,2.8157763,2.852395
-34.108257,2.809689,2.8507257
-34.15766,2.807475,2.8548203
-34.210712,2.8026757,2.8552842
-34.266903,2.7957764,2.8528433
-34.320312,2.7913587,2.854135
-34.375698,2.7857666,2.853869
-34.43127,2.780373,2.854033
-34.49193,2.7715688,2.8494391
-34.54914,2.7656887,2.8492064
-34.605923,2.760463,2.8500657
-34.660378,2.7572286,2.8539228
-34.717503,2.7524085,2.8556604
-34.78053,2.7438078,2.8521647
-34.835476,2.7411838,2.8573456
-34.89443,2.736116,2.8592057
-34.965916,2.7229402,2.8497448
-35.027275,2.7170293,2.8507628
-35.085537,2.7135208,2.8553438
-35.148594,2.7071936,2.85612
-35.19916,2.7092986,2.8689194
-35.277355,2.6939626,2.8574095
-35.344425,2.6862164,2.8567557
-35.4131,2.677876,2.8554711
-35.476536,2.673196,2.85949
-35.55534,2.6594586,2.8511157
-35.619915,2.6548767,2.8556747
-35.683266,2.651377,2.8619237
-35.7524,2.6447787,2.8640876
-35.830948,2.6330478,2.859406
-35.901276,2.626597,2.8622193
-35.97612,2.6179497,2.862247
-36.03825,2.616979,2.8729897
-36.122223,2.6039984,2.8675747
-36.19051,2.6002991,2.8750353
-36.276543,2.5871596,2.8699346
-36.35851,2.5767899,2.868863
-36.42224,2.5767674,2.8819904
-36.52182,2.5578508,2.869966
-36.59565,2.5532446,2.8774366
-36.689236,2.538666,2.871851
-36.769577,2.531552,2.876521
-36.85547,2.5220275,2.8782692
-36.9447,2.5113013,2.8787313
-37.034996,2.5005593,2.879487
-37.119415,2.4932737,2.8851027
-37.22968,2.4736955,2.8749366
-37.302204,2.4732654,2.8901458
-37.403034,2.459477,2.8882494
-37.49635,2.4498892,2.8921657
-9.352148,1.2072198,3.943005
-9.149937,1.0994937,3.786387
-8.714317,0.93550086,3.5850396
-8.691717,0.86680627,3.4550195
-9.183359,0.9214225,3.423005
-9.302141,0.88781166,3.3226933
-9.387133,0.84626365,3.216526
-9.438505,0.79651403,3.10393
-9.47542,0.7430978,2.98843
-9.473337,0.6796007,2.8643184
-9.507164,0.62504745,2.7479296
-9.490837,0.55722475,2.6198
-9.535782,0.50518465,2.5057073
-9.542955,0.4429419,2.3824234
-9.662071,0.34623528,2.1617084
-9.616688,0.26876163,2.0240083
-9.698267,0.22625351,1.9195437
-15.934778,0.5213647,0.8671107
-16.152252,0.5493655,0.86632395
-16.270329,0.5397489,0.82055855
-16.363842,0.5208945,0.7639103
-16.708452,0.6025207,0.83145714
-16.761868,0.56906176,0.7579651
-17.673367,0.8850689,1.1195512
-17.938187,0.9420655,1.161449
-18.057043,0.9401343,1.1304545
-18.189047,0.9442568,1.1075411
-18.291946,0.93668246,1.0703034
-18.408817,0.93549895,1.0415616
-18.417553,0.8880303,0.95409536
-18.474329,0.86115074,0.89297676
-19.062916,1.069207,1.1346722
-19.29264,1.1218915,1.1779432
-19.433514,1.1361105,1.1721888
-19.574768,1.1512952,1.1682124
-19.724352,1.1711166,1.1708217
-19.830551,1.1716726,1.1486893
-19.980043,1.1930447,1.1543446
-20.121895,1.2117062,1.1569624
-20.246803,1.2231035,1.1504507
-20.404049,1.2508464,1.1661358
-20.518753,1.2588189,1.155983
-20.648584,1.2748749,1.1570511
-20.769516,1.2872655,1.1536403
-20.870213,1.2901521,1.1378231
-20.948689,1.2822206,1.1076956
-21.042305,1.2823434,1.0887241
-21.060616,1.2437661,1.0173812
-21.166311,1.2506931,1.0081177
-21.263548,1.2537014,0.993824
-21.56768,1.3680592,1.1326523
-21.514061,1.2915058,1.0098791
-21.788118,1.3930118,1.1325102
-21.840294,1.3743973,1.0899439
-21.732899,1.2666783,0.9238806
-21.809513,1.2609329,0.8991227
-21.918282,1.2737956,0.90052176
-22.012444,1.2789047,0.89141464
-22.121199,1.2930069,0.8951845
-22.212683,1.2976308,0.885972
-22.301151,1.3009398,0.87516975
-22.385956,1.3024957,0.862144
-22.478178,1.3089638,0.8562999
-22.547546,1.3019152,0.83155584
-22.825096,1.4241972,0.9907198
-23.06278,1.5244772,1.119524
-23.12636,1.5169585,1.0953379
-23.116623,1.4626672,1.0044312
-23.113214,1.4116359,0.9180708
-23.026567,1.3053637,0.75230503
-22.983862,1.2261837,0.6250968
-23.06856,1.2308269,0.6184492
-22.958529,1.1042511,0.42253876
-22.96266,0.9986646,0.24312305
-28.884104,1.9070303,1.0608783
-28.9392,1.93403,1.1014414
-28.998863,1.9792173,1.1707158
-29.051298,2.0023115,1.2053351
-29.10643,2.037768,1.2595038
-29.158438,2.0643609,1.2998166
-29.210981,2.0958893,1.347992
-29.261436,2.1217225,1.3872876
-29.311401,2.1482334,1.4277382
-29.35853,2.1642385,1.4517179
-29.40643,2.1862342,1.4852171
-29.460033,2.2419453,1.5719471
-29.502901,2.2434258,1.5732656
-29.542946,2.2279463,1.5479031
-29.590181,2.2579303,1.594306
-29.634113,2.2693596,1.6115179
-29.68373,2.3273726,1.7022939
-29.725027,2.3256936,1.6989689
-29.76472,2.3086216,1.6714158
-29.807858,2.324257,1.695538
-29.851162,2.346422,1.7300344
-29.896088,2.3986502,1.8120527
-29.935785,2.3836076,1.7879539
-29.976624,2.3852494,1.7902517
-30.017418,2.3869967,1.792778
-30.058268,2.3925936,1.801444
-30.098885,2.3913395,1.7993565
-30.139555,2.3987517,1.8110123
-30.180515,2.3511543,1.7358813
-30.22264,2.299384,1.6542253
-30.2458,2.8961844,2.5965514
-30.28032,2.9055707,2.6115408
-30.315693,2.895252,2.5954752
-30.348654,2.9256732,2.6437726
-30.381334,2.9508257,2.6838012
-30.413307,2.9776607,2.726531
-30.446745,2.9837263,2.736528
-30.4794,2.9957538,2.7559829
-30.511917,3.006793,2.7739263
-30.544476,3.0157766,2.7886734
-30.57823,3.015232,2.7884378
-30.612171,3.0137076,2.7867103
-30.64347,3.028273,2.8104067
-30.670532,3.0647728,2.868729
-30.706528,3.0501654,2.846519
-30.740175,3.0489755,2.8455157
-30.774088,3.0468078,2.8430238
-30.809736,3.037281,2.828991
-30.84486,3.0310433,2.8201966
-30.87579,3.042437,2.8392234
-30.911436,3.0347857,2.828311
-30.94612,3.0314782,2.8242936
-30.978947,3.0351577,2.831325
-31.010145,3.04422,2.8468738
-31.042938,3.047532,2.8534245
-31.077015,3.0466945,2.8535008
-31.111826,3.043833,2.8504496
-31.1451,3.045819,2.8550715
-31.18058,3.041558,2.8499336
-31.215601,3.0389767,2.8474898
-31.249514,3.0396502,2.8502126
-31.282211,3.0435715,2.8580823
-31.316519,3.0433686,2.8595357
-31.352364,3.0395827,2.8554263
-31.384995,3.043764,2.8638616
-31.423468,3.0344038,2.8511357
-31.458677,3.033008,2.8509483
-31.493944,3.0317087,2.8509693
-31.529512,3.029983,2.8503814
-31.564394,3.0299196,2.8524518
-31.599817,3.0289087,2.8530984
-31.63687,3.0248737,2.8490806
-31.671623,3.02562,2.8525906
-31.707212,3.0249033,2.8538752
-31.742289,3.0253203,2.856987
-31.77853,3.023764,2.8570805
-31.816591,3.019208,2.8525639
-31.853,3.0178585,2.8531075
-31.887653,3.0197015,2.8586807
-31.927555,3.0128942,2.8508587
-31.965124,3.0103152,2.8496814
-32.001823,3.0093822,2.851128
-32.037273,3.0106003,2.855977
-32.07639,3.0062938,2.8523173
-32.112595,3.0066957,2.8560262
-32.152615,3.0015955,2.8512754
-32.19034,3.000175,2.8522959
-32.230972,2.9948032,2.847271
-32.269604,2.992595,2.8472142
-32.306126,2.9935334,2.8520875
-32.344902,2.9915464,2.8525095
-32.38112,2.9931996,2.8586164
-32.42233,2.9884179,2.8548713
-32.460964,2.9872751,2.8568091
-32.49967,2.9862452,2.8589926
-32.53964,2.9838305,2.8591185
-32.580116,2.9810374,2.8587384
-32.620705,2.978367,2.8586254
-32.66098,2.976317,2.8595414
-32.70346,2.9719107,2.856927
-32.746086,2.9676385,2.854601
-32.78799,2.964486,2.854073
-32.83001,2.961464,2.853829
-32.87126,2.9595542,2.8553658
-32.913506,2.956792,2.8556838
-32.956318,2.9536726,2.8555431
-32.998333,2.951663,2.8571782
-33.04277,2.9473524,2.8554006
-33.085945,2.9446404,2.8561425
-33.13209,2.9391608,2.852778
-33.181305,2.9309368,2.8453536
-33.2254,2.9281769,2.8463082
-33.269608,2.9255579,2.8475676
-33.31244,2.9245176,2.851304
-33.357864,2.9212232,2.8517299
-33.40749,2.9142656,2.846737
-33.454758,2.9098527,2.845685
-33.500626,2.907019,2.8471098
-33.55133,2.9000833,2.8424783
-33.600662,2.8947363,2.8403463
-33.650173,2.8895564,2.8385763
-33.6977,2.8864186,2.8399725
-33.743183,2.8853066,2.8445
-33.791504,2.8820152,2.8458781
-33.83996,2.8788855,2.8476086
-33.89302,2.8722188,2.8441916
-33.938393,2.872195,2.8507633
-33.988388,2.8686411,2.852203
-34.0391,2.8647997,2.8533354
-34.0946,2.8574789,2.8494458
-34.146236,2.853544,2.8506923
-34.197437,2.8502429,2.8529959
-34.24759,2.848024,2.8570147
-34.298462,2.8455257,2.860744
-34.355495,2.838711,2.8582678
-34.41518,2.830313,2.85362
-34.468372,2.8270423,2.8566213
-34.524178,2.8221812,2.8574347
-34.588882,2.8113208,2.849656
-34.642597,2.8086503,2.8539567
-34.7015,2.8026516,2.8535671
-34.756786,2.7994983,2.857452
-34.81799,2.7926154,2.8560896
-34.87554,2.788569,2.8589854
-34.932602,2.7851658,2.8629599
-34.991783,2.780675,2.8655224
-35.05575,2.7733946,2.8642445
-35.119957,2.7663565,2.8634915
-35.18439,2.7595623,2.8632684
-35.253086,2.7504656,2.8599448
-35.311886,2.747979,2.866221
-35.383102,2.738128,2.862208
-35.44843,2.7323308,2.8641453
-35.51879,2.72386,2.8624945
-35.58594,2.7177436,2.8643703
-35.6575,2.7094014,2.8633137
-35.726498,2.7029896,2.8651805
-35.796425,2.6964357,2.867054
-35.872272,2.6868863,2.8649554
-35.946255,2.6788602,2.8652148
-36.02049,2.6711278,2.8661098
-36.09207,2.6653018,2.8698783
-36.166046,2.6585538,2.872593
-36.238045,2.6532972,2.8775945
-36.316143,2.6451447,2.878841
-36.393757,2.6377022,2.881312
-36.479065,2.626637,2.8790812
-36.55794,2.6194482,2.8824162
-36.632534,2.6149156,2.8896198
-36.720184,2.604088,2.8885355
-36.805103,2.5951676,2.890324
-36.894115,2.584678,2.890287
-36.99497,2.5688305,2.8833652
-37.079224,2.5617728,2.8885608
-37.16294,2.5554385,2.8950105
-37.263268,2.5415535,2.8917127
-37.33573,2.5415573,2.9071736
-37.46423,2.5154436,2.8883991
-37.586212,2.4932325,2.8752494
-9.314842,1.3171654,3.875836
-9.051037,1.196738,3.7074075
-8.73234,1.0619085,3.525507
-8.962633,1.0522468,3.443174
-9.242819,1.0553629,3.3728971
-9.3510895,1.0189431,3.2710643
-9.4208145,0.97357583,3.162168
-9.466465,0.92244077,3.0485907
-9.495768,0.86722565,2.931583
-9.468056,0.79761267,2.801714
-9.508549,0.7447536,2.6868052
-9.513929,0.68281436,2.5636435
-9.620552,0.58312964,2.3399868
-9.571243,0.5060208,2.2022915
-9.554939,0.43709993,2.0721173
-9.590134,0.38169217,1.9549923
-9.559935,0.30815864,1.8199325
-9.556898,0.24159646,1.6915631
-9.691309,0.21327353,1.6018677
-9.880728,0.20106149,1.5293517
-12.993345,0.3926885,1.1116171
-13.164078,0.3883319,1.0615487
-13.259802,0.35984874,0.9844451
-14.665439,0.4880967,0.88727665
-14.799255,0.47801137,0.8368225
-14.989633,0.48890972,0.81230736
-15.114634,0.47691727,0.76072836
-15.307076,0.4902954,0.7406874
-15.452619,0.4871993,0.70117426
-15.600626,0.48568773,0.66419554
-15.831406,0.5163615,0.66781044
-16.021408,0.53269124,0.6544709
-16.186323,0.54030204,0.6309514
-16.716097,0.6920047,0.7898545
-17.588041,0.98325586,1.1279526
-17.84097,1.0330737,1.1625438
-18.045979,1.0651169,1.175448
-18.23523,1.0919604,1.1824946
-18.389816,1.1056042,1.1732607
-18.555542,1.1247468,1.1717348
-18.726494,1.1470459,1.1749463
-18.885391,1.1652143,1.1734161
-19.023392,1.1752994,1.1618814
-19.196766,1.2015116,1.1720729
-19.331474,1.2117941,1.1618695
-19.493998,1.2351542,1.169487
-19.603024,1.2355056,1.1470795
-19.7087,1.2348495,1.1236911
-19.759457,1.2095318,1.0675936
-19.853252,1.2040932,1.0383492
-20.098833,1.2699547,1.1056209
-20.100224,1.2223802,1.020225
-20.188921,1.2159386,0.9906111
-20.263645,1.2031045,0.95255375
-20.39558,1.2183237,0.953053
-20.504025,1.2227683,0.9392195
-20.587788,1.2155004,0.90961933
-20.69511,1.2203641,0.8969941
-20.784042,1.2164512,0.8725624
-21.028591,1.2926419,0.9595208
-21.053722,1.2572567,0.89212847
-21.511763,1.4480133,1.1402206
-21.583832,1.4391725,1.1108222
-21.3196,1.2509716,0.83005476
-21.813734,1.4684451,1.1186228
-21.94294,1.4919193,1.1355157
-21.676422,1.2982745,0.845953
-21.748373,1.2893775,0.81703377
-21.821087,1.281127,0.78921604
-21.909477,1.2820163,0.77459383
-22.019619,1.295819,0.7786417
-22.125118,1.3076129,0.7801399
-22.220459,1.3140874,0.7743201
-22.328014,1.3283308,0.77992535
-22.422722,1.3355622,0.77574444
-22.523312,1.3468881,0.77773285
-23.020346,1.6015382,1.1318593
-23.102037,1.6050348,1.1237936
-23.172113,1.6016886,1.1060066
-23.108686,1.514204,0.9659753
-23.107985,1.4652474,0.88179445
-22.954191,1.3166459,0.6519804
-22.998245,1.2943752,0.6064019
-23.07705,1.2949219,0.59434605
-22.937258,1.1498652,0.36860752
-28.889507,1.9590652,1.0557694
-28.951488,2.0088644,1.1333518
-29.006184,2.0378647,1.1778731
-29.057394,2.0570474,1.2068257
-29.111242,2.0879424,1.2545538
-29.163548,2.1158416,1.2975912
-29.216608,2.149685,1.3502064
-29.26666,2.1742053,1.3880248
-29.316713,2.2015047,1.4303637
-29.363354,2.215766,1.4519563
-29.409542,2.2296274,1.4729829
-29.463978,2.2895393,1.5676765
-29.508875,2.3031461,1.5884514
-29.546696,2.275664,1.5436096
-29.597523,2.3296654,1.6290994
-29.641966,2.3473344,1.6565762
-29.685034,2.3577187,1.672471
-29.726046,2.3528733,1.664072
-29.768396,2.3597758,1.6745248
-29.81233,2.385318,1.714858
-29.85435,2.3950934,1.7300353
-29.899473,2.451585,1.8200207
-29.938581,2.4298048,1.7848334
-29.979214,2.4293137,1.7837687
-30.019972,2.4321063,1.7880182
-30.060728,2.4376528,1.7967334
-30.101377,2.444894,1.8082213
-30.141869,2.4564793,1.8267202
-30.182673,2.4024591,1.7402878
-30.224545,2.3570244,1.667656
-30.247698,2.9332266,2.5898743
-30.282223,2.9409397,2.602384
-30.316284,2.9540381,2.6235619
-30.350784,2.9560988,2.6271272
-30.383923,2.975194,2.6579971
-30.413647,3.0277252,2.7424045
-30.447613,3.0263288,2.7405806
-30.480724,3.032958,2.7516437
-30.512903,3.046018,2.7730403
-30.546005,3.0501668,2.7802296
-30.578089,3.0607436,2.7977452
-30.610691,3.066642,2.8078265
-30.643524,3.0705101,2.8147082
-30.675419,3.0792131,2.8293643
-30.709057,3.0779674,2.828168
-30.742413,3.0783908,2.829689
-30.775656,3.079429,2.8322406
-30.809727,3.076865,2.8290873
-30.836432,3.1054564,2.8757334
-30.866459,3.118313,2.8972898
-30.89883,3.1212478,2.9030514
-30.931437,3.1232142,2.9073148
-30.964165,3.1247392,2.910922
-30.996874,3.1263487,2.9147124
-31.030375,3.1254206,2.914506
-31.062737,3.1282487,2.9203367
-31.095922,3.1285422,2.9221768
-31.129662,3.127354,2.9217067
-31.163076,3.1273007,2.9230957
-31.197474,3.124725,2.9205203
-31.232147,3.1217215,2.9173183
-31.268953,3.1136029,2.9060345
-31.309116,3.0977829,2.882566
-31.344267,3.095084,2.880024
-31.381943,3.0867686,2.8686152
-31.42029,3.077525,2.8557954
-31.45677,3.0730586,2.850625
-31.49194,3.0718007,2.8506055
-31.52741,3.0701218,2.8499746
-31.563702,3.0669918,2.8470993
-31.599321,3.0655103,2.8468971
-31.635265,3.0636117,2.8460908
-31.66967,3.0648997,2.8503876
-31.706276,3.06217,2.8483806
-31.742693,3.0600567,2.8474092
-31.778618,3.05907,2.8482795
-31.814598,3.0581834,2.8493657
-31.84914,3.0599499,2.854701
-31.8855,3.05875,2.8554091
-31.924402,3.0535786,2.8499136
-31.96251,3.0500476,2.847073
-31.999449,3.048658,2.847671
-32.0358,3.0483863,2.8500915
-32.071865,3.048723,2.853529
-32.11033,3.0456247,2.8516254
-32.15097,3.039615,2.8452153
-32.188637,3.0382578,2.8461847
-32.22495,3.0390186,2.8505435
-32.26454,3.0353692,2.8480468
-32.301685,3.0353405,2.851295
-32.341484,3.031922,2.849299
-32.379513,3.0311155,2.8514624
-32.417988,3.029922,2.8530874
-32.458088,3.0268552,2.8518543
-32.497124,3.025396,2.8532043
-32.536636,3.0235581,2.854034
-32.57786,3.0198643,2.8520432
-32.61798,3.017775,2.8526287
-32.659035,3.0148242,2.8519478
-32.699776,3.012489,2.8523016
-32.74148,3.0093005,2.8514066
-32.78287,3.0067294,2.8515487
-32.827446,3.000877,2.846684
-32.869537,2.998084,2.8466463
-32.91264,2.9944527,2.8453922
-32.955425,2.991441,2.845182
-32.99741,2.9895291,2.8467536
-33.039955,2.9872663,2.847866
-33.081665,2.986097,2.850747
-33.12632,2.9821844,2.8494859
-33.171604,2.977939,2.8478036
-33.21606,2.9747932,2.8479037
-33.261143,2.971316,2.8475857
-33.30636,2.967985,2.8475862
-33.351707,2.9648015,2.8479047
-33.394135,2.9645922,2.8528671
-33.440742,2.9607568,2.8523755
-33.483864,2.9603553,2.857222
-33.529675,2.9577546,2.8588052
-33.576668,2.9543724,2.8592954
-33.624866,2.9502175,2.8587127
-33.668903,2.9499295,2.8641062
-33.718464,2.9451666,2.8628063
-33.769844,2.9391918,2.8597817
-33.818645,2.9356904,2.8606162
-33.872635,2.9282382,2.8555918
-33.926853,2.9209783,2.8509846
-33.97389,2.9198196,2.8556943
-34.021595,2.9183643,2.8600616
-34.068825,2.9175203,2.8654532
-34.120235,2.9136832,2.8664627
-34.17652,2.906437,2.8624864
-34.23185,2.9002888,2.8602896
-34.284386,2.8965669,2.8618493
-34.339497,2.8912542,2.8611636
-34.38992,2.8896778,2.8661704
-34.44598,2.8843076,2.8656607
-34.505943,2.8765054,2.8616834
-34.559296,2.8737397,2.865315
-34.61341,2.8707266,2.868712
-34.687927,2.854006,2.8520179
-34.742474,2.8514307,2.8563643
-34.80037,2.8468943,2.857963
-34.857147,2.8434286,2.8612819
-34.921246,2.8354635,2.8581548
-34.978382,2.8324287,2.8624082
-35.040947,2.826207,2.8621573
-35.111713,2.8151484,2.855032
-35.17878,2.8068936,2.8521795
-35.240707,2.8022518,2.8547535
-35.30418,2.797007,2.8566217
-35.3658,2.7932496,2.8608122
-35.43996,2.782271,2.854762
-35.50406,2.7777708,2.8582444
-35.57322,2.7706401,2.8581314
-35.643314,2.7633715,2.8580174
-35.71717,2.7543416,2.8555913
-35.782803,2.7504654,2.8607278
-35.85431,2.743615,2.861823
-35.92892,2.73544,2.86125
-35.999466,2.7299592,2.8647137
-36.076744,2.7211757,2.8637233
-36.15795,2.7107244,2.8606224
-36.22919,2.7061186,2.8659825
-36.300617,2.7017922,2.8719492
-36.378906,2.6942356,2.873619
-36.460434,2.6854422,2.8738122
-36.546734,2.674664,2.8715062
-36.622044,2.670008,2.8779602
-36.70512,2.6618276,2.8797832
-36.786938,2.6547492,2.8833933
-36.868233,2.6483831,2.888247
-36.94821,2.6431015,2.8948498
-37.042324,2.6314025,2.8929558
-37.137547,2.6197288,2.891416
-37.227634,2.6110516,2.8942685
-37.311718,2.6056988,2.9019208
-37.426765,2.5863981,2.891068
-37.528038,2.5741634,2.8901176
-54.155853,0.85584855,3.8279858
-54.266205,0.9012971,3.9505978
-9.322418,1.5092514,3.9445162
-9.153378,1.4122903,3.7936945
-8.82028,1.2780037,3.6110668
-8.631275,1.1735919,3.450945
-9.1485615,1.2272048,3.4235277
-9.307034,1.2015173,3.3309894
-9.380821,1.1568542,3.2227278
-9.435226,1.1077797,3.1108994
-9.468447,1.0536888,2.9947634
-9.485344,0.99555707,2.8750067
-9.481281,0.9321003,2.7502742
-9.510351,0.8764663,2.6327915
-9.536459,0.819937,2.5145102
-9.540764,0.7577174,2.390746
-9.554461,0.6975825,2.2689323
-9.576569,0.63935804,2.1489754
-9.563915,0.57180214,2.0196385
-9.607925,0.4539516,1.7781124
-9.54232,0.37087417,1.6322594
-9.603411,0.32180524,1.521585
-9.639263,0.26571584,1.403686
-9.685186,0.21228886,1.2887049
-9.909,0.20935798,1.2283702
-11.705193,0.35202765,1.0704508
-11.901321,0.34958863,1.0191813
-12.002487,0.3185041,0.93579006
-12.761595,0.49477005,1.0934782
-12.999088,0.50988436,1.0665569
-13.285231,0.48239923,0.9475579
-13.359884,0.4470272,0.8631544
-13.454546,0.41840005,0.78709126
-14.131741,0.5857339,0.9479761
-14.381581,0.55467033,0.8323574
-14.597382,0.57137704,0.81488657
-14.65285,0.53300667,0.7302642
-14.717578,0.49787593,0.6498108
-14.791475,0.46605396,0.57367516
-15.00241,0.48393345,0.5601759
-16.619793,1.0175297,1.1984429
-16.805798,1.0339277,1.188014
-17.005009,1.0562732,1.1859107
-17.180607,1.0708296,1.1746311
-17.360851,1.088109,1.167541
-17.55159,1.1104321,1.1676736
-17.767853,1.1437917,1.1828809
-17.922846,1.1543403,1.1691952
-18.129318,1.1861901,1.1839867
-18.239193,1.1804721,1.150168
-18.354832,1.1775553,1.1204238
-18.385246,1.1401839,1.0453944
-18.509245,1.1414044,1.0217643
-18.846134,1.2324023,1.1185298
-19.009647,1.2524643,1.1214728
-19.222168,1.2944429,1.1545115
-19.203896,1.2381032,1.055491
-19.177746,1.1776807,0.95076084
-19.269753,1.1686485,0.91575384
-19.386528,1.170994,0.8965626
-19.507866,1.1759601,0.881341
-19.740475,1.2321677,0.93694735
-19.782803,1.2025845,0.8750906
-20.104555,1.3026533,0.99266624
-20.126165,1.2644577,0.91956234
-20.144531,1.2244112,0.843873
-20.226898,1.2146685,0.8104687
-20.323906,1.2122891,0.7876024
-20.530142,1.2637463,0.840621
-20.620285,1.2593832,0.8157377
-20.707338,1.2538462,0.7894521
-20.841022,1.2721732,0.7972002
-21.431683,1.5242515,1.1372561
-21.5015,1.5137978,1.1057367
-21.212133,1.316623,0.8078933
-21.287754,1.3076625,0.7781844
-21.346565,1.2900121,0.73620176
-21.959948,1.5702009,1.1226401
-21.995039,1.5429254,1.0680714
-21.61147,1.2858963,0.68158054
-21.162361,0.9875064,0.23368835
-21.999054,1.4032822,0.8207083
-22.002571,1.3567741,0.73814964
-23.029589,1.6716657,1.1164331
-23.107836,1.6728301,1.1055341
-23.168447,1.6634982,1.0793033
-23.114258,1.5827584,0.94737196
-23.092209,1.5208492,0.84313107
-22.94752,1.3798044,0.6210041
-23.033451,1.3845353,0.6155529
-23.071072,1.358273,0.56403875
-22.92659,1.2118812,0.33288813
-22.943352,1.1699343,0.2576499
-28.885262,2.0017312,1.0312304
-28.947933,2.05304,1.1124892
-29.006016,2.0931237,1.1756916
-29.059023,2.118832,1.2157245
-29.112677,2.1493793,1.2636766
-29.163437,2.1717572,1.2984867
-29.215977,2.203658,1.3488035
-29.26665,2.2310238,1.3918571
-29.314323,2.2481062,1.4183273
-29.362915,2.2715836,1.4552355
-29.40874,2.2842345,1.474669
-29.461468,2.335144,1.5562024
-29.505945,2.346494,1.5736704
-29.546589,2.3365273,1.5566311
-29.594143,2.3700757,1.6102343
-29.636208,2.3707936,1.6106491
-29.679817,2.3836596,1.6308331
-29.723305,2.3982134,1.65382
-29.765429,2.4034557,1.661758
-29.80913,2.4266198,1.6988449
-29.85193,2.4457095,1.7293806
-29.894203,2.4638643,1.7584624
-29.93624,2.4852767,1.7928915
-29.976452,2.48006,1.784153
-30.016977,2.4801908,1.7841501
-30.057579,2.483572,1.7894816
-30.09819,2.4933505,1.8052564
-30.138575,2.5037575,1.8221092
-30.17932,2.4445195,1.7259445
-30.220675,2.4231467,1.6913147
-30.264132,2.3515422,1.575191
-30.279608,2.9611516,2.565055
-30.312845,2.991936,2.6152363
-30.347013,2.998165,2.6255994
-30.380507,3.0112936,2.6472106
-30.413935,3.0218854,2.6647482
-30.44382,3.0650384,2.7351766
-30.477932,3.0621705,2.7309585
-30.511265,3.0661979,2.737977
-30.54301,3.0813,2.76301
-30.574722,3.0943854,2.7848125
-30.606726,3.1038873,2.8008437
-30.636095,3.1275811,2.8399353
-30.66818,3.133575,2.8503609
-30.701664,3.1318157,2.8482594
-30.734121,3.1353636,2.8548093
-30.766623,3.1384716,2.860692
-30.799305,3.1406198,2.8650641
-30.832579,3.1402466,2.8653965
-30.864952,3.1436048,2.8718214
-30.897814,3.1449635,2.875053
-30.93095,3.1453676,2.8767853
-30.96409,3.1458576,2.8787045
-30.997705,3.1448762,2.8782911
-31.03055,3.1465776,2.8822656
-31.063038,3.1494012,2.8881016
-31.096872,3.1481628,2.8874164
-31.130215,3.1485684,2.8894377
-31.165989,3.1423395,2.8807874
-31.199045,3.143959,2.8848705
-31.23169,3.146697,2.8908072
-31.266129,3.1448789,2.8894348
-31.302105,3.1395485,2.8824477
-31.339094,3.132262,2.8723612
-31.375387,3.1271374,2.86582
-31.418432,3.107229,2.835507
-31.45191,3.1095052,2.841014
-31.48632,3.109821,2.843412
-31.523455,3.1046016,2.8369513
-31.559227,3.1025538,2.8356528
-31.595078,3.1006057,2.83457
-31.632318,3.0962093,2.8296075
-31.666733,3.0975168,2.833871
-31.70087,3.0994244,2.839149
-31.737246,3.097363,2.838107
-31.772554,3.0974307,2.8405385
-31.808773,3.096077,2.8407454
-31.847145,3.0912886,2.8355036
-31.88475,3.0881257,2.832931
-31.921534,3.0865822,2.833012
-31.959023,3.0841374,2.8317094
-31.99596,3.082805,2.8322468
-32.03493,3.0785694,2.828205
-32.070374,3.0799541,2.8332062
-32.11023,3.0749419,2.828051
-32.147827,3.0735404,2.8287249
-32.18515,3.0727441,2.8304262
-32.222534,3.0720553,2.8323593
-32.259975,3.0714734,2.834525
-32.298206,3.070009,2.8353481
-32.336143,3.0691502,2.8371992
-32.374523,3.0679085,2.8385057
-32.412594,3.0672705,2.8408356
-32.452282,3.06478,2.8402905
-32.49089,3.0638785,2.8423338
-32.52997,3.0626013,2.8438492
-32.569935,3.060464,2.844071
-32.610825,3.0574737,2.8430142
-32.654335,3.0516934,2.8376217
-32.69338,3.051385,2.8409514
-32.73462,3.0487733,2.8407154
-32.77684,3.0453236,2.8392344
-32.817436,3.0439322,2.841072
-32.85856,3.0421836,2.8424225
-32.90023,3.0400827,2.8432927
-32.94565,3.0342867,2.8384376
-32.988026,3.0319767,2.8391414
-33.03098,3.0293243,2.8393884
-33.07263,3.028231,2.8421583
-33.115803,3.025847,2.842987
-33.15957,3.0231273,2.8433738
-33.20443,3.0196066,2.8425946
-33.249924,3.0157619,2.8413992
-33.29407,3.013471,2.8427143
-33.338833,3.010854,2.8436108
-33.386265,3.0060546,2.8412018
-33.430267,3.004664,2.8441834
-33.475403,3.0024881,2.846035
-33.5217,2.999536,2.846775
-33.56813,2.9967372,2.847846
-33.6179,2.9913378,2.844993
-33.665157,2.988397,2.8460426
-33.714725,2.9837897,2.8446212
-33.765568,2.978442,2.8421664
-33.81549,2.9741774,2.8414884
-33.862774,2.9723432,2.8446517
-33.910732,2.9702168,2.847467
-33.959953,2.9673538,2.8492556
-34.013912,2.9610775,2.84593
-34.06924,2.9541025,2.8416595
-34.11602,2.9539933,2.8479924
-34.16642,2.9513814,2.8506126
-34.22112,2.9458535,2.8489075
-34.27421,2.9418404,2.8496323
-34.328682,2.9371386,2.8494334
-34.382114,2.9335048,2.8509803
-34.437546,2.9287543,2.8509626
-34.490067,2.9263723,2.8546505
-34.54521,2.9224458,2.856134
-34.60807,2.9135525,2.850275
-34.6674,2.9074697,2.848796
-34.724396,2.903315,2.8503556
-34.78542,2.8968146,2.8485427
-34.845375,2.89139,2.8484917
-34.90423,2.8870323,2.850181
-34.96129,2.8841531,2.8542209
-35.022465,2.8789682,2.8549743
-35.08384,2.8740127,2.856225
-35.144737,2.8697019,2.8585882
-35.215263,2.8598263,2.8528862
-35.281334,2.853112,2.8520374
-35.340805,2.8507543,2.857777
-35.40798,2.844122,2.8573923
-35.47954,2.8353105,2.8539953
-35.547207,2.8292096,2.854762
-35.60948,2.8265953,2.8608036
-35.68037,2.8193998,2.86034
-35.752926,2.8116841,2.8593192
-35.82217,2.8062434,2.8618035
-35.89521,2.7990937,2.8620105
-35.959114,2.7973552,2.8702354
-36.037674,2.7880166,2.8676963
-36.126755,2.7735333,2.8580003
-36.20595,2.7648587,2.8568993
-36.286907,2.7557323,2.8553905
-36.346615,2.7580872,2.8704925
-36.4228,2.7522447,2.874105
-36.499954,2.7463274,2.8778396
-36.580353,2.7392054,2.880105
-36.661003,2.73241,2.8830795
-36.756382,2.7188206,2.8767495
-36.84141,2.7108567,2.8786178
-36.926712,2.7032435,2.8812466
-37.015366,2.6945062,2.8825808
-37.10975,2.6835697,2.881147
-37.200554,2.6748571,2.8831053
-37.289284,2.6676142,2.8873935
-37.387737,2.6564095,2.8865194
-37.498417,2.6402416,2.879168
-52.63083,0.59080553,2.5372233
-52.620102,0.6607833,2.673524
-53.57601,0.9175749,3.4362135
-53.626335,0.9745357,3.5642843
-53.753178,1.0154369,3.6803842
-53.855186,1.0619109,3.801425
-54.08159,1.0832982,3.9049177
-54.354218,1.0963874,4.0041265
-9.255589,1.6080561,3.8791218
-8.965052,1.4862924,3.705947
-8.723459,1.37307,3.5379672
-8.66806,1.298626,3.4018517
-9.220163,1.3573749,3.3826485
-9.321135,1.3183851,3.279348
-9.389196,1.2722566,3.1700869
-9.442656,1.2228878,3.0581517
-9.448236,1.1624224,2.936026
-9.455662,1.1021156,2.813973
-9.473469,1.0440106,2.693974
-9.504454,0.98886967,2.5768676
-9.522064,0.9303236,2.4564552
-9.561306,0.876899,2.3411665
-9.536337,0.80730295,2.209578
-9.613935,0.7631972,2.1038876
-9.54077,0.61607504,1.831676
-9.610466,0.5695517,1.7237349
-9.59231,0.49972868,1.5911107
-9.609615,0.43895245,1.4680405
-9.620417,0.37612462,1.3426967
-9.6895275,0.32903886,1.2346234
-9.772234,0.28578663,1.1310554
-10.964127,0.5555291,1.3786864
-11.5197735,0.46534848,1.0760126
-11.8142395,0.4905615,1.0575247
-11.922256,0.4610288,0.97608757
-12.288246,0.5106199,0.9887004
-12.921738,0.64493847,1.1039748
-13.080719,0.6349807,1.0492077
-13.176979,0.6058984,0.9720106
-13.370995,0.60828876,0.93341017
-13.36079,0.54567313,0.8161411
-14.052284,0.71164346,0.9799185
-14.739556,0.88074017,1.1507454
-13.49505,0.40976405,0.5279932
-14.627028,0.6739874,0.78296757
-15.862322,1.0423775,1.2132101
-16.027569,1.0466948,1.1858578
-16.261137,1.0758927,1.1909676
-16.4905,1.1049359,1.1968284
-16.67601,1.1195242,1.1849475
-16.851608,1.1315072,1.1704082
-16.973722,1.1247647,1.1321292
-17.048883,1.1011031,1.072124
-17.32998,1.1548996,1.1142521
-17.395641,1.128761,1.051866
-17.449842,1.0983095,0.9839392
-17.626299,1.1152108,0.97924805
-17.747002,1.1112685,0.94731236
-17.866774,1.1074913,0.9160075
-18.03709,1.1244514,0.9130759
-18.315208,1.1859248,0.9710307
-18.343203,1.1471684,0.8937988
-18.970463,1.3553951,1.1535473
-18.884474,1.271239,1.0154104
-19.022835,1.2803681,1.0050159
-19.336525,1.3648593,1.0990086
-19.007484,1.1752396,0.81488085
-19.183743,1.2017679,0.8294306
-19.279392,1.1939955,0.79680634
-19.476025,1.2313976,0.8275895
-19.574345,1.226033,0.79909706
-19.737211,1.2503128,0.81257915
-20.093082,1.3639562,0.95264626
-20.124887,1.3305936,0.88602114
-20.14558,1.2918277,0.81175995
-20.327662,1.3289478,0.845469
-20.247356,1.2421286,0.7029171
-20.337801,1.2362952,0.6758547
-20.425156,1.2293148,0.64739513
-20.54657,1.2394304,0.64376354
-21.355331,1.592169,1.1347117
-21.418385,1.5779142,1.0978212
-21.095547,1.3677595,0.77705574
-21.129124,1.3365638,0.71512794
-21.15363,1.3004436,0.64606047
-21.16629,1.2577906,0.5674505
-22.003374,1.6514342,1.1275048
-22.081709,1.6476314,1.1072946
-21.736284,1.4148602,0.75054693
-21.920834,1.4673383,0.81292963
-22.01722,1.4726222,0.8061657
-22.071575,1.4549484,0.76566935
-22.103653,1.4247177,0.70665073
-22.99525,1.7510118,1.1397185
-23.048168,1.7367463,1.1060672
-23.110748,1.7283432,1.0813217
-23.100044,1.6754987,0.989861
-23.162544,1.6669023,0.9649677
-23.020657,1.5312953,0.7484546
-22.957434,1.4425349,0.60223675
-23.061007,1.4582603,0.61403227
-22.936573,1.3280599,0.40461826
-22.928478,1.2709713,0.30586004
-28.897934,2.0776734,1.071291
-28.952866,2.1048481,1.1141658
-29.010199,2.142478,1.1742697
-29.062943,2.1674125,1.2136469
-29.115074,2.1925018,1.2533593
-29.165512,2.213619,1.2866354
-29.21853,2.2472646,1.3405485
-29.268522,2.2717752,1.3795509
-29.318504,2.299013,1.4231057
-29.365385,2.3150237,1.4483008
-29.410402,2.323923,1.4618855
-29.461224,2.3645084,1.5275826
-29.507828,2.3871248,1.5638366
-29.550676,2.3907077,1.5688858
-29.590282,2.3741953,1.5409703
-29.637793,2.410132,1.5993066
-29.680473,2.4161282,1.608501
-29.725187,2.4403913,1.6477818
-29.766674,2.4403908,1.6472368
-29.811464,2.4747498,1.7032409
-29.853498,2.486391,1.7219534
-29.895061,2.4955468,1.7366376
-29.93554,2.4907894,1.7284989
-29.9799,2.561965,1.8452907
-30.019955,2.5641768,1.8487258
-30.059034,2.5316858,1.7951412
-30.099293,2.527867,1.7887664
-30.139654,2.5298667,1.7920132
-30.180119,2.5148263,1.7672892
-30.221685,2.4635258,1.6829834
-30.26761,2.3146775,1.4383049
-30.279987,3.0068877,2.5768995
-30.313934,3.0212882,2.6007805
-30.347511,3.0362933,2.6257
-30.3807,3.0519006,2.6516523
-30.413809,3.0644755,2.6726618
-30.446573,3.0776515,2.6947026
-30.479393,3.087795,2.711801
-30.512897,3.0907595,2.7171402
-30.541042,3.1321735,2.7857213
-30.573427,3.1389217,2.7973614
-30.606165,3.1426427,2.804069
-30.638556,3.148,2.8135095
-30.671022,3.1524034,2.8214245
-30.7036,3.1558542,2.827818
-30.736217,3.1588702,2.8335423
-30.769005,3.1609359,2.837749
-30.802237,3.1610193,2.838746
-30.835606,3.1606731,2.8390832
-30.86847,3.1624775,2.8429942
-30.901306,3.164366,2.8470893
-30.934258,3.1658235,2.8505216
-30.967043,3.1678815,2.8549833
-31.000265,3.16848,2.8570976
-31.033817,3.1681376,2.8577147
-31.06891,3.1632617,2.8509502
-31.103964,3.1589954,2.8452358
-31.136791,3.161489,2.8506427
-31.170328,3.1620193,2.852879
-31.203106,3.1646836,2.8586555
-31.23723,3.163854,2.8587604
-31.271807,3.1620936,2.8573918
-31.305609,3.1624684,2.8595643
-31.338993,3.1639514,2.863596
-31.378588,3.1512706,2.844532
-31.413944,3.1488774,2.8423343
-31.450787,3.1435351,2.8353744
-31.486103,3.1418483,2.8344364
-31.521242,3.1407652,2.8345356
-31.55719,3.13826,2.832367
-31.592453,3.137371,2.8328872
-31.628033,3.1360738,2.8327947
-31.664211,3.1338675,2.8312745
-31.70075,3.1312594,2.829154
-31.737383,3.1287544,2.827258
-31.77296,3.12836,2.8288507
-31.80741,3.1300676,2.8339133
-31.843945,3.1283662,2.833487
-31.881775,3.1247694,2.83004
-31.918484,3.1232777,2.8300695
-31.955265,3.12189,2.8303237
-31.993082,3.1191154,2.8283873
-32.029694,3.1184351,2.8299036
-32.06769,3.1158767,2.8284364
-32.105793,3.1134295,2.827209
-32.145027,3.1096122,2.8238273
-32.182285,3.1088681,2.8254776
-32.218895,3.1092145,2.8289485
-32.254093,3.1116285,2.835813
-32.293686,3.1082578,2.8334007
-32.33266,3.1059842,2.8328218
-32.372868,3.1023622,2.8301358
-32.41167,3.1008103,2.8308506
-32.452503,3.0969424,2.8279037
-32.490707,3.0965965,2.8306875
-32.53057,3.0944242,2.8306022
-32.570534,3.092373,2.8307772
-32.61266,3.0880322,2.8273487
-32.6541,3.0847847,2.825747
-32.69482,3.0826256,2.8259602
-32.733925,3.0825055,2.8295069
-32.775696,3.0796354,2.8287234
-32.815826,3.0788014,2.8312664
-32.858704,3.0752368,2.8295202
-32.902172,3.071333,2.8273106
-32.944416,3.0689871,2.8276634
-32.985386,3.068189,2.830556
-33.03017,3.0637507,2.827733
-33.076057,3.0585191,2.8237314
-33.11926,3.056248,2.8245187
-33.16354,3.0531795,2.82412
-33.209415,3.0488567,2.8218179
-33.255455,3.0446846,2.8198423
-33.29716,3.0448325,2.8247871
-33.33943,3.0446475,2.8292809
-33.386864,3.0399888,2.8267946
-33.43138,3.0382445,2.8289952
-33.476524,3.0361855,2.8307862
-33.523357,3.032904,2.8307414
-33.56821,3.0315988,2.8338952
-33.61477,3.0290778,2.835227
-33.66199,3.0262578,2.8361835
-33.70935,3.0235958,2.8374825
-33.755188,3.0224414,2.8412342
-33.809456,3.0147126,2.8348112
-33.858925,3.0111997,2.835081
-33.90855,3.0078561,2.8357182
-33.95832,3.0046823,2.8367229
-34.008236,3.001679,2.8380985
-34.062943,2.9953191,2.8343701
-34.11377,2.992232,2.835836
-34.16415,2.9897587,2.8383598
-34.215855,2.986586,2.839911
-34.26711,2.9840288,2.842525
-34.321526,2.9794831,2.842187
-34.3749,2.9759953,2.8435998
-34.430283,2.9714055,2.8434381
-34.484608,2.967873,2.8450255
-34.53972,2.9641073,2.8463788
-34.596252,2.9596884,2.84686
-34.651703,2.9563227,2.8490815
-34.714333,2.9485126,2.8446565
-34.774006,2.943042,2.8439455
-34.83583,2.9365356,2.841805
-34.897884,2.9302623,2.840168
-34.952938,2.928793,2.8459568
-35.018036,2.9213138,2.8427935
-35.075394,2.9190292,2.8476305
-35.136913,2.9144912,2.8492131
-35.198627,2.910184,2.851296
-35.269356,2.9008179,2.8459463
-35.331493,2.8969977,2.8490858
-35.399315,2.8901837,2.8479095
-35.46391,2.8856416,2.850298
-35.53637,2.8769462,2.846675
-35.606304,2.870131,2.8460388
-35.66096,2.8723073,2.8589158
-35.722763,2.8707335,2.8663821
-35.797554,2.8623247,2.863923
-35.89203,2.843664,2.8465781
-35.95231,2.8440719,2.8575253
-36.024307,2.8385112,2.8598814
-36.10384,2.829382,2.8572211
-36.179256,2.822876,2.8586159
-36.251217,2.8185792,2.863441
-36.337494,2.8073552,2.8584142
-36.415894,2.8006427,2.8601766
-36.493786,2.7946231,2.8631697
-36.572666,2.7885437,2.8663068
-36.65026,2.7835276,2.8712034
-36.74333,2.7714276,2.8661804
-36.822952,2.766342,2.8714705
-36.91204,2.7571888,2.8712053
-37.0022,2.7480438,2.8712287
-37.09266,2.7392755,2.8720698
-37.18889,2.7283673,2.870175
-37.27602,2.7221618,2.8752131
-37.362602,2.716674,2.8815355
-37.494633,2.6913764,2.8604074
-52.634644,0.57961273,2.211115
-52.647766,0.6444185,2.343195
-52.63614,0.71474004,2.4804354
-52.437477,0.8277786,2.6572628
-52.36898,0.90967846,2.8041062
-52.335636,0.98295236,2.9425812
-52.419132,1.0298123,3.0572343
-52.50386,1.0765834,3.1722393
-52.55136,1.1315846,3.294755
-52.846596,1.1338103,3.3730063
-53.23344,1.1182106,3.4384441
-53.571198,1.1147192,3.5162663
-53.66124,1.1634855,3.6377726
-53.7806,1.2065752,3.7554016
-53.966263,1.2368946,3.864108
-54.251522,1.2484922,3.9602318
-9.231623,1.7213018,3.8227534
-8.894577,1.5917287,3.6403222
-8.671194,1.4836674,3.474619
-9.130327,1.5184734,3.4361067
-9.2739525,1.4879837,3.3406029
-9.353781,1.4441779,3.2335048
-9.402657,1.3937333,3.1205225
-9.436987,1.3400357,3.004612
-9.445402,1.280379,2.8830028
-9.458508,1.2215445,2.7621436
-9.468685,1.1617982,2.6403403
-9.450354,1.0950882,2.5114312
-9.511572,1.0469084,2.4012957
-9.522486,0.9866276,2.2788472
-9.552206,0.93067575,2.1608868
-9.555475,0.8680167,2.035862
-9.582211,0.8109131,1.9166932
-9.596682,0.75050735,1.7939749
-9.584955,0.6831007,1.6635561
-9.598501,0.621824,1.5397224
-9.5980835,0.5565803,1.4114137
-9.536474,0.47464728,1.2641973
-9.254864,0.33260703,1.0482874
-9.462404,0.32182145,0.9810653
-10.9783535,0.6732371,1.3329868
-10.012608,0.34080648,0.896647
-10.216116,0.33213854,0.8350477
-10.6554985,0.39184928,0.8551755
-11.658096,0.6169977,1.0743804
-11.857759,0.6134591,1.0241594
-12.130772,0.6325681,1.0021572
-12.505444,0.68355656,1.020134
-12.998026,0.7723973,1.0861444
-13.130774,0.75400186,1.0222774
-13.460073,0.7969966,1.0350428
-13.404776,0.7213993,0.9013052
-14.198501,0.91393375,1.1036916
-13.528139,0.64271,0.72424746
-13.488325,0.57050514,0.5942545
-15.238186,1.0836313,1.2111807
-15.431014,1.0934663,1.1899557
-15.704194,1.1311939,1.2054834
-15.902974,1.1453388,1.1915407
-15.971398,1.1159444,1.1216207
-16.204416,1.1435707,1.1265931
-16.525875,1.2034478,1.174932
-16.330864,1.0828135,0.98583555
-16.679718,1.1545539,1.0513868
-16.746807,1.1268058,0.985549
-16.7494,1.0756009,0.88845253
-16.919514,1.0857759,0.87389755
-17.384064,1.206636,1.0095887
-17.398636,1.1611681,0.92132044
-17.428238,1.1210961,0.8403692
-17.555618,1.1184509,0.8106518
-17.802155,1.1627431,0.84582996
-17.91465,1.155904,0.81140184
-18.094955,1.1764789,0.81526804
-18.863888,1.434479,1.1495404
-18.855839,1.3832204,1.0556798
-18.830698,1.3244276,0.95115805
-18.998646,1.3449783,0.95780754
-19.470627,1.4938614,1.1457481
-18.92855,1.2172375,0.7342224
-18.94624,1.174725,0.6523614
-19.110138,1.195066,0.65984774
-19.223288,1.1942201,0.6376438
-19.524014,1.2766919,0.7349696
-19.962372,1.4228239,0.92467976
-20.111803,1.4423318,0.933712
-20.116947,1.3970332,0.84967947
-20.160965,1.3691657,0.79080534
-20.141766,1.2627406,0.59951067
-20.201374,1.2414496,0.55025434
-20.326775,1.2517788,0.5473795
-21.275509,1.6621723,1.1316094
-21.34755,1.6519892,1.1007628
-20.772524,1.3214991,0.5979767
-21.047287,1.4098489,0.71191597
-21.083332,1.379765,0.6513295
-21.143475,1.3618095,0.60878944
-21.726917,1.5679662,0.88506365
-22.133242,1.7354949,1.1209097
-22.009315,1.6241682,0.9403906
