x,y,z
-31.005348,2.8872066,4.0931683
-31.034592,2.8801289,4.0878983
-31.062197,2.8791144,4.0892963
-31.091238,2.8735256,4.0858135
-31.122252,2.8620472,4.0760365
-31.153042,2.851985,4.067893
-31.180065,2.8539348,4.0728397
-31.204586,2.8632336,4.085806
-31.229647,2.8706067,4.096754
-31.260021,2.8628461,4.091441
-31.290535,2.8551736,4.08632
-31.320442,2.849568,4.0835195
-31.351213,2.8420715,4.0787797
-31.380568,2.8386126,4.078475
-31.410252,2.8345785,4.0776443
-31.437042,2.8378515,4.084741
-31.46654,2.8346338,4.08496
-31.497225,2.8288782,4.082556
-31.530025,2.81863,4.075446
-31.561253,2.8124046,4.0727415
-31.590805,2.8101888,4.0744133
-31.618582,2.8119688,4.080432
-31.64541,2.8157778,4.08869
-31.672497,2.8190043,4.096406
-31.70466,2.8119044,4.0932446
-31.739882,2.7990599,4.084104
-31.773012,2.790865,4.0800095
-31.803934,2.787303,4.08092
-31.830477,2.7922342,4.090892
-31.857294,2.7965875,4.100331
-31.88934,2.7913394,4.099746
-31.923994,2.781682,4.094637
-31.959183,2.7714908,4.0890913
-31.9916,2.7665467,4.089166
-32.02261,2.764264,4.0921326
-32.05253,2.7639918,4.0972977
-32.081303,2.7657204,4.104644
-32.113968,2.7611485,4.105525
-32.152657,2.7471225,4.0967007
-32.18196,2.748488,4.103979
-32.218567,2.7385073,4.0996094
-32.253704,2.7311811,4.098116
-32.287308,2.7264977,4.099475
-32.31804,2.72634,4.105609
-32.362465,2.706092,4.091211
-32.40248,2.6929274,4.0842547
-32.438778,2.6855555,4.0833826
-32.471664,2.683318,4.0878854
-32.504147,2.681806,4.093242
-32.54029,2.6753922,4.0937276
-32.58848,2.6528769,4.0780115
-32.630558,2.6392565,4.071506
-32.662083,2.6400738,4.079755
-32.695026,2.6391222,4.0863266
-32.732784,2.6320813,4.086891
-32.7881,2.6029277,4.0654154
-32.8258,2.5967968,4.067235
-32.866577,2.5870984,4.0656357
-32.90153,2.5849066,4.0716763
-32.93653,2.5828235,4.0779543
-32.99805,2.5490615,4.0529637
-33.03699,2.5429964,4.0556436
-33.080193,2.5321908,4.053803
-33.10629,2.5415783,4.0719976
-33.14176,2.540122,4.079633
-33.198082,2.5151963,4.0644484
-33.25104,2.4947128,4.0538554
-33.288036,2.492486,4.061261
-33.32234,2.493381,4.071836
-33.36659,2.4835978,4.0722127
-33.417694,2.4668007,4.066015
-33.466263,2.4531753,4.063098
-33.515057,2.4397295,4.060569
-33.55435,2.4365478,4.068062
-33.606388,2.4204779,4.0634418
-33.66682,2.3963401,4.0514026
-33.71651,2.3836288,4.0504665
-33.75342,2.384021,4.062111
-33.802235,2.372816,4.0630016
-33.857822,2.3553638,4.058263
-33.90886,2.3427866,4.0583377
-33.96192,2.3286572,4.057204
-34.012146,2.3176258,4.0591908
-34.069958,2.299845,4.055179
-34.1125,2.296698,4.0649066
-34.151966,2.2965717,4.0775847
-34.219196,2.2713575,4.0675287
-34.288082,2.2452734,4.0570273
-34.336914,2.2377079,4.06365
-34.391655,2.2252061,4.066047
-34.45437,2.2061145,4.0627913
-34.512157,2.1917915,4.0641174
-34.57804,2.1709342,4.0599113
-34.64425,2.1503434,4.0562825
-34.705444,2.1344986,4.057186
-34.7729,2.113871,4.0541987
-34.851444,2.0846157,4.0440164
-34.912804,2.0701113,4.047108
-34.99347,2.040368,4.037306
-35.0396,2.039073,4.052489
-35.133343,2.0000339,4.0354857
-35.19991,1.9833072,4.0380764
-35.24927,1.9804934,4.052843
-35.333763,1.9506577,4.0450006
-35.41304,1.9255204,4.0415874
-35.48203,1.9088213,4.0456777
-35.57552,1.8740909,4.0351386
-35.66161,1.8456702,4.030364
-35.714207,1.8427565,4.047073
-35.82194,1.7995279,4.0310597
-35.90623,1.774306,4.030343
-36.005524,1.7388566,4.021841
-36.086895,1.717026,4.0248795
-36.162643,1.6997411,4.0320168
-36.252758,1.6728213,4.0319357
-36.327538,1.6572433,4.041334
-36.483627,1.5858412,4.007411
-36.55844,1.5716064,4.019003
-36.663006,1.53756,4.015702
-36.751263,1.5152795,4.022083
-36.84669,1.4887674,4.025764
-36.944,1.4616487,4.029568
-37.07099,1.4156485,4.0197783
-37.22418,1.3535249,3.9987779
-37.3143,1.3334401,4.009917
-37.442215,1.2896423,4.0041847
-37.52512,1.2754235,4.020847
-37.64211,1.2401383,4.022777
-22.857462,1.308548,3.9523606
-22.917818,1.3084025,3.925819
-22.626541,1.0799036,3.7259793
-22.654566,1.0570736,3.6814432
-23.103598,1.3123865,3.8515224
-23.134188,1.2933006,3.8115587
-22.794628,1.0252485,3.5769973
-22.837347,1.0120368,3.540556
-22.883276,1.001018,3.506034
-24.218403,1.8792169,4.180991
-24.27855,1.8858138,4.165523
-24.342323,1.8952507,4.152668
-24.393406,1.8960516,4.1331396
-24.495945,1.9337786,4.144054
-24.560646,1.9450953,4.133858
-24.645565,1.9714704,4.1364627
-24.73517,2.0019202,4.1429405
-24.811378,2.0231743,4.1422396
-24.904467,2.0575662,4.153012
-24.987082,2.0848584,4.158314
-25.043095,2.092602,4.1474586
-25.084904,2.0897675,4.127845
-25.17438,2.123893,4.1401653
-25.218084,2.123094,4.122839
-25.286032,2.1415224,4.1223907
-25.356455,2.1624136,4.124447
-25.436142,2.1912732,4.133857
-25.511314,2.217167,4.141089
-25.57798,2.2367492,4.1431437
-25.62688,2.2422037,4.1329947
-25.691046,2.2606132,4.134633
-25.77417,2.295439,4.1513085
-25.819841,2.2993207,4.1405845
-25.874615,2.3112135,4.137308
-25.930504,2.3244405,4.1355066
-25.994585,2.345214,4.140852
-26.041645,2.351539,4.1333
-26.07712,2.3478239,4.1167397
-26.169014,2.3948503,4.147108
-26.215515,2.4017704,4.140847
-26.266272,2.412863,4.138671
-26.300722,2.4092288,4.122994
-26.377087,2.4448211,4.144166
-26.429047,2.4582357,4.1448984
-26.461983,2.453915,4.129149
-26.513039,2.4670928,4.1300764
-26.572243,2.4886034,4.1391463
-26.616274,2.4957705,4.1348376
-26.65253,2.495493,4.123605
-26.692284,2.4988482,4.1159945
-26.742397,2.5129132,4.1188445
-26.800316,2.5354123,4.130058
-26.850458,2.5504613,4.1343317
-26.884527,2.549121,4.1229196
-26.92253,2.5520399,4.1157804
-26.961027,2.5556784,4.1094933
-27.03195,2.5946257,4.1379395
-27.069475,2.5980043,4.131797
-27.100983,2.594915,4.119429
-27.14218,2.6027277,4.117937
-27.192272,2.620913,4.126887
-27.23574,2.6320467,4.1290526
-27.271711,2.6348696,4.123123
-27.313824,2.6450794,4.1247025
-27.350128,2.6487556,4.1199136
-27.389908,2.6568084,4.1196527
-27.45263,2.693048,4.1478987
-27.482944,2.6904285,4.137257
-27.511322,2.6854463,4.1243286
-27.540741,2.681768,4.112809
-27.579365,2.6898544,4.11333
-27.627375,2.7103922,4.126671
-27.662298,2.7144387,4.1233935
-27.69761,2.7192144,4.120989
-27.728678,2.7185242,4.1131124
-27.762938,2.7222705,4.1098948
-27.801182,2.7317233,4.112668
-27.84015,2.7425485,4.1170015
-27.877161,2.7510078,4.1190386
-27.91097,2.7552092,4.1168065
-27.942545,2.7563825,4.111553
-27.97834,2.763926,4.1130233
-28.011475,2.7678118,4.110815
-28.04868,2.7780967,4.1153946
-28.082426,2.7834573,4.1149654
-28.116877,2.7901855,4.116086
-28.144028,2.785628,4.1054964
-28.174389,2.7862136,4.100386
-28.210936,2.7970464,4.1061525
-28.243464,2.8016376,4.105475
-28.290613,2.8311706,4.1312294
-28.317915,2.8277018,4.1222916
-28.343065,2.8204722,4.109452
-28.373022,2.8216217,4.105564
-28.404724,2.8260598,4.1052637
-28.43494,2.8280258,4.102437
-28.47511,2.8487124,4.119645
-28.508806,2.8579545,4.124798
-28.533993,2.851194,4.112974
-28.559284,2.8444943,4.101285
-28.587906,2.8443165,4.0966463
-28.617474,2.846158,4.0942583
-28.651361,2.8571491,4.101785
-28.686277,2.870839,4.112329
-28.716438,2.8749018,4.1126328
-28.742685,2.870602,4.104018
-28.773338,2.8761292,4.106079
-28.800762,2.87458,4.1005936
-28.82904,2.87506,4.0973816
-28.861664,2.886063,4.1056414
-28.895956,2.9017394,4.119075
-28.92814,2.9129438,4.1277747
-28.953472,2.907218,4.1181955
-28.979395,2.902866,4.1101766
-29.004164,2.8952987,4.098731
-29.032396,2.8969855,4.097427
-29.059893,2.8967776,4.0941405
-29.091932,2.9098024,4.105369
-29.125069,2.926875,4.1211195
-29.15099,2.9229567,4.1140423
-29.176552,2.9177847,4.1056633
-29.202604,2.9139967,4.0988674
-29.22971,2.913578,4.095834
-29.258553,2.9191828,4.099479
-29.288416,2.9288368,4.107652
-29.320648,2.9478476,4.1261883
-29.348146,2.950389,4.126736
-29.373724,2.94571,4.1194263
-29.397076,2.9318047,4.1020365
-29.423676,2.930568,4.0986457
-29.45243,2.9387007,4.105647
-29.478098,2.933618,4.098171
-29.504978,2.9339206,4.0967007
-29.539433,2.9715605,4.136489
-29.56519,2.9680274,4.1309547
-29.588896,2.9532354,4.1130605
-29.61392,2.9444962,4.1019096
-29.640213,2.9424858,4.098259
-29.666857,2.9425435,4.0969677
-29.693596,2.9433377,4.0965624
-29.720602,2.9462044,4.098524
-29.74924,2.9618292,4.1146812
-29.775528,2.960833,4.112522
-29.800982,2.9525547,4.102369
-29.827147,2.9496863,4.098276
-29.853489,2.948222,4.0958104
-29.881227,2.9622061,4.110536
-29.907373,2.9595423,4.106887
-29.933851,2.96096,4.1078343
-29.961102,2.9751592,4.123026
-29.98716,2.9720302,4.1190777
-30.013056,2.9642835,4.110078
-30.039112,2.957271,4.101963
-30.065365,2.9530034,4.096963
-30.091871,2.9581757,4.1025066
-30.118216,2.9567213,4.10077
-30.144587,2.9566736,4.100667
-30.170887,2.966736,4.1118526
-30.197138,2.968832,4.1142697
-30.2235,2.96497,4.1101503
-30.24993,2.9611764,4.1061773
-30.276539,2.9547732,4.099383
-30.302782,2.95781,4.1031303
-30.329294,2.9555593,4.101087
-30.35571,2.9553847,4.101417
-30.381197,2.9673195,4.115244
-30.407455,2.9679475,4.116605
-30.435667,2.9479148,4.0951443
-30.462776,2.9419985,4.0894046
-30.489094,2.9441729,4.092701
-30.515696,2.943742,4.093185
-30.54205,2.9453835,4.096036
-30.569485,2.939081,4.090168
-30.593887,2.9542084,4.108081
-30.620422,2.9540484,4.1091523
-30.650484,2.9326181,4.086788
-30.676638,2.935938,4.091859
-30.704075,2.9319954,4.0889826
-30.730946,2.9314551,4.089937
-30.75783,2.9309857,4.091046
-30.785282,2.9279246,4.0893707
-30.806566,2.9535275,4.1193643
-30.835388,2.9439516,4.110652
-30.866259,2.9264874,4.093343
-30.892897,2.9276986,4.096678
-30.920862,2.9236722,4.094328
-30.948381,2.92171,4.0943265
-30.97899,2.9085608,4.08212
-31.003536,2.9180067,4.094803
-31.030596,2.9182498,4.097456
-31.059624,2.9119544,4.093022
-31.089577,2.9030986,4.085871
-31.122602,2.8850904,4.0688
-31.150173,2.8849862,4.07141
-31.17753,2.8856149,4.074899
-31.20556,2.8843403,4.0763893
-31.227844,2.8995824,4.0959687
-31.256025,2.897787,4.0970383
-31.287151,2.8881917,4.0897007
-31.318201,2.879343,4.083276
-31.348143,2.873863,4.0806074
-31.377928,2.869122,4.0788355
-31.403563,2.8749275,4.088587
-31.43181,2.8742642,4.091401
-31.460354,2.8730254,4.0936775
-31.498224,2.8503585,4.072885
-31.526722,2.8499517,4.0762563
-31.555529,2.8489723,4.079095
-31.585852,2.8448248,4.0786085
-31.614735,2.844008,4.0818
-31.639616,2.8516946,4.094212
-31.663427,2.8613806,4.1088333
-31.700872,2.84333,4.0937963
-31.734394,2.8337948,4.088009
-31.766428,2.8275867,4.0858903
-31.793182,2.8317752,4.0949717
-31.822617,2.8308892,4.098721
-31.848942,2.8358638,4.108799
-31.882265,2.828083,4.1053963
-31.917881,2.816564,4.0981426
-31.951881,2.8083568,4.0945244
-31.984182,2.8034472,4.094511
-32.0177,2.7967231,4.0926914
-32.046776,2.7977386,4.099147
-32.07237,2.8045533,4.1117954
-32.110775,2.7904963,4.1025825
-32.148235,2.7784681,4.095642
-32.181885,2.7728875,4.0955925
-32.21483,2.7686734,4.09709
-32.244965,2.7689726,4.103408
-32.27469,2.7699862,4.110568
-32.31456,2.756009,4.102236
-32.357677,2.7377787,4.0896473
-32.395035,2.728465,4.086465
-32.433437,2.7180247,4.0822573
-32.46581,2.716443,4.0873356
-32.49867,2.7143369,4.091983
-32.54066,2.6999025,4.0840783
-32.58336,2.684995,4.075856
-32.62121,2.6770463,4.0749264
-32.660606,2.667369,4.072374
-32.69068,2.6701565,4.082671
-32.72936,2.6619523,4.0818944
-32.772545,2.6483502,4.075794
-32.814007,2.6373513,4.072504
-32.851208,2.6320014,4.0750804
-32.885002,2.631044,4.082219
-32.934986,2.6107016,4.070011
-32.976643,2.6008773,4.068558
-33.02465,2.58392,4.0601463
-33.06151,2.580452,4.065386
-33.107876,2.5662346,4.060078
-33.142838,2.565438,4.068276
-33.1992,2.5407104,4.0529385
-33.241947,2.5317922,4.053449
-33.27832,2.530202,4.0613427
-33.31473,2.5287275,4.0694876
-33.355606,2.5226057,4.073227
-33.417812,2.494052,4.0552654
-33.466404,2.4805613,4.0522423
-33.507835,2.4749331,4.057052
-33.542496,2.4765227,4.0690036
-33.603123,2.4517517,4.055701
-33.65251,2.4389553,4.054183
-33.69742,2.4310226,4.0575395
-33.735363,2.4302528,4.06792
-33.7918,2.4115603,4.0614166
-33.852745,2.3890235,4.051539
-33.89893,2.3812037,4.055849
-33.943413,2.3752818,4.062149
-33.99475,2.3631825,4.062852
-34.049377,2.348403,4.061288
-34.105488,2.3326879,4.0591106
-34.141777,2.3354645,4.0743465
-34.210243,2.309311,4.063007
-34.275307,2.2868447,4.055409
-34.32663,2.2770984,4.0597944
-34.362637,2.2810936,4.0769625
-34.434284,2.2542396,4.0662327
-34.507656,2.2265604,4.055129
-34.56238,2.215413,4.0593133
-34.61728,2.2044744,4.0639496
-34.704987,2.1664934,4.0446863
-34.769142,2.1488507,4.0440025
-34.82749,2.1364388,4.0482802
-34.900963,2.112132,4.042363
-34.96251,2.0980158,4.04578
-35.03869,2.072645,4.0396824
-35.115246,2.047593,4.034275
-35.183144,2.029931,4.035675
-35.231033,2.0282655,4.051203
-35.327442,1.9894894,4.0351777
-35.3912,1.9764452,4.04163
-35.44022,1.9749244,4.0581794
-35.537857,1.9372101,4.0444574
-35.626694,1.9068537,4.037473
-35.72391,1.8710363,4.026446
-35.800583,1.8509939,4.029064
-35.862938,1.8418186,4.0410686
-35.961365,1.807136,4.0325027
-36.051434,1.7791681,4.0299883
-36.147076,1.7479358,4.0253572
-36.237938,1.7207577,4.0245557
-36.308216,1.708473,4.0361967
-36.42378,1.665513,4.02386
-36.555042,1.6127892,4.0045304
-36.64147,1.5913911,4.0105906
-36.731995,1.5678093,4.0154586
-36.8075,1.554779,4.0290294
-36.90626,1.5268731,4.0316095
-37.05255,1.4686384,4.0116735
-37.15224,1.4417155,4.0163865
-37.27957,1.3977187,4.00889
-37.414528,1.3498142,3.9993005
-37.509186,1.3283286,4.0101314
-37.605682,1.3062618,4.0211215
-23.065077,1.4879684,4.03065
-22.522923,1.1044014,3.7109327
-22.55637,1.0848441,3.6685295
-22.631817,1.0924339,3.647375
-23.093985,1.3533893,3.8252249
-22.7809,1.1075058,3.6062245
-22.731861,1.033344,3.5213475
-22.76351,1.0122893,3.4784822
-22.806786,0.9989724,3.441948
-24.233973,1.9305102,4.171081
-24.267933,1.918947,4.1411347
-24.382402,1.9632913,4.1571836
-24.45701,1.9806612,4.151662
-24.514435,1.9863684,4.136873
-24.600353,2.012671,4.139575
-24.672043,2.0293794,4.134709
-24.74349,2.0463817,4.1304793
-24.834885,2.0784628,4.139441
-24.943743,2.124185,4.1605678
-25.024815,2.150188,4.165407
-25.056541,2.1397212,4.13923
-25.132874,2.163072,4.1424975
-25.177986,2.1631064,4.1258564
-25.244719,2.180009,4.1241956
-25.320213,2.2042098,4.129307
-25.388443,2.223301,4.130302
-25.458435,2.244302,4.133351
-25.538328,2.2737806,4.144333
-25.575779,2.2696347,4.1255913
-25.65569,2.3002293,4.138296
-25.73245,2.3289566,4.1497374
-25.78949,2.34197,4.147309
-25.835756,2.3463304,4.137261
-25.883915,2.3525271,4.129104
-25.953484,2.3773136,4.1382704
-26.00647,2.3883939,4.135131
-26.056057,2.3968673,4.1298223
-26.1202,2.418474,4.136969
-26.187168,2.443162,4.147314
-26.221605,2.4392424,4.131154
-26.285501,2.46212,4.1403604
-26.334118,2.471587,4.137206
-26.394909,2.4926548,4.1452737
-26.432705,2.492775,4.133694
-26.47778,2.4999099,4.128966
-26.52333,2.5077822,4.1251388
-26.588503,2.5348692,4.139989
-26.63541,2.5448537,4.1386538
-26.664463,2.5375986,4.1208334
-26.71701,2.5536976,4.125789
-26.765808,2.566496,4.127768
-26.816114,2.5812292,4.131853
-26.85133,2.580905,4.121399
-26.899557,2.594212,4.1244802
-26.939138,2.5988574,4.1192303
-27.000893,2.6272643,4.137638
-27.039,2.6310484,4.1319127
-27.068827,2.6260564,4.1176066
-27.114986,2.6389952,4.1212835
-27.152325,2.6425607,4.1157804
-27.214617,2.6743398,4.138714
-27.253162,2.6800098,4.135685
-27.281672,2.674401,4.1214356
-27.320614,2.6809046,4.1195164
-27.361486,2.689951,4.120325
-27.418955,2.7190824,4.141697
-27.456821,2.7254233,4.1401224
-27.486607,2.7221782,4.1289077
-27.5184,2.7214503,4.120365
-27.558485,2.7311785,4.1226516
-27.588741,2.7288287,4.1126804
-27.641472,2.7553275,4.132525
-27.678152,2.7617924,4.131916
-27.707235,2.7585464,4.121395
-27.737743,2.7572281,4.112965
-27.772375,2.7615488,4.1104918
-27.807827,2.7672138,4.109542
-27.854786,2.7890887,4.1256294
-27.886349,2.7900476,4.1200457
-27.916138,2.7886143,4.1120625
-27.947662,2.789755,4.1068745
-27.980007,2.7922366,4.1032004
-28.02239,2.8098078,4.115527
-28.06405,2.826901,4.127515
-28.095156,2.8284698,4.123255
-28.122984,2.8251066,4.113874
-28.151655,2.8230762,4.1059885
-28.184683,2.828054,4.1056376
-28.216835,2.83187,4.104161
-28.262331,2.8579,4.1264696
-28.294518,2.8625762,4.1261616
-28.323631,2.862279,4.1206417
-28.352737,2.8620632,4.1152983
-28.377857,2.8549356,4.1026297
-28.411283,2.862512,4.105824
-28.442461,2.8663664,4.105127
-28.48945,2.8996818,4.136267
-28.513762,2.8916123,4.1229506
-28.539204,2.885521,4.1118317
-28.5677,2.885262,4.107091
-28.595219,2.8831553,4.100435
-28.627213,2.8901203,4.103695
-28.658764,2.8965373,4.106465
-28.697556,2.9185128,4.1262507
-28.724213,2.915459,4.1189337
-28.752092,2.915058,4.114582
-28.778229,2.910853,4.106162
-28.805567,2.9093044,4.1007133
-28.83543,2.9136605,4.1018004
-28.86603,2.9200478,4.105202
-28.902126,2.9401639,4.123745
-28.930794,2.942843,4.1232843
-28.955559,2.9358385,4.112276
-28.98119,2.9308476,4.103546
-29.008123,2.929183,4.0985413
-29.036274,2.9308515,4.0972853
-29.063684,2.930637,4.0940332
-29.09884,2.9527297,4.115467
-29.12805,2.958571,4.1190786
-29.15325,2.952703,4.1098375
-29.179176,2.9488642,4.1029077
-29.20578,2.9470592,4.098298
-29.2342,2.9512339,4.1003838
-29.262152,2.9541721,4.101182
-29.29061,2.9591587,4.1043324
-29.321886,2.9747543,4.1193423
-29.349533,2.977929,4.1206536
-29.376434,2.9785423,4.119196
-29.400518,2.9680142,4.105425
-29.42653,2.964802,4.0998526
-29.454584,2.9702406,4.103983
-29.48224,2.9744334,4.106806
-29.509111,2.9753954,4.106106
-29.540848,3.0002398,4.1321125
-29.567074,2.9993696,4.129529
-29.591074,2.9866498,4.1137905
-29.616478,2.98061,4.105571
-29.642433,2.977285,4.1004505
-29.668869,2.976677,4.0984364
-29.695614,2.9781275,4.0987954
-29.722517,2.9809747,4.10079
-29.751062,2.9965038,4.1170464
-29.777664,2.9988322,4.1186123
-29.803215,2.9925957,4.1106625
-29.829445,2.9917383,4.1088037
-29.855818,2.9922767,4.1085787
-29.881998,2.99089,4.106269
-29.908148,2.9889052,4.103358
-29.93486,2.9943025,4.1087914
-29.96215,3.0104103,4.126304
-29.988207,3.0092964,4.1245847
-30.01413,3.0049222,4.119281
-30.04008,2.999284,4.112627
-30.066162,2.9950428,4.1076097
-30.092398,2.994861,4.107216
-30.118664,2.9974086,4.109954
-30.144873,2.994034,4.10612
-30.170975,3.014685,4.129303
-30.197037,3.0147724,4.1294928
-30.223244,3.0089374,4.123111
-30.24969,2.999179,4.112399
-30.276108,2.9941459,4.1070595
-30.302584,2.9898472,4.102614
-30.328695,2.9929335,4.1065197
-30.355167,2.9901009,4.103861
-30.380812,2.998641,4.1140194
-30.406996,2.9992676,4.1153784
-30.43488,2.9820175,4.096782
-30.460579,2.9887636,4.1051397
-30.487812,2.98096,4.097275
-30.514133,2.981862,4.0992303
-30.540789,2.9801762,4.0983615
-30.567104,2.9812145,4.100612
-30.592224,2.9902804,4.1119113
-30.617918,2.9947662,4.1181545
-30.647606,2.9747915,4.0971336
-30.676374,2.9621904,4.0844393
-30.702568,2.9649017,4.0889244
-30.728846,2.9670177,4.092816
-30.755356,2.9678774,4.095377
-30.780325,2.9760795,4.1061945
-30.806314,2.9790545,4.111253
-30.832859,2.9794545,4.1135116
-30.86519,2.955499,4.0887365
-30.89243,2.9540725,4.0891266
-30.91953,2.9533777,4.0904045
-30.945953,2.955389,4.0947657
-30.976118,2.9436426,4.0839243
-31.001673,2.9490893,4.092251
-31.026375,2.9572284,4.10363
-31.057632,2.9430919,4.090392
-31.085295,2.9415202,4.0911617
-31.1182,2.9236255,4.0739555
-31.147783,2.916973,4.0692825
-31.175074,2.917607,4.0727463
-31.201004,2.9222383,4.080698
-31.225475,2.9308558,4.093115
-31.250275,2.9382248,4.1042156
-31.286114,2.9156427,4.0824175
-31.315155,2.9120789,4.081655
-31.34477,2.9072943,4.0796394
-31.372143,2.9084468,4.0842285
-31.401623,2.9044738,4.083276
-31.42766,2.9090233,4.091746
-31.455286,2.9097471,4.096101
-31.489113,2.8962955,4.0850453
-31.521744,2.8861856,4.077751
-31.551037,2.8839293,4.079128
-31.580677,2.8811097,4.079979
-31.60855,2.8822417,4.0852203
-31.633,2.890531,4.098318
-31.659842,2.8937335,4.105957
-31.691454,2.8873715,4.1033072
-31.727104,2.8734074,4.092532
-31.760015,2.8653235,4.0882387
-31.789022,2.8650174,4.09245
-31.814272,2.8718188,4.104411
-31.841158,2.875492,4.1130705
-31.873655,2.8690424,4.1109276
-31.911306,2.8537865,4.0994396
-31.942293,2.850724,4.10116
-31.973715,2.8471193,4.1023974
-32.010468,2.834741,4.094366
-32.035248,2.8427181,4.108178
-32.06415,2.8438091,4.114723
-32.10716,2.8222885,4.097314
-32.141006,2.8160243,4.09627
-32.17014,2.8174057,4.103444
-32.20375,2.8119678,4.103495
-32.23953,2.803504,4.100466
-32.27002,2.8032818,4.1062527
-32.308155,2.791915,4.1004143
-32.343918,2.7844138,4.098775
-32.383724,2.7714312,4.091521
-32.42552,2.7561016,4.0819654
-32.452026,2.7626035,4.095366
-32.487427,2.7568033,4.096024
-32.52021,2.7548206,4.1007786
-32.562237,2.740615,4.0929627
-32.609634,2.7197924,4.078462
-32.652683,2.7052827,4.070683
-32.678394,2.713586,4.086597
-32.715034,2.7078934,4.0881844
-32.76392,2.6870692,4.0743756
-32.8058,2.6755586,4.070313
-32.849373,2.6623712,4.0647054
-32.879654,2.665706,4.0761147
-32.909893,2.669126,4.0877085
-32.971237,2.6358113,4.062141
-33.012,2.6274366,4.0620933
-33.04875,2.62401,4.067199
-33.0945,2.6105072,4.062302
-33.125103,2.61452,4.07518
-33.17224,2.6001155,4.069719
-33.22125,2.5840967,4.062847
-33.26399,2.5753894,4.06347
-33.299736,2.5745363,4.0720687
-33.33828,2.5708404,4.077984
-33.386406,2.5572438,4.074275
-33.446606,2.5314682,4.058785
-33.495853,2.5176706,4.055337
-33.52641,2.5233774,4.0711923
-33.576546,2.5093129,4.0678616
-33.639156,2.4832025,4.053039
-33.68574,2.473612,4.0545335
-33.731903,2.4647694,4.0569525
-33.77702,2.4572492,4.0608454
-33.82527,2.4470067,4.0623183
-33.887024,2.424294,4.0520763
-33.932663,2.417307,4.0571256
-33.969814,2.418487,4.0701327
-34.026157,2.402112,4.0666676
-34.092125,2.3774264,4.05563
-34.134613,2.374553,4.0654206
-34.175255,2.3735223,4.077115
-34.245865,2.346134,4.0643973
-34.29381,2.339272,4.07111
-34.357376,2.3191345,4.0657563
-34.421906,2.2986932,4.0604396
-34.47825,2.2857537,4.0623336
-34.54402,2.2652564,4.057592
-34.58293,2.2677255,4.0740895
-34.676517,2.2250602,4.04984
-34.7533,2.1971114,4.039389
-34.804844,2.190328,4.0483627
-34.88436,2.1613183,4.037701
-34.954063,2.1408198,4.035047
-34.999313,2.140164,4.05034
-35.084015,2.1088018,4.0387583
-35.15805,2.0864372,4.03554
-35.212826,2.0794415,4.046143
-35.28742,2.057642,4.044149
-35.356667,2.0404263,4.0465226
-35.421898,2.0266871,4.0522556
-35.522404,1.9872086,4.036308
-35.61629,1.9534602,4.0258203
-35.678833,1.9433057,4.0358424
-35.770615,1.9123952,4.028721
-35.835056,1.9017632,4.0391006
-35.955498,1.8517668,4.0170646
-36.02938,1.8355584,4.0237126
-36.098293,1.8232768,4.033997
-36.200943,1.7880712,4.0259204
-36.25911,1.7841387,4.0438614
-36.40847,1.7185063,4.0123014
-36.494408,1.6969013,4.0169992
-36.608017,1.6573784,4.0079217
-36.67403,1.6502357,4.025169
-36.788486,1.6116064,4.018028
-36.878788,1.5895519,4.0245366
-37.003456,1.5458848,4.014831
-37.11393,1.5122437,4.013631
-37.250626,1.4627254,4.000989
-37.34482,1.4410012,4.0103035
-37.47947,1.3945925,4.001619
-37.57041,1.3762343,4.0147476
-37.651245,1.3646064,4.0334167
-22.84639,1.4413841,3.9526825
-22.90506,1.4398117,3.9253983
-22.449282,1.1141062,3.6448622
-22.509499,1.1111627,3.6152868
-23.074308,1.4319551,3.8428793
-23.094612,1.4063399,3.7975736
-22.58387,1.034147,3.4735432
-22.615002,1.0122378,3.4294496
-22.654053,0.9954395,3.3896184
-22.691833,0.9777396,3.3491964
-24.267225,1.9978948,4.1654296
-24.301052,1.9863828,4.1356955
-24.39168,2.0138683,4.138672
-24.478203,2.0391772,4.1403394
-24.546654,2.0524814,4.1323504
-24.62225,2.0712385,4.1293626
-24.698301,2.09083,4.1275015
-24.779873,2.1149087,4.129913
-24.885649,2.1571188,4.1484437
-24.960617,2.1777494,4.1488357
-25.038849,2.2013268,4.1522064
-25.073364,2.1929855,4.127983
-25.153946,2.2192304,4.134409
-25.210232,2.2277186,4.1255274
-25.268478,2.2380261,4.118543
-25.348797,2.2657075,4.1274014
-25.407276,2.2770617,4.1220064
-25.483429,2.302669,4.129778
-25.570784,2.3377948,4.146592
-25.616213,2.340179,4.1340256
-25.675755,2.3541627,4.1322846
-25.749813,2.3804016,4.142108
-25.787504,2.377351,4.125262
-25.856325,2.4002643,4.1326504
-25.912292,2.4129808,4.13089
-25.98307,2.4386365,4.1414957
-26.009325,2.4268541,4.117313
-26.065393,2.4407353,4.1173973
-26.16603,2.493907,4.154918
-26.20417,2.4932203,4.1418343
-26.23852,2.4892912,4.125812
-26.283573,2.4950404,4.119178
-26.366482,2.5353947,4.145962
-26.410435,2.5409958,4.139689
-26.438341,2.5319886,4.1194773
-26.488901,2.544123,4.1198664
-26.543484,2.560443,4.124555
-26.59779,2.5769734,4.129699
-26.633373,2.5759163,4.117859
-26.677814,2.5836058,4.114748
-26.724463,2.593762,4.114258
-26.778484,2.611608,4.121575
-26.833357,2.6308222,4.130492
-26.855316,2.6171002,4.1068788
-26.906967,2.6337376,4.1136208
-26.954397,2.6464791,4.1166897
-27.006063,2.6640816,4.12484
-27.052454,2.6765933,4.128093
-27.081095,2.670434,4.112693
-27.120138,2.6755652,4.1088114
-27.167694,2.690292,4.1148205
-27.22299,2.7140865,4.130258
-27.25833,2.7161078,4.1237264
-27.294144,2.7188368,4.1180468
-27.330416,2.7222772,4.113229
-27.374834,2.7354078,4.1185055
-27.429699,2.7612884,4.137102
-27.465988,2.7657495,4.133814
-27.490225,2.755875,4.115815
-27.528429,2.7629542,4.115475
-27.565523,2.768951,4.1141524
-27.605886,2.779311,4.1175156
-27.648932,2.7934527,4.1249843
-27.684153,2.7980113,4.122589
-27.714132,2.7959762,4.1134024
-27.744596,2.7946377,4.1050425
-27.780104,2.800119,4.1039667
-27.820482,2.812459,4.110258
-27.863323,2.8286233,4.1207485
-27.8988,2.8350906,4.121129
-27.927597,2.8324225,4.1119328
-27.955994,2.829217,4.102254
-27.99339,2.839084,4.106594
-28.027653,2.8447351,4.106569
-28.067629,2.8591874,4.1160755
-28.09831,2.860091,4.1112127
-28.127748,2.8592143,4.104538
-28.160385,2.8634138,4.1034107
-28.191755,2.865837,4.100479
-28.230856,2.880877,4.1112604
-28.269684,2.8960485,4.122327
-28.302181,2.901301,4.1228
-28.329353,2.8978448,4.113942
-28.358042,2.8969803,4.107976
-28.389269,2.9006119,4.106983
-28.41721,2.8986492,4.0999985
-28.450089,2.9056215,4.1028366
-28.494251,2.933608,4.1287274
-28.522598,2.9331942,4.123738
-28.546587,2.9245973,4.1098733
-28.57302,2.9205108,4.101013
-28.602427,2.9222274,4.098595
-28.631792,2.9240265,4.096357
-28.6608,2.9252691,4.0935946
-28.703907,2.9560156,4.1234226
-28.730482,2.9529734,4.1161447
-28.755915,2.9474351,4.106184
-28.781725,2.9426026,4.0970707
-28.809887,2.942977,4.093788
-28.840544,2.9492178,4.097088
-28.868347,2.9491072,4.093437
-28.906322,2.9735732,4.117152
-28.93363,2.9729924,4.113165
-28.959656,2.9692543,4.105742
-28.985739,2.9655824,4.0984626
-29.013102,2.9652143,4.0949354
-29.04142,2.9675107,4.094458
-29.068521,2.9666417,4.0905275
-29.107264,2.9989557,4.123755
-29.13275,2.9943604,4.115838
-29.158308,2.9898288,4.108059
-29.18415,2.9860125,4.101148
-29.211283,2.9861698,4.0987606
-29.238403,2.9863992,4.09653
-29.264933,2.9847426,4.0922565
-29.29468,2.994256,4.100604
-29.326254,3.0110426,4.1172185
-29.35382,3.0141904,4.118587
-29.380812,3.0154495,4.1179075
-29.404478,3.0036845,4.1026306
-29.430573,3.001147,4.0978103
-29.457317,3.0012991,4.096093
-29.484497,3.003489,4.0967484
-29.517157,3.0313494,4.1264596
-29.544155,3.0343542,4.1281986
-29.570835,3.036116,4.1286077
-29.595491,3.0274298,4.117278
-29.61935,3.013541,4.1001263
-29.645813,3.0135274,4.098732
-29.671844,3.0109487,4.0945053
-29.69812,3.0097537,4.0919147
-29.725456,3.0158734,4.097679
-29.754284,3.0339284,4.1170444
-29.78004,3.0303078,4.111923
-29.806477,3.0320287,4.1129255
-29.831877,3.0245829,4.1036024
-29.857998,3.023139,4.1011543
-29.88408,3.0211024,4.098102
-29.910198,3.0191326,4.095196
-29.937838,3.0376978,4.1156673
-29.964258,3.0424695,4.1205554
-29.990229,3.0407047,4.118093
-30.016352,3.0416489,4.1187754
-30.041842,3.026144,4.1008472
-30.068054,3.0265598,4.1010675
-30.09427,3.0277047,4.1021852
-30.120451,3.0275953,4.101948
-30.146637,3.0295353,4.104108
-30.172724,3.0401328,4.116171
-30.198784,3.0408854,4.1171203
-30.224878,3.039723,4.115964
-30.251198,3.0326812,4.108201
-30.277527,3.0283508,4.1035857
-30.303833,3.0260696,4.10137
-30.33026,3.0225363,4.0978003
-30.356152,3.0276556,4.104125
-30.382473,3.026238,4.103099
-30.407955,3.03479,4.113455
-30.43424,3.0335069,4.1127186
-30.46201,3.0184374,4.0964165
-30.487938,3.0219111,4.10122
-30.5147,3.018197,4.097943
-30.541706,3.0132365,4.093326
-30.568243,3.0123,4.093342
-30.593319,3.0213122,4.1046963
-30.619808,3.02051,4.1050034
-30.648302,3.0079308,4.092054
-30.676788,2.9967465,4.0807652
-30.70267,3.000764,4.0867476
-30.728994,3.002218,4.0899
-30.756636,2.9971714,4.085779
-30.781439,3.0059855,4.097387
-30.806236,3.0142035,4.108383
-30.832706,3.0146122,4.1106334
-30.863728,2.9960837,4.091607
-30.89313,2.9855075,4.081636
-30.918507,2.9913783,4.090273
-30.944832,2.9933872,4.0946283
-30.975992,2.9778156,4.0792837
-31.001669,2.9825847,4.086895
-31.026117,2.9913344,4.0990443
-31.054762,2.985793,4.095216
-31.086151,2.971861,4.082061
-31.117584,2.9586737,4.0698404
-31.147326,2.9514346,4.064378
-31.175657,2.948832,4.064191
-31.199066,2.9605942,4.080144
-31.225058,2.964622,4.087512
-31.250986,2.9687152,4.095023
-31.282446,2.9579778,4.0860677
-31.315098,2.944747,4.074433
-31.343914,2.9419577,4.074526
-31.372269,2.9405403,4.0762267
-31.40039,2.9398453,4.0788126
-31.427174,2.9424484,4.0851383
-31.454199,2.944477,4.090902
-31.48346,2.9414334,4.0911236
-31.520283,2.9217758,4.073059
-31.549223,2.9201999,4.0750995
-31.5785,2.9180639,4.0766077
-31.606298,2.9192097,4.08182
-31.630669,2.9274597,4.0949335
-31.658068,2.9293842,4.1011515
-31.690273,2.9218192,4.097028
-31.722618,2.914352,4.093116
-31.756102,2.9050756,4.087328
-31.78671,2.901618,4.0880175
-31.814983,2.902688,4.0937476
-31.840801,2.9082673,4.1044803
-31.870438,2.9069562,4.1077757
-31.907675,2.8924713,4.096835
-31.944077,2.880001,4.0882154
-31.975506,2.8764634,4.0894117
-32.003616,2.878675,4.096935
-32.034378,2.8765697,4.0998745
-32.06131,2.8808198,4.1097717
-32.098396,2.8688765,4.102293
-32.131714,2.8633008,4.101801
-32.168774,2.852217,4.0955048
-32.202354,2.846858,4.095482
-32.235622,2.8422246,4.0963483
-32.266888,2.8407948,4.100753
-32.303707,2.831408,4.096772
-32.33984,2.8233776,4.0943685
-32.37917,2.8111465,4.0876293
-32.416515,2.8021283,4.0844474
-32.453136,2.7944624,4.082835
-32.48449,2.79428,4.089259
-32.51768,2.7917395,4.093302
-32.556,2.7825775,4.0904894
-32.59822,2.7686625,4.0828304
-32.6388,2.7573318,4.078045
-32.676247,2.7503943,4.0780096
-32.71238,2.7453992,4.08014
-32.75542,2.732048,4.073703
-32.808044,2.7073755,4.055679
-32.84768,2.6991751,4.0549526
-32.877426,2.7031364,4.0669513
-32.908638,2.70538,4.077273
-32.940342,2.7071147,4.087174
-33.01027,2.6647344,4.0519023
-33.04387,2.6649666,4.0605917
-33.08854,2.652812,4.056749
-33.12332,2.6520915,4.064736
-33.167786,2.640823,4.062132
-33.218403,2.6232164,4.05329
-33.263313,2.6122813,4.051409
-33.29795,2.6126757,4.061132
-33.33648,2.6090727,4.0669622
-33.38293,2.5974078,4.064863
-33.435238,2.5800767,4.0572996
-33.483276,2.5676003,4.0548058
-33.528084,2.5587835,4.0561543
-33.56957,2.553602,4.0612903
-33.626923,2.532967,4.051339
-33.678143,2.5188937,4.04811
-33.726635,2.5078855,4.0481167
-33.766945,2.5050786,4.0563555
-33.81695,2.4932632,4.0559773
-33.8793,2.4702346,4.044929
-33.926125,2.462234,4.048728
-33.963226,2.4634724,4.061644
-34.018322,2.4484372,4.0590596
-34.080544,2.427415,4.050997
-34.128624,2.419567,4.05581
-34.15909,2.427586,4.075925
-34.225826,2.4038408,4.0660505
-34.29423,2.3792534,4.055714
-34.348145,2.3677218,4.057997
-34.3814,2.3741157,4.077317
-34.47162,2.3325763,4.0520554
-34.530144,2.3183997,4.052696
-34.568306,2.3214614,4.069567
-34.647877,2.290733,4.055466
-34.72927,2.259252,4.0410986
-34.781372,2.2520328,4.04932
-34.848576,2.2330897,4.0471287
-34.933884,2.2003775,4.03282
-34.98937,2.1917157,4.0406423
-35.05955,2.1719992,4.0388217
-35.13422,2.149362,4.0347614
-35.201515,2.1328976,4.036581
-35.25425,2.127859,4.048848
-35.337566,2.1002586,4.0415297
-35.42058,2.0735397,4.0354404
-35.47244,2.070302,4.0502486
-35.58564,2.0227356,4.026926
-35.648067,2.012734,4.036618
-35.7551,1.971256,4.019675
-35.838562,1.9473534,4.018327
-35.87009,1.9604608,4.0487943
-36.008743,1.8990698,4.0166426
-36.055298,1.9023769,4.0395017
-36.16086,1.8655133,4.029152
-36.260185,1.8336954,4.0236025
-36.347126,1.8109269,4.02608
-36.46472,1.7683396,4.01287
-36.548622,1.7489071,4.0191684
-36.66494,1.7087944,4.0092773
-36.77797,1.6716981,4.0025163
-36.813477,1.6852913,4.0367637
-36.936474,1.6430669,4.027069
-37.04991,1.6078062,4.0236063
-37.207664,1.5455618,3.999837
-37.32065,1.5124073,3.9995756
-37.41907,1.4890051,4.0074987
-37.532063,1.4573045,4.0097075
-37.625557,1.4381759,4.022121
-23.020897,1.6027789,4.0163426
-22.934305,1.5121765,3.9195142
-22.400824,1.1417797,3.5991158
-22.371723,1.0822685,3.5242367
-23.076092,1.4868846,3.823896
-22.460402,1.0548027,3.4479733
-22.507734,1.0430126,3.4117126
-22.717358,1.1368089,3.4626517
-22.79244,1.1442149,3.4432764
-24.209753,2.0401113,4.1656494
-24.298542,2.0651364,4.1664257
-24.359207,2.0718558,4.1522465
-24.426495,2.083377,4.1424623
-24.523323,2.115528,4.1506658
-24.585682,2.1246042,4.1395917
-24.66555,2.1462333,4.13969
-24.723883,2.1532757,4.127549
-24.8083,2.1791394,4.132148
-24.92418,2.2281713,4.157564
-24.99828,2.2480726,4.1579266
-25.039137,2.2442665,4.1376414
-25.088593,2.2468858,4.123264
-25.176239,2.278076,4.134733
-25.232424,2.2864323,4.1261096
-25.304575,2.3071804,4.1289763
-25.359001,2.3149478,4.120413
-25.445822,2.3479705,4.135186
-25.514927,2.3679996,4.1384993
-25.587818,2.3915305,4.1453958
-25.635868,2.395989,4.1350055
-25.695995,2.4103413,4.134035
-25.782742,2.4465997,4.1538177
-25.811543,2.4364984,4.1305795
-25.874958,2.454821,4.134205
-25.932804,2.4690242,4.1342454
-26.00808,2.498262,4.148836
-26.047787,2.498107,4.1357975
-26.092648,2.5024996,4.127271
-26.157944,2.5247645,4.136101
-26.21523,2.5406322,4.139083
-26.24759,2.5350096,4.1215444
-26.307653,2.5540524,4.128069
-26.383608,2.587893,4.149294
-26.423727,2.590042,4.1399145
-26.460722,2.5895116,4.128069
-26.5093,2.5998323,4.1270466
-26.564962,2.617128,4.133125
-26.61312,2.627825,4.132919
-26.649164,2.6273117,4.121777
-26.69585,2.6371903,4.121135
-26.740015,2.6449494,4.1185703
-26.791021,2.6597528,4.123256
-26.841772,2.6747484,4.128359
-26.875648,2.673204,4.1169887
-26.913513,2.6758132,4.109944
-26.968216,2.6959429,4.120829
-27.019222,2.7127953,4.128621
-27.059412,2.718769,4.1255283
-27.094,2.719039,4.1167536
-27.13292,2.7241015,4.1130223
-27.18306,2.74162,4.122259
-27.22862,2.7546206,4.1270466
-27.268654,2.761889,4.1260924
-27.303307,2.7633839,4.1193056
-27.338436,2.7655807,4.113371
-27.376602,2.7714505,4.111391
-27.435036,2.8012478,4.134547
-27.470247,2.8044422,4.130109
-27.501392,2.802968,4.1208954
-27.533535,2.8027835,4.113141
-27.566154,2.8032956,4.1062293
-27.620548,2.8309689,4.1281223
-27.65289,2.8317347,4.12176
-27.68615,2.8338053,4.1168904
-27.717953,2.8341634,4.1103134
-27.752518,2.8382545,4.1078176
-27.787455,2.8430614,4.106206
-27.820936,2.8461535,4.1028824
-27.872282,2.8737404,4.1259255
-27.90187,2.8721976,4.1179
-27.932346,2.8719625,4.1113753
-27.966705,2.8773348,4.1109886
-27.999676,2.8809724,4.1088476
-28.034678,2.8877878,4.110255
-28.076633,2.9051948,4.1232586
-28.111282,2.9122505,4.125186
-28.132793,2.8996224,4.1058292
-28.164131,2.901908,4.1027613
-28.195415,2.904286,4.0998955
-28.229763,2.9117303,4.102665
-28.272818,2.9336023,4.12134
-28.302582,2.9344249,4.1171064
-28.330448,2.9322095,4.1096296
-28.359814,2.9325714,4.105066
-28.390976,2.9361491,4.1041317
-28.421703,2.9391913,4.102705
-28.448141,2.934784,4.093149
-28.494743,2.9669385,4.1240907
-28.52099,2.9627185,4.1149406
-28.544277,2.952887,4.099642
-28.570694,2.9487944,4.090769
-28.602362,2.9548926,4.093293
-28.633274,2.9598181,4.094613
-28.665653,2.9680061,4.0996637
-28.702187,2.9851837,4.1148453
-28.732363,2.989763,4.116083
-28.757105,2.9829705,4.1046987
-28.78516,2.9832492,4.1012917
-28.811485,2.9797757,4.0937605
-28.839819,2.980842,4.0913925
-28.869219,2.9845438,4.092065
-28.901766,2.996013,4.1015553
-28.934889,3.0095038,4.1134243
-28.964418,3.014756,4.1161213
-28.989822,3.009816,4.107416
-29.016287,3.0075111,4.1017494
-29.043024,3.0059185,4.09696
-29.071888,3.0101933,4.098874
-29.102268,3.0190616,4.106069
-29.130697,3.0228567,4.1076117
-29.157314,3.0215623,4.103468
-29.182465,3.0158129,4.094344
-29.208736,3.01336,4.0890265
-29.238644,3.0226302,4.097092
-29.266438,3.025506,4.0979786
-29.293417,3.0258627,4.096079
-29.32513,3.0431647,4.1135364
-29.352638,3.0462737,4.114929
-29.378716,3.044258,4.1105585
-29.402838,3.0345063,4.0974364
-29.428722,3.0313182,4.0918617
-29.456347,3.0353582,4.0946045
-29.484632,3.0427313,4.1012306
-29.513489,3.0534408,4.1117487
-29.540789,3.0577085,4.1149855
-29.567743,3.0607452,4.116889
-29.592524,3.052753,4.106246
-29.617796,3.046781,4.097978
-29.644073,3.0461001,4.095834
-29.670572,3.0467954,4.095335
-29.695538,3.0377483,4.083741
-29.72466,3.0562441,4.1037874
-29.750677,3.0545301,4.1007395
-29.777805,3.061395,4.107602
-29.803333,3.055887,4.100339
-29.829098,3.051754,4.0947204
-29.855265,3.0509627,4.093005
-29.881863,3.0548275,4.096705
-29.908333,3.058106,4.099803
-29.933874,3.049649,4.089488
-29.961979,3.0786438,4.12227
-29.987738,3.074914,4.117526
-30.013195,3.0633764,4.103875
-30.039152,3.0597775,4.099415
-30.065344,3.0621514,4.1018867
-30.091463,3.0632796,4.102997
-30.117535,3.0618503,4.1012344
-30.143618,3.053268,4.091318
-30.169685,3.0683808,4.1087084
-30.195639,3.0737147,4.1149263
-30.221712,3.0705843,4.1114807
-30.248266,3.055053,4.093851
-30.274733,3.0481215,4.0861764
-30.300844,3.0504441,4.0892057
-30.326956,3.0521772,4.0916266
-30.352943,3.055289,4.0957003
-30.378464,3.0637128,4.105942
-30.404064,3.0695782,4.1133103
-30.430134,3.0696092,4.114046
-30.4569,3.0631542,4.107405
-30.484686,3.0489097,4.0918965
-30.51135,3.045874,4.089326
-30.537897,3.0442176,4.0884094
-30.563454,3.0498295,4.0958962
-30.588913,3.055505,4.103522
-30.615425,3.0540502,4.1030426
-30.642849,3.0474365,4.096725
-30.670979,3.0376294,4.0868263
-30.699776,3.0252879,4.074107
-30.726236,3.026082,4.076497
-30.752821,3.0262918,4.07829
-30.778986,3.0285265,4.082467
-30.80308,3.0399523,4.097211
-30.828941,3.0429666,4.1024094
-30.858997,3.028473,4.0876975
-30.888666,3.0166678,4.0761423
-30.913992,3.0225008,4.084777
-30.941317,3.0205998,4.084668
-30.971746,3.0077367,4.072154
-30.997198,3.0131254,4.080496
-31.022753,3.0179293,4.0882373
-31.053171,3.0066042,4.0777216
-31.08278,2.9986038,4.0710726
-31.111074,2.9952154,4.0697412
-31.139221,2.9925501,4.069311
-31.1672,2.9906073,4.069779
-31.189789,3.00422,4.0879283
-31.215393,3.0088594,4.0959816
-31.245441,3.00133,4.090354
-31.27563,2.9938884,4.084915
-31.30995,2.9762537,4.0680733
-31.335665,2.9811945,4.0767803
-31.365993,2.9746568,4.0726337
-31.398043,2.9643645,4.0643573
-31.419678,2.9791236,4.084323
-31.44606,2.9824202,4.091471
-31.47749,2.9742928,4.085884
-31.513693,2.956056,4.069074
-31.542866,2.9538622,4.0703344
-31.570288,2.9555676,4.0760365
-31.598299,2.9560745,4.0804787
-31.624134,2.9610996,4.0900364
-31.652111,2.9617527,4.094795
-31.68234,2.9580512,4.0947924
-31.719204,2.9417937,4.0809374
-31.754028,2.9300783,4.0722494
-31.78263,2.9304519,4.07707
-31.813303,2.9271266,4.077884
-31.841946,2.9276633,4.0830593
-31.86739,2.9339292,4.094638
-31.895987,2.9346156,4.1001363
-31.931541,2.9234886,4.0927258
-31.968418,2.910602,4.0835047
-32.003643,2.9009573,4.07797
-32.029102,2.9076242,4.090419
-32.05446,2.9143534,4.1030035
-32.089542,2.9056191,4.098774
-32.122,2.9013376,4.0995183
-32.16909,2.8748717,4.0762315
-32.20027,2.8732975,4.080172
-32.229008,2.8755162,4.0883255
-32.26024,2.8741198,4.0926514
-32.294907,2.8678973,4.0918627
-32.32496,2.8685346,4.0985928
-32.37114,2.8465953,4.081109
-32.40801,2.8382769,4.0784483
-32.44012,2.836791,4.08325
-32.471367,2.8366199,4.0895643
-32.503548,2.8353248,4.094779
-32.544075,2.8232055,4.088558
-32.582954,2.8136482,4.0852184
-32.62626,2.7987838,4.076389
-32.660763,2.7955317,4.080035
-32.693886,2.794194,4.085826
-32.73777,2.7797441,4.0778947
-32.7829,2.7642522,4.069041
-32.825317,2.752512,4.064311
-32.861916,2.7480824,4.067409
-32.897587,2.744963,4.0720105
-32.94153,2.73245,4.066942
-32.997597,2.7064574,4.048024
-33.0353,2.7019792,4.051686
-33.073093,2.6976252,4.055616
-33.10991,2.6945734,4.0610332
-33.15109,2.6869411,4.0618663
-33.201084,2.670073,4.053373
-33.246994,2.65807,4.0500784
-33.289257,2.650316,4.051317
-33.32164,2.6531825,4.063548
-33.36241,2.6474383,4.0671396
-33.412354,2.632571,4.061645
-33.467117,2.6132708,4.0518894
-33.50955,2.606854,4.055359
-33.54513,2.607479,4.0660734
-33.59184,2.5973296,4.066129
-33.657,2.569632,4.048864
-33.70658,2.55759,4.0474896
-33.741394,2.5599442,4.060616
-33.788857,2.5505004,4.0622025
-33.84926,2.5293574,4.052462
-33.900818,2.5169108,4.0515494
-33.941486,2.5147796,4.060967
-33.99836,2.498209,4.056461
-34.048626,2.4880095,4.058415
-34.10285,2.474653,4.0575333
-34.143326,2.4737315,4.0689054
-34.19662,2.4618635,4.069916
-34.264275,2.4380436,4.0597205
-34.316113,2.428272,4.0632687
-34.3766,2.4115558,4.060453
-34.424877,2.4054818,4.0680075
-34.503674,2.3744774,4.0522633
-34.549694,2.3710122,4.0627995
-34.607162,2.3584902,4.065066
-34.672916,2.339705,4.061774
-34.75457,2.3087907,4.047561
-34.820335,2.2911165,4.04601
-34.911083,2.2544336,4.0273128
-34.95339,2.256033,4.044152
-35.024147,2.2359707,4.041434
-35.1036,2.209839,4.033579
-35.1673,2.1961927,4.037419
-35.23333,2.1812217,4.040391
-35.315937,2.15445,4.033155
-35.372513,2.1473737,4.043885
-35.445004,2.1290534,4.0449443
-35.532944,2.1001315,4.037056
-35.62349,2.0700357,4.0286307
-35.68675,2.0599165,4.0381107
-35.772907,2.03413,4.0343485
-35.858707,2.0092244,4.0318246
-35.950066,1.9811175,4.027042
-36.047047,1.9498515,4.020089
-36.116776,1.9377267,4.029902
-36.203987,1.9142947,4.030574
-36.299095,1.8862159,4.0278573
-36.410557,1.8480501,4.017309
-36.512638,1.8168578,4.0131907
-36.61209,1.7880988,4.0116735
-36.698845,1.7681758,4.017949
-36.80755,1.7348423,4.013867
-36.87473,1.728461,4.032121
-37.021633,1.6725543,4.011186
-37.152054,1.6280227,4.000208
-37.275204,1.5889266,3.9943275
-37.395714,1.5523148,3.9911609
-37.462708,1.5488908,4.0144906
-37.598316,1.5046217,4.006754
-37.688065,1.488579,4.0214424
-22.94238,1.6328745,4.0127134
-22.550125,1.3578987,3.7681904
-22.33953,1.189642,3.6064959
-22.350628,1.1555927,3.551734
-23.0344,1.5399952,3.8376298
-23.06058,1.5183377,3.7952728
-22.556133,1.1604702,3.475542
-22.683834,1.200465,3.4827204
-22.769608,1.2143815,3.468853
-22.805641,1.1964502,3.42866
-24.247564,2.1001825,4.1687593
-24.290966,2.095036,4.144455
-24.376514,2.1181083,4.144522
-24.456488,2.1380248,4.142349
-24.54137,2.1618147,4.1439714
-24.625156,2.1854599,4.14594
-24.69754,2.2018304,4.1419935
-24.773336,2.2210536,4.1409454
-24.85394,2.2441814,4.1437635
-24.94941,2.2784557,4.1569443
-25.028492,2.301788,4.160862
-25.057743,2.2896988,4.133336
-25.129951,2.3088908,4.1341925
-25.184132,2.3153348,4.123844
-25.2375,2.3214622,4.1134644
-25.322311,2.3514385,4.1252146
-25.39759,2.3749235,4.1314354
-25.462793,2.3913164,4.131482
-25.55322,2.4276137,4.150364
-25.592402,2.4248903,4.1332855
-25.65339,2.4393978,4.1325297
-25.724289,2.4621882,4.139876
-25.790783,2.4820457,4.144804
-25.83758,2.4865255,4.1354547
-25.890266,2.4960475,4.1311207
-25.950045,2.5117416,4.13294
-26.010214,2.5282173,4.135795
-26.057743,2.5345502,4.1291494
-26.118086,2.5520172,4.133497
-26.190332,2.5801678,4.1485195
-26.228321,2.5793993,4.135678
-26.281504,2.5920267,4.136106
-26.338867,2.6087399,4.1407905
-26.38908,2.6195588,4.139927
-26.433525,2.6255462,4.1345034
-26.467396,2.6221836,4.119982
-26.517797,2.63407,4.120776
-26.580717,2.6579585,4.133787
-26.628796,2.6685624,4.1337724
-26.66355,2.666901,4.121624
-26.706015,2.6727214,4.117153
-26.75777,2.687788,4.122213
-26.806347,2.700201,4.1248045
-26.854126,2.7122211,4.127203
-26.894806,2.7175412,4.122962
-26.94448,2.7321935,4.1284366
-26.982616,2.7355108,4.1224833
-27.024593,2.7429976,4.120968
-27.06754,2.751789,4.1209664
-27.106474,2.7566693,4.1170864
-27.14858,2.7651708,4.1171145
-27.189985,2.7732368,4.1168537
-27.24194,2.7931366,4.1291056
-27.277111,2.7950716,4.1227837
-27.312231,2.797119,4.1167054
-27.360826,2.814581,4.126958
-27.40808,2.831044,4.1363597
-27.446362,2.8376298,4.135521
-27.47896,2.8378267,4.1280584
-27.508036,2.8339653,4.116401
-27.548054,2.843278,4.118845
-27.582016,2.845571,4.1139565
-27.629019,2.8641062,4.1265354
-27.670889,2.8768253,4.1330776
-27.70208,2.8764896,4.1257763
-27.729504,2.8714352,4.113503
-27.760712,2.8712742,4.1065817
-27.796503,2.8772418,4.106374
-27.840803,2.8948178,4.118845
-27.87401,2.8980079,4.115902
-27.908476,2.903122,4.115158
-27.93714,2.900437,4.106051
-27.969732,2.9033163,4.1030903
-28.011246,2.9191163,4.114341
-28.046555,2.926498,4.116543
-28.08464,2.938282,4.1236873
-28.11509,2.939146,4.118986
-28.143476,2.9370246,4.1111
-28.175095,2.9399083,4.1088066
-28.207836,2.9447372,4.1087604
-28.240871,2.9502845,4.1096115
-28.281113,2.9676924,4.1236916
-28.3104,2.9678822,4.118845
-28.338547,2.9662924,4.1121116
-28.36597,2.9635365,4.104165
-28.397427,2.9677043,4.103998
-28.427006,2.9688475,4.10056
-28.467129,2.988812,4.1182113
-28.499945,2.9964051,4.1221857
-28.526466,2.992825,4.1137652
-28.550014,2.9836686,4.099171
-28.58098,2.9883835,4.100192
-28.609577,2.9887881,4.096468
-28.641666,2.996199,4.1007037
-28.672985,3.0024452,4.10373
-28.706339,3.0132053,4.1119404
-28.73616,3.017115,4.1125298
-28.762932,3.0147812,4.1061544
-28.792355,3.018221,4.1063814
-28.819132,3.0160341,4.1003265
-28.84734,3.017094,4.0980225
-28.869202,3.0036063,4.0792956
-28.911726,3.0385425,4.115604
-28.93809,3.0360312,4.109502
-28.966034,3.0374155,4.1079025
-28.991674,3.0331297,4.099924
-29.018614,3.0321045,4.0957294
-29.046764,3.0343492,4.0953374
-29.075098,3.0373116,4.095845
-29.105202,3.045481,4.1023827
-29.135149,3.053737,4.109109
-29.16233,3.0543735,4.107202
-29.188856,3.0531542,4.1032443
-29.213747,3.0468583,4.0935373
-29.241945,3.0509238,4.0957785
-29.268314,3.0492687,4.0915318
-29.295835,3.05155,4.091877
-29.328245,3.0713277,4.11241
-29.356396,3.0769982,4.1168165
-29.381355,3.0711155,4.1080046
-29.406744,3.066587,4.100816
-29.433643,3.0679457,4.100476
-29.460052,3.0674334,4.0980496
-29.48661,3.067637,4.0965195
-29.51657,3.0834675,4.1130943
-29.543512,3.086413,4.1148796
-29.570787,3.0913763,4.1190686
-29.593855,3.074989,4.098656
-29.619467,3.0709953,4.0926266
-29.645939,3.0716152,4.091998
-29.672821,3.074904,4.094528
-29.699842,3.0795646,4.0987177
-29.725346,3.0745373,4.0917616
-29.754156,3.0930066,4.1120844
-29.78037,3.093976,4.112215
-29.805323,3.0845919,4.1004143
-29.830582,3.0765734,4.0902596
-29.857237,3.0809994,4.094597
-29.883448,3.0815847,4.094551
-29.90932,3.078325,4.0901127
-29.936264,3.0888264,4.1017065
-29.963099,3.1007028,4.1149673
-29.989243,3.1041698,4.1185417
-30.014833,3.097266,4.1101456
-30.040644,3.0930367,4.1049194
-30.06655,3.0895262,4.1005955
-30.092659,3.0932608,4.1047487
-30.118635,3.091189,4.1022286
-30.14465,3.0891838,4.0998535
-30.170618,3.0983403,4.110503
-30.19656,3.0990796,4.111448
-30.22272,3.0907488,4.1019316
-30.248919,3.0857491,4.0963497
-30.274979,3.086037,4.0969734
-30.301003,3.0870438,4.0984993
-30.326967,3.0887702,4.100928
-30.353962,3.0755625,4.086096
-30.37839,3.0976377,4.1122665
-30.404562,3.0956504,4.1105866
-30.431408,3.0872135,4.1014967
-30.45813,3.0814543,4.095584
-30.48526,3.0731602,4.0868034
-30.51124,3.075358,4.090253
-30.537619,3.074367,4.090077
-30.564205,3.072143,4.0885415
-30.588161,3.087552,4.1074886
-30.61415,3.0887113,4.1100025
-30.642557,3.0756388,4.0961204
-30.670504,3.0665436,4.086918
-30.696903,3.0666158,4.0883894
-30.72459,3.0602667,4.082511
-30.751457,3.0585332,4.08204
-30.779617,3.0510356,4.0749865
-30.80165,3.0714786,4.100248
-30.827868,3.0725393,4.1032047
-30.858952,3.0536046,4.083185
-30.884178,3.059341,4.0916786
-30.911167,3.05803,4.092122
-30.938187,3.0567896,4.0927205
-30.967943,3.04594,4.0823426
-30.9938,3.049365,4.088455
-31.019215,3.0541453,4.09619
-31.047918,3.048041,4.0914993
-31.07898,3.0349383,4.078867
-31.109026,3.0257864,4.070856
-31.138597,3.0186489,4.0652404
-31.163881,3.0244324,4.0744934
-31.18998,3.0277133,4.08095
-31.216026,3.0310602,4.087549
-31.244879,3.0267928,4.0855274
-31.273329,3.0238853,4.0851383
-31.30284,3.0185008,4.0820103
-31.332453,3.013201,4.079065
-31.36217,3.0079863,4.0763025
-31.390388,3.0066774,4.078067
-31.417278,3.0086265,4.0836067
