x,y,z
-50.830368,3.0350857,3.7932339
-51.27975,3.0296235,3.8364534
-51.687393,3.032131,3.89147
-52.163727,3.027512,3.9399595
-52.636414,3.025786,3.9942102
-53.18096,3.0172462,4.0429916
-54.23282,2.9478884,4.0256777
-2.5845451,2.3394885,2.7425337
-2.391161,2.2378783,2.5485597
-2.4051495,2.163383,2.3897295
-2.4260902,2.0896816,2.2319498
-2.4452076,2.0155745,2.0736265
-2.4644527,1.9413247,1.9151058
-2.4760838,1.8657777,1.7547808
-2.4917526,1.7906237,1.5949712
-2.5124092,1.7160361,1.4359407
-2.5033112,1.6366079,1.2700033
-3.8283997,1.769563,1.4094586
-3.919466,1.7094684,1.2737837
-4.441347,1.7207413,1.2426448
-5.075569,1.7535739,1.2450271
-5.724863,1.7923245,1.2583365
-5.9977055,1.7690969,1.1813049
-6.613577,1.8077583,1.1981182
-7.023695,1.8127451,1.1660118
-7.397188,1.8131375,1.1282034
-9.713238,1.8704743,1.0102482
-10.532066,1.9751005,1.1445351
-10.988113,2.0094771,1.1697645
-10.361929,1.8195252,0.8388214
-11.740488,1.9373498,0.94468737
-11.748726,1.8815122,0.8283286
-13.216526,2.100364,1.1350851
-13.435566,2.0971017,1.1067209
-13.350822,2.0236187,0.9634218
-13.052948,1.8985512,0.73472404
-13.607008,1.8135676,0.5058646
-13.627996,1.763828,0.40160704
-14.630224,1.966757,0.72213745
-14.939967,1.9952686,0.75100994
-15.87336,2.1904826,1.0624332
-16.108189,2.2045677,1.0689921
-16.077826,2.147965,0.955904
-16.113518,2.1089623,0.87268543
-15.885299,1.9964066,0.6638317
-15.957997,1.9666994,0.5962825
-16.086735,1.95313,0.55655336
-15.863502,1.8383985,0.3429823
-15.857806,1.7853229,0.23518848
-23.371075,3.1114485,2.264639
-23.443375,3.1093988,2.254816
-22.858952,2.8246706,1.7308202
-22.893816,2.8037233,1.6861877
-22.956282,2.7948775,1.6636467
-23.015839,2.7849417,1.6391907
-24.162468,3.1711373,2.3227854
-24.647139,3.213722,2.3718615
-25.134499,3.112912,2.1381593
-25.703447,3.2144995,2.3018284
-26.542826,3.1568637,2.1397734
-26.619183,3.1405323,2.1038036
-26.65827,3.1331267,2.0872984
-26.628326,3.068944,1.9633789
-27.118847,3.2497208,2.2921343
-27.250217,3.2075875,2.2039185
-27.290031,3.1604896,2.1104312
-27.330828,3.156982,2.1018176
-27.337078,3.0727613,1.9377027
-27.338291,3.0269227,1.8485141
-27.332928,2.8186898,1.4440942
-27.955019,3.1341946,2.033136
-28.00512,3.145214,2.0527706
-28.051922,3.1524522,2.0652142
-28.491148,3.2724547,2.283938
-27.877436,2.1879916,0.20426607
-28.663963,3.240634,2.2178593
-28.145905,2.1927245,0.20645905
-28.201551,2.1984267,0.21613264
-28.254042,2.1984344,0.2149167
-28.795042,3.197711,2.131854
-28.359911,2.2011302,0.21773672
-28.411978,2.2011118,0.21657562
-28.46156,2.195805,0.20529413
-28.513193,2.1951528,0.20298433
-28.616539,2.1947112,0.2001214
-28.772133,2.1975784,0.20286417
-29.050507,2.843272,1.4431558
-28.875706,2.200785,0.20735073
-28.926477,2.1998568,0.20477772
-29.217518,2.835566,1.4257755
-29.310045,2.8653185,1.4818788
-29.47992,3.220104,2.1633725
-29.282097,2.2002652,0.2009573
-29.333448,2.204065,0.20773888
-29.383461,2.202031,0.20332909
-29.434198,2.2038,0.20626783
-29.59668,2.839019,1.4282193
-29.535912,2.2104933,0.21831512
-29.586807,2.215419,0.22742605
-29.636612,2.2135758,0.22354126
-29.686506,2.2123208,0.22082043
-29.73672,2.2139566,0.2236948
-29.786386,2.2106555,0.21709824
-29.89993,2.974492,1.6872091
-29.885784,2.202132,0.20029783
-29.979622,2.975715,1.6893005
-30.139767,3.294236,2.3022528
-30.17519,3.3043964,2.3218174
-30.210653,3.3012807,2.3158455
-30.246284,3.2959507,2.3056345
-30.28213,3.289331,2.292962
-30.318209,3.2818828,2.2787185
-30.354246,3.277753,2.270886
-30.390272,3.2751,2.2659173
-30.428558,3.251357,2.2203774
-30.473969,3.1720142,2.0678477
-42.089584,1.9523869,0.36275578
-42.10097,1.99581,0.45175076
-42.103264,2.0418985,0.5454025
-42.146553,2.0743062,0.6149969
-42.064217,2.1469147,0.7550554
-42.085796,2.1856027,0.8355746
-42.090645,2.2293112,0.9248519
-42.10237,2.2705607,1.0098052
-42.127888,2.3073251,1.0869398
-42.112576,2.3562417,1.1851554
-42.036232,2.422887,1.3139658
-42.073242,2.4552648,1.3833818
-42.08986,2.493509,1.4629397
-42.09542,2.534721,1.5475883
-42.105507,2.5743697,1.629519
-42.118423,2.6129832,1.7096543
-42.139477,2.6491303,1.7855625
-42.164345,2.68408,1.8594327
-42.22046,2.7104807,1.9188046
-42.272682,2.7380123,1.9801779
-42.367195,2.7544992,2.0229845
-42.431286,2.779237,2.0798697
-42.499546,2.8030603,2.1353335
-42.70208,2.793132,2.1344256
-42.801666,2.8099542,2.1786308
-42.531193,2.9182427,2.375207
-42.552567,2.9536226,2.4501243
-42.582462,2.9868455,2.521484
-42.62915,3.0160434,2.586247
-42.61703,3.0590074,2.6736856
-42.681053,3.0841463,2.7318878
-43.84575,2.8598733,2.3837943
-43.96079,2.8774264,2.43149
-44.1827,2.8718936,2.4421291
-44.312576,2.8875055,2.4874082
-44.44703,2.9027002,2.532343
-44.542404,2.9267342,2.5917373
-44.716698,2.934697,2.6258097
-45.319633,2.855617,2.522595
-45.333252,2.898993,2.6140637
-45.358387,2.9399219,2.7016835
-45.37633,2.9821794,2.7914004
-45.39363,3.0244408,2.8811264
-45.419727,3.0649123,2.96809
-45.59659,3.077129,3.011722
-45.944107,3.0587678,3.0092287
-46.09379,3.0780659,3.0649648
-46.411804,3.068035,3.0769458
-46.723656,3.0607276,3.0940475
-46.95665,3.0686119,3.1347861
-47.19743,3.0763154,3.1760292
-47.538063,3.0685606,3.1954112
-47.816704,3.0727026,3.233302
-48.099403,3.0775783,3.2732325
-48.466145,3.0705745,3.2971554
-48.80918,3.0691245,3.3303185
-49.1506,3.0696552,3.3675523
-49.538784,3.064909,3.3987231
-50.0001,3.0514011,3.419302
-50.3794,3.0520816,3.4611173
-50.7716,3.0528493,3.5045795
-51.21765,3.0481377,3.5423245
-51.728462,3.0369048,3.573328
-52.060978,3.051996,3.6408982
-52.61747,3.0395513,3.674426
-53.10198,3.0391338,3.7257414
-53.715206,3.0251076,3.762228
-54.22193,3.0272236,3.8215003
-54.79569,3.0238965,3.8765907
-2.1832886,2.5945158,2.928977
-2.277502,2.4540339,2.6219406
-2.5903358,2.3423831,2.355876
-2.3889484,2.239447,2.1567774
-2.4294872,2.1682897,2.0023975
-2.4545612,2.0949323,1.8449135
-2.464241,2.0192518,1.6840549
-2.466341,1.9422481,1.5212102
-2.5508137,1.8771765,1.3760109
-2.5059128,1.7927597,1.2020864
-3.874714,1.9252081,1.354836
-2.5567017,1.6442876,0.88448143
-2.794979,1.603754,0.7772131
-4.642475,1.7522957,0.92030907
-9.08943,2.0564256,1.1549106
-9.491684,2.0696516,1.1464825
-9.891281,2.084468,1.141696
-10.429697,2.1283937,1.1854372
-10.730997,2.1284027,1.1586323
-11.088747,2.1412625,1.1537166
-11.442951,2.1552753,1.1515942
-11.788023,2.1692626,1.1502991
-12.111019,2.180437,1.1451559
-12.412069,2.1886299,1.1357999
-12.765015,2.2096014,1.1485696
-12.959879,2.1978204,1.1070676
-13.328754,2.22565,1.1328473
-13.608788,2.2354655,1.1289678
-13.834385,2.2343009,1.1070576
-14.13233,2.251048,1.1161513
-14.382322,2.2581234,1.1093655
-14.650728,2.270893,1.1128702
-14.8895855,2.277954,1.107131
-15.141357,2.289429,1.1094918
-15.383505,2.2998564,1.1105618
-15.576778,2.2992754,1.09305
-15.815102,2.311151,1.0975528
-16.14638,2.3007028,1.0482702
-16.061176,2.2301598,0.909811
-15.958015,2.1538699,0.761045
-15.86777,2.0800316,0.61632204
-16.11953,2.0994601,0.6356344
-15.993636,2.0148897,0.47185183
-15.85821,1.9263642,0.30076694
-15.8766985,1.8805499,0.20505524
-23.332378,3.0781581,2.0797353
-23.331272,3.0441642,2.0111203
-22.953333,2.8464148,1.6375847
-22.991646,2.827008,1.5958009
-23.104614,2.8406816,1.6157551
-23.183676,2.8398676,1.6088009
-23.3219,2.8302617,1.5802393
-24.157375,3.1819525,2.2335048
-24.13353,3.1383247,2.147235
-24.394943,3.1653857,2.18476
-25.121746,3.1141872,2.0376258
-25.671219,3.2006736,2.1791291
-25.811375,3.1508594,2.0722976
-26.492332,3.1558337,2.0480332
-26.544994,3.1583953,2.050651
-26.548347,2.9159403,1.57059
-27.099022,3.227451,2.162878
-27.215548,3.2105472,2.1247597
-27.24929,3.200155,2.102912
-27.281078,3.1877651,2.0772238
-27.367136,3.0940146,1.8891325
-27.319622,2.3593826,0.44533253
-27.373932,2.3599443,0.44478893
-27.421932,2.3524396,0.42861462
-27.423527,2.2821944,0.2906046
-27.44519,2.2370276,0.20129108
-27.720453,2.2411313,0.2018671
-27.774351,2.2410975,0.20042276
-27.828447,2.2416515,0.20015478
-28.543886,3.2650845,2.1893544
-28.15035,2.246767,0.20272923
-28.206114,2.2527976,0.21335745
-28.257349,2.2505352,0.20786381
-28.31013,2.2515254,0.20873833
-28.361534,2.2499833,0.2047081
-28.41334,2.2494698,0.20271397
-28.465305,2.2495403,0.20188951
-28.517805,2.2510936,0.20398283
-28.569447,2.2509952,0.20288944
-28.724243,2.2519715,0.20226383
-28.776503,2.2546694,0.20674324
-28.827845,2.2552564,0.2071352
-28.879744,2.2577817,0.21133757
-28.930494,2.2572875,0.20967913
-28.980366,2.2542174,0.20302248
-29.030827,2.253084,0.20017195
-29.259201,2.8706071,1.404746
-29.5091,3.2190948,2.0832772
-29.335375,2.2580981,0.20673704
-29.385439,2.2569764,0.20410919
-29.55997,2.9026175,1.4643588
-29.4868,2.2619357,0.21300173
-29.637825,2.8720715,1.4041018
-29.587795,2.2674224,0.22303724
-29.638184,2.2705903,0.22892618
-29.687504,2.2661536,0.21999264
-29.737583,2.26776,0.22288752
-29.787027,2.263577,0.21450377
-29.900259,3.013647,1.6793413
-29.93985,3.011234,1.6745014
-29.936287,2.2577105,0.20256805
-30.019321,3.009447,1.6708231
-30.036076,2.2568684,0.20074177
-30.086,2.258007,0.20291662
-30.139671,3.2823195,2.2037148
-30.175615,3.298745,2.2358036
-30.211573,3.2956665,2.2298145
-30.247644,3.29177,2.222248
-30.283688,3.2907007,2.220222
-30.319965,3.2865348,2.2121701
-30.356535,3.2801867,2.1998744
-30.39295,3.2775764,2.1949
-30.43053,3.2645905,2.1696806
-30.476381,3.1843505,2.013133
-42.18386,1.9985857,0.26947308
-42.089424,2.0766082,0.4216051
-42.080006,2.1261256,0.5221138
-42.09978,2.1658907,0.6050019
-42.066803,2.2219927,0.71724176
-42.065624,2.267595,0.81053495
-42.092403,2.3042448,0.8877473
-42.10669,2.344516,0.9714384
-42.14161,2.3783631,1.0436497
-42.13319,2.424921,1.1385264
-42.068077,2.4876206,1.2620358
-42.086235,2.5255117,1.341351
-42.1029,2.5636306,1.421063
-42.111984,2.6036775,1.5041714
-42.131718,2.6405187,1.5816007
-42.156094,2.6759152,1.6564875
-42.2115,2.702786,1.7164111
-42.248936,2.734539,1.7849636
-42.310635,2.759861,1.8423128
-42.40126,2.7777886,1.8868623
-42.517532,2.7894604,1.9206858
-42.631153,2.802308,1.9567657
-42.666054,2.8353267,2.0279646
-42.533585,2.9096088,2.1704187
-42.525604,2.9524353,2.2583795
-42.552994,2.9864533,2.3311577
-42.576244,3.021376,2.4055052
-42.606213,3.0546277,2.4770126
-42.672096,3.07955,2.534377
-43.772743,2.8694625,2.1932225
-43.89208,2.8860588,2.238017
-44.093933,2.884925,2.253182
-44.260254,2.89255,2.2835188
-44.399963,2.9066792,2.3251185
-44.503597,2.9290633,2.3807979
-44.646896,2.943576,2.4236202
-45.3004,2.8539367,2.2943726
-45.331226,2.894049,2.380755
-45.34931,2.9366438,2.4712486
-45.37049,2.978505,2.5605416
-45.396656,3.019295,2.6481004
-45.42315,3.0599513,2.7354665
-45.590374,3.074187,2.7802343
-45.90301,3.0623953,2.7836485
-46.116886,3.0701444,2.819149
-46.416252,3.063683,2.8326502
-46.688534,3.063511,2.8569489
-46.957344,3.065312,2.8851328
-47.13869,3.0832992,2.939406
-47.458538,3.0790243,2.9596071
-47.776894,3.0766253,2.9836779
-48.094673,3.0759346,3.0113554
-48.413765,3.0766447,3.0421672
-48.782265,3.0712872,3.064817
-49.112648,3.0736241,3.100234
-49.489666,3.0706398,3.1288137
-49.802277,3.0790331,3.1755018
-50.31655,3.059917,3.1829085
-50.779167,3.0507696,3.2066422
-51.1121,3.0619588,3.2613506
-51.657272,3.045981,3.2784977
-52.06083,3.0516498,3.3282862
-52.626587,3.0382168,3.35291
-53.05712,3.0449333,3.4076123
-53.55535,3.0453625,3.4554386
-54.169487,3.0341682,3.4896154
-54.751793,3.0299187,3.5356193
-0.8341217,2.352784,2.1254482
-0.8365345,2.2728274,1.9552717
-1.8113403,2.3177989,1.972466
-2.6056004,2.3441417,1.9646797
-2.4681854,2.172749,1.6119971
-2.3198414,1.9971938,1.2517128
-1.9268627,1.8620164,0.9966459
-3.8828049,2.0724797,1.2870669
-2.610674,1.8061228,0.8242073
-2.7999363,1.7571347,0.7056813
-4.7477684,1.9845228,1.0327983
-2.6872787,1.5830712,0.34678984
-7.7612057,2.0028944,0.8363023
-8.925808,2.14645,1.0484014
-9.164677,2.1272695,0.9896469
-9.227818,2.0765429,0.8781562
-9.651609,2.0940068,0.88235474
-10.456951,2.1869195,1.0158887
-10.502857,2.1363702,0.9062891
-11.166624,2.208092,1.0062718
-11.523579,2.2218876,1.0081282
-11.848223,2.2309728,1.0026183
-11.924557,2.1903145,0.9117012
-12.292643,2.2111611,0.92767286
-12.851852,2.2747693,1.018856
-13.146835,2.2843626,1.0168772
-13.227179,2.2483573,0.93562937
-13.577873,2.2727919,0.9606366
-14.000256,2.3153505,1.0182414
-14.303265,2.332939,1.0325918
-14.635241,2.3589022,1.0623379
-14.952623,2.3832664,1.0898728
-15.195274,2.3915296,1.0893645
-15.440894,2.401792,1.0928564
-15.644753,2.4031072,1.0808015
-15.889152,2.4155536,1.0890279
-16.028074,2.402707,1.0522981
-15.987274,2.3445246,0.93427134
-15.967847,2.2912745,0.82501364
-15.921368,2.1813316,0.6000376
-16.087406,2.176596,0.57846403
-15.843233,2.0607,0.35531998
-15.869626,2.017523,0.26396704
-23.317945,3.087319,1.9761477
-23.270401,3.0333486,1.8688455
-23.052479,2.905042,1.6199656
-23.019295,2.8547268,1.5193315
-23.15686,2.8790102,1.5608435
-23.31663,2.9141924,1.6233068
-23.312622,2.8766162,1.5470271
-24.103285,3.1693428,2.09788
-24.144604,3.155826,2.068071
-25.673065,3.2070427,2.092609
-25.971346,2.923426,1.5084968
-26.043339,2.9356222,1.5299993
-26.073236,2.9169483,1.4912701
-26.621555,3.1393163,1.9155335
-27.102055,3.2243965,2.0680952
-27.217499,3.2050068,2.0253015
-27.749054,3.0549948,1.7095137
-27.235542,2.2970126,0.21279907
-27.977821,3.178138,1.9487886
-28.015654,3.1726043,1.9367914
-28.05485,3.168881,1.9283834
-27.458632,2.2998307,0.21271133
-27.510878,2.2964172,0.20464039
-27.56586,2.2970204,0.204525
-27.675228,2.2982566,0.20444202
-27.730478,2.3001866,0.20703506
-27.786715,2.304007,0.21339226
-28.77825,3.2280157,2.0306358
-28.677694,2.3054643,0.20030546
-28.72974,2.3075187,0.20367002
-28.782017,2.3106012,0.20909786
-28.834805,2.3156047,0.21835423
-29.106861,2.954095,1.4820347
-28.93687,2.3171241,0.22014189
-28.987383,2.3167474,0.218822
-29.037594,2.3156095,0.2160201
-29.087538,2.3137078,0.21173048
-29.138367,2.315066,0.21392107
-29.189121,2.3165581,0.21640158
-29.474665,3.2589757,2.083023
-29.289145,2.3145628,0.21157408
-29.543606,3.2341747,2.03327
-29.388588,2.3103933,0.2025342
-29.562958,2.9485002,1.4666381
-29.48896,2.3112266,0.20350313
-29.539017,2.3113885,0.20351887
-29.589186,2.312579,0.20559692
-29.723618,2.9163358,1.401926
-29.738613,2.3101802,0.20014477
-29.902649,3.0635908,1.6931443
-29.941874,3.0589542,1.6838455
-30.020737,3.0513327,1.6685767
-30.140757,3.3160868,2.193283
-30.176886,3.3107045,2.1826181
-30.21299,3.3126214,2.18644
-30.24938,3.305624,2.1726084
-30.28571,3.3036745,2.1688008
-30.322414,3.2968664,2.1553774
-30.359028,3.2937543,2.1493015
-30.395773,3.290288,2.142539
-30.43333,3.280168,2.1226072
-30.48027,3.1936798,1.951333
-42.077984,2.1585095,0.39419794
-42.07016,2.2070975,0.49385023
-42.080673,2.2495222,0.58206654
-42.17025,2.2673178,0.6248369
-42.064022,2.3449256,0.77786255
-42.148357,2.3641639,0.8233433
-42.069344,2.4321015,0.958333
-42.122875,2.4602926,1.0202937
-42.146908,2.4970613,1.0980039
-42.050865,2.5679502,1.2380543
-42.1,2.596887,1.3013802
-42.12882,2.6315076,1.375103
-42.16143,2.6649714,1.4467373
-42.196136,2.697785,1.5172119
-42.232094,2.7301998,1.5869913
-42.29828,2.7545724,1.6422644
-42.394997,2.7711391,1.6835427
-42.44922,2.7990184,1.7453289
-42.60677,2.8007216,1.7601619
-42.6828,2.8236442,1.8132949
-42.797836,2.8371463,1.8496871
-42.928974,2.8472087,1.8801298
-43.02609,2.866055,1.926436
-42.55512,3.0201733,2.213191
-42.57897,3.0550592,2.2876573
-42.623108,3.085164,2.353684
-42.671356,3.1143692,2.4181776
-43.841816,2.8916574,2.0397296
-44.02292,2.8951628,2.0604782
-44.21069,2.898104,2.0805893
-44.31429,2.920074,2.1342535
-44.48029,2.9292176,2.165803
-44.583675,2.9522202,2.2217054
-45.28072,2.853495,2.0674467
-45.31098,2.8939302,2.1544476
-45.336918,2.9351656,2.2428474
-45.359432,2.9769876,2.3322682
-45.38037,3.0190115,2.4220433
-45.399734,3.0612278,2.5121527
-45.602364,3.068972,2.5439343
-45.84748,3.069862,2.5646214
-46.114613,3.0679877,2.581243
-46.368927,3.0697603,2.6045985
-46.62641,3.0722532,2.6297684
-46.92498,3.06894,2.6459484
-47.093803,3.0891798,2.701724
-47.37679,3.0911303,2.7278948
-47.698265,3.088192,2.7468138
-48.030704,3.0851262,2.7663798
-48.420086,3.0747428,2.7750196
-48.74101,3.0770106,2.80506
-49.033432,3.085242,2.8455176
-49.491646,3.0700984,2.8496995
-49.864754,3.0698357,2.8786912
-50.263374,3.0677884,2.905991
-50.721443,3.0593677,2.9245815
-51.122917,3.0611367,2.9603248
-51.602386,3.05435,2.9842157
-52.034775,3.0562782,3.0228982
-52.544403,3.0503342,3.0511308
-53.018494,3.051526,3.0917344
-53.45098,3.060308,3.1451936
-54.101624,3.0446482,3.1643348
-54.75788,3.0316706,3.1897106
-2.4507313,2.4829783,1.8637233
-2.427187,2.4036102,1.6962047
-2.5426216,2.3420954,1.5575738
-2.4835625,2.2575748,1.3815813
-2.126089,2.1316345,1.1372252
-2.1918926,2.0625057,0.9858899
-2.2991676,1.9993644,0.84463024
-2.6767006,1.9757776,0.76976633
-4.667795,2.1928926,1.1005845
-4.739214,2.131372,0.9653287
-6.196192,2.1456597,0.90092564
-6.564558,2.1363754,0.8574176
-6.3722305,2.0362806,0.657825
-6.4025936,1.9722099,0.52022266
-7.750452,2.1333873,0.7747159
-9.079552,2.2988954,1.0396371
-9.135424,2.2466393,0.92557573
-10.992191,2.4040613,1.1400414
-11.170292,2.380094,1.0781856
-11.257238,2.3394177,0.9868784
-10.691771,2.171784,0.66893196
-12.407324,2.4520495,1.1520953
-12.498888,2.4159877,1.0703802
-12.711634,2.4049368,1.0338311
-12.308161,2.2671854,0.76891613
-13.623417,2.4882097,1.1524768
-13.745466,2.4623947,1.0906258
-13.605953,2.380375,0.9267645
-13.927387,2.3985076,0.94512177
-13.765387,2.3105502,0.77025366
-13.999485,2.3108623,0.75661325
-14.282709,2.323639,0.7661929
-14.490518,2.3203807,0.7467475
-14.750843,2.3305514,0.7523384
-14.955945,2.3288932,0.7364998
-15.943728,2.518174,1.073853
-16.133118,2.5173302,1.0607495
-16.01936,2.4418566,0.9094906
-16.006863,2.390884,0.80353785
-15.872152,2.3081942,0.63850117
-16.103825,2.3193421,0.6481471
-16.020296,2.2488415,0.50566435
-15.927748,2.1750076,0.35678482
-15.840179,2.101512,0.2083621
-23.2998,3.097567,1.8694229
-22.980396,2.9283962,1.536385
-23.061378,2.9272153,1.5300202
-23.09358,2.905278,1.4832864
-23.309986,2.964057,1.5939217
-24.147684,3.1719842,1.9821472
-24.400883,3.1268322,1.8778872
-25.104471,3.087168,1.7664347
-25.652266,3.201745,1.9786134
-25.772066,3.171556,1.9123979
-25.844448,3.1466532,1.8588886
-25.89133,3.0669794,1.694788
-27.067146,3.2309337,1.9891939
-27.225935,3.2077012,1.9375076
-27.261652,3.1982076,1.9172702
-27.301712,3.192867,1.9053445
-27.342236,3.1880422,1.8944688
-27.631504,3.0608535,1.6296988
-28.02906,3.1711142,1.8437247
-28.456024,3.2515187,1.9978585
-28.551842,3.2783406,2.0503416
-29.07576,3.02139,1.5252533
-28.887234,2.3662837,0.20744371
-28.93862,2.3683858,0.21117163
-29.186779,2.9800863,1.4409552
-29.229565,2.9829564,1.4463482
-29.090607,2.3702133,0.21347427
-29.140535,2.3688796,0.21037531
-29.191528,2.3716533,0.215559
-29.24118,2.3696961,0.21124697
-29.291384,2.3700802,0.21166468
-29.340946,2.367937,0.2070179
-29.529963,3.0257082,1.5301886
-29.567078,3.0068765,1.4920554
-29.603306,2.9805918,1.4389386
-29.54024,2.3650784,0.20012712
-29.590775,2.3693464,0.20848227
-29.723848,2.9559796,1.3888268
-29.690577,2.3716142,0.21263838
-29.821278,3.0802145,1.6385446
-29.863514,3.10387,1.6860299
-29.90289,3.1022952,1.682755
-29.942232,3.0999317,1.6779065
-29.981976,3.1034517,1.6849155
-30.02123,3.098622,1.6751361
-30.100859,3.130644,1.7395153
-30.140734,3.3299038,2.1405587
-30.177134,3.3232524,2.1271749
-30.213694,3.3175855,2.1157866
-30.250162,3.3186855,2.118034
-30.28683,3.315431,2.1115313
-30.32362,3.3118267,2.1043386
-30.360514,3.3083177,2.0973525
-30.397633,3.3035705,2.0878901
-30.436687,3.2820303,2.0446453
-30.483927,3.1974993,1.8746481
-42.0606,2.2430418,0.36664724
-42.059372,2.2891555,0.4624791
-42.078217,2.3287551,0.5459175
-42.097214,2.3680744,0.6288161
-42.11132,2.4086227,0.71403456
-42.189075,2.4302177,0.76341534
-42.09321,2.5023904,0.90834713
-42.116974,2.5392492,0.9865341
-42.166687,2.568607,1.0506015
-42.203945,2.601464,1.1212888
-42.087997,2.6764805,1.271141
-42.159203,2.6994417,1.3232064
-42.202354,2.7301252,1.3898029
-42.263363,2.7560675,1.4475727
-42.34155,2.7776399,1.4972501
-42.447617,2.7922578,1.5340619
-42.561577,2.8052955,1.5680714
-42.641975,2.8272517,1.6187892
-42.739006,2.8453412,1.6624365
-42.889282,2.8507762,1.6827974
-43.04423,2.8558054,1.7026234
-43.139458,2.8757927,1.7502489
-43.259666,2.8902707,1.7878647
-43.47619,2.8829792,1.7856793
-42.65859,3.1127396,2.2182016
-43.824837,2.8907826,1.8232803
-43.94644,2.907655,1.8661566
-44.160873,2.904757,1.8732219
-44.311836,2.9166262,1.907465
-44.442738,2.9334462,1.9509196
-44.562584,2.9531443,1.9997835
-45.256668,2.8550694,1.8364568
-45.327007,2.8875766,1.9092898
-45.334026,2.9329128,2.0052342
-45.34495,2.977273,2.0994086
-45.374695,3.0178099,2.1867466
-45.401035,3.058936,2.2751546
-45.59677,3.0682044,2.3070784
-45.80016,3.0770037,2.3385363
-46.097576,3.0697107,2.3420224
-46.34854,3.0722582,2.3633852
-46.696938,3.058946,2.3574848
-46.829742,3.0847056,2.4204602
-47.13935,3.0809927,2.432468
-47.342278,3.0966733,2.4787092
-47.664997,3.0936646,2.4931436
-47.992977,3.0914593,2.509664
-48.418755,3.075449,2.5033107
-48.72776,3.0798106,2.532617
-49.02272,3.087862,2.5688887
-49.43307,3.080108,2.5791898
-49.886337,3.0681653,2.5834517
-50.208412,3.0774639,2.6242938
-50.63392,3.0737565,2.6443381
-51.111164,3.0650625,2.657236
-51.647125,3.050862,2.662344
-52.14123,3.0449948,2.682477
-52.52819,3.0555952,2.7306376
-52.94842,3.0638914,2.7761526
-53.41761,3.0681992,2.8164787
-54.0568,3.0541697,2.8290834
-54.658707,3.0478766,2.855763
-2.2864552,2.4773877,1.4264145
-1.7627926,2.3333151,1.1454859
-2.111456,2.3001301,1.0566568
-2.4302692,2.2646246,0.96446276
-2.3298855,2.1734722,0.77499914
-3.2472858,2.223082,0.8339691
-4.79385,2.3668764,1.0618305
-4.8209267,2.299135,0.9159765
-5.9766045,2.3978653,1.0677404
-6.3045673,2.3783526,1.0095224
-6.1527023,2.2868671,0.82229376
-6.480274,2.2691112,0.7679386
-6.3840027,2.1855283,0.5948334
-6.361431,2.04382,0.29441214
-7.413431,2.084083,0.32747126
-10.693226,2.5290418,1.1099939
-10.911741,2.5103564,1.0594835
-11.174044,2.500692,1.0260048
-11.273081,2.4620101,0.9390187
-12.179798,2.576011,1.1363626
-12.427856,2.568966,1.1092615
-12.49441,2.5278003,1.0187168
-12.707182,2.5156786,0.98265314
-13.141363,2.5490599,1.0322905
-13.671364,2.604387,1.1238141
-13.757612,2.5708113,1.0485439
-13.91996,2.5534863,1.0040455
-14.011318,2.5217369,0.9324665
-14.047691,2.4783568,0.8389478
-13.781721,2.3684456,0.6191864
-13.919497,2.3465564,0.56635094
-14.04027,2.321387,0.5074253
-14.0948715,2.28149,0.42054605
-16.024323,2.6314876,1.0689378
-16.079348,2.597795,0.9952421
-16.033012,2.5395575,0.87450933
-15.911904,2.4622896,0.71713924
-15.841678,2.3965735,0.58180475
-15.963882,2.3787103,0.53850365
-15.831868,2.296181,0.37063932
-15.893179,2.2626154,0.29711103
-22.535181,3.0195832,1.5980883
-23.257954,3.0680053,1.6710377
-23.20995,3.0129998,1.558281
-23.301664,3.0172622,1.5637059
-23.33677,2.926066,1.3725886
-24.113424,3.1748672,1.8617201
-25.116226,3.072131,1.6145124
-25.63814,3.204599,1.8724294
-26.832859,3.1114838,1.6479635
-27.058975,3.2246835,1.8757157
-27.632004,3.0522509,1.5094304
-27.821463,3.115781,1.636478
-28.006104,3.1829355,1.7711687
-28.050272,3.1845782,1.7738161
-29.156418,3.060139,1.5056224
-29.19316,3.0458956,1.476192
-29.233124,3.0408773,1.4656343
-29.280357,3.059918,1.5042834
-29.317347,3.0450938,1.4737005
-29.364634,3.0669987,1.5182381
-29.479822,3.2042575,1.7984776
-29.515306,3.189036,1.7671404
-29.541925,3.130604,1.6474371
-29.572605,3.0844622,1.552876
-29.604391,3.0375025,1.4566503
-29.647028,3.0462258,1.474328
-29.6782,2.9840832,1.3470626
-29.721996,2.997827,1.3750343
-29.900593,3.1386597,1.6626992
-30.138414,3.3346999,2.0635056
-30.175398,3.3114426,2.0159283
-30.212482,3.3111162,2.015275
-30.249678,3.3082507,2.009438
-30.286797,3.3085546,2.010097
-30.324661,3.2975404,1.9876142
-30.362103,3.295843,1.9842019
-30.399597,3.294242,1.980999
-30.437473,3.2896667,1.971725
-30.490295,3.1637106,1.7141652
-42.079514,2.3658335,0.41000795
-42.07919,2.4110174,0.5048561
-42.0982,2.4501402,0.58785343
-42.13594,2.4836013,0.65981245
-42.16638,2.5190785,0.7357111
-42.237907,2.5427966,0.78874826
-42.129093,2.6170914,0.94010353
-42.170296,2.6488788,1.0088086
-42.257446,2.66812,1.0532146
-42.246952,2.7139,1.1490879
-42.29103,2.7448134,1.2161674
-42.34943,2.771975,1.2760248
-42.464165,2.784687,1.3080482
-42.54568,2.8063526,1.3574424
-42.655094,2.8212662,1.3939157
-42.768013,2.8357599,1.4296951
-42.88357,2.8500793,1.4652572
-43.00712,2.8629613,1.4981861
-43.15917,2.8695998,1.5192986
-43.345333,2.86896,1.5266743
-43.44688,2.8888428,1.5734377
-43.65602,2.884573,1.5742865
-43.79724,2.8966606,1.606514
-43.964733,2.9035664,1.6290665
-44.167767,2.903516,1.6386337
-44.301277,2.9194582,1.6787348
-44.438423,2.9352112,1.7186413
-44.534473,2.9601524,1.776051
-45.252094,2.8575387,1.5933976
-45.32087,2.890632,1.6668158
-45.33675,2.9344468,1.7604165
-45.35747,2.9771514,1.8519325
-45.377525,3.0198612,1.9434595
-45.400627,3.0618677,2.0336766
-45.572792,3.075848,2.071783
-45.852226,3.070859,2.0749416
-46.12381,3.0687363,2.0838313
-46.352814,3.0755973,2.1097264
-46.67501,3.0672455,2.1079588
-46.856762,3.084783,2.154261
-47.10923,3.091178,2.1804361
-47.362938,3.098619,2.2089329
-47.66521,3.099371,2.225668
-47.960342,3.1028042,2.2477856
-48.339516,3.0944586,2.249096
-48.71747,3.0882652,2.2549648
-49.07315,3.0874062,2.2711105
-49.446564,3.0857153,2.286419
-49.80806,3.0876753,2.3089437
-50.21415,3.0850646,2.3240323
-50.74484,3.0669975,2.3125439
-51.107944,3.0748117,2.3477612
-51.673,3.0571594,2.3389983
-52.034164,3.069428,2.3837142
-52.48364,3.0720522,2.4124103
-53.047005,3.0625193,2.4210362
-53.600464,3.0571177,2.4380283
-54.142937,3.0558853,2.463416
-54.735653,3.051468,2.4846392
-2.3019295,2.4064837,0.8587489
-2.423502,2.3447986,0.72195005
-2.9241066,2.3340745,0.68024874
-4.7759724,2.5099103,0.9879284
-5.9483967,2.5330274,0.99382687
-6.0423546,2.4779418,0.87239313
-6.4008102,2.1886487,0.24022102
-10.455952,2.6608672,1.1014743
-10.862154,2.6721277,1.1107683
-11.073761,2.6517131,1.059495
-11.268509,2.6293044,1.0046024
-11.334745,2.5846884,0.90696573
-12.274857,2.6998496,1.1189342
-12.467112,2.681509,1.0729012
-12.656525,2.6635196,1.0277472
-12.699255,2.618268,0.92971134
-13.48757,2.7183042,1.1149573
-13.751638,2.7191238,1.1073341
-13.85507,2.6889958,1.0394654
-14.000753,2.6678565,0.98928356
-14.028221,2.622829,0.89240026
-14.06365,2.5793562,0.79857445
-14.089794,2.5338235,0.7007141
-14.123871,2.4898722,0.6059685
-15.933862,2.7444167,1.0848503
-15.986761,2.709988,1.0098119
-16.041914,2.6761334,0.93593884
-16.03112,2.6267433,0.8313203
-15.900301,2.5481832,0.6688223
-16.080826,2.544143,0.654109
-16.069859,2.493779,0.5474949
-15.894665,2.4019518,0.35838747
-15.826895,2.3358085,0.22022581
-22.365986,3.0102549,1.4403882
-22.50674,3.0285618,1.4749098
-22.564955,3.0156827,1.446085
-23.223003,3.0707133,1.5434256
-23.252644,3.048389,1.4956107
-24.096697,3.181386,1.752595
-24.135689,3.1658804,1.7189755
-25.000866,3.0876393,1.5331984
-25.656385,3.2225325,1.8008747
-25.914108,3.1335454,1.6090717
-26.223059,3.079378,1.4895887
-27.049332,3.211626,1.7508264
-27.239445,3.1678848,1.6564965
-27.249662,3.1318398,1.5811653
-27.618162,3.0742326,1.4557538
-27.865961,3.1523192,1.6151872
-27.97703,3.18111,1.6737719
-28.10293,3.1751604,1.659893
-28.220356,3.1581705,1.6232123
-28.357624,3.1717794,1.6500945
-28.474403,3.2244585,1.758554
-28.527447,3.2441595,1.799037
-28.716272,3.2165067,1.7398238
-28.915592,3.2091327,1.7229357
-28.989872,3.1940234,1.690999
-29.022524,3.1748524,1.6509204
-29.196844,3.0907848,1.475111
-29.28252,3.1002877,1.494422
-29.54145,3.159176,1.6157174
-29.576172,3.1330364,1.561275
-29.61145,3.106109,1.5052032
-29.64875,3.0866137,1.4645786
-29.7257,3.053083,1.3946986
-29.770378,3.0784576,1.4473262
-29.819498,3.1481328,1.5920086
-29.94132,3.1755197,1.648725
-29.980795,3.1750343,1.6476727
-30.020435,3.1781187,1.654047
-30.059998,3.1817389,1.6615438
-30.139402,3.344101,1.9988828
-30.176783,3.3155,1.9394569
-30.2142,3.3186526,1.9460177
-30.251726,3.3166978,1.9419746
-30.289154,3.3178742,1.9444475
-30.326637,3.3178465,1.9444261
-30.364231,3.3166149,1.9419127
-30.402073,3.3133144,1.9351087
-30.443615,3.2771888,1.8601127
-42.07759,2.4464374,0.3761406
-42.08394,2.489344,0.46721077
-42.11304,2.5253901,0.5445032
-42.125515,2.5660148,0.6309786
-42.148277,2.6034956,0.71114635
-42.246086,2.620043,0.74941397
-42.28067,2.6542149,0.82299566
-42.20591,2.7177575,0.9552827
-42.26567,2.7446818,1.0143642
-42.509773,2.7233553,0.9772134
-42.786892,2.69488,0.92600965
-42.830517,2.7276337,0.9969859
-42.875404,2.7600572,1.0673256
-42.954823,2.7839005,1.1206279
-43.04981,2.804167,1.1668801
-43.110294,2.8331141,1.2304258
-43.27913,2.8363514,1.2430453
-43.408386,2.8497238,1.2758784
-43.597298,2.849844,1.2826018
-43.808044,2.8459368,1.2815328
-44.00232,2.8468325,1.2901344
-44.191612,2.849815,1.3030243
-44.386665,2.8524814,1.315465
-44.315666,2.913444,1.4427462
-44.41375,2.937788,1.4979954
-44.49528,2.965949,1.5608168
-44.698555,2.9692883,1.5750675
-45.30957,2.8909507,1.4297009
-45.328728,2.934351,1.5228596
-45.355457,2.976118,1.6128302
-45.3751,3.019165,1.7053018
-45.4236,3.0565836,1.7868228
-45.550236,3.0794086,1.8400326
-45.80848,3.0784965,1.8473382
-46.083954,3.0757773,1.8514314
-46.323616,3.080861,1.8709145
-46.605682,3.0797048,1.8786302
-46.89014,3.0795772,1.8886561
-47.06151,3.10006,1.9386292
-47.369263,3.0986133,1.9467344
-47.68982,3.0966475,1.9542232
-47.99582,3.098661,1.9697137
-48.355316,3.093788,1.972465
-48.66233,3.0988944,1.9946613
-49.055313,3.092479,1.9954009
-49.436623,3.089835,2.0038085
-49.851006,3.0843096,2.0073013
-50.18289,3.0927494,2.037665
-50.658836,3.0825984,2.033596
-51.099144,3.0798233,2.0440292
-51.63145,3.066891,2.0361633
-52.107857,3.0641096,2.0479941
-52.60616,3.0609365,2.0598388
-53.08293,3.0630426,2.0822282
-53.58253,3.0647495,2.104651
-54.138954,3.0621245,2.119955
-54.811623,3.0486,2.1162887
-1.6543751,2.3301888,0.2918682
-2.6198368,2.376399,0.36862946
-6.244959,2.5110772,0.5736222
-6.3951836,2.464826,0.47068644
-6.3486805,2.3895984,0.3100381
-8.592518,2.6020374,0.71480656
-9.126139,2.6241043,0.74993944
-9.634926,2.6449895,0.7831254
-10.134924,2.667132,0.81923485
-10.894693,2.7355165,0.9487443
-11.24391,2.7380433,0.9462085
-11.345591,2.6993828,0.8608856
-12.209593,2.7957332,1.0481291
-12.522505,2.797981,1.0458727
-12.623957,2.7632108,0.9689598
-13.000587,2.7798917,0.9962764
-13.640129,2.848232,1.128542
-13.788229,2.8259256,1.0773745
-13.8878975,2.794815,1.0084224
-13.987877,2.7641048,0.9403372
-14.038116,2.723726,0.85264206
-14.065338,2.6786718,0.75544834
-14.10051,2.6351433,0.66136503
-14.119209,2.588067,0.5600586
-14.137775,2.5407755,0.45830965
-14.163394,2.494822,0.3592887
-16.01081,2.8500981,1.0801201
-16.04029,2.8106303,0.99494123
-16.047094,2.7193832,0.7993884
-16.001812,2.661972,0.6774416
-15.958539,2.6044197,0.5551677
-15.868164,2.5349436,0.40839052
-15.897235,2.49362,0.31933546
-22.085178,2.9628646,1.1972332
-22.945568,3.2503364,1.79387
-22.5505,3.0664494,1.4093823
-22.588745,3.0458207,1.3647532
-22.80022,3.0928597,1.461113
-23.079794,3.0999527,1.4712291
-23.177166,3.1050458,1.4803557
-23.253227,3.1018515,1.4722242
-23.354942,3.1097896,1.4873457
-24.128494,3.1777167,1.6187148
-25.639038,3.2198598,1.6851087
-26.099993,3.1128318,1.4520946
-26.62897,3.0641575,1.3427248
-27.054823,3.2131183,1.6534286
-27.570946,3.113167,1.4370375
-27.728931,3.134815,1.4814658
-27.948526,3.1826167,1.5807562
-28.111776,3.1653092,1.5429597
-28.153069,3.161762,1.535171
-28.192387,3.1554503,1.5215588
-28.277931,3.1530132,1.5158324
-28.495205,3.226679,1.6700945
-28.626177,3.2377071,1.6926293
-28.66187,3.2275834,1.6710467
-28.781633,3.2203345,1.6551094
-28.903254,3.2178082,1.6491895
-28.938017,3.2041318,1.6201506
-28.975092,3.1951685,1.6010609
-29.011864,3.1850288,1.579495
-29.15637,3.1309524,1.464755
-29.198708,3.1335373,1.4700656
-29.240528,3.1349635,1.4729357
-29.28618,3.149237,1.5029235
-29.378284,3.185825,1.5798936
-29.461279,3.1952631,1.5995946
-29.500286,3.1905618,1.5895729
-29.53903,3.1842535,1.5761666
-29.576616,3.171645,1.549468
-29.617313,3.173637,1.5535903
-29.656801,3.169331,1.544426
-29.73192,3.132817,1.4672251
-29.777536,3.169412,1.5444045
-29.81924,3.1821895,1.5713224
-29.859623,3.1860957,1.5795217
-29.9005,3.1969519,1.602396
-29.940536,3.2010694,1.6110525
-29.980656,3.208714,1.6271596
-30.060085,3.2204611,1.651917
-30.101135,3.31233,1.8458176
-30.139204,3.3233848,1.8691478
-30.177114,3.3186965,1.8592529
-30.215063,3.3179579,1.8577013
-30.253101,3.315606,1.8527484
-30.291029,3.3167758,1.8552356
-30.329157,3.3146188,1.850707
-30.36714,3.315128,1.8518109
-30.405241,3.3144517,1.8504181
-30.45088,3.2458723,1.705709
-42.10695,2.5612497,0.41612625
-42.118496,2.6021955,0.5038471
-42.148716,2.6376948,0.58032274
-42.234264,2.657922,0.6253114
-42.204857,2.7094803,0.7349086
-42.287094,2.7307348,0.78204966
-42.3186,2.7655883,0.85722446
-42.376205,2.7935705,0.91826344
-42.64833,2.7667325,0.8665657
-42.82635,2.765234,0.8671031
-42.899673,2.7907252,0.92318344
-42.92737,2.8276167,1.0027022
-42.982468,2.8577538,1.0683646
-43.04682,2.8857534,1.1296635
-43.10907,2.9143882,1.1922889
-43.263763,2.921688,1.2112393
-43.432884,2.9264283,1.2250328
-43.59253,2.9341366,1.2449908
-44.012085,2.8848448,1.1485167
-44.540874,2.8140798,1.0084367
-44.463364,2.8772707,1.1421266
-44.51426,2.9123864,1.2184849
-44.598076,2.9406557,1.2809091
-45.56292,2.7875185,0.9739342
-45.87755,2.7722201,0.948092
-45.968117,2.803407,1.0169644
-45.399773,2.964552,1.3498816
-45.38621,3.0144396,1.4565701
-45.424126,3.054171,1.5426426
-45.530502,3.081041,1.6026711
-45.788044,3.0804226,1.607132
-46.080353,3.074812,1.6016798
-46.327866,3.0787158,1.6156507
-46.563705,3.085911,1.6364388
-46.815727,3.091484,1.6541276
-47.077477,3.0966678,1.6712184
-47.390213,3.0946732,1.6740727
-47.68853,3.096642,1.6851292
-47.955364,3.1051846,1.7096
-48.30645,3.1017606,1.7103138
-48.685616,3.0957994,1.7062387
-49.01628,3.0991693,1.7211185
-49.4433,3.0898528,1.7109756
-49.836933,3.0876367,1.7153411
-50.206474,3.0908942,1.7309351
-50.71306,3.0767758,1.7123709
-51.18814,3.069638,1.7081065
-51.685146,3.0620008,1.7032995
-52.09279,3.0687308,1.7273335
-52.559586,3.0698774,1.7407594
-53.0357,3.0722272,1.7570167
-53.59543,3.0666656,1.758235
-54.17728,3.061312,1.7604446
-54.805496,3.053477,1.7584295
-5.7521057,2.5054135,0.22238493
-6.3412285,2.520822,0.24962854
-9.741205,2.6569302,0.5089569
-10.198631,2.672188,0.53728294
-10.578497,2.6768422,0.54350567
-11.382158,2.7559328,0.70616674
-11.49505,2.7193725,0.6261177
-11.940252,2.7420206,0.67055416
-12.208891,2.7352936,0.653357
-12.807299,2.7902753,0.7660656
-13.045668,2.781622,0.74502754
-13.556322,2.8256578,0.83500147
-13.972925,2.8544784,0.89307976
-14.056864,2.8206084,0.8191767
-14.090374,2.776968,0.72469854
-14.111889,2.7308302,0.6249566
-14.11791,2.6813598,0.5181842
-14.140966,2.6351693,0.41832733
-14.1611805,2.5882194,0.31686735
-15.968555,2.924258,1.0241442
-15.954483,2.875261,0.91861486
-15.862227,2.808611,0.77577496
-15.87146,2.7638116,0.6790867
-15.869987,2.716333,0.5767293
-16.065588,2.7140183,0.56988
-15.8801155,2.6234658,0.37641764
-15.84096,2.5660965,0.2531147
-22.92464,3.2927012,1.7549057
-22.708212,3.1786642,1.5113368
-22.60603,3.1055653,1.3549151
-22.60812,3.0711386,1.2808461
-22.7401,3.0867856,1.3134499
-22.823643,3.0842454,1.3073244
-23.014996,3.1250134,1.393496
-23.101864,3.1251462,1.3931017
-23.17981,3.1220896,1.3859215
-23.284832,3.1305764,1.403358
-23.41145,3.1487305,1.4414191
-23.478485,3.1425548,1.4276276
-23.798063,3.1776338,1.5006294
-23.915169,3.195426,1.5380034
-23.969051,3.185628,1.5165429
-24.075504,3.1999054,1.5464482
-24.121695,3.1871562,1.5187082
-24.21783,3.1977692,1.5408196
-24.268654,3.1876261,1.5186539
-24.350752,3.1925554,1.5286589
-24.418646,3.1911027,1.5250545
-24.479168,3.1863682,1.5144529
-24.570814,3.1973164,1.537334
-24.669678,3.2125194,1.5693116
-24.723053,3.2053263,1.5534892
-24.782154,3.2012525,1.5443296
-24.841177,3.1973786,1.5356064
-24.911386,3.199656,1.5400229
-25.644175,3.228545,1.5973396
-27.044216,3.197935,1.5240703
-27.526308,3.1530488,1.4257417
-27.777771,3.1752014,1.4722881
-28.424078,3.214632,1.5547462
-28.524073,3.2396011,1.607996
-28.890953,3.2252293,1.5763354
-28.925915,3.2112365,1.5462785
-29.005732,3.204734,1.5321908
-29.046297,3.2030962,1.5286069
-29.081886,3.1886215,1.4975271
-29.119865,3.17966,1.47826
-29.158064,3.1707902,1.4591913
-29.201757,3.1775036,1.4735093
-29.2429,3.177214,1.4728265
-29.288712,3.192129,1.5047197
-29.376802,3.2147884,1.5531569
-29.459951,3.2240574,1.5729179
-29.498934,3.2189684,1.5619702
-29.53616,3.2055562,1.5331936
-29.576912,3.2074008,1.5371056
-29.616606,3.2042933,1.5304122
-29.656973,3.204661,1.5311651
-29.819605,3.2194247,1.5626888
-29.859629,3.2203162,1.564579
-29.900194,3.2276516,1.5802765
-29.940178,3.2304423,1.5862403
-30.02083,3.2562072,1.6414208
-30.061174,3.2867968,1.7069535
-30.1009,3.331871,1.8035226
-30.139137,3.3381379,1.8169479
-30.177265,3.3368902,1.8142753
-30.21543,3.3357403,1.8118148
-30.25361,3.335112,1.8104739
-30.291769,3.3354275,1.8111577
-30.32995,3.3354182,1.8111482
-30.368101,3.3359296,1.8122573
-30.406776,3.3310452,1.8018084
-30.459455,3.2020562,1.5254631
-42.121082,2.6313944,0.37222576
-42.13606,2.6712298,0.45817327
-42.162983,2.7075858,0.53673935
-42.204544,2.7398775,0.6066885
-42.25071,2.7709153,0.6739836
-42.306667,2.7994032,0.7358794
-42.381947,2.822997,0.7874155
-42.456127,2.84708,0.8399992
-42.607727,2.8520138,0.8520398
-42.776947,2.853342,0.8564811
-42.878784,2.8719056,0.89744425
-42.922108,2.904883,0.9689331
-43.019203,2.9251466,1.0135307
-43.286526,2.9061203,0.97503996
-43.41653,2.9201133,1.0064416
-43.861267,2.8634624,0.8885312
-44.033207,2.8702826,0.9048791
-43.78646,2.9699264,1.1173816
-44.41543,2.8781235,0.9254551
-44.523872,2.9010987,0.97604895
-44.743496,2.9011369,0.97825575
-44.933014,2.908526,0.99603033
-45.22399,2.8961766,0.97222424
-45.477802,2.8928397,0.9675026
-45.703175,2.8964314,0.9774585
-45.850655,2.916287,1.0217433
-45.383392,3.054285,1.3148899
-46.069534,2.9722314,1.1446109
-46.247948,2.9880543,1.1805215
-46.079353,3.0678391,1.351028
-46.37063,3.064073,1.345799
-46.825455,3.0330517,1.283381
-47.08132,3.0389082,1.2985826
-47.42225,3.0315957,1.2862153
-47.80966,3.0183046,1.2614179
-48.116753,3.0202281,1.2686667
-48.43846,3.0213625,1.274365
-48.81803,3.0149918,1.264452
-49.19842,3.0104656,1.2585397
-49.58619,3.0067825,1.2545309
-49.93409,3.0110564,1.2673078
-50.39145,3.0010602,1.2503905
-50.75109,3.007481,1.2679429
-51.224403,2.9997187,1.2560306
-51.675777,2.9974363,1.2557406
-51.92177,3.0252166,1.3182912
-52.49001,3.0115309,1.2945895
-52.91375,3.0195124,1.3162174
-53.47434,3.0123053,1.3064528
-54.396507,2.9632185,1.2099485
-54.53098,3.014388,1.3219328
-10.662344,2.6934264,0.25566578
-11.432924,2.7104278,0.29586887
-11.884289,2.7336686,0.3482666
-12.059063,2.7095737,0.29665804
-12.833931,2.7961006,0.48790264
-13.035343,2.7803571,0.4545436
-13.262024,2.7703478,0.43374395
-13.397617,2.7439332,0.37691736
-14.118605,2.8324845,0.57232237
-14.131886,2.784719,0.46858788
-14.150461,2.73781,0.3667345
-14.16891,2.6906915,0.26442242
-15.87049,2.9014556,0.7294121
-15.865586,2.8538225,0.6258745
-15.89773,2.8140507,0.5395684
-15.8311,2.7520146,0.4044733
-15.851683,2.7090883,0.31125832
-15.853765,2.6617024,0.2082758
-23.032852,3.3863492,1.811173
-22.716988,3.238188,1.4877701
-22.933384,3.284552,1.5893769
-22.854342,3.2214031,1.451726
-22.637455,3.104641,1.1969657
-22.674631,3.0834093,1.1508999
-22.785816,3.091021,1.1678338
-22.955957,3.1225977,1.2371039
-23.036203,3.119454,1.2305307
-23.124866,3.1200984,1.2322264
-23.228199,3.1272256,1.2480736
-23.27653,3.1121376,1.2154016
-23.442564,3.146591,1.2909083
-23.518497,3.14399,1.2854943
-23.984251,3.1407657,1.2799463
-24.182968,3.1978042,1.4046931
-24.237123,3.1887543,1.3851643
-24.297905,3.1830118,1.37285
-24.382181,3.188816,1.3857374
-24.462166,3.1930478,1.3951874
-24.524391,3.1889892,1.386539
-24.593563,3.1886652,1.3860378
-24.665707,3.1901987,1.3895879
-24.742004,3.194261,1.3986521
-24.80796,3.1934104,1.3969917
-24.87808,3.1950803,1.4008265
-24.952263,3.1993005,1.4102249
-25.012667,3.1965442,1.4043956
-25.084478,3.200287,1.412744
-25.149364,3.2006323,1.4136772
-25.216434,3.202544,1.4180222
-25.279705,3.2026794,1.4184904
-25.342196,3.2026978,1.4187002
-25.409155,3.2056432,1.4252925
-25.475845,3.2088277,1.4324036
-25.532537,3.206439,1.4273524
-25.604425,3.2135055,1.4429264
-25.661324,3.211874,1.4395213
-25.714756,3.2083528,1.4319925
-25.77805,3.2112584,1.4384804
-25.839447,3.2133377,1.4431624
-25.899534,3.2149265,1.446773
-25.959412,3.2167203,1.4508262
-26.017479,3.217657,1.4530096
-26.072205,3.2166615,1.450974
-26.130968,3.218689,1.4555311
-26.188484,3.2202005,1.4589586
-26.244272,3.220827,1.4604559
-26.305443,3.2255943,1.4709797
-26.36133,3.2269607,1.4740834
-26.416534,3.2281473,1.4767942
-26.466185,3.2255144,1.4711723
-26.523022,3.2285051,1.4778132
-26.583931,3.2349799,1.4920487
-26.6464,3.2431328,1.5099406
-26.694946,3.2408144,1.5049973
-26.742504,3.2379034,1.4987583
-26.80918,3.2507124,1.5267963
-26.853708,3.2458992,1.5164065
-26.89825,3.2412124,1.50629
-26.948524,3.2415185,1.5070591
-27.006481,3.2487383,1.5229015
-27.05853,3.2512565,1.5284901
-27.111233,3.254695,1.5360818
-27.153273,3.2488306,1.5233908
-27.198256,3.2457397,1.5167427
-27.260288,3.2587745,1.5452528
-27.299374,3.2506356,1.5275974
-27.347284,3.251021,1.5285244
-27.408712,3.2649884,1.5590601
-27.455416,3.2649243,1.5590043
-27.506933,3.2700152,1.5701838
-27.526155,3.241994,1.5091767
-27.55931,3.2279334,1.4786034
-27.639008,3.2136562,1.4476342
-27.73669,3.2197518,1.4610705
-28.51237,3.256882,1.5430193
-29.002682,3.2331047,1.4916816
-29.699646,3.2499962,1.5288773
-29.82208,3.2678132,1.5677376
-29.983883,3.313206,1.6666842
-30.023676,3.329092,1.7013063
-30.062473,3.3292344,1.7016201
-30.101309,3.3319786,1.707602
-30.140047,3.3306518,1.7047114
-30.178835,3.3281734,1.6993108
-30.217686,3.3262131,1.6950359
-30.25661,3.3239346,1.6900687
-30.295422,3.325092,1.6925883
-30.33438,3.323848,1.6898727
-30.372633,3.3314576,1.706449
-30.412956,3.3162446,1.6732903
-30.467184,3.183659,1.3843551
-42.240097,2.7297075,0.36479712
-42.266537,2.7664084,0.44448662
-42.323715,2.7949586,0.5063324
-42.741734,2.7753696,0.46211386
-42.841743,2.7945163,0.5033426
-42.824684,2.8428695,0.6085205
-42.854164,2.8794842,0.687994
-42.874382,2.9182055,0.7720814
-43.044357,2.9214144,0.77837896
-43.23565,2.9205122,0.77565336
-43.432716,2.9192746,0.772171
-43.676865,2.9084167,0.7475891
-43.724434,2.942648,0.82179546
-44.104828,2.9038973,0.7360344
-44.024754,2.9668388,0.8731494
-44.22721,2.9688444,0.8766813
-44.36765,2.9848726,0.91093826
-44.521584,2.9987385,0.9404378
-44.707973,3.0067136,0.95700073
-44.915394,3.0113907,0.96630764
-45.09161,3.0232484,0.99134254
-45.34324,3.0213313,0.9861312
-45.555508,3.0282176,1.0002103
-45.763596,3.0369394,1.01829
-45.99485,3.0424066,1.0291996
-46.149586,3.0629096,1.0730944
-46.362186,3.073778,1.0958109
-46.950832,3.0197644,0.9759822
-47.22036,3.024025,0.9840956
-47.294144,3.0627782,1.0679684
-47.402706,3.0959349,1.139533
-47.60955,3.1134362,1.1766672
-49.779926,2.9896398,0.89845943
-50.14365,2.9925766,0.90326834
-50.524067,2.9949355,0.90674543
-50.987404,2.9873881,0.8883467
-51.416687,2.9870179,0.8856778
-51.87999,2.9841866,0.87751245
-52.32422,2.9863076,0.8801818
-52.847343,2.980326,0.8649063
-53.249275,2.992645,0.88989735
-53.655537,3.006437,0.91806364
-54.241474,3.0001526,0.901844
-13.232296,2.8192122,0.26761627
-13.428171,2.8036828,0.23707056
-13.6707325,2.7980514,0.22898197
-14.14484,2.8388724,0.32655668
-15.8285475,2.7976563,0.26523685
-23.011723,3.4011083,1.7043185
-23.007898,3.3673398,1.6300101
-22.838564,3.272215,1.4183764
-22.856327,3.2449439,1.3586545
-22.988377,3.2606235,1.3950267
-23.009474,3.234737,1.3383827
-22.778591,3.111092,1.0631108
-22.869234,3.110868,1.06389
-22.955286,3.1092906,1.0616202
-23.063904,3.1172123,1.0805597
-23.166328,3.123274,1.0953131
-23.271809,3.1312025,1.1142087
-23.411058,3.1538658,1.1659923
-23.478432,3.1471753,1.1521769
-23.542974,3.139541,1.1362367
-24.146412,3.1984324,1.2738724
-24.22494,3.200285,1.2789626
-24.290081,3.196248,1.2708993
-24.356411,3.1930604,1.2647161
-24.429056,3.193233,1.2660108
-24.509794,3.1977577,1.2769909
-24.588263,3.201642,1.2865243
-24.653769,3.1994705,1.2825456
-24.72601,3.2010405,1.2868886
-24.791151,3.1993456,1.2839422
-24.867844,3.204004,1.295135
-24.933784,3.2034416,1.294682
-25.008636,3.2079947,1.3056083
-25.073513,3.2075922,1.3054833
-25.140589,3.208731,1.3087759
-25.204468,3.2084568,1.3089099
-25.272856,3.2110572,1.3154302
-25.342134,3.2145698,1.3239665
-25.404186,3.2143157,1.3241048
-25.46663,3.2146096,1.3254523
-25.527744,3.2144434,1.3257627
-25.590364,3.2155025,1.3287878
-25.65834,3.2201817,1.3398533
-25.72103,3.222027,1.3446016
-25.786768,3.2261481,1.3543992
-25.847874,3.2277431,1.3585668
-25.904469,3.226778,1.3570299
-25.967829,3.230515,1.3659377
-26.02723,3.2320302,1.3698931
-26.08173,3.2305927,1.3672757
-26.140236,3.2321422,1.3712878
-26.199047,3.23424,1.3765068
-26.2541,3.234056,1.3766441
-26.308506,3.2336934,1.3763752
-26.366724,3.2363594,1.3828268
-26.427158,3.2410092,1.3936739
-26.478111,3.2390382,1.3898029
-26.532804,3.240108,1.3926792
-26.58401,3.2388222,1.3903131
-26.632774,3.23588,1.3842597
-26.687494,3.2378166,1.3890343
-26.739279,3.2377377,1.3893228
-26.789576,3.2367203,1.3875198
-26.838877,3.2351217,1.3844175
-26.89646,3.240677,1.3971906
-26.948963,3.2423544,1.4013453
-27.000862,3.2438262,1.4050341
-27.051743,3.2447152,1.4074216
-27.101635,3.2450147,1.4084935
-27.151812,3.24584,1.4107232
-27.20225,3.247194,1.4141188
-27.252129,3.2483258,1.4170146
-27.301067,3.2488554,1.4185643
-27.348316,3.2480178,1.4170742
-27.39817,3.2499738,1.4217753
-27.450127,3.254364,1.43187
-27.496996,3.25396,1.4313183
-27.54267,3.2525449,1.4285202
-27.591173,3.2543266,1.4328046
-27.639877,3.2566369,1.4382544
-27.685612,3.2560132,1.4371896
-27.730234,3.254363,1.4338412
-27.775824,3.253998,1.4333382
-27.826323,3.2595785,1.446012
-27.87231,3.2602627,1.4478211
-27.919472,3.262637,1.4533715
-27.964266,3.2624185,1.4531665
-28.010836,3.264672,1.458436
-28.057861,3.267845,1.4657364
-28.10292,3.2687995,1.4681134
-28.147284,3.2690964,1.4690251
-28.190987,3.2687292,1.4684601
-28.234903,3.2688782,1.4690318
-28.280386,3.2715216,1.4751267
-28.324907,3.2731066,1.4788709
-28.36852,3.2736273,1.4802485
-28.413845,3.2770503,1.4880543
-28.457243,3.277816,1.489963
-28.502506,3.2818916,1.4992027
-28.541851,3.2765112,1.4874792
-28.585484,3.2784302,1.4919271
-28.627182,3.2772653,1.4895353
-28.673714,3.285037,1.5069423
-28.715654,3.2849104,1.5068402
-28.757542,3.2848964,1.5069823
-28.800388,3.2870083,1.5118299
-28.842724,3.2884314,1.5151443
-28.886108,3.2923915,1.5240769
-28.926922,3.2912164,1.5216246
-28.968615,3.292172,1.5238881
-29.009193,3.2908084,1.521008
-29.051935,3.294824,1.5300403
-29.088408,3.2835257,1.5051413
-29.13275,3.2922306,1.5245509
-29.17174,3.2872264,1.5135865
-29.217823,3.302275,1.547039
-29.25537,3.2934089,1.5275087
-29.297443,3.2980964,1.5379977
-29.337978,3.2984056,1.538784
-29.380007,3.3041334,1.5515666
-29.418245,3.29689,1.5356131
-29.456776,3.290151,1.5207705
-29.497278,3.2908773,1.5224614
-29.536793,3.2876122,1.515305
-29.575766,3.2815795,1.5020137
-29.614487,3.273593,1.4843907
-29.861694,3.3231027,1.5943437
-29.901907,3.3310475,1.6119719
-29.940016,3.3156543,1.5779071
-29.979605,3.316399,1.5795798
-30.019041,3.3147779,1.5760064
-30.058603,3.3157263,1.5781202
-30.09814,3.3171883,1.5813675
-30.13762,3.3166945,1.5802774
-30.177073,3.3204167,1.58852
-30.21637,3.3258867,1.6006293
-30.255787,3.324462,1.5974641
-30.295158,3.324784,1.5981627
-30.334726,3.3223283,1.5927033
-30.373499,3.3302565,1.6102381
-30.41796,3.2790747,1.4968529
-42.501434,2.826431,0.36116552
-42.530888,2.8627067,0.44022083
-42.70911,2.862108,0.4359703
-42.816734,2.8796265,0.47259188
-42.866722,2.9114118,0.54143095
-43.02672,2.9171882,0.551425
-43.24854,2.909323,0.5304818
-43.28425,2.9454412,0.6090212
-43.57144,2.924524,0.5583596
-43.640137,2.9539952,0.6217594
-43.999123,2.9197917,0.5407567
