x,y,z
-21.125202,1.4476161,4.075147
-21.312122,1.5034761,4.084396
-21.415764,1.5181491,4.0636024
-21.535173,1.5414741,4.0500774
-21.729555,1.6043558,4.0678997
-21.817244,1.6128206,4.044529
-21.9505,1.6457405,4.0409236
-22.083313,1.6792669,4.038635
-22.17198,1.6899655,4.0189
-22.372173,1.7614577,4.0487366
-22.452763,1.769181,4.0279922
-22.594353,1.810874,4.035549
-22.715874,1.8424044,4.0355835
-22.803806,1.8559258,4.021363
-22.96641,1.9121068,4.0434012
-23.051235,1.9251993,4.0300636
-23.214907,1.984072,4.0561247
-23.265621,1.9787302,4.0282164
-23.421692,2.0351377,4.053768
-23.46737,2.0276475,4.02483
-23.60418,2.0744817,4.043533
-23.652008,2.0689518,4.0170317
-23.759018,2.0993857,4.022548
-23.847757,2.1194155,4.019417
-23.923857,2.132228,4.01031
-24.048838,2.175878,4.029366
-24.10521,2.1774757,4.011061
-24.232952,2.2244859,4.034379
-24.275293,2.2180068,4.0094466
-24.392199,2.2596583,4.029007
-24.474762,2.2799363,4.029436
-24.510822,2.2702744,4.002441
-24.596664,2.2935855,4.0064225
-24.697607,2.3276029,4.0209203
-24.745207,2.3264787,4.0027604
-24.830736,2.3513246,4.009465
-24.911503,2.3735478,4.014112
-24.953663,2.3696198,3.9941063
-25.048248,2.4024606,4.00968
-25.122314,2.4216135,4.012507
-25.177608,2.427934,4.003234
-25.258888,2.4532318,4.0127325
-25.326414,2.469203,4.0134993
-25.367165,2.4660378,3.9957523
-25.424585,2.4753118,3.9904633
-25.477013,2.4812078,3.9820824
-25.567677,2.5162036,4.002933
-25.620314,2.5231078,3.9961338
-25.68364,2.5385237,3.9981155
-25.757448,2.5625348,4.009057
-25.823494,2.5810986,4.01484
-25.875278,2.5889087,4.0100045
-25.919003,2.590595,3.9991488
-25.960058,2.590321,3.9864616
-26.010853,2.598135,3.9822402
-26.071835,2.6146421,3.9871902
-26.122252,2.622859,3.9838433
-26.183342,2.640355,3.9903336
-26.230198,2.6462915,3.985064
-26.282585,2.6572382,3.9852166
-26.331648,2.6656852,3.9829717
-26.386118,2.6791832,3.986236
-26.432348,2.685833,3.9825134
-26.482103,2.6959145,3.9826035
-26.522585,2.6979904,3.9744053
-26.61527,2.7478404,4.0171833
-26.629,2.7261624,3.9840903
-26.647217,2.7083395,3.955122
-26.667477,2.6921964,3.927981
-26.71185,2.698784,3.9253345
-26.678743,2.6311424,3.8427706
-26.61873,2.535986,3.7301807
-26.626745,2.5057425,3.6875858
-26.627941,2.4681916,3.6370082
-26.634224,2.4350584,3.5911703
-26.626125,2.3866956,3.5286398
-26.628159,2.3477986,3.4763522
-26.63845,2.3167455,3.4326057
-26.65464,2.291331,3.395039
-26.645111,2.2380884,3.326765
-26.639126,2.1875615,3.2613568
-26.628765,2.1312153,3.1893759
-26.640106,2.0976126,3.14252
-26.629417,2.0387547,3.0675144
-26.645666,2.009064,3.024908
-26.64026,1.954026,2.9539514
-26.66769,1.9358163,2.9241438
-26.641655,1.8545973,2.8236337
-26.645826,1.8073628,2.761129
-26.642595,1.750179,2.687333
-26.608337,1.6538737,2.5692286
-26.63153,1.6261497,2.5284681
-26.64023,1.5797372,2.4665375
-26.657585,1.543231,2.4158053
-26.663223,1.4908636,2.3470101
-26.64808,1.4101889,2.2458649
-26.64998,1.3499649,2.1678963
-26.649837,1.2855132,2.0849943
-26.612892,1.1694808,1.942864
-26.626661,1.1201384,1.876998
-26.639584,1.0683808,1.8083162
-26.660967,1.0272884,1.751874
-26.668962,0.9659283,1.6720462
-26.660433,0.8788214,1.5623965
-26.704332,0.8669219,1.5396204
-35.512993,0.7321825,1.7729483
-35.524574,0.7782519,1.8377624
-35.56499,0.796,1.8720107
-35.645493,0.77570534,1.8654985
-35.629936,0.9003701,2.029975
-35.680214,0.9079306,2.0536222
-35.708668,0.9353156,2.098486
-36.301804,0.67950106,1.9126925
-36.29625,0.7377963,1.9913158
-35.44833,1.5048761,2.806109
-35.494507,1.5110664,2.8279958
-35.51676,1.5370882,2.8705072
-35.52693,1.5726771,2.9228787
-35.528046,1.615098,2.9822025
-35.54953,1.6405618,3.0241098
-35.545464,1.6860106,3.086369
-35.571323,1.7072537,3.123962
-35.57741,1.7436771,3.1769323
-35.592377,1.7727573,3.2224483
-35.563427,1.835012,3.3011923
-35.578587,1.8629208,3.3453765
-35.61944,1.8712482,3.3700838
-35.63804,1.8961253,3.4113235
-35.657658,1.9199893,3.4515748
-35.684605,1.9382622,3.4863567
-35.71128,1.9565897,3.521257
-35.740513,1.9729466,3.5543032
-35.780186,1.981808,3.5801663
-35.820446,1.9902885,3.6058097
-35.866352,1.9948897,3.6278796
-35.920166,1.9941597,3.6450424
-35.979828,1.9896519,3.6588511
-36.03738,1.9868546,3.6745548
-36.096462,1.9832869,3.6897974
-36.16227,1.9755228,3.7013836
-36.205166,1.983185,3.7276707
-36.2233,2.0070705,3.7691793
-36.289135,1.999901,3.7820554
-36.35132,1.9954097,3.7977133
-36.412064,1.9921227,3.8147736
-36.463722,1.9948254,3.837563
-36.606457,1.940875,3.8094783
-36.74386,1.8913872,3.786231
-36.88433,1.8411071,3.7630806
-36.966564,1.827321,3.773098
-37.050568,1.8129382,3.783032
-37.12852,1.8026497,3.7970057
-37.19089,1.8019958,3.8197756
-37.26592,1.7941649,3.8366585
-37.350586,1.7811012,3.8494525
-37.44421,1.7633388,3.8587103
-37.508476,1.7629073,3.883172
-39.015457,0.945179,3.220994
-39.01542,0.9884105,3.287517
-38.988007,1.0464416,3.3661737
-38.986603,1.0894144,3.4321342
-39.006634,1.1202161,3.4880352
-39.006535,1.1617115,3.5526066
-39.025593,1.192487,3.60845
-39.02768,1.2320898,3.6713371
-39.011787,1.2808278,3.741333
-39.003517,1.3250332,3.8075495
-39.007988,1.3621619,3.868095
-39.024498,1.392746,3.923523
-39.03552,1.4259143,3.9809256
-39.02412,1.4701846,4.046676
-39.104416,1.4679093,4.0774198
-39.253548,1.4316602,4.083482
-39.397163,1.3990505,4.0932
-39.597637,1.3394358,4.0842757
-39.776543,1.291616,4.0852046
-40.005108,1.2209957,4.0711646
-40.186184,1.1745765,4.0757356
-40.41979,1.1043894,4.0650525
-40.616013,1.0532815,4.0691304
-40.817192,1.0010731,4.0738473
-41.089775,0.9171257,4.0587263
-41.351074,0.8401196,4.0501904
-41.637882,0.75320053,4.037092
-41.841072,0.7057736,4.0515695
-42.169403,0.6036718,4.032764
-42.48117,0.5110223,4.0223584
-17.990892,0.6761372,4.070975
-18.303566,0.7678845,4.0827713
-18.581581,0.8462815,4.088125
-18.778477,0.8902025,4.072617
-19.006517,0.9493048,4.0687056
-19.23386,1.009496,4.0671563
-19.428154,1.055958,4.0577497
-19.642809,1.1129994,4.057068
-19.874136,1.1791596,4.0643134
-20.046623,1.2191503,4.054497
-20.256603,1.2779572,4.0594196
-20.470142,1.339819,4.0680056
-20.655441,1.389458,4.06904
-20.864897,1.4520314,4.0809455
-21.018993,1.4888399,4.0748878
-21.15987,1.520057,4.065588
-21.31897,1.5612142,4.064814
-21.50367,1.6162753,4.075828
-21.616173,1.6359253,4.060398
-21.757736,1.6710906,4.0578833
-21.880459,1.6974199,4.049238
-21.948765,1.6961384,4.0192204
-22.162104,1.7713304,4.0513783
-22.281925,1.7985339,4.0458136
-22.37587,1.8126466,4.030223
-22.544168,1.8673668,4.0487876
-22.610493,1.8678336,4.0231524
-22.79467,1.9332311,4.0524325
-22.860508,1.9345288,4.0285983
-23.001312,1.9779525,4.0410275
-23.146292,2.0247357,4.0571885
-23.213017,2.0281253,4.0367055
-23.348959,2.0714812,4.051357
-23.423994,2.0806246,4.0368366
-23.535198,2.1112573,4.041667
-23.624716,2.1299014,4.036492
-23.690468,2.1349978,4.019709
-23.806767,2.1706753,4.0307407
-23.849625,2.1628428,4.0031004
-23.991386,2.2153702,4.030531
-24.063957,2.2265067,4.0209227
-24.150873,2.246955,4.0202537
-24.265614,2.2854,4.0366926
-24.307049,2.2784452,4.0115466
-24.414888,2.3138895,4.0262175
-24.474924,2.319438,4.0133758
-24.549778,2.3349032,4.0101924
-24.65851,2.373034,4.0289116
-24.692053,2.3623734,4.0016527
-24.79332,2.396872,4.017826
-24.877216,2.4205089,4.0240693
-24.904037,2.4060075,3.993813
-25.009851,2.44557,4.0162287
-25.099915,2.4751601,4.029458
-25.129444,2.4632165,4.0023775
-25.214584,2.4904246,4.013994
-25.292904,2.513472,4.021921
-25.334293,2.510613,4.0044703
-25.386885,2.5159953,3.9954147
-25.456726,2.5342798,3.999527
-25.517275,2.5462208,3.9975863
-25.582409,2.561983,3.999784
-25.626123,2.5620904,3.9863968
-25.707758,2.5912008,4.0027313
-25.784176,2.61704,4.0161185
-25.8481,2.6338634,4.0206165
-25.901089,2.6426182,4.017095
-25.940039,2.6406097,4.0026746
-25.987528,2.6455393,3.995597
-26.043383,2.6574721,3.996007
-26.094482,2.6659303,3.9930277
-26.145418,2.6745796,3.9904623
-26.203205,2.6892538,3.9944453
-26.255014,2.699365,3.9938655
-26.300966,2.704867,3.9886222
-26.358047,2.72017,3.993969
-26.4043,2.726567,3.9900737
-26.450418,2.7331305,3.9865403
-26.498236,2.7414808,3.9851017
-26.544065,2.7483797,3.9822965
-26.62887,2.7907495,4.0179043
-26.628727,2.7566795,3.971274
-26.639812,2.7323713,3.9351501
-26.66481,2.720648,3.912693
-26.68299,2.70239,3.8831744
-26.621666,2.6081512,3.7706347
-26.626179,2.5753763,3.7250366
-26.625551,2.537012,3.6732416
-26.628948,2.5019014,3.6249475
-26.621195,2.4550436,3.56362
-26.634737,2.4287152,3.5248938
-26.619055,2.3721693,3.4526267
-26.625023,2.3367765,3.4037218
-26.632664,2.302458,3.3559613
-26.662258,2.2906423,3.3333035
-26.62691,2.209403,3.2329607
-26.633354,2.1715086,3.1810012
-26.632128,2.1244795,3.1187096
-26.641994,2.0887399,3.0690508
-26.643808,2.0432682,3.0083609
-26.64035,1.9908593,2.939734
-26.638292,1.9389167,2.8715272
-26.657393,1.9104159,2.8298655
-26.64225,1.8410637,2.7416773
-26.619608,1.7611625,2.6412745
-26.608896,1.6937659,2.554956
-26.62825,1.6615479,2.5087905
-26.63457,1.6125014,2.4433084
-26.641737,1.5633891,2.377685
-26.654339,1.5200417,2.3186378
-26.655918,1.4614763,2.2419925
-26.658972,1.4034021,2.165821
-26.648895,1.3264811,2.0677361
-26.610035,1.2088766,1.9223022
-26.629799,1.1680574,1.8657761
-26.640469,1.1136694,1.7934513
-26.658825,1.068677,1.7320223
-26.65844,0.99585485,1.6380858
-26.668777,0.9365516,1.5598421
-26.668427,0.8599665,1.4612994
-35.49351,0.7388785,1.690855
-35.51149,0.7792096,1.749876
-35.49771,0.8492942,1.8414288
-35.550694,0.8548441,1.8623447
-35.574932,0.8874283,1.9128585
-35.596283,0.92220974,1.9657688
-35.626587,0.94826126,2.0092254
-35.661182,1.0227306,2.1203527
-35.65288,1.1326969,2.2693596
-36.215378,0.80095077,1.9651918
-36.274864,0.80327296,1.9850316
-35.489494,1.5112195,2.7483773
-35.48153,1.562588,2.817709
-35.50821,1.5847831,2.8563566
-35.548187,1.595969,2.8835702
-35.521957,1.6602473,2.9660873
-35.54208,1.6866469,3.0091152
-35.542576,1.7281725,3.0677643
-35.55108,1.7628548,3.1192741
-35.564404,1.7933474,3.166438
-35.588737,1.8150465,3.2046018
-35.59302,1.8516963,3.258009
-35.606304,1.8811026,3.3040028
-35.606052,1.9201953,3.3597455
-35.624573,1.9449477,3.400978
-35.646893,1.9666669,3.4391851
-35.670284,1.9874053,3.4764514
-35.69688,2.0056615,3.5112972
-35.729584,2.0194557,3.5417972
-35.764225,2.0318356,3.5710073
-35.80442,2.040326,3.5965228
-35.850986,2.0444758,3.6179552
-35.902576,2.0453227,3.636372
-35.95709,2.044384,3.653288
-36.012363,2.0431552,3.670164
-36.071358,2.039686,3.6851459
-36.140045,2.030111,3.6945868
-36.192528,2.0314798,3.714727
-36.259216,2.0238607,3.7266312
-36.32679,2.0160236,3.7386575
-36.392227,2.0098934,3.7526054
-36.416023,2.0302694,3.7914553
-36.46545,2.0345287,3.815493
-36.514057,2.039437,3.8403478
-36.62652,2.0053945,3.8299007
-36.83777,1.9122424,3.7664995
-36.91597,1.9009578,3.7781549
-37.012314,1.8792927,3.7809243
-37.108204,1.8585074,3.785008
-37.153202,1.8681242,3.8165188
-37.237625,1.8549266,3.8281717
-37.30715,1.8507729,3.8481822
-37.383125,1.843256,3.8656383
-37.498474,1.8138454,3.8646417
-38.983055,1.0175924,3.2082882
-38.963463,1.0713229,3.283924
-38.98203,1.103404,3.3410473
-38.99768,1.1368234,3.399294
-39.012844,1.170232,3.4575176
-39.01603,1.2097979,3.5208006
-39.01782,1.2497303,3.5842853
-38.994217,1.3026764,3.6582208
-38.983963,1.3480315,3.7257657
-39.00056,1.3789864,3.7816296
-39.01922,1.4086523,3.8364763
-39.03409,1.4400434,3.8926935
-39.035027,1.4782398,3.9541917
-39.03035,1.5189018,4.017483
-39.03782,1.5531392,4.075726
-39.14094,1.5399678,4.098095
-39.370564,1.465533,4.0752773
-39.515507,1.4336841,4.085574
-39.73817,1.3653688,4.0701013
-39.88154,1.3362875,4.0846243
-40.078,1.2829671,4.082713
-40.269043,1.2334208,4.0848403
-40.487656,1.1722629,4.080149
-40.72882,1.1021147,4.0707707
-40.972584,1.0323286,4.063361
-41.19699,0.9728477,4.0646734
-41.4749,0.89075685,4.0524964
-41.780254,0.7982416,4.035482
-42.06279,0.7177508,4.0285482
-42.325836,0.64755225,4.0303116
-42.668854,0.5443039,4.0131207
-17.642479,0.69849277,4.092226
-17.919441,0.77030945,4.089666
-18.19469,0.84308314,4.089759
-18.380337,0.8788047,4.0672784
-18.662079,0.95748305,4.074976
-18.982601,1.0550036,4.0975313
-19.198061,1.107991,4.0916934
-19.411129,1.1612184,4.0875297
-19.64193,1.223758,4.091427
-19.841412,1.273493,4.087778
-20.008957,1.3097856,4.0757794
-20.220291,1.3673549,4.0804515
-20.33751,1.382287,4.055064
-20.520061,1.4286225,4.0538645
-20.692562,1.4713223,4.0511365
-20.879921,1.5222225,4.05579
-21.110989,1.5954783,4.0788784
-21.303635,1.6515765,4.0901823
-21.447197,1.6848006,4.084815
-21.522713,1.6851261,4.0543284
-21.731274,1.7523835,4.0776973
-21.787035,1.7439251,4.041451
-21.951605,1.7910516,4.0506315
-22.085524,1.8235345,4.0488563
-22.18413,1.8385582,4.0334864
-22.355278,1.8920608,4.0507154
-22.450703,1.9068272,4.036521
-22.563965,1.9316127,4.0313416
-22.710375,1.9748912,4.0425754
-22.795904,1.9862258,4.027294
-22.983427,2.0537286,4.061014
-23.02701,2.0433586,4.0281324
-23.189768,2.0993004,4.0535374
-23.279602,2.1155825,4.0449414
-23.406668,2.1534567,4.05601
-23.44739,2.1429622,4.024592
-23.589466,2.1908743,4.045872
-23.626106,2.1786244,4.0135365
-23.712296,2.1954246,4.007794
-23.848145,2.2421155,4.029893
-23.911036,2.2463427,4.0136423
-24.040329,2.2908337,4.035014
-24.08274,2.2835808,4.008891
-24.212551,2.3299656,4.033215
-24.259312,2.3260527,4.0108676
-24.357687,2.3544817,4.019365
-24.451826,2.3809671,4.026537
-24.49071,2.3730388,4.001259
-24.580507,2.3978066,4.0075946
-24.684757,2.43258,4.0240703
-24.732231,2.4311242,4.0058956
-24.815754,2.4535885,4.01128
-24.898895,2.476409,4.017437
-24.95472,2.481511,4.0065494
-25.029985,2.5000658,4.009234
-25.104206,2.5184433,4.0121098
-25.168087,2.5302124,4.008746
-25.238869,2.547196,4.010912
-25.30652,2.5624804,4.011704
-25.350676,2.5615573,3.996417
-25.411613,2.5728197,3.9936876
-25.462606,2.5772808,3.9842973
-25.54046,2.6016197,3.99548
-25.601397,2.614128,3.9948745
-25.6621,2.626877,3.99479
-25.72528,2.6419072,3.9973397
-25.801674,2.667427,4.011082
-25.856173,2.6768317,4.0083685
-25.906494,2.683354,4.0028706
-25.949404,2.6843755,3.9917998
-25.996214,2.6886594,3.9843364
-26.052063,2.7003975,3.984949
-26.096668,2.7034764,3.976605
-26.165659,2.726614,3.9898038
-26.21569,2.7347991,3.9873328
-26.268095,2.7452772,3.9875245
-26.317774,2.7538395,3.9858713
-26.3629,2.758874,3.9806128
-26.410397,2.7661967,3.9780064
-26.462677,2.77796,3.9804058
-26.51228,2.7877805,3.9809036
-26.587803,2.8208585,4.0069895
-26.626564,2.8219638,3.9984112
-26.627604,2.789198,3.9527855
-26.641054,2.7671921,3.9189363
-26.64368,2.7348728,3.8736997
-26.671953,2.7258983,3.8542414
-26.622175,2.643322,3.7531815
-26.623787,2.6080267,3.7043815
-26.625422,2.5721166,3.6548266
-26.627098,2.53559,3.6045117
-26.617073,2.4868605,3.5404468
-26.629526,2.459571,3.5003405
-26.618782,2.4084256,3.4333491
-26.62636,2.3749335,3.386149
-26.609653,2.3157668,3.3098512
-26.607887,2.2709582,3.2496667
-26.669996,2.2926974,3.2650323
-26.631882,2.2080133,3.1594028
-26.638432,2.169755,3.1064878
-26.639456,2.1246767,3.0457191
-26.637686,2.0755594,2.980236
-26.638788,2.0286126,2.9171476
-26.647705,1.9895334,2.8630323
-26.65482,1.9475641,2.8055382
-26.662169,1.9049699,2.7472672
-26.608707,1.7897098,2.6048026
-26.610521,1.7376842,2.5353236
-26.638378,1.7160053,2.5010276
-26.65112,1.6753824,2.4447203
-26.634876,1.5978234,2.3452969
-26.646612,1.5535953,2.284637
-26.664104,1.5156946,2.2313452
-26.645514,1.4302111,2.1222491
-26.64483,1.3660374,2.037984
-26.6046,1.2475905,1.8897657
-26.634785,1.2210293,1.849505
-26.647066,1.1693733,1.7796736
-26.653938,1.1088848,1.6993546
-26.653149,1.0359969,1.6042838
-26.672146,0.9894459,1.5403204
-26.671293,0.91284275,1.44066
-35.479218,0.751179,1.6030784
-35.500114,0.7891059,1.659894
-35.524387,0.82318544,1.7124124
-35.472527,0.9288554,1.8444805
-35.503784,0.95457864,1.8875461
-35.58506,0.9336133,1.8790579
-35.58339,0.9893651,1.9554596
-35.643944,0.98771214,1.968627
-35.720444,1.1779218,2.2528
-35.747234,1.2045028,2.2971463
-35.46377,1.582751,2.7498817
-35.478,1.6153364,2.7997375
-35.50592,1.6363959,2.8373113
-35.49708,1.6866894,2.905921
-35.512314,1.7171006,2.9533749
-35.53959,1.7376585,2.9904394
-35.53801,1.780457,3.0508857
-35.551105,1.8113234,3.0987482
-35.565727,1.8406286,3.144958
-35.57448,1.8740063,3.195376
-35.57317,1.9144685,3.253068
-35.590393,1.9406269,3.2959213
-35.58171,1.985497,3.3579717
-35.626404,1.9909317,3.3795748
-35.6501,2.0115747,3.4168234
-35.672783,2.0327554,3.4546604
-35.69867,2.0514765,3.4900522
-35.730667,2.0657768,3.5210571
-35.763165,2.0796642,3.551745
-35.801205,2.089692,3.5786867
-35.845604,2.0954149,3.6014905
-35.894283,2.0983481,3.6217136
-35.948048,2.0980394,3.6389513
-36.00404,2.0964708,3.6551895
-36.063026,2.0931754,3.6699944
-36.127274,2.0867312,3.682016
-36.18568,2.0843768,3.6982827
-36.24339,2.0827215,3.7154894
-36.29964,2.0822356,3.7340755
-36.39526,2.0573096,3.7297072
-36.44186,2.063484,3.7552242
-36.549503,2.0322065,3.7457504
-36.601604,2.0355825,3.7692432
-36.682205,2.0218976,3.7771177
-36.804104,1.9839451,3.7629914
-36.881443,1.973351,3.7746792
-36.97225,1.9552524,3.7799149
-37.05549,1.9421237,3.7901525
-37.135777,1.9311697,3.8027925
-37.195633,1.932358,3.8267403
-37.274582,1.9229243,3.8415232
-37.36167,1.909318,3.8530335
-37.44736,1.8969779,3.8661346
-37.517925,1.8934731,3.8874168
-38.965168,1.1352499,3.2548885
-38.994267,1.161484,3.3071465
-39.00911,1.1952496,3.3659158
-39.011173,1.235564,3.4302192
-38.987984,1.2888632,3.5053473
-38.987953,1.3293867,3.5695248
-38.984848,1.3711157,3.6345854
-38.998596,1.4037313,3.6920166
-39.013542,1.4354787,3.7487192
-39.008762,1.4769895,3.8133068
-39.027763,1.5061355,3.8678355
-39.004158,1.5563216,3.9391017
-39.001003,1.5958476,4.001696
-39.006622,1.6307003,4.0605116
-39.09697,1.6241083,4.08723
-39.24467,1.5903163,4.093676
-39.386803,1.5600748,4.103777
-39.596443,1.4987142,4.091461
-39.790478,1.4460535,4.0870333
-40.00423,1.3854499,4.078092
-40.193558,1.3374879,4.0798078
-40.386967,1.2888279,4.082322
-40.631657,1.2181048,4.0705013
-40.837776,1.1662903,4.073684
-41.05682,1.1099727,4.0751905
-41.364693,1.0157585,4.0522933
-41.593254,0.95828104,4.0564847
-41.91024,0.8637934,4.037616
-42.22746,0.77123857,4.0223603
-42.48871,0.7045741,4.026271
-42.81862,0.6104405,4.014523
-43.14512,0.5197995,4.0074596
-17.078516,0.6382575,4.0653195
-17.47507,0.7543924,4.088915
-17.664196,0.7869427,4.060884
-17.943237,0.858176,4.0598125
-18.216988,0.9288759,4.0604033
-18.562786,1.0319588,4.085001
-18.807156,1.0936761,4.083582
-19.01807,1.1423833,4.0748043
-19.19843,1.178983,4.058932
-19.435482,1.2416394,4.0629306
-19.636696,1.2898276,4.0580983
-19.870506,1.353879,4.0662484
-20.072132,1.4048452,4.0663133
-20.242706,1.4428782,4.0580564
-20.44829,1.49807,4.063902
-20.62984,1.5434039,4.063587
-20.798746,1.5839422,4.0607624
-21.046864,1.663002,4.089057
-21.173382,1.6857414,4.074687
-21.31919,1.7184863,4.069053
-21.510397,1.7741668,4.082719
-21.595066,1.7789431,4.05645
-21.741224,1.8144934,4.0557704
-21.883518,1.8490427,4.055174
-21.963375,1.8530946,4.030152
-22.148272,1.9107926,4.050447
-22.240921,1.9225862,4.0331936
-22.384727,1.9612778,4.0393248
-22.504047,1.9881757,4.036226
-22.606533,2.006979,4.0268464
-22.773392,2.0604968,4.0482197
-22.8563,2.070342,4.0323772
-23.004007,2.1155715,4.0481763
-23.10817,2.1381645,4.04476
-23.218426,2.1647549,4.0455008
-23.320248,2.187395,4.043314
-23.412132,2.20513,4.037253
-23.498962,2.220574,4.0296035
-23.60771,2.2489967,4.03432
-23.679747,2.2570982,4.0208945
-23.77911,2.281397,4.0228667
-23.850737,2.2901611,4.010877
-23.964981,2.324428,4.0231934
-24.046936,2.3403335,4.0188003
-24.140951,2.363984,4.0221834
-24.23764,2.3899012,4.028228
-24.304903,2.3985233,4.0181847
-24.392513,2.4200602,4.0209303
-24.472958,2.4377427,4.020389
-24.54934,2.453405,4.0182858
-24.622456,2.4674902,4.015017
-24.693092,2.4804509,4.0110006
-24.77238,2.499436,4.0132847
-24.85355,2.5201945,4.0177236
-24.911644,2.5263677,4.008005
-24.984919,2.54292,4.0089593
-25.062248,2.5626898,4.013507
-25.120487,2.5701153,4.0059414
-25.197216,2.5904846,4.01179
-25.25719,2.5998845,4.006814
-25.320528,2.6119847,4.004876
-25.385048,2.625327,4.004505
-25.436714,2.6299949,3.9954672
-25.500809,2.6438234,3.99615
-25.561878,2.6559095,3.995308
-25.622028,2.6677365,3.9944668
-25.677853,2.6767788,3.9909716
-25.745049,2.6946263,3.9969864
-25.82677,2.7239008,4.0153813
-25.866375,2.721983,4.0010815
-25.923313,2.7334695,4.0011935
-25.974072,2.7405682,3.996862
-26.021389,2.7452874,3.9901905
-26.069908,2.7512097,3.9850006
-26.119595,2.7583447,3.9813118
-26.176868,2.7718902,3.9847622
-26.228119,2.7809744,3.9836097
-26.281729,2.7923393,3.985149
-26.328802,2.798671,3.981409
-26.382004,2.8104277,3.9837976
-26.429998,2.8181705,3.9819918
-26.47042,2.8197465,3.9735746
-26.538364,2.8453174,3.9918275
-26.600359,2.8663802,4.0053787
-26.628767,2.8583598,3.9868622
-26.626152,2.822604,3.9375105
-26.63602,2.797492,3.8999686
-26.64473,2.7358837,3.8120308
-26.655949,2.7106857,3.7743006
-26.64861,2.6675735,3.7163248
-26.627754,2.6107538,3.642715
-26.626537,2.571748,3.5891352
-26.634954,2.5414085,3.5453286
-26.627216,2.4945893,3.482696
-26.619734,2.447103,3.4191804
-26.613071,2.3994997,3.35541
-26.607777,2.3523345,3.292027
-26.602224,2.303953,3.2271347
-26.618217,2.2771127,3.1869707
-26.653595,2.2703059,3.1699567
-26.622395,2.1921859,3.0704517
-26.638998,2.164151,3.0288248
-26.651482,2.1310701,2.9813285
-26.646328,2.0777388,2.910211
-26.644112,2.0265458,2.8414755
-26.642796,1.9752514,2.7725205
-26.648264,1.9306476,2.7113104
-26.640444,1.8695385,2.6306548
-26.614506,1.7855692,2.5229716
-26.633278,1.7531874,2.475865
-26.64932,1.7168102,2.4240398
-26.639528,1.6478238,2.3336296
-26.648872,1.6010361,2.269374
-26.64815,1.540415,2.1886492
-26.678114,1.5176599,2.1528363
-26.635323,1.3998373,2.00387
-26.608686,1.3001745,1.8762498
-26.63966,1.274925,1.8372808
-26.645002,1.2143548,1.7561021
-26.649742,1.1513782,1.6719613
-26.648533,1.0784204,1.5757575
-26.646996,1.0030115,1.4764929
-26.66792,0.95785356,1.413518
-26.65842,0.86704445,1.2955127
-35.49699,0.7874675,1.5579715
-35.502655,0.83992195,1.6316957
-35.528633,0.8721969,1.6825151
-35.44023,1.0111597,1.8536506
-35.491016,1.0183313,1.8759599
-35.499413,1.0644221,1.9420857
-35.544945,1.0760767,1.9696097
-35.657166,1.0278845,1.9304819
-35.716225,1.1318824,2.0911684
-35.728214,1.1721725,2.1509147
-35.78832,1.2205198,2.2348914
-35.693367,1.4421775,2.5233417
-35.456543,1.679343,2.7958298
-35.495956,1.6909561,2.8232622
-35.522167,1.7130005,2.8620424
-35.561817,1.7242804,2.8893166
-35.52997,1.791054,2.976056
-35.551537,1.8156583,3.01757
-35.5406,1.8647327,3.0850935
-35.558495,1.8913226,3.1286569
-35.577328,1.9169021,3.1711588
-35.595078,1.9429936,3.2142062
-35.598694,1.9791367,3.2677784
-35.617615,2.0036962,3.309194
-35.617397,2.041736,3.364624
-35.639633,2.0632846,3.402894
-35.65943,2.0863488,3.4427586
-35.684532,2.1054833,3.478611
-35.712185,2.1226974,3.5125527
-35.74101,2.138991,3.5456262
-35.777504,2.1499836,3.5734053
-35.820354,2.1567075,3.5969987
-35.868206,2.1601815,3.6174912
-35.92187,2.159963,3.6344838
-35.97777,2.1584983,3.650466
-36.03372,2.1572416,3.6668992
-36.09119,2.1552398,3.6828442
-36.153194,2.150606,3.6964626
-36.218296,2.1443207,3.7087545
-36.29106,2.1335824,3.7170267
-36.348854,2.1325195,3.7350068
-36.41354,2.1274722,3.7494183
-36.487507,2.1170979,3.7590437
-36.586266,2.0922074,3.7552252
-36.667652,2.078352,3.7623744
-36.75316,2.0625422,3.7681012
-36.851402,2.0397801,3.7677708
-36.92886,2.0297337,3.7797956
-37.056057,1.991461,3.766121
-37.114307,1.9934599,3.7901764
-37.172535,1.9956794,3.8147101
-37.25386,1.985157,3.827958
-37.332153,1.9767556,3.8435488
-37.4146,1.9664638,3.8578606
-37.495594,1.9573998,3.8737068
-38.970215,1.1944895,3.2236834
-39.00258,1.2189481,3.2744594
-39.00598,1.2586911,3.3386545
-38.985832,1.3104684,3.4131646
-38.982216,1.3530145,3.4794922
-38.99451,1.3868892,3.538288
-39.005478,1.4211655,3.5973911
-39.010944,1.4579551,3.6585636
-39.023403,1.4908915,3.7164516
-38.986717,1.5481474,3.7943878
-39.00225,1.5788298,3.8502069
-39.019028,1.6086793,3.9053464
-39.03113,1.6406,3.96216
-39.045326,1.6712706,4.017953
-39.052246,1.7052057,4.0763164
-39.16402,1.6890895,4.0954666
-39.35419,1.6366732,4.0871873
-39.537296,1.5887792,4.0836425
-39.718437,1.5429509,4.082885
-39.89149,1.501955,4.0869713
-40.08508,1.452676,4.0860577
-40.277546,1.4051018,4.0877132
-40.503,1.3439739,4.08083
-40.723946,1.2862599,4.0779686
-40.95969,1.2234201,4.0730095
-41.227993,1.1478832,4.0608034
-41.478622,1.0816677,4.0569777
-41.765564,1.0014746,4.0453844
-42.035652,0.9302256,4.041913
-42.326218,0.8520329,4.0357823
-42.650803,0.7614589,4.023656
-42.951313,0.68284726,4.0216885
-43.278797,0.5950208,4.0160837
-43.661377,0.48684263,4.00016
-16.423641,0.5410154,4.033902
-16.97205,0.7113404,4.0887184
-17.310162,0.8005557,4.09512
-17.506031,0.8340781,4.0673904
-17.8083,0.91226506,4.0708466
-18.09533,0.9860034,4.0734844
-18.32793,1.0388033,4.063828
-18.624878,1.1200516,4.0755773
-18.93147,1.2072644,4.093637
-19.137838,1.2535205,4.0846887
-19.371,1.3125765,4.0863886
-19.608698,1.3750515,4.092192
-19.809618,1.4228492,4.0887933
-19.96093,1.4498684,4.0712385
-20.111908,1.4775865,4.055199
-20.292969,1.5197403,4.05115
-20.46914,1.560772,4.047425
-20.664642,1.6117609,4.052599
-20.871513,1.6692643,4.064175
-21.107653,1.7418029,4.0890384
-21.275171,1.7835886,4.090812
-21.368753,1.7912571,4.0660596
-21.525993,1.8299317,4.0671554
-21.686073,1.8709788,4.071188
-21.761147,1.8715339,4.0425987
-21.9338,1.920486,4.054943
-22.041199,1.9381621,4.0419583
-22.149174,1.9567332,4.030363
-22.311794,2.0035684,4.043636
-22.414862,2.021121,4.03259
-22.574648,2.0684705,4.0480804
-22.642403,2.069127,4.0235724
-22.801924,2.1181583,4.0421586
-22.917435,2.1450596,4.042003
-23.006517,2.1586022,4.030539
-23.166634,2.2108753,4.0544963
-23.231596,2.2126684,4.0335584
-23.35835,2.2485943,4.0441427
-23.41977,2.249298,4.023048
-23.547247,2.2870975,4.03659
-23.633692,2.302728,4.0302043
-23.689884,2.3017015,4.00867
-23.816795,2.341401,4.02578
-23.877356,2.3436995,4.0081444
-23.9986,2.3816583,4.0247903
-24.053339,2.3813949,4.0054617
-24.151266,2.4069948,4.0113115
-24.257977,2.4385455,4.023443
-24.324429,2.4465432,4.0131974
-24.422665,2.4742985,4.022618
-24.476545,2.475459,4.006377
-24.577065,2.505835,4.019272
-24.666582,2.5300765,4.026591
-24.699783,2.5193236,3.9994144
-24.781328,2.5394576,4.003346
-24.875057,2.5680232,4.0161767
-24.938213,2.5774214,4.0100713
-25.020893,2.6000142,4.017679
-25.093737,2.616704,4.019659
-25.127302,2.6076107,3.9955287
-25.20047,2.625289,3.9991007
-25.294012,2.6573873,4.0179367
-25.32951,2.6503184,3.996542
-25.38274,2.6556206,3.9881768
-25.446373,2.6685085,3.9879818
-25.509762,2.6816514,3.9883404
-25.586763,2.7049642,3.9997149
-25.640608,2.712181,3.9943962
-25.69978,2.7235975,3.993771
-25.778458,2.7497787,4.0091586
-25.833675,2.7591968,4.006957
-25.904154,2.780432,4.0176888
-25.935524,2.772594,3.9973845
-25.969654,2.7668786,3.9794755
-26.024935,2.7775788,3.9795027
-26.08131,2.7895143,3.9811058
-26.132902,2.7980766,3.9792576
-26.191414,2.812496,3.9840384
-26.236828,2.8168173,3.9779587
-26.29614,2.8326976,3.9848042
-26.351986,2.8462129,3.9892817
-26.403801,2.8568172,3.990756
-26.44357,2.8576825,3.9815989
-26.48082,2.8565843,3.9703894
-26.566536,2.8971655,4.0059633
-26.60279,2.8959055,3.9949555
-26.613052,2.8720078,3.9585896
-26.632706,2.8560543,3.9311714
-26.628222,2.8183084,3.879125
-26.711134,2.858936,3.9159026
-26.629965,2.7505689,3.7835636
-26.638378,2.7227724,3.7426062
-26.662804,2.7094789,3.7181978
-26.61892,2.631466,3.6196723
-26.618301,2.5932043,3.5665069
-26.626198,2.5624611,3.5219178
-26.625713,2.5229752,3.4672017
-26.623707,2.4812264,3.4097877
-26.622967,2.439936,3.3528132
-26.588823,2.3640163,3.2555156
-26.595734,2.3285203,3.2050357
-26.61336,2.3034472,3.1666737
-26.647734,2.2955062,3.1483521
-26.669178,2.2738113,3.1140037
-26.63158,2.1883006,3.0047398
-26.62211,2.1314485,2.9289217
-26.648588,2.1129456,2.8981829
-26.631256,2.0452917,2.8094282
-26.629025,1.9931495,2.7388558
-26.642448,1.9577525,2.6880407
-26.667662,1.9352775,2.6525517
-26.620192,1.8270934,2.5150924
-26.635542,1.7909355,2.4631782
-26.64259,1.7439947,2.398367
-26.640705,1.6850691,2.3191576
-26.635738,1.6209149,2.2335763
-26.640104,1.5668967,2.1600413
-26.659813,1.5310795,2.1083136
-26.623772,1.4225614,1.969027
-26.610325,1.3407121,1.8616319
-26.633461,1.3052363,1.8100929
-26.65722,1.269769,1.7585721
-26.647379,1.1875863,1.650454
-26.64279,1.1104436,1.5482984
-26.642899,1.0377967,1.4514766
-26.65652,0.9824376,1.3755856
-26.66112,0.9125037,1.2818866
-26.701794,0.89370275,1.2505012
-35.50277,0.767632,1.4488745
-35.4874,0.84105134,1.5473709
-35.49579,0.89049244,1.618155
-35.54177,0.9037497,1.6474514
-35.442932,1.0514877,1.8303947
-35.47625,1.0747931,1.8709936
-35.512135,1.0954843,1.9086843
-35.53228,1.1301043,1.9622283
-35.574562,1.1445222,1.992938
-35.642525,1.1362634,1.9982038
-35.685795,1.1499047,2.0283318
-35.776524,1.2234397,2.1557693
-35.50531,1.6790102,2.734702
-35.49971,1.7267301,2.801754
-35.503757,1.7661312,2.8595963
-35.543285,1.7773838,2.8867536
-35.52976,1.8294458,2.9582534
-35.539997,1.8625836,3.0091376
-35.55506,1.89164,3.055584
-35.550785,1.9347839,3.1171284
-35.57159,1.9587443,3.1580434
-35.586555,1.9867232,3.20326
-35.60314,2.013197,3.2468653
-35.617928,2.0406604,3.2915154
-35.616287,2.0794945,3.3481283
-35.628014,2.1083744,3.3941932
-35.65547,2.125932,3.4283996
-35.681248,2.1445258,3.463748
-35.703896,2.16512,3.5012264
-35.73339,2.1808903,3.5337653
-35.769848,2.1918921,3.5614805
-35.8076,2.202036,3.58844
-35.856857,2.2046108,3.6078157
-35.903904,2.208794,3.6290245
-35.954582,2.2107582,3.6481776
-36.015614,2.2062597,3.661045
-36.075996,2.2024686,3.6748943
-36.13572,2.1993806,3.6897159
-36.19927,2.1941772,3.7027097
-36.2667,2.186888,3.7139392
-36.33579,2.1789372,3.7248383
-36.408836,2.1689496,3.734079
-36.465973,2.1689396,3.7533674
-36.565475,2.1439016,3.748736
-36.655334,2.1252387,3.7507515
-36.723747,2.1197002,3.765778
-36.824276,2.0958624,3.7637486
-36.912643,2.0796802,3.7694888
-36.998917,2.0652206,3.7773113
-37.080685,2.0538092,3.7884302
-37.150723,2.0494132,3.8064857
-37.208866,2.0519433,3.8312802
-37.292633,2.0405884,3.843626
-37.383827,2.0256386,3.8531423
-37.45829,2.02025,3.8718038
-37.553127,2.0043027,3.8813648
-38.986168,1.2786117,3.2579956
-38.977203,1.324606,3.327927
-38.988914,1.3593271,3.3877602
-38.99681,1.3957231,3.449019
-39.004173,1.4320717,3.5101728
-39.011,1.4683695,3.571218
-39.018135,1.5041969,3.631795
-38.9854,1.5596039,3.7088923
-38.9989,1.5914912,3.7658925
-39.01615,1.6212986,3.8211412
-39.0355,1.6498795,3.8753853
-39.06038,1.675616,3.9273252
-39.045696,1.7201133,3.9945598
-39.02781,1.7656693,4.062439
-39.125027,1.7567332,4.086648
-39.31698,1.7041996,4.077021
-39.43887,1.6852124,4.094887
-39.660564,1.6212649,4.078719
-39.837082,1.5792384,4.080838
-40.028084,1.5317831,4.080014
-40.21183,1.4887347,4.08378
-40.411022,1.4399793,4.084551
-40.61434,1.3906326,4.086247
-40.879105,1.3158774,4.070921
-41.12624,1.2503862,4.064096
-41.39103,1.178911,4.054777
-41.664696,1.1053398,4.0458817
-41.97134,1.0196626,4.030598
-42.220924,0.959589,4.0349674
-42.50526,0.886713,4.032543
-42.861412,0.7862828,4.0139623
-43.167404,0.70834804,4.012708
-43.501366,0.6210551,4.0077157
-43.851696,0.52928853,4.0024014
-16.169645,0.62370086,4.104482
-16.514217,0.7081659,4.1031103
-16.740788,0.7487531,4.0759954
-17.043865,0.8206413,4.0710235
-17.376816,0.9061711,4.0773387
-17.681732,0.982522,4.0798907
-17.951595,1.0465822,4.0762353
-18.23772,1.1188774,4.0802145
-18.531,1.1958652,4.0895257
-18.787674,1.2595022,4.091408
-18.983997,1.2994747,4.0780215
-19.199333,1.3486035,4.072654
-19.395487,1.3908575,4.0636764
-19.619308,1.446152,4.065759
-19.844166,1.503278,4.070738
-20.020084,1.5404143,4.0619607
-20.265396,1.6091969,4.0787654
-20.426174,1.6419601,4.0691133
-20.595196,1.6793692,4.0641546
-20.768902,1.7199209,4.062783
-20.999851,1.787698,4.0844
-21.130962,1.8109977,4.071443
-21.301172,1.8532305,4.0747914
-21.482746,1.9018726,4.084506
-21.597214,1.9199371,4.069881
-21.724152,1.9445921,4.061476
-21.825363,1.9576025,4.0439615
-21.947449,1.9812961,4.036162
-22.104439,2.0228322,4.0444546
-22.208115,2.0390258,4.0316916
-22.36071,2.0802205,4.0413966
-22.49442,2.1129255,4.0445275
-22.579655,2.1218667,4.0273347
-22.724892,2.1620052,4.038515
-22.807957,2.1709774,4.022466
-22.970984,2.2221088,4.045109
-23.038769,2.2242744,4.023984
-23.211111,2.2822852,4.0545487
-23.282402,2.2874317,4.0371976
-23.40748,2.3220115,4.0476227
-23.466335,2.321327,4.0256963
-23.597746,2.3608248,4.0419436
-23.639597,2.3515215,4.012628
-23.732162,2.3707209,4.0106835
-23.834635,2.3961096,4.0151663
-23.915531,2.4098773,4.008976
-24.034397,2.4459972,4.024892
-24.095997,2.4497185,4.009829
-24.217003,2.4885776,4.0295324
-24.260466,2.48247,4.0055313
-24.355274,2.507141,4.012223
-24.464128,2.5409489,4.028504
-24.520874,2.5438924,4.014446
-24.596397,2.5586302,4.0125103
-24.673153,2.5746136,4.0122004
-24.73693,2.5829835,4.0045276
-24.80054,2.5916085,3.9974074
-24.8987,2.6226091,4.0135207
-24.957375,2.6289973,4.0047774
-25.0298,2.644629,4.005857
-25.10339,2.6615133,4.008577
-25.160044,2.667707,4.000488
-25.234533,2.6861205,4.0054464
-25.31226,2.7072544,4.0136147
-25.35264,2.7035642,3.9959311
-25.413548,2.7140903,3.9934711
-25.488997,2.7350922,4.002428
-25.5466,2.7441819,3.9990053
-25.604713,2.7539878,3.9965973
-25.658487,2.7610648,3.9915009
-25.723768,2.776753,3.9959302
-25.807148,2.8061028,4.015456
-25.864933,2.8173857,4.0157127
-25.903656,2.8149042,4.0011873
-25.939047,2.8100436,3.9841948
-26.005709,2.8289423,3.9934335
-26.06937,2.8460937,4.001033
-26.10649,2.8432398,3.9867773
-26.163153,2.855753,3.9897013
-26.212456,2.8628778,3.9868603
-26.262888,2.871209,3.9855585
-26.315691,2.8817818,3.9869647
-26.363214,2.8884363,3.98418
-26.409962,2.8947494,3.981192
-26.459684,2.903822,3.9814978
-26.51417,2.9172373,3.9869156
-26.569,2.9313831,3.99338
-26.624157,2.9462636,4.000899
-26.631205,2.9199343,3.9615636
-26.619476,2.8767428,3.9028826
-26.615643,2.8397512,3.8511887
-26.684555,2.8672032,3.8735924
-26.612226,2.767623,3.749669
-26.626568,2.7452688,3.714651
-26.62744,2.710112,3.6647825
-26.651793,2.6962833,3.6396403
-26.623062,2.6320822,3.5558472
-26.621887,2.5929377,3.5010986
-26.626408,2.5585637,3.4518533
-26.624342,2.5171058,3.39424
-26.613146,2.4658,3.324957
-26.585495,2.3969638,3.2348795
-26.59132,2.3605998,3.1829329
-26.611092,2.3378396,3.1470327
-26.629663,2.3134537,3.1092215
-26.654919,2.295666,3.0792618
-26.62614,2.2201366,2.9805903
-26.612555,2.159269,2.8991823
-26.623388,2.1236808,2.8478413
-26.629322,2.081962,2.7891254
-26.626055,2.029072,2.7169466
-26.62324,1.975517,2.6438637
-26.634035,1.9363649,2.5880237
-26.6643,1.9189878,2.5584154
-26.641989,1.8394482,2.4537382
-26.628658,1.7686877,2.3594894
-26.646425,1.7337923,2.3085732
-26.632107,1.6588326,2.208984
-26.63782,1.6068773,2.1372185
-26.650768,1.5627809,2.0749612
-26.656055,1.5078611,1.9994574
-26.640371,1.4244242,1.8890195
-26.635332,1.3527691,1.7928305
-26.674034,1.337512,1.7656665
-26.635532,1.2176447,1.6101313
-26.648975,1.1656804,1.5378075
-26.64934,1.0941463,1.4413438
-26.66811,1.0466635,1.3744326
-26.656816,0.95478034,1.2526741
-26.703077,0.94413185,1.2312012
-35.515106,0.74876595,1.3267055
-35.48973,0.83262515,1.4385967
-35.493935,0.8866894,1.5154738
-35.481262,0.955652,1.6095915
-35.492092,1.0014608,1.6766376
-35.426838,1.1164575,1.8237638
-35.475197,1.1258247,1.8483777
-35.5199,1.1385057,1.8769484
-35.486073,1.2210231,1.9859295
-35.55072,1.2153051,1.9934359
-35.59562,1.2271383,2.0212436
-35.618473,1.2579398,2.0708137
-35.795643,1.3062189,2.1846356
-35.842503,1.3161402,2.210987
-35.873344,1.339045,2.2520418
-35.484863,1.7409432,2.7312813
-35.477123,1.7898214,2.8001418
-35.49535,1.8177633,2.845663
-35.52562,1.8360972,2.8805737
-35.511913,1.8877542,2.9522305
-35.53533,1.9106193,2.9921227
-35.54565,1.9430232,3.042478
-35.552067,1.9778836,3.0954666
-35.561314,2.010201,3.1456337
-35.583714,2.0325706,3.1849914
-35.57756,2.075203,3.2462268
-35.575558,2.1142743,3.3035045
-35.577793,2.1498184,3.356903
-35.629196,2.1506276,3.3731809
-35.653835,2.1701,3.409484
-35.673218,2.1930075,3.4494681
-35.697235,2.2125523,3.4859276
-35.727406,2.2278101,3.5179338
-35.758793,2.242184,3.5490975
-35.795765,2.25282,3.5764623
-35.83332,2.263091,3.6035714
-35.88466,2.2644792,3.621644
-35.934525,2.266995,3.6410847
-35.9829,2.2706277,3.6618714
-36.061768,2.2552526,3.6635003
-36.12819,2.2481241,3.6738644
-36.181965,2.2491448,3.6927533
-36.244823,2.2448204,3.7065072
-36.31917,2.2338405,3.7139015
-36.382267,2.230037,3.7287846
-36.479977,2.2059553,3.723908
-36.53107,2.2099998,3.747201
-36.60768,2.1993089,3.7562966
-36.69693,2.1817322,3.759069
-36.777103,2.1699147,3.7678738
-36.86612,2.1535244,3.7726822
-36.954628,2.1379592,3.7787395
-37.056866,2.1152565,3.7784677
-37.12526,2.1119235,3.7970614
-37.197716,2.1066747,3.8141904
-37.263855,2.1052084,3.8352175
-37.350174,2.0931587,3.8467464
-37.4197,2.0905426,3.867433
-37.521782,2.0710206,3.8729792
-38.971214,1.3459754,3.2369394
-38.985073,1.3797526,3.2961888
-39.001724,1.4118171,3.3538747
-39.007164,1.449353,3.4164324
-39.00459,1.4906008,3.4821963
-38.992256,1.5363348,3.5517688
-38.98092,1.5810881,3.6202927
-39.00244,1.6091897,3.6742287
-39.016823,1.6406019,3.731039
-39.03412,1.6703718,3.7864413
-39.046745,1.7021799,3.8435726
-39.04786,1.7392244,3.9050646
-39.023697,1.7878487,3.9760633
-39.02108,1.8258784,4.0380764
-39.05655,1.8459313,4.0853205
-39.205425,1.8139174,4.0906787
-39.39449,1.7645142,4.0830803
-39.542614,1.7347679,4.092281
-39.759834,1.6750102,4.078907
-39.97175,1.618999,4.0698895
-40.11966,1.5924246,4.0848913
-40.319683,1.5440056,4.0842676
-40.538815,1.4885676,4.079721
-40.762188,1.4326708,4.076332
-41.014595,1.3658442,4.0664587
-41.245655,1.309557,4.0659885
-41.59402,1.205847,4.0331645
-41.82944,1.1509795,4.037386
-42.06552,1.0972431,4.0440607
-42.37402,1.0155528,4.0331597
-42.671803,0.9400661,4.028716
-43.021877,0.8455684,4.013715
-43.377583,0.75100684,4.0012655
-43.680916,0.6790979,4.006192
-44.05864,0.5801544,3.9960752
-44.428375,0.4865663,3.9921923
-15.860217,0.64009047,4.076737
-16.286388,0.75145626,4.092306
-16.58376,0.8165095,4.0808377
-16.93127,0.90250516,4.0854254
-17.2542,0.98108935,4.0875716
-17.527372,1.0421965,4.0801253
-17.816954,1.1113734,4.0802183
-18.129082,1.1912506,4.089884
-18.37023,1.2445865,4.0828843
-18.65636,1.3175473,4.091706
-18.916576,1.3816955,4.0960937
-19.170633,1.4449003,4.101582
-19.35819,1.4820287,4.0893164
-19.600151,1.5430586,4.096377
-19.808647,1.591433,4.095392
-19.989227,1.6291523,4.0875516
-20.145615,1.6575146,4.0735736
-20.257889,1.6675894,4.046152
-20.468578,1.7213883,4.054307
-20.66896,1.7719595,4.0612297
-20.892033,1.8339314,4.078719
-21.106453,1.8934693,4.095649
-21.281273,1.9364178,4.100194
-21.380814,1.9459423,4.077868
-21.506731,1.9681742,4.066847
-21.657043,2.0025203,4.0668917
-21.766073,2.0183535,4.0519543
-21.917194,2.054791,4.0554852
-22.031494,2.074533,4.0453553
-22.150536,2.0972278,4.038481
-22.324503,2.1474462,4.0566926
-22.393398,2.1471024,4.0307913
-22.558723,2.1949682,4.048619
-22.641315,2.2024922,4.030865
-22.777405,2.2374997,4.0386333
-22.898968,2.2659998,4.0412016
-22.993065,2.2811356,4.03209
-23.163546,2.3365142,4.060966
-23.20729,2.3266878,4.0297027
-23.348206,2.3683658,4.0472164
-23.422415,2.3754323,4.032665
-23.510124,2.3901536,4.025798
-23.619934,2.4174075,4.0314307
-23.682384,2.4194179,4.013254
-23.82314,2.4650602,4.03779
-23.85282,2.449718,4.0034776
-23.990974,2.4954886,4.0293403
-24.045595,2.494802,4.0100327
-24.143726,2.5193162,4.016013
-24.256134,2.5527782,4.031437
-24.310219,2.5529761,4.0140476
-24.418678,2.5854888,4.0295095
-24.467861,2.5835137,4.010551
-24.54057,2.59586,4.0063977
-24.629658,2.6185858,4.013219
-24.681528,2.619156,3.9976835
-24.764004,2.6388614,4.0021486
-24.881065,2.6807203,4.030013
-24.903461,2.6639552,3.997332
-24.982025,2.682777,4.0019784
-25.08878,2.720244,4.0266094
-25.123545,2.711987,4.003466
-25.18882,2.723717,4.0016437
-25.286253,2.7570925,4.0231695
-25.315092,2.7455828,3.9971662
-25.386795,2.7628803,4.0021772
-25.444729,2.7713435,3.9979882
-25.505297,2.7819629,3.9963803
-25.560055,2.7889483,3.991086
-25.611881,2.7942004,3.9841294
-25.699509,2.825016,4.0053453
-25.770088,2.8444595,4.0144835
-25.832792,2.85879,4.018301
-25.880976,2.8630166,4.011218
-25.92703,2.8659372,4.002875
-25.969654,2.866541,3.9921303
-26.01423,2.8687892,3.983378
-26.076572,2.884696,3.9900875
-26.12679,2.8918216,3.987194
-26.169678,2.893599,3.9784694
-26.22027,2.9015868,3.9769201
-26.273258,2.9117908,3.9780803
-26.32667,2.9227052,3.980256
-26.37542,2.9302545,3.978804
-26.419598,2.9344025,3.973647
-26.464916,2.9397335,3.9700074
-26.533669,2.964791,3.9892204
-26.589014,2.9792867,3.9965413
-26.630632,2.9826016,3.9911501
-26.630342,2.950213,3.94451
-26.637823,2.9240072,3.9049869
-26.726883,2.968848,3.948226
-26.66536,2.8814623,3.8373752
-26.61068,2.7984238,3.7312331
-26.616873,2.768806,3.6874557
-26.624151,2.7396746,3.6442113
-26.639374,2.7173982,3.609014
-26.646454,2.6871505,3.564396
-26.625349,2.6296773,3.4874783
-26.6287,2.594468,3.43682
-26.628242,2.554911,3.3809276
-26.599976,2.487331,3.2915297
-26.589762,2.436227,3.2216086
-26.596064,2.4006531,3.1701589
-26.613651,2.3758593,3.1316004
-26.626913,2.3461845,3.0871773
-26.640163,2.3159494,3.0420623
-26.659641,2.2916975,3.0041552
-26.620028,2.2040198,2.889526
-26.634832,2.1730652,2.8433757
-26.629063,2.1190186,2.7691703
-26.632727,2.0742161,2.7060976
-26.633745,2.0254757,2.638156
-26.611275,1.9489825,2.5362468
-26.652878,1.9443734,2.5220604
-26.633486,1.8687401,2.4209676
-26.648026,1.8313451,2.3666177
-26.64504,1.7721565,2.2854557
-26.640368,1.709497,2.1999135
-26.629547,1.6377437,2.1030407
-26.631758,1.5804384,2.0238662
-26.600733,1.4796977,1.890872
-26.673191,1.5089853,1.9187346
-26.643372,1.4062884,1.7830701
-26.669111,1.3741157,1.7348027
-26.635244,1.2613978,1.5863223
-26.654108,1.2171788,1.5229435
-26.646105,1.1347849,1.41191
-26.666939,1.0904644,1.3483086
-26.67571,1.027842,1.2617984
-26.701107,0.9874785,1.2031107
-35.49166,0.7660799,1.2461371
-35.48834,0.82910347,1.3345652
-35.468216,0.9069302,1.4404144
-35.477818,0.9552555,1.5111241
-35.490578,0.9997935,1.5772929
-35.48014,1.0649235,1.6676669
-35.4152,1.1784453,1.8147459
-35.46755,1.1841366,1.8349471
-35.48211,1.2235756,1.8947759
-35.497185,1.2619307,1.9533033
-35.534985,1.2799017,1.9880733
-35.570087,1.3000376,2.025444
-35.58966,1.3332121,2.07798
-35.66608,1.3670554,2.1455932
-35.807507,1.3952463,2.2219138
-35.392868,1.8173106,2.7313633
-36.30526,1.1444452,1.9836884
-35.426044,1.8757031,2.8254733
-35.490982,1.8671997,2.8300972
-35.507378,1.8959947,2.8768072
-35.517334,1.9292729,2.9285202
-35.53142,1.9590278,2.976262
-35.557114,1.9798417,3.014052
-35.546654,2.0268748,3.080913
-35.562626,2.0540767,3.12574
-35.585007,2.0763671,3.1651602
-35.58293,2.1157882,3.2233777
-35.57882,2.1560845,3.2824464
-35.60822,2.1725037,3.3154254
-35.631058,2.1933386,3.353261
-35.65075,2.2161324,3.3932486
-35.67151,2.2379851,3.4322429
-35.69478,2.2579494,3.4692397
-35.723488,2.274143,3.5022535
-35.755566,2.2880325,3.5328927
-35.784534,2.3038945,3.565712
-35.820568,2.3151212,3.5937219
-35.87259,2.3161454,3.6111422
-35.92536,2.3168912,3.6284823
-35.9737,2.3206189,3.6491423
-36.028717,2.3203497,3.6658545
-36.086765,2.3184414,3.6811094
-36.152405,2.312165,3.6921325
-36.21364,2.3088899,3.70652
-36.27419,2.3063068,3.7218843
-36.353924,2.2926297,3.7262964
-36.404713,2.2964296,3.7486873
-36.503326,2.272564,3.743588
-36.577534,2.263439,3.7536764
-36.65503,2.2528372,3.7626624
-36.742897,2.2367964,3.766665
-36.831833,2.2206888,3.77105
-36.930523,2.1996918,3.771123
-37.028778,2.179563,3.7725525
-37.09869,2.175525,3.7900028
-37.172684,2.169604,3.8059916
-37.233128,2.1713128,3.8296127
-37.309704,2.1646776,3.8456244
-37.393696,2.1545186,3.8587132
-37.466465,2.1506608,3.8781261
-37.558105,2.1373808,3.8891644
-38.99194,1.4365058,3.266819
-39.004463,1.4705701,3.3265252
-39.007385,1.5091884,3.3903399
-38.979855,1.5626428,3.4674544
-38.984016,1.5997982,3.5296698
-39.001003,1.6303301,3.5859103
-39.020897,1.6592338,3.6407166
-39.031944,1.6922112,3.6991153
-39.032364,1.7300031,3.7616625
-39.027138,1.770123,3.8261123
-39.01877,1.8113315,3.8913507
-39.01919,1.8480518,3.9526224
-39.028503,1.8803544,4.0100813
-39.023586,1.918907,4.0727057
-39.096607,1.9218457,4.105807
-39.284664,1.8734782,4.097374
-39.455162,1.834106,4.0974374
-39.656685,1.7821116,4.0884776
-39.80214,1.7558646,4.101276
-40.02241,1.6980696,4.0902224
-40.195126,1.6620572,4.0975704
-40.40445,1.611501,4.0948734
-40.631226,1.5548718,4.0889673
-40.879124,1.490823,4.079029
-41.139404,1.4231923,4.0681376
-41.429966,1.3447633,4.0511293
-41.68488,1.2826407,4.0479875
-41.979992,1.2058725,4.0361533
-42.21406,1.1552832,4.044915
-42.55052,1.0655642,4.0280604
-42.864594,0.98669744,4.0211096
-43.17417,0.9114754,4.0189157
-43.571754,0.80423546,3.9976163
-43.895096,0.7277529,3.9995036
-44.293163,0.6249397,3.986754
-44.710686,0.517246,3.9739037
-15.133158,0.6173806,4.1367645
-15.418709,0.6698756,4.110482
-15.668813,0.7110839,4.079087
-16.853317,1.005002,4.110093
-17.028656,1.0250392,4.073043
-17.318157,1.0893874,4.0678725
-17.635853,1.16626,4.0735574
-17.945372,1.2418852,4.0806117
-18.144043,1.2760584,4.0599446
-18.55075,1.3934047,4.101417
-18.769535,1.4385538,4.092322
-19.001152,1.4901342,4.0895276
-19.209816,1.533792,4.082293
-19.42502,1.5813522,4.079445
-19.633389,1.6273787,4.076836
-19.857048,1.681025,4.0815787
-20.048252,1.7224057,4.078068
-20.210775,1.7527647,4.0669622
-20.429817,1.808255,4.0772314
-20.52844,1.8131139,4.047519
-20.752361,1.8730466,4.0638533
-20.927692,1.9130588,4.0650177
-21.115423,1.9596543,4.0728135
-21.301609,2.0067525,4.082208
-21.443275,2.034925,4.0765514
-21.54255,2.044613,4.0557814
-21.716797,2.0892992,4.0660605
-21.803596,2.094521,4.0427384
-21.919134,2.113616,4.032175
-22.109558,2.1687682,4.054447
-22.178764,2.1674128,4.0270543
-22.346104,2.2135644,4.0430574
-22.44337,2.22682,4.030023
-22.567057,2.2535555,4.029912
-22.686995,2.279212,4.029498
-22.789993,2.2971668,4.0225763
-22.9396,2.3391924,4.0388036
-23.018858,2.346517,4.023099
-23.191862,2.4023051,4.0538826
-23.273712,2.41222,4.0417557
-23.375626,2.4330509,4.040559
-23.43606,2.4326692,4.019353
-23.579983,2.4769168,4.041928
-23.625628,2.4695046,4.014648
-23.73346,2.4958692,4.0208654
-23.82895,2.51622,4.021685
-23.904356,2.526114,4.012568
-24.013351,2.5551155,4.0229745
-24.068668,2.554748,4.004347
-24.163662,2.5770879,4.008969
-24.266777,2.6047168,4.0194554
-24.333937,2.612331,4.009982
-24.44468,2.645699,4.0273085
-24.492983,2.6431952,4.008125
-24.564093,2.6543975,4.003374
-24.65313,2.676763,4.010599
-24.713924,2.682685,4.001024
-24.797039,2.7025514,4.006397
-24.883509,2.7250667,4.014966
-24.943642,2.7318335,4.007222
-25.007307,2.7411513,4.002461
-25.094965,2.7660499,4.0146694
-25.154467,2.7736096,4.008644
-25.210182,2.7790635,4.0006003
-25.309736,2.8134022,4.024107
-25.347744,2.808076,4.004916
-25.390087,2.805717,3.9891028
-25.482738,2.837265,4.0106335
-25.529024,2.8381934,3.9988909
-25.586462,2.8469548,3.9959807
-25.644407,2.8564224,3.9940915
-25.691776,2.8588762,3.9846382
-25.800945,2.905105,4.024245
-25.849138,2.9090364,4.0169744
-25.900621,2.9155855,4.0128326
-25.945883,2.917922,4.004143
-25.99107,2.9204216,3.9958081
-26.040836,2.926536,3.9917436
-26.09443,2.9358053,3.9914622
-26.141253,2.9403148,3.9859557
-26.195791,2.9509735,3.987669
-26.248808,2.960843,3.9886897
-26.303545,2.97242,3.9918828
-26.349728,2.9776664,3.9879742
-26.402128,2.9881287,3.9902804
-26.451157,2.9962587,3.9900765
-26.491245,2.997458,3.9819777
-26.56977,3.0303948,4.0111055
-26.610075,3.032477,4.0044107
-26.629517,3.0172596,3.9775317
-26.64192,2.9959006,3.943449
-26.62879,2.9523506,3.8831582
-26.710814,2.9904308,3.919362
-26.659945,2.9131136,3.8189735
-26.615168,2.8396308,3.7228227
-26.623022,2.8117893,3.6807995
-26.620945,2.7744906,3.6274395
-26.62698,2.7439325,3.5820723
-26.637522,2.7170162,3.5410347
-26.646275,2.6879656,3.497408
-26.627037,2.6318836,3.4211545
-26.620989,2.5873044,3.358632
-26.595428,2.5229213,3.2720222
-26.591702,2.4786067,3.2095652
