x,y,z
-27.22243,2.637236,4.034576
-27.2656,2.6476572,4.036706
-27.314747,2.6654081,4.0465436
-27.361038,2.6803422,4.0536847
-27.392464,2.6780179,4.043187
-27.429893,2.6830106,4.0403695
-27.462292,2.68209,4.031553
-27.516184,2.7078733,4.0506206
-27.551258,2.710836,4.04613
-27.590572,2.7193727,4.0475855
-27.61979,2.7152643,4.0359507
-27.65234,2.7155032,4.0289645
-27.696445,2.73111,4.0382466
-27.741646,2.748709,4.049801
-27.777027,2.7535925,4.04811
-27.80739,2.7518294,4.039513
-27.844845,2.7600007,4.04154
-27.880835,2.7664444,4.0418687
-27.915405,2.7711496,4.040474
-27.963104,2.795146,4.059761
-27.996479,2.79886,4.057581
-28.022705,2.7921185,4.044329
-28.050262,2.7873087,4.033218
-28.081944,2.7888021,4.028952
-28.119986,2.8003745,4.035626
-28.16334,2.8208246,4.051998
-28.197376,2.827025,4.053163
-28.22707,2.8264322,4.047103
-28.255245,2.8234098,4.0385036
-28.286446,2.8254957,4.0355234
-28.316494,2.8257823,4.030687
-28.34616,2.8255222,4.025348
-28.38902,2.8487267,4.0456448
-28.419523,2.850564,4.0428085
-28.445484,2.8442507,4.0311656
-28.473927,2.8424435,4.024519
-28.50406,2.843891,4.0215178
-28.536463,2.8498774,4.0235834
-28.568748,2.8559608,4.025859
-28.606329,2.8729858,4.040262
-28.635157,2.8728867,4.0359535
-28.66336,2.8715866,4.030407
-28.691277,2.869722,4.0243177
-28.720396,2.8704958,4.021222
-28.752686,2.8784113,4.026105
-28.785679,2.888351,4.033332
-28.817932,2.8971043,4.0393486
-28.845917,2.8962917,4.0348587
-28.871763,2.890396,4.0248046
-28.897964,2.885209,4.015605
-28.926556,2.8859034,4.0130167
-28.956882,2.891202,4.015638
-28.994953,2.917305,4.0415382
-29.022495,2.916315,4.037345
-29.050047,2.9153981,4.033311
-29.076237,2.910658,4.0250797
-29.103611,2.909233,4.0206256
-29.130787,2.907229,4.0155993
-29.160099,2.9118052,4.018017
-29.19117,2.9223247,4.0271835
-29.222445,2.9342394,4.0380087
-29.251566,2.9397202,4.041707
-29.278326,2.9374456,4.0367756
-29.302933,2.9273987,4.023177
-29.32859,2.920679,4.013382
-29.35624,2.9212203,4.0118275
-29.38519,2.9270725,4.0163307
-29.41403,2.9330044,4.0210066
-29.445211,2.9495046,4.037683
-29.472555,2.9503527,4.036792
-29.499594,2.9499586,4.0345736
-29.524597,2.939784,4.021381
-29.550686,2.934269,4.013516
-29.578108,2.9353929,4.0132246
-29.606333,2.9411922,4.0182962
-29.634789,2.9490418,4.0257654
-29.662779,2.954994,4.0311666
-29.689854,2.955752,4.0307636
-29.715012,2.943404,4.015588
-29.74279,2.9489112,4.020707
-29.769468,2.946581,4.017018
-29.79626,2.944978,4.0142245
-29.823866,2.9507,4.01981
-29.85189,2.9617734,4.031541
-29.878939,2.9643416,4.033699
-29.905615,2.9630194,4.031514
-29.931784,2.954502,4.0212326
-29.958523,2.9526548,4.018593
-29.985365,2.9521976,4.0176005
-30.01209,2.9491668,4.013757
-30.038994,2.9495072,4.013814
-30.066187,2.9604888,4.0260277
-30.093029,2.963612,4.0293875
-30.119719,2.9575527,4.0223894
-30.146513,2.9502404,4.014039
-30.173428,2.9443192,4.0073395
-30.200415,2.9404495,4.0030417
-30.227453,2.9373102,3.9996457
-30.25412,2.946793,4.0106573
-30.280592,2.9570045,4.022565
-30.307257,2.9600165,4.026367
-30.33403,2.9604552,4.027318
-30.360935,2.9589815,4.02617
-30.387608,2.9608784,4.0289183
-30.414768,2.9569032,4.025074
-30.442064,2.9523382,4.0206337
-30.468956,2.9524636,4.021588
-30.49615,2.9500203,4.019701
-30.522982,2.9509444,4.021704
-30.549627,2.9532557,4.025351
-30.577162,2.9490461,4.021681
-30.603096,2.9561057,4.0308485
-30.63079,2.9513793,4.026739
-30.654707,2.96976,4.0488567
-30.682837,2.9625397,4.0420694
-30.70902,2.9665732,4.048087
-30.739487,2.9483283,4.028992
-30.768541,2.9387112,4.0197363
-30.796097,2.9370525,4.0195513
-30.822813,2.9394035,4.023966
-30.853424,2.9247727,4.0092983
-30.884926,2.90761,3.991867
-30.913157,2.9049482,3.990872
-30.941607,2.9017086,3.9893045
-30.969421,2.9011612,3.9908462
-30.997433,2.900034,3.9918122
-31.024727,2.9015932,3.9958758
-31.054108,2.8960438,3.9920292
-31.083197,2.8918798,3.9898229
-31.111351,2.8910549,3.9914446
-31.139734,2.8896537,3.9924994
-31.167936,2.888979,3.9944463
-31.196598,2.8870792,3.9951024
-31.224394,2.8878558,3.9988322
-31.254272,2.882865,3.9961972
-31.284958,2.8760142,3.9915743
-31.31504,2.871194,3.9893098
-31.343723,2.8703408,3.9915528
-31.370138,2.8753824,4.0004377
-31.389187,2.8985696,4.029566
-31.425653,2.8785675,4.010755
-31.452158,2.8831697,4.019367
-19.953875,0.7637105,4.1251664
-20.188871,0.8420296,4.1358633
-20.388958,0.90382576,4.1374774
-20.576466,0.9603605,4.1370425
-20.671274,0.9692137,4.106097
-20.851862,1.0241385,4.106853
-21.037668,1.0830586,4.11159
-21.249508,1.1573164,4.128189
-21.390467,1.1944315,4.1204147
-21.510231,1.2207842,4.106018
-21.689232,1.2806787,4.116211
-21.823809,1.3170042,4.110735
-21.920174,1.3326592,4.0911937
-22.108782,1.4012485,4.1108785
-22.24028,1.4385138,4.108778
-22.343708,1.4604316,4.096131
-22.476778,1.500231,4.097519
-22.582756,1.525023,4.0884285
-22.735739,1.5783169,4.1016917
-22.835285,1.6008208,4.0923223
-22.964773,1.6419713,4.0979757
-23.107174,1.6918919,4.1112795
-23.19367,1.7086322,4.099441
-23.346718,1.7669973,4.121025
-23.427,1.7812324,4.108434
-23.552258,1.8241882,4.1193395
-23.641254,1.8451077,4.1132193
-23.759289,1.8851575,4.123172
-23.816833,1.8870997,4.102647
-23.943178,1.9340224,4.119479
-24.006441,1.9405773,4.1036057
-24.09158,1.9619181,4.100405
-24.202797,2.001233,4.112776
-24.274431,2.014778,4.104037
-24.382448,2.0534616,4.1170454
-24.437899,2.0569987,4.1006465
-24.528034,2.0847576,4.1053433
-24.617756,2.112905,4.1108828
-24.651463,2.1023273,4.083269
-24.762459,2.1465993,4.1037126
-24.81488,2.149897,4.088802
-24.86653,2.1528704,4.073856
-24.963238,2.188927,4.08852
-25.040169,2.2112598,4.091482
-25.071438,2.2002678,4.0649753
-25.17046,2.2400079,4.0842843
-25.226162,2.2478929,4.0753074
-25.281736,2.2559905,4.0667915
-25.357937,2.2802887,4.0733447
-25.426188,2.299023,4.0751886
-25.502344,2.3244722,4.083569
-25.565186,2.340014,4.083171
-25.632502,2.3595855,4.0868297
-25.690777,2.3723886,4.0845046
-25.76018,2.3946562,4.091335
-25.819944,2.4095764,4.0915956
-25.895926,2.4384024,4.105291
-25.93415,2.4362817,4.0899963
-25.993195,2.451892,4.0917525
-26.05456,2.469941,4.0961223
-26.120754,2.492662,4.1052723
-26.15219,2.4856734,4.0861096
-26.188148,2.4826732,4.070913
-26.252398,2.5049143,4.0803604
-26.316898,2.5279732,4.090913
-26.353165,2.5260208,4.0773187
-26.399277,2.533194,4.072816
-26.44709,2.5422277,4.07034
-26.497162,2.553701,4.070481
-26.545834,2.5642247,4.0698986
-26.574049,2.5555673,4.0504594
-26.615993,2.5601156,4.044276
-26.67311,2.5796914,4.0532928
-26.72465,2.5943232,4.0576077
-26.76323,2.5964897,4.0496016
-26.800611,2.597629,4.0407066
-26.837393,2.5983114,4.03149
-26.908506,2.6344807,4.058434
-26.950523,2.6412992,4.0558357
-26.985214,2.640687,4.045818
-27.025936,2.6466086,4.0426106
-27.06491,2.6509113,4.0379014
-27.127523,2.681168,4.0600476
-27.166107,2.6857903,4.05603
-27.198244,2.683464,4.04497
-27.23355,2.6847787,4.0377927
-27.276093,2.6944976,4.039477
-27.325659,2.712676,4.050143
-27.368279,2.7233024,4.0531273
-27.402632,2.7245378,4.0464454
-27.435947,2.7246835,4.038739
-27.471224,2.7273262,4.033772
-27.519655,2.746283,4.046126
-27.561937,2.7582016,4.0512433
-27.59106,2.753996,4.039451
-27.621185,2.7510781,4.0291133
-27.662134,2.7621613,4.033756
-27.70195,2.772172,4.03741
-27.746628,2.7889988,4.0484886
-27.779207,2.7901607,4.042986
-27.811304,2.7908106,4.0370407
-27.843819,2.7921665,4.031959
-27.881111,2.8003523,4.0343304
-27.921276,2.812952,4.0415916
-27.972322,2.8416588,4.066395
-27.998798,2.835482,4.05367
-28.023283,2.8262892,4.037751
-28.061079,2.8369143,4.043406
-28.091366,2.8365297,4.0372224
-28.125652,2.8424263,4.0379753
-28.16615,2.8583598,4.049792
-28.198946,2.862621,4.049002
-28.227808,2.8607547,4.041613
-28.257824,2.8608384,4.0364466
-28.287827,2.8610072,4.0314646
-28.321497,2.8675163,4.0335426
-28.350683,2.866611,4.027568
-28.394173,2.8908815,4.0494394
-28.422089,2.888289,4.041812
-28.447956,2.8819954,4.0301723
-28.476309,2.8801765,4.0235543
-28.507029,2.8828511,4.0219994
-28.53637,2.8830857,4.017829
-28.571209,2.8941574,4.0257893
-28.605206,2.9040718,4.032577
-28.634628,2.905211,4.0296984
-28.661247,2.9007158,4.0206213
-28.689142,2.8988326,4.014532
-28.722992,2.9097562,4.0228395
-28.751692,2.9099476,4.019244
-28.794075,2.9408488,4.050142
-28.822472,2.9412317,4.046961
-28.84866,2.9365754,4.038202
-28.87438,2.9307046,4.0281467
-28.901772,2.9287431,4.0225563
-28.92996,2.9287777,4.0192895
-28.961405,2.937238,4.0255995
-28.99097,2.94129,4.027031
-29.023577,2.9537916,4.0380907
-29.0522,2.9560845,4.037714
-29.077343,2.9487839,4.0265656
-29.103275,2.9434805,4.017741
-29.130598,2.942117,4.0134478
-29.159203,2.9447036,4.013707
-29.188782,2.9506028,4.017806
-29.221048,2.9656496,4.03238
-29.250513,2.9723692,4.037589
-29.276834,2.968795,4.0311766
-29.302849,2.9639893,4.0234323
-29.328587,2.95795,4.014349
-29.355108,2.954574,4.008366
-29.382841,2.9558172,4.007719
-29.414051,2.9714503,4.023564
-29.442518,2.9767559,4.027713
-29.470736,2.9814873,4.0312862
-29.496733,2.9765167,4.0238523
-29.522404,2.9696546,4.0143213
-29.548582,2.9648128,4.007167
-29.57534,2.9626489,4.0031443
-29.604624,2.9742713,4.0149727
-29.632904,2.9814,4.021738
-29.661266,2.989913,4.030167
-29.687246,2.984113,4.022271
-29.712944,2.97576,4.0115156
-29.739325,2.9713986,4.0054016
-29.766113,2.9697232,4.0024376
-29.793705,2.9746664,4.007138
-29.821562,2.9829578,4.0157557
-29.848806,2.986736,4.019267
-29.87598,2.9905849,4.022933
-29.902594,2.988604,4.0199747
-29.928951,2.9827557,4.0126433
-29.955961,2.9855018,4.0152545
-29.982666,2.9837255,4.01274
-30.009338,2.9807057,4.0088673
-30.036062,2.9777536,4.0051403
-30.063423,2.995214,4.024947
-30.090105,2.99437,4.0237846
-30.11669,2.9830928,4.0106993
-30.143482,2.9764786,4.003044
-30.170357,2.9751835,4.0015736
-30.197275,2.9726453,3.9987442
-30.224056,2.977395,4.004363
-30.250595,2.9868069,4.0154095
-30.277222,2.9903803,4.019815
-30.304193,2.9861493,4.015321
-30.331041,2.9852679,4.0147476
-30.357952,2.9838,4.013571
-30.384995,2.98109,4.011038
-30.411625,2.9836953,4.01468
-30.438274,2.9857125,4.0177174
-30.465235,2.9845223,4.017142
-30.492672,2.9794712,4.012207
-30.520365,2.9731822,4.005926
-30.547825,2.9695864,4.0028086
-30.574142,2.9745693,4.0096016
-30.598892,2.9894319,4.027787
-30.625263,2.9925814,4.03261
-30.652464,2.9905689,4.031589
-30.678427,2.9958148,4.038951
-30.706741,2.9880636,4.031506
-30.735456,2.9790854,4.022736
-30.76728,2.9558334,3.9977262
-30.794216,2.9574542,4.0012403
-30.821564,2.9571896,4.0026712
-30.849224,2.9556937,4.0027704
-30.877073,2.9536192,4.002285
-30.909039,2.935357,3.9834146
-30.934078,2.9451437,3.9966097
-30.962091,2.9432955,3.996614
-30.990324,2.9408727,3.9960418
-31.018234,2.9398234,3.997109
-31.045593,2.940793,4.0005484
-31.07314,2.941186,4.003406
-31.10089,2.941004,4.0056863
-31.129066,2.9396026,4.006658
-31.15921,2.9324617,4.0012035
-31.190372,2.9228244,3.9930105
-31.220129,2.9177928,3.9901237
-31.250214,2.912201,3.9866896
-31.27993,2.907981,3.9848952
-31.30851,2.9070604,3.9869103
-31.337116,2.9062178,3.9890938
-31.364471,2.9086611,3.9950604
-31.39101,2.9130993,4.0033464
-31.417213,2.9182448,4.012497
-31.449862,2.9080992,4.004539
-19.656342,0.7538512,4.1386476
-19.845594,0.8057258,4.130829
-20.023132,0.8528633,4.1212854
-20.231735,0.9169266,4.124118
-20.402988,0.9631789,4.116599
-20.634792,1.0418653,4.1320744
-20.785313,1.0797126,4.1214504
-20.96405,1.1333389,4.122689
-21.088387,1.1592662,4.105941
-21.268509,1.2157714,4.111449
-21.461273,1.280324,4.123887
-21.58009,1.3059821,4.1098413
-21.713505,1.3403513,4.1028514
-21.886929,1.3977001,4.1134753
-22.007002,1.426503,4.104275
-22.1218,1.4530799,4.094194
-22.308067,1.5209041,4.115698
-22.391836,1.5314806,4.095247
-22.527298,1.5723042,4.0983057
-22.642868,1.6024852,4.094067
-22.746794,1.6265855,4.085846
-22.911198,1.6871128,4.1066475
-22.978378,1.6908896,4.0839424
-23.172455,1.771318,4.122257
-23.239803,1.7764368,4.1018047
-23.377888,1.8251569,4.116726
-23.494143,1.8614563,4.1224656
-23.597412,1.8905094,4.1230116
-23.672325,1.9024688,4.110159
-23.80117,1.9490008,4.126252
-23.844727,1.94206,4.0987144
-23.966492,1.9855977,4.1135745
-24.018269,1.9846057,4.091704
-24.147434,2.034534,4.1131897
-24.229816,2.0545943,4.1100135
-24.285612,2.0574613,4.092565
-24.423595,2.1158867,4.123272
-24.466242,2.1108034,4.099762
-24.562988,2.1428747,4.108824
-24.65557,2.1728249,4.1165724
-24.685436,2.1597633,4.086937
-24.793459,2.2016335,4.10607
-24.853733,2.2105422,4.0964637
-24.913145,2.2191713,4.086907
-24.981022,2.2342515,4.0834503
-25.060072,2.257927,4.0881133
-25.117477,2.26628,4.0792727
-25.17827,2.2774727,4.0733037
-25.267628,2.31045,4.087617
-25.306976,2.3063757,4.068266
-25.362316,2.314601,4.0604625
-25.472626,2.3655045,4.0926085
-25.510918,2.3615096,4.074086
-25.571722,2.3752735,4.0723777
-25.650562,2.4037528,4.084825
-25.714825,2.4212692,4.0873084
-25.771452,2.4331086,4.084714
-25.844471,2.4586992,4.0954995
-25.906523,2.4759052,4.0986238
-25.960424,2.4868224,4.0960007
-26.016743,2.5001307,4.0959334
-26.069603,2.5109162,4.093683
-26.125486,2.5246515,4.094541
-26.161367,2.5215116,4.079187
-26.209314,2.5289912,4.0743694
-26.264671,2.5433009,4.0764723
-26.323528,2.56116,4.082329
-26.365345,2.564191,4.073781
-26.404636,2.5651288,4.063325
-26.456112,2.577416,4.064329
-26.514645,2.5966458,4.0724998
-26.550589,2.5952358,4.0602393
-26.59609,2.6029892,4.05733
-26.636711,2.6063683,4.0501966
-26.700766,2.6326306,4.066383
-26.742218,2.637485,4.0611324
-26.776054,2.6350513,4.048624
-26.815079,2.6378782,4.0416074
-26.870533,2.657498,4.051937
-26.930159,2.6819396,4.067463
-26.961956,2.67832,4.054356
-27.001558,2.6828985,4.049822
-27.040518,2.6870294,4.0449743
-27.089197,2.7017612,4.051281
-27.141933,2.7213383,4.062832
-27.175596,2.720657,4.053467
-27.212435,2.7235944,4.0480037
-27.25341,2.7313483,4.0477242
-27.291634,2.7363,4.0446563
-27.347277,2.7614346,4.063
-27.379005,2.7595878,4.0530796
-27.409737,2.7566493,4.042107
-27.449007,2.7638943,4.042039
-27.484669,2.7671046,4.037826
-27.531532,2.7841449,4.0484796
-27.573723,2.7959774,4.053756
-27.603218,2.7923856,4.0426826
-27.630857,2.7864757,4.0292115
-27.672201,2.7980757,4.034643
-27.711937,2.8080113,4.038436
-27.750566,2.8168728,4.0412164
-27.797203,2.836751,4.05605
-27.821032,2.826497,4.038419
-27.858335,2.8345118,4.040677
-27.894606,2.8414316,4.0418777
-27.93594,2.8557813,4.051298
-27.981718,2.8769894,4.0683584
-28.004288,2.8653357,4.0496645
-28.02913,2.8567927,4.0344286
-28.06235,2.8605838,4.032788
-28.095486,2.8644757,4.0313663
-28.136967,2.8814015,4.044401
-28.175762,2.8947697,4.0536656
-28.20767,2.8977633,4.0516105
-28.234116,2.8921876,4.0401783
-28.265585,2.8947365,4.037818
-28.294746,2.8936536,4.031526
-28.327602,2.898869,4.0323167
-28.362898,2.908544,4.038175
-28.405884,2.9320507,4.0595617
-28.432934,2.928228,4.0506153
-28.45726,2.9194713,4.03623
-28.4848,2.916408,4.0282755
-28.517757,2.9234538,4.0317187
-28.551239,2.9318557,4.0367885
-28.586184,2.943505,4.0456133
-28.616438,2.9464476,4.0447636
-28.643488,2.9431715,4.0370026
-28.669353,2.9374406,4.026549
-28.698938,2.9393592,4.0247936
-28.729666,2.943893,4.026078
-28.761465,2.9510498,4.030421
-28.792841,2.957667,4.0342503
-28.826609,2.9700928,4.044758
-28.853281,2.9667258,4.037458
-28.87866,2.960245,4.0266933
-28.905985,2.958287,4.0211334
-28.936165,2.963417,4.023712
-28.965992,2.9679954,4.025749
-28.998434,2.979689,4.0359845
-29.030897,2.9921203,4.047161
-29.057028,2.9879973,4.0395374
-29.082306,2.9813764,4.0291266
-29.109255,2.9793088,4.0239854
-29.13645,2.9779534,4.0197315
-29.163448,2.9760256,4.014895
-29.190678,2.974811,4.010947
-29.225729,2.998776,4.035957
-29.254898,3.0048113,4.040497
-29.28112,3.001255,4.0341015
-29.305935,2.9926043,4.0219173
-29.333023,2.9917607,4.018775
-29.360119,2.9909883,4.0157843
-29.387386,2.9909325,4.013692
-29.418,3.0045362,4.027411
-29.446362,3.009811,4.031617
-29.472698,3.0067415,4.026276
-29.49951,3.0056834,4.023325
-29.5262,3.004046,4.0197744
-29.55291,3.0024772,4.0163736
-29.579271,2.9990292,4.01087
-29.607113,3.0034432,4.0145235
-29.635887,3.0137796,4.0251026
-29.663935,3.0209439,4.032091
-29.691038,3.0229807,4.0332212
-29.71362,2.9945087,3.9990966
-29.7419,3.0038357,4.0088024
-29.769087,3.0060766,4.010374
-29.79553,3.0025272,4.005307
-29.82304,3.0081654,4.0109596
-29.851961,3.0288649,4.0341473
-29.879063,3.034,4.039365
-29.90515,3.028122,4.0318785
-29.931194,3.0203533,4.022266
-29.957714,3.017869,4.018851
-29.984425,3.0180612,4.0186105
-30.01113,3.0183225,4.01852
-30.037777,3.017347,4.017062
-30.06482,3.0294914,4.0309043
-30.091354,3.027349,4.028231
-30.117935,3.0259275,4.0264626
-30.14452,3.0128262,4.0112047
-30.171303,3.0050154,4.0021567
-30.198162,3.0011892,3.9978046
-30.225008,3.0006945,3.99739
-30.25193,2.9983115,3.9948528
-30.277702,3.0234013,4.024273
-30.304394,3.022459,4.0235443
-30.331587,3.0137582,4.0138817
-30.35806,3.0175202,4.0187516
-30.384571,3.0200448,4.0222545
-30.411444,3.0180745,4.020612
-30.438353,3.0161736,4.019119
-30.465368,3.0136914,4.017023
-30.492054,3.0145361,4.018855
-30.51905,3.0128446,4.0178165
-30.546953,3.0047135,4.009391
-30.574448,3.0005627,4.0056486
-30.59905,3.0159981,4.0246544
-30.625475,3.0184865,4.0287356
-30.651857,3.0210428,4.032963
-30.679712,3.0152206,4.02757
-30.706085,3.0179145,4.032097
-30.735237,3.0063972,4.020272
-30.76527,2.9917183,4.004878
-30.792913,2.9894435,4.003891
-30.819435,2.9924264,4.0090427
-30.846516,2.9928858,4.0113544
-30.873909,2.9921212,4.012326
-30.905075,2.9765532,3.9963186
-30.930948,2.9824066,4.0050654
-30.957947,2.9838016,4.008748
-30.98601,2.9813943,4.00813
-31.014496,2.9777725,4.0061927
-31.044783,2.9684277,3.9977639
-31.07069,2.9739816,4.0065193
-31.098543,2.9731646,4.0080347
-31.126207,2.973065,4.0104475
-31.156466,2.9653296,4.0041933
-31.185766,2.9608903,4.0017986
-31.21311,2.9623044,4.00618
-31.242067,2.9593048,4.0055914
-31.271084,2.9563851,4.0051775
-31.30431,2.942675,3.9925423
-31.3298,2.9495087,4.003415
-31.356964,2.9519372,4.0093374
-31.384356,2.9537988,4.014688
-31.409323,2.961463,4.026704
-31.444513,2.9450135,4.0114155
-19.523945,0.7922225,4.1388464
-19.80101,0.8853824,4.157567
-19.97285,0.92830634,4.14545
-20.169086,0.9844575,4.143297
-20.32277,1.020433,4.1290197
-20.496502,1.0675054,4.1233153
-20.630596,1.0953779,4.105666
-20.832127,1.1588361,4.1135483
-21.049759,1.2320368,4.129648
-21.226103,1.2850797,4.1330175
-21.33472,1.303452,4.1128387
-21.489079,1.3468263,4.111377
-21.67952,1.4106266,4.1258082
-21.784534,1.4294109,4.1084585
-21.909988,1.4599638,4.100493
-22.104218,1.5292513,4.122306
-22.2196,1.5560904,4.1133857
-22.310942,1.5701454,4.095461
-22.459908,1.617302,4.1034904
-22.53445,1.6230319,4.0804224
-22.717161,1.6913607,4.10661
-22.791138,1.6979799,4.085469
-22.953167,1.7564936,4.1058617
-23.092045,1.8025725,4.117363
-23.161947,1.8086009,4.0975227
-23.355999,1.8895117,4.1387286
-23.411028,1.8878362,4.1138005
-23.55081,1.9381225,4.1318426
-23.628174,1.951036,4.119832
-23.746563,1.9898821,4.129848
-23.815628,1.9986942,4.115398
-23.87763,2.0034022,4.0978575
-24.017029,2.0577602,4.122792
-24.084637,2.0670838,4.1100974
-24.186295,2.09887,4.1170654
-24.245892,2.1038775,4.101465
-24.349808,2.1384392,4.111871
-24.41951,2.1510105,4.1036353
-24.483805,2.1603599,4.0929327
-24.594652,2.201639,4.1108036
-24.64735,2.2040517,4.094741
-24.708807,2.212741,4.0845413
-24.816105,2.2537024,4.1036596
-24.857433,2.2492163,4.0823183
-24.931316,2.2679164,4.0822086
-25.022858,2.2997727,4.0944915
-25.072474,2.3021073,4.0801954
-25.134829,2.3139427,4.074881
-25.20052,2.328623,4.0725102
-25.280016,2.3539944,4.080411
-25.325596,2.3545923,4.0655756
-25.40863,2.383696,4.0776987
-25.48706,2.4099932,4.087608
-25.542429,2.4191823,4.0817213
-25.605822,2.434947,4.082345
-25.69334,2.4701147,4.1018076
-25.729792,2.465635,4.083706
-25.785032,2.476262,4.08029
-25.862694,2.505363,4.094988
-25.912132,2.5121613,4.0884333
-25.963417,2.5207636,4.0838547
-26.020414,2.5344388,4.084464
-26.094658,2.5630183,4.099969
-26.131767,2.5608144,4.0855107
-26.185503,2.5729566,4.08538
-26.232048,2.5792677,4.079704
-26.279732,2.5868478,4.075489
-26.336033,2.60233,4.0793743
-26.380268,2.6075115,4.073186
-26.423166,2.61174,4.0662203
-26.477604,2.626697,4.0702553
-26.53785,2.6474457,4.080397
-26.567003,2.6398778,4.0620527
-26.610617,2.6458645,4.0576096
-26.660639,2.6581974,4.0598288
-26.708084,2.6684594,4.060137
-26.747166,2.6709692,4.0526733
-26.79198,2.679285,4.051344
-26.82285,2.6741047,4.0362396
-26.887974,2.7032402,4.05682
-26.937338,2.7171967,4.0619154
-26.967962,2.7124157,4.0476766
-27.009756,2.7192183,4.0456476
-27.051968,2.7267413,4.0445366
-27.109861,2.7511625,4.0613475
-27.15218,2.7595968,4.0615673
-27.18094,2.7536693,4.046779
-27.221464,2.7606187,4.045714
-27.260275,2.7659569,4.043091
-27.298975,2.7714243,4.0407486
-27.355114,2.796938,4.0599303
-27.38831,2.796836,4.051965
-27.420475,2.7956579,4.042958
-27.458157,2.8010628,4.0411253
-27.498207,2.8095465,4.0427413
-27.548895,2.8311963,4.058707
-27.586075,2.8370109,4.057763
-27.615927,2.8340254,4.0474176
-27.648664,2.8346999,4.0411377
-27.68655,2.8420427,4.0422153
-27.729408,2.8560932,4.05074
-27.771547,2.8696952,4.058935
-27.80206,2.8684235,4.0510154
-27.828978,2.8624241,4.038008
-27.86443,2.8679533,4.037735
-27.899328,2.8729906,4.0370426
-27.958427,2.9120378,4.0739517
-27.988533,2.911292,4.0671716
-28.01567,2.9063792,4.0558743
-28.041208,2.8991027,4.0420346
-28.070156,2.896767,4.033743
-28.106056,2.9048934,4.0371656
-28.143005,2.9149706,4.0428824
-28.184917,2.9331353,4.057744
-28.215147,2.933644,4.05304
-28.241493,2.928091,4.041646
-28.270205,2.9263003,4.0345364
-28.301184,2.928289,4.0317497
-28.336548,2.9377809,4.0374875
-28.371365,2.9467664,4.0427732
-28.408518,2.9601986,4.053184
-28.435884,2.9569993,4.0449553
-28.46086,2.949521,4.031968
-28.492794,2.9545498,4.0331917
-28.522945,2.956557,4.0310917
-28.555033,2.9623952,4.0334244
-28.593838,2.981453,4.050868
-28.622372,2.9812422,4.0465393
-28.648067,2.975471,4.0359626
-28.67694,2.9760365,4.032672
-28.704275,2.9735422,4.0259724
-28.733427,2.9748921,4.0237374
-28.76371,2.9788423,4.024559
-28.803644,3.004313,4.0500984
-28.82992,3.000256,4.041949
-28.856806,2.99753,4.035392
-28.883192,2.993608,4.0275345
-28.911745,2.9948196,4.0256443
-28.94078,2.997377,4.025381
-28.971275,3.0038223,4.0296764
-29.005339,3.0198836,4.0451403
-29.033083,3.0201552,4.0425034
-29.059166,3.016046,4.0348835
-29.085085,3.0113661,4.0266733
-29.112865,3.0118513,4.0244994
-29.140846,3.0130496,4.023225
-29.168371,3.0130455,4.020635
-29.197538,3.0182285,4.024129
-29.229012,3.0311701,4.0367017
-29.257124,3.03396,4.0375876
-29.283665,3.0316997,4.032687
-29.30859,3.023736,4.021228
-29.334713,3.019683,4.0143757
-29.36245,3.0214748,4.0143895
-29.390642,3.025269,4.0168085
-29.423399,3.0477877,4.041111
-29.450035,3.0465975,4.037886
-29.476984,3.0467641,4.036311
-29.502213,3.0392709,4.025872
-29.528116,3.0344176,4.0185757
-29.554234,3.030274,4.012173
-29.581795,3.0332942,4.014204
-29.610128,3.0409055,4.021673
-29.638885,3.0518236,4.033085
-29.666042,3.054421,4.034844
-29.692436,3.0525653,4.0314655
-29.718096,3.0456033,4.0221786
-29.744234,3.0412931,4.01606
-29.770617,3.0383434,4.0116005
-29.797281,3.0374026,4.0095606
-29.824247,3.0391207,4.0107045
-29.853561,3.0642257,4.0393248
-29.880243,3.0660894,4.040784
-29.906239,3.060246,4.033277
-29.9318,3.0473385,4.0175524
-29.958067,3.0416265,4.0103292
-29.985277,3.0508926,4.0207405
-30.011946,3.0524487,4.022179
-30.038313,3.0469403,4.0153975
-30.065403,3.0629015,4.0338717
-30.091848,3.0614207,4.0319524
-30.118235,3.0522246,4.0210476
-30.144794,3.046988,4.0148554
-30.17143,3.044414,4.011857
-30.198135,3.0406115,4.0074844
-30.224842,3.039472,4.0063047
-30.25148,3.040996,4.008318
-30.277637,3.0529642,4.0226507
-30.304125,3.0546227,4.024956
-30.330864,3.0518117,4.0220876
-30.3577,3.0484214,4.0186086
-30.384186,3.050285,4.0213594
-30.410927,3.0489774,4.02046
-30.437504,3.0496821,4.021988
-30.464417,3.0472174,4.01987
-30.4913,3.0454698,4.0186625
-30.517977,3.045734,4.0198803
-30.545172,3.0421844,4.0167017
-30.571785,3.043234,4.018978
-30.595905,3.0605154,4.0403137
-30.622862,3.0584638,4.0390925
-30.650856,3.0506692,4.031227
-30.676313,3.0578015,4.040883
-30.704464,3.050153,4.033334
-30.733654,3.038066,4.020678
-30.7628,3.0273504,4.0097055
-30.790745,3.0231605,4.0064287
-30.81702,3.026773,4.0123253
-30.844753,3.0240161,4.010865
-30.871912,3.0239062,4.0125628
-30.904306,3.0032973,3.9904656
-30.927605,3.0187607,4.010441
-30.95588,3.0150156,4.008129
-30.984047,3.0119894,4.0067296
-31.011343,3.012244,4.0092173
-31.03922,3.0106487,4.00963
-31.06733,3.0084882,4.0094633
-31.095896,3.0051243,4.007978
-31.1239,3.0037556,4.0088816
-31.15366,2.9973552,4.004038
-31.180666,2.9993303,4.0089674
-31.210825,2.992454,4.0037374
-31.239485,2.9901216,4.0038424
-31.268913,2.985959,4.001915
-31.298912,2.980608,3.9987016
-31.327019,2.9804204,4.001522
-31.354115,2.9828453,4.0074263
-31.376995,2.9954772,4.025133
-31.405,2.9955,4.02841
-31.436285,2.9880137,4.0231476
-19.14407,0.768836,4.1273384
-19.438812,0.86574507,4.1469374
-19.615337,0.90783834,4.1328526
-19.80782,0.9587157,4.125825
-19.99627,1.0088155,4.1196375
-20.217648,1.0763111,4.1265616
-20.427076,1.1393309,4.1319833
-20.614393,1.1926534,4.13215
-20.797657,1.2451384,4.133026
-20.903078,1.2591667,4.107927
-21.081911,1.3114367,4.11086
-21.254189,1.361491,4.1134043
-21.464466,1.4325256,4.132418
-21.580936,1.4556398,4.1175566
-21.687113,1.4739599,4.0998707
-21.89444,1.54704,4.1239505
-21.998966,1.5661068,4.1085153
-22.110676,1.5896766,4.097164
-22.300148,1.6566257,4.119937
-22.364283,1.6555381,4.0910835
-22.523045,1.7075529,4.104187
-22.637228,1.7355909,4.0993705
-22.732422,1.7535644,4.0872407
-22.902319,1.8149018,4.1104646
-22.96381,1.8148708,4.085163
-23.16199,1.8947622,4.1252728
-23.27466,1.9259841,4.1267285
-23.371037,1.9483081,4.1215086
-23.462358,1.9682201,4.114845
-23.577755,2.0032244,4.121347
-23.653526,2.0149403,4.1088986
-23.786766,2.0623536,4.1271644
-23.849524,2.067164,4.1098375
-23.96701,2.1064541,4.1224785
-24.017075,2.1041565,4.099834
-24.129108,2.141415,4.111854
-24.223078,2.1679504,4.1151333
-24.279531,2.1708856,4.098156
-24.415833,2.2261815,4.127837
-24.441788,2.21,4.094646
-24.54634,2.2459378,4.108218
-24.639204,2.2748733,4.116071
-24.68803,2.274736,4.0981107
-24.767715,2.295841,4.09971
-24.852917,2.321309,4.1057224
-24.890446,2.3143008,4.082327
-24.960623,2.330233,4.080282
-25.050682,2.360705,4.092098
-25.089458,2.3552985,4.0709133
-25.148941,2.3648868,4.0639453
-25.251413,2.4060905,4.087042
-25.281477,2.3950868,4.061291
-25.378138,2.4333835,4.0825033
-25.442198,2.4481905,4.0818033
-25.488039,2.4496908,4.0686545
-25.575748,2.4832847,4.0866075
-25.641056,2.500451,4.089131
-25.701324,2.514192,4.088643
-25.751913,2.5207705,4.081457
-25.824495,2.5450406,4.0918126
-25.897339,2.5701444,4.103345
-25.927414,2.5613863,4.0818324
-25.97536,2.5671716,4.0748196
-26.05193,2.5967696,4.0916786
-26.108538,2.6105232,4.0931106
-26.142359,2.605577,4.0760794
-26.18776,2.6104949,4.0690784
-26.24386,2.6248202,4.071749
-26.314219,2.6519082,4.0875835
-26.341518,2.642086,4.066287
-26.380775,2.6427586,4.0557604
-26.435438,2.6573195,4.059572
-26.495356,2.6770568,4.0689325
-26.538504,2.6820889,4.0634403
-26.572496,2.6789474,4.0496907
-26.619099,2.6875982,4.0482583
-26.670887,2.7014394,4.0524044
-26.73009,2.7227507,4.064546
-26.752064,2.7089474,4.040295
-26.802681,2.7227535,4.044996
-26.843838,2.7277243,4.0406322
-26.910006,2.7577195,4.06277
-26.941687,2.7539642,4.0495815
-26.969486,2.7463224,4.032381
-27.021873,2.7638292,4.0419507
-27.05795,2.7649665,4.0343227
-27.12733,2.8011541,4.0642095
-27.160862,2.8003106,4.05481
-27.188484,2.7932396,4.038848
-27.229506,2.8006625,4.0385404
-27.268799,2.8064919,4.0366683
-27.331984,2.8391132,4.0638704
-27.362534,2.8359723,4.0526447
-27.392609,2.8323374,4.040978
-27.427288,2.8340392,4.035205
-27.466436,2.8411136,4.0354023
-27.514883,2.8594556,4.048045
-27.553158,2.866228,4.0482197
-27.589836,2.8713627,4.046736
-27.618702,2.8671775,4.0351386
-27.656673,2.874303,4.036079
-27.694504,2.8815546,4.0372906
-27.735916,2.8936791,4.0440226
-27.77802,2.9071367,4.052383
-27.8021,2.8974998,4.0352736
-27.835337,2.89986,4.031559
-27.868517,2.9023213,4.028065
-27.913954,2.9216666,4.0435133
-27.962511,2.9459798,4.064686
-27.992588,2.9452055,4.0579596
-28.01545,2.9342713,4.0399303
-28.049377,2.9390845,4.0396423
-28.08072,2.9403744,4.0354996
-28.111616,2.9411497,4.0308723
-28.158592,2.9662943,4.0538473
-28.1908,2.9697225,4.0524483
-28.220577,2.9695935,4.047123
-28.246864,2.9640598,4.035755
-28.275139,2.9616475,4.028001
-28.307571,2.966043,4.028069
-28.342503,2.9748268,4.0332346
-28.379814,2.9880183,4.043541
-28.412922,2.9945698,4.0463905
-28.439884,2.990755,4.03749
-28.465508,2.9845452,4.0259175
-28.496025,2.9870431,4.0243945
-28.527159,2.9908657,4.024482
-28.559534,2.9972563,4.0276136
-28.600258,3.019867,4.04951
-28.628063,3.0184016,4.0438104
-28.655565,3.0163903,4.0375566
-28.682163,3.0125837,4.0293036
-28.710638,3.0125859,4.025522
-28.73761,3.0095453,4.018299
-28.770472,3.0190716,4.0257063
-28.80659,3.0362053,4.042037
-28.833107,3.0327868,4.0346255
-28.86133,3.0331988,4.031734
-28.887642,3.0292938,4.0238976
-28.916126,3.0304828,4.0220594
-28.944061,3.0304916,4.018924
-28.97628,3.0412812,4.0284395
-29.008293,3.0521674,4.038164
-29.036718,3.054316,4.0377755
-29.062033,3.0483308,4.027953
-29.089052,3.0468333,4.0234447
-29.116539,3.0466723,4.0205727
-29.145327,3.0503843,4.022312
-29.174463,3.055444,4.025712
-29.202877,3.0586812,4.027054
-29.23303,3.0677114,4.0352774
-29.26067,3.069202,4.0347238
-29.286568,3.0650425,4.027598
-29.311981,3.059039,4.018366
-29.344429,3.0779386,4.0385256
-29.369646,3.0714407,4.028853
-29.394644,3.0637286,4.01781
-29.42522,3.0777779,4.0324993
-29.453373,3.082974,4.036827
-29.48083,3.0856915,4.0383024
-29.506372,3.0801692,4.030114
-29.533653,3.0823877,4.0311394
-29.56023,3.0814779,4.028536
-29.589197,3.0928051,4.0404787
-29.613298,3.0792234,4.023017
-29.641045,3.08493,4.02845
-29.668358,3.0887866,4.031766
-29.69458,3.0862994,4.027635
-29.720938,3.0845213,4.0244102
-29.749838,3.100789,4.0426493
-29.77449,3.0869484,4.025257
-29.801579,3.0911574,4.029336
-29.82736,3.0845118,4.020605
-29.85538,3.098503,4.0364313
-29.88205,3.1009955,4.038681
-29.907694,3.091979,4.0273323
-29.933062,3.0772367,4.009247
-29.960575,3.0908694,4.024927
-29.986586,3.0826943,4.0147705
-30.013084,3.081664,4.0131693
-30.039526,3.0787718,4.009421
-30.066889,3.1055608,4.0410085
-30.09316,3.1028056,4.037558
-30.119402,3.0930357,4.025838
-30.145819,3.0814018,4.0119686
-30.172377,3.0794935,4.0097246
-30.198938,3.0795853,4.0099235
-30.225449,3.0816767,4.0125647
-30.251787,3.087698,4.019943
-30.278355,3.0860627,4.01829
-30.30485,3.0864263,4.0190783
-30.331459,3.084928,4.017722
-30.358099,3.0834985,4.016515
-30.384712,3.0827804,4.0162206
-30.411343,3.0821316,4.016075
-30.437857,3.0828376,4.0176053
-30.46464,3.08104,4.0162315
-30.491535,3.0786695,4.014246
-30.517986,3.0802238,4.016985
-30.543974,3.0850568,4.0236783
-30.570065,3.0886705,4.0289907
-30.595198,3.0981264,4.041292
-30.623,3.0903242,4.033207
-30.650171,3.0870855,4.0306005
-30.67577,3.0928907,4.038772
-30.700653,3.1019628,4.050871
-30.731161,3.0822835,4.029021
-30.761766,3.0639734,4.008878
-30.788363,3.0655797,4.0123606
-30.815664,3.0640583,4.0122166
-30.843153,3.0619707,4.0114746
-30.871159,3.0580401,4.0086308
-30.902515,3.041426,3.9909022
-30.926044,3.0555081,4.009449
-30.954584,3.050528,4.0055904
-30.98286,3.0469003,4.0034018
-31.01046,3.0458937,4.0043745
-31.038666,3.0430536,4.003263
-31.066929,3.04029,4.0023174
-31.094637,3.0395072,4.003775
-31.12279,3.03753,4.003904
-31.152065,3.0324607,4.0004835
-31.179888,3.0319052,4.002433
-31.209095,3.0276294,4.000101
-31.23839,3.0234344,3.9979453
-31.267769,3.019322,3.995968
-31.296255,3.0178142,3.9971147
-31.325027,3.0157542,3.9976952
-31.352566,3.0169206,4.002116
-31.37643,3.0269604,4.016946
-31.403866,3.0282629,4.0216618
-31.435932,3.0189729,4.0141363
-18.7193,0.7783091,4.1882124
-18.863491,0.80050063,4.1573815
-19.042534,0.8395438,4.1384172
-19.284948,0.9091399,4.140672
-19.54834,0.9901316,4.152216
-19.74387,1.0407064,4.145302
-19.933617,1.0897226,4.1387086
-20.158194,1.156688,4.145746
-20.2864,1.1783066,4.122925
-20.422953,1.2047086,4.104306
-20.61737,1.2604702,4.1074033
-20.848606,1.335841,4.1258802
-21.04659,1.3960941,4.135016
-21.19553,1.4328227,4.1283035
-21.292515,1.4439261,4.103653
-21.481915,1.5031362,4.115461
-21.622755,1.5384073,4.110522
-21.747269,1.5660057,4.100665
-21.893898,1.6060452,4.10113
-22.083118,1.669749,4.1208315
-22.151669,1.6699352,4.092248
-22.317368,1.7230659,4.105677
-22.456913,1.763068,4.1097627
-22.531374,1.7681165,4.0867853
-22.705862,1.829148,4.1093283
-22.765211,1.8268807,4.081591
-22.950533,1.8961068,4.1126494
-23.075373,1.9322504,4.1176205
-23.17968,1.9574363,4.114251
-23.290802,1.9872503,4.115367
-23.382439,2.006399,4.10816
-23.517277,2.051634,4.123589
-23.585331,2.0580814,4.10673
-23.70423,2.095428,4.1167765
-23.802288,2.1210098,4.1173487
-23.878216,2.133717,4.107278
-23.977917,2.1615326,4.1108446
-24.061035,2.179725,4.106499
-24.150768,2.202601,4.1067557
-24.227951,2.2181354,4.100965
-24.306408,2.234964,4.0967445
-24.420088,2.2750082,4.1138735
-24.48882,2.2867198,4.10596
-24.568575,2.3060737,4.1053653
-24.63612,2.3178809,4.0982776
-24.708654,2.333425,4.0949745
-24.813328,2.371117,4.112554
-24.855154,2.366909,4.09171
-24.91306,2.3738503,4.0814724
-24.993305,2.396584,4.0863557
-25.058765,2.4095774,4.0824556
-25.12186,2.4213166,4.0776877
-25.185465,2.4338164,4.0739512
-25.263739,2.457271,4.081014
-25.313438,2.4606018,4.069116
-25.377783,2.4748921,4.068028
-25.474617,2.513644,4.0909886
-25.518885,2.5140662,4.0771017
-25.583088,2.5296812,4.0782695
-25.663439,2.5580413,4.092268
-25.709322,2.5606418,4.081253
-25.78825,2.5890713,4.0960183
-25.837158,2.5947137,4.0885153
-25.905968,2.616353,4.0971937
-25.954523,2.6224067,4.0905833
-26.00296,2.6286404,4.0843625
-26.06174,2.643569,4.087126
-26.128056,2.6651373,4.096882
-26.166243,2.663942,4.083806
-26.2243,2.6795297,4.0879984
-26.26426,2.680255,4.0772357
-26.322512,2.6967926,4.0828705
-26.35537,2.6918712,4.066649
-26.39265,2.6908555,4.0545783
-26.463943,2.7199576,4.073887
-26.504032,2.7220068,4.0653763
-26.549551,2.7291288,4.062315
-26.592512,2.7342138,4.057304
-26.634163,2.7383463,4.051462
-26.690016,2.7558994,4.059916
-26.736689,2.765348,4.0600486
-26.770874,2.7632859,4.048177
-26.808563,2.7646766,4.0400896
-26.856583,2.776256,4.0429926
-26.916393,2.799787,4.058856
-26.961039,2.8089383,4.059578
-26.986954,2.7996507,4.0406747
-27.025827,2.8034234,4.0359015
-27.079533,2.8226202,4.0479183
-27.130695,2.8397508,4.0579233
-27.16906,2.8439817,4.0541444
-27.20464,2.8454862,4.0475388
-27.243904,2.851109,4.0455446
-27.28622,2.8603046,4.047595
-27.328876,2.8702223,4.050596
-27.370306,2.879138,4.052656
-27.40489,2.8806908,4.046772
-27.440443,2.8835092,4.0423975
-27.476933,2.8876014,4.0395517
-27.517313,2.8964617,4.042111
-27.562939,2.9118695,4.052079
-27.595108,2.9116778,4.0448794
-27.622917,2.9063172,4.0320225
-27.662737,2.9156885,4.0356884
-27.705675,2.929308,4.0442476
-27.749289,2.944256,4.0544543
-27.786615,2.9516897,4.0563865
-27.814205,2.946833,4.0446224
-27.84186,2.942049,4.033017
-27.87315,2.9420865,4.0269303
-27.917204,2.959459,4.0405436
-27.961803,2.97818,4.0558453
-27.998304,2.9863176,4.0593038
-28.026571,2.9832141,4.050108
-28.055294,2.9807863,4.0417604
-28.08694,2.9826386,4.038375
-28.120583,2.9875908,4.0386276
-28.161785,3.0040884,4.0521936
-28.194313,3.0080614,4.0515556
-28.223612,3.0072994,4.0455856
-28.251745,3.004804,4.0377088
-28.281052,3.0042038,4.032089
-28.310354,3.003685,4.026648
-28.345583,3.0129795,4.0326147
-28.387205,3.0333498,4.0514936
-28.412607,3.0270238,4.0396276
-28.440233,3.024426,4.0321445
-28.46475,3.016395,4.0184336
-28.492489,3.0139365,4.0112524
-28.527351,3.0244384,4.0192204
-28.560345,3.0319781,4.0238485
-28.596455,3.045772,4.0358696
-28.627806,3.0510561,4.0380745
-28.656204,3.05088,4.033993
-28.682423,3.0464575,4.0250206
-28.71023,3.0451949,4.019816
-28.741331,3.0508192,4.0227585
-28.774075,3.0602555,4.030267
-28.808643,3.0741377,4.0430956
-28.83844,3.0781837,4.044467
-28.859869,3.0636454,4.0240474
-28.886147,3.059741,4.0161986
-28.920422,3.0746145,4.0305614
-28.951046,3.0814786,4.035575
-28.9671,3.0528054,3.9986942
-29.009903,3.0904684,4.040264
-29.039673,3.0963407,4.044361
-29.064838,3.0903864,4.0345354
-29.08711,3.0763366,4.0151744
-29.115467,3.0786638,4.0152864
-29.147926,3.0930133,4.029746
-29.173935,3.0892136,4.0227413
-29.199589,3.084221,4.0143824
-29.235395,3.110805,4.0436506
-29.26014,3.1034417,4.0326204
-29.28672,3.1018202,4.0284877
-29.314793,3.105322,4.030528
-29.33816,3.0924613,4.0131297
-29.369682,3.1087573,4.0305758
-29.392572,3.0934901,4.0104265
-29.425053,3.1150193,4.0342846
-29.452173,3.1163592,4.0341063
-29.477625,3.110794,4.0257397
-29.502743,3.1033874,4.015232
-29.531557,3.112554,4.024623
-29.555994,3.1014676,4.009837
-29.584894,3.112054,4.0210724
-29.610483,3.1061838,4.012661
-29.638107,3.1111946,4.0173583
-29.666063,3.1188264,4.0252705
-29.692652,3.1188903,4.0241756
-29.718369,3.113289,4.0163474
-29.746077,3.1211371,4.0247297
-29.770687,3.1067429,4.006472
-29.798458,3.1160078,4.0166917
-29.824606,3.112586,4.0117397
-29.852074,3.121357,4.021506
-29.878712,3.123179,4.022988
-29.90482,3.119323,4.0177126
-29.930946,3.1148953,4.011812
-29.957497,3.1156433,4.0122013
-29.983402,3.1056,3.9996762
-30.010113,3.1084003,4.0026646
-30.037193,3.1221342,4.0188723
-30.06394,3.1333814,4.032158
-30.090227,3.132555,4.030982
-30.116478,3.1273222,4.0245705
-30.142817,3.1176822,4.012921
-30.169271,3.1164193,4.0114164
-30.195707,3.1177812,4.0131354
-30.222366,3.1096244,4.0034676
-30.248861,3.1104834,4.004714
-30.274946,3.1203566,4.016868
-30.301464,3.1187947,4.0153327
-30.32785,3.1198568,4.017019
-30.354542,3.1165152,4.0134745
-30.380672,3.1209064,4.0192947
-30.40736,3.118341,4.016816
-30.434097,3.1158452,4.014488
-30.460047,3.1210759,4.0215125
-30.486809,3.1187167,4.0194817
-30.513863,3.1145144,4.015304
-30.540646,3.1129336,4.0143433
-30.56765,3.110148,4.012004
-30.591928,3.12527,4.031222
-30.61856,3.1245286,4.031466
-30.646544,3.1162195,4.0227013
-30.67328,3.115621,4.0232544
-30.700033,3.1150918,4.0239573
-30.727959,3.1089125,4.01796
-30.756407,3.1009033,4.0098467
-30.784025,3.0974169,4.0072217
-30.812006,3.0927353,4.0032377
-30.837797,3.097641,4.0107913
-30.864294,3.099443,4.014698
-30.896172,3.0804133,3.9937913
-30.918564,3.098187,4.0169086
-30.950113,3.0818553,3.9993856
-30.977076,3.0826817,4.0024104
-31.004404,3.0823154,4.0040836
-31.032324,3.0801282,4.0036583
-31.059698,3.079908,4.0056477
-31.088106,3.0766094,4.0040474
-31.117424,3.0708714,3.9996243
-31.145992,3.0677316,3.9983675
-31.174183,3.0659268,3.9987721
-31.204008,3.0598047,3.9941323
-31.232323,3.058157,3.9948778
-31.258762,3.0615993,4.0017242
-31.286865,3.0607266,4.003534
-31.316748,3.0555542,4.0003357
-31.344683,3.0554633,4.0032225
-31.369225,3.0635593,4.0158424
-31.394163,3.0704665,4.027118
-31.423637,3.0668492,4.026059
-31.463795,3.0396829,3.9973795
-18.416069,0.74838066,4.142745
-18.741074,0.8497393,4.1617537
-18.912653,0.88378525,4.139426
-19.111076,0.93104696,4.127009
-19.381588,1.0126767,4.138918
-19.596157,1.0700984,4.1364346
-19.798742,1.1232467,4.1325474
-19.996355,1.1753078,4.129326
-20.221008,1.2414789,4.1373477
-20.398298,1.286371,4.1318865
-20.594799,1.3416667,4.135073
-20.705818,1.3564754,4.11034
-20.868752,1.3974295,4.1054106
-21.071157,1.4590106,4.1167836
-21.243082,1.5066803,4.119158
-21.436365,1.5662594,4.131632
-21.513468,1.567944,4.1014223
-21.688772,1.620425,4.110601
-21.8525,1.668092,4.1172013
-21.916416,1.6646717,4.0849934
-22.109926,1.7298102,4.107103
-22.240494,1.7628655,4.105002
-22.334345,1.7770624,4.0886183
-22.489586,1.8249824,4.1000004
-22.587719,1.8428261,4.0878954
-22.745892,1.8942823,4.103922
-22.829487,1.9054775,4.087682
-22.949295,1.9373943,4.0891576
-23.126602,2.0025873,4.1192465
-23.21959,2.0211143,4.111043
-23.364197,2.069867,4.1290674
-23.429386,2.073664,4.1094847
-23.549927,2.1101246,4.118394
-23.627365,2.1220245,4.106706
-23.766611,2.1711369,4.127929
-23.818405,2.1688375,4.1048026
-23.915335,2.1940465,4.106248
-24.008005,2.217315,4.10651
-24.072577,2.2238889,4.0923443
-24.212204,2.2774582,4.120812
-24.260166,2.2746856,4.099079
-24.344625,2.2951672,4.0987406
-24.429516,2.3164923,4.0996265
-24.495258,2.3260636,4.0901437
-24.601261,2.3621786,4.1055603
-24.645622,2.3587034,4.0847225
-24.71744,2.3735318,4.0811963
-24.816282,2.406874,4.095439
-24.866194,2.4080307,4.0798078
-24.913155,2.4073882,4.062691
-25.01597,2.4452605,4.082524
-25.06622,2.4475987,4.0688477
-25.130768,2.4601574,4.0652385
-25.20937,2.4830465,4.0719337
-25.284748,2.5042467,4.077386
-25.323793,2.4998946,4.0582743
-25.407778,2.5282483,4.071376
-25.493378,2.5584934,4.086764
-25.538961,2.5598893,4.07407
-25.60655,2.577909,4.078067
-25.690948,2.609107,4.095522
-25.729218,2.6059694,4.079044
-25.788485,2.6190667,4.0790205
-25.856928,2.6396966,4.086864
-25.920336,2.6569462,4.091611
-25.968842,2.6629047,4.0851808
-26.021183,2.6722016,4.0823607
-26.092999,2.697543,4.096186
-26.131195,2.6961594,4.082907
-26.173271,2.698092,4.0731893
-26.2185,2.7028365,4.0665455
-26.274464,2.7168355,4.0696864
-26.328903,2.7299786,4.0721817
-26.362997,2.7261126,4.057148
-26.410858,2.7342253,4.0547833
-26.469086,2.7517152,4.062471
-26.515316,2.75912,4.05978
-26.548592,2.7552588,4.0453615
-26.603098,2.7706084,4.0514326
-26.654318,2.783431,4.055047
-26.70768,2.7986424,4.0614214
-26.751299,2.8052483,4.0588126
-26.78305,2.8009655,4.04469
-26.824745,2.8061888,4.0408983
-26.877295,2.822104,4.0487976
-26.923252,2.832096,4.0505085
-26.969015,2.8422544,4.05258
-27.001074,2.8391502,4.040407
-27.037626,2.840629,4.0333333
-27.090172,2.8585353,4.0443416
-27.139645,2.8738222,4.052695
-27.174702,2.8745985,4.0453086
-27.2108,2.876619,4.039409
-27.250044,2.882164,4.0375233
-27.289698,2.8884099,4.0365543
-27.336025,2.9022095,4.0441008
-27.374311,2.907597,4.0424786
-27.405806,2.9056592,4.032834
-27.446466,2.9141574,4.034933
-27.481922,2.9170356,4.0308943
-27.530758,2.935612,4.044566
-27.568398,2.9416432,4.044339
-27.60005,2.9408417,4.0365534
-27.632662,2.9412951,4.030281
-27.672892,2.951164,4.0347476
-27.710089,2.9576693,4.0355487
-27.757435,2.9771605,4.051203
-27.79147,2.9804199,4.0485954
-27.819485,2.9761546,4.037533
-27.85072,2.976082,4.031329
-27.886847,2.9825852,4.032731
-27.92328,2.9897952,4.0350604
-27.971773,3.01369,4.056635
-28.000437,3.0110903,4.0479746
-28.027428,3.0061946,4.0367546
-28.056168,3.003749,4.028429
-28.08742,3.0049586,4.0244007
-28.13091,3.0241733,4.0412693
-28.165958,3.0315795,4.0446286
-28.19727,3.0337048,4.0419807
-28.22813,3.0353227,4.0388374
-28.255842,3.0322216,4.030299
-28.288944,3.037625,4.0317354
-28.321932,3.04313,4.0333915
-28.355543,3.0499446,4.0366774
-28.390842,3.0598888,4.043726
-28.41982,3.0596437,4.0389624
-28.44382,3.0509832,4.0244174
-28.469707,3.0454173,4.0135584
-28.503586,3.053916,4.019287
-28.531881,3.0527673,4.013773
-28.563177,3.0571895,4.014895
-28.605818,3.083099,4.041443
-28.633188,3.0810008,4.035079
-28.658686,3.075298,4.024529
-28.693579,3.0880709,4.0358963
-28.716347,3.0769877,4.0191216
-28.743488,3.0745683,4.0126667
-28.778284,3.0882378,4.025374
-28.809938,3.0958495,4.0309925
-28.839748,3.0998502,4.0324116
-28.866156,3.096517,4.0251846
-28.895317,3.0994418,4.0254784
-28.917263,3.0857167,4.006001
-28.95085,3.0993323,4.0191946
-28.979864,3.1024947,4.020004
-29.015,3.1212788,4.039567
-29.042276,3.1208847,4.0362945
-29.065536,3.1099744,4.0205
-29.094975,3.115327,4.0242443
-29.119139,3.1064088,4.010955
-29.14827,3.111289,4.0142803
-29.174957,3.1093745,4.0095234
-29.211824,3.138189,4.041765
-29.239285,3.1395688,4.0411296
-29.264164,3.132875,4.0308485
-29.28878,3.1249871,4.019188
-29.316662,3.1278298,4.020514
-29.34252,3.123838,4.013673
-29.37172,3.131855,4.0213804
-29.398596,3.1317763,4.019395
-29.428038,3.1418397,4.029726
-29.454031,3.1387587,4.0242543
-29.480522,3.1376343,4.0212126
-29.50674,3.1353168,4.0167923
-29.53519,3.1431632,4.0247345
-29.557184,3.1207812,3.9961615
-29.58887,3.1451921,4.0242968
-29.613758,3.1362,4.0120554
-29.642899,3.150032,4.0275326
-29.670698,3.1576185,4.0355177
-29.695805,3.1494591,4.024477
-29.721155,3.1419945,4.014339
-29.747808,3.142826,4.014329
-29.773012,3.132956,4.0013943
-29.80043,3.1396275,4.008602
-29.825478,3.1267166,3.9920993
-29.855673,3.1607969,4.032733
-29.882326,3.1645148,4.036561
-29.907654,3.1537082,4.022806
-29.934006,3.1537542,4.0223007
-29.96078,3.1602151,4.0296574
-29.986292,3.1470656,4.013241
-30.012419,3.1415992,4.0062265
-30.039017,3.1457248,4.010938
-30.065878,3.1613498,4.0296993
-30.092108,3.1605325,4.028531
-30.118237,3.1496203,4.0151515
-30.144592,3.1508424,4.016593
-30.171005,3.1413355,4.00505
-30.197433,3.1414235,4.0052404
-30.223946,3.1384044,4.0017176
-30.250217,3.1437082,4.0083804
-30.276278,3.151619,4.0182767
-30.302605,3.1519773,4.0190535
-30.32929,3.1466908,4.0130324
-30.355982,3.1427426,4.008705
-30.38186,3.1496513,4.0176373
-30.409067,3.1407652,4.0074415
-30.435673,3.1395617,4.006646
-30.461882,3.1422324,4.010622
-30.488197,3.1437016,4.0132027
-30.51424,3.147139,4.018238
-30.541277,3.1430411,4.0141907
-30.568113,3.1409144,4.012603
-30.594593,3.14139,4.0142384
-30.619062,3.1539555,4.0305977
-30.647537,3.1425457,4.0179534
-30.673296,3.1470191,4.0246286
-30.698977,3.151557,4.031444
-30.729223,3.1334243,4.0108757
-30.757383,3.1267416,4.0042458
-30.782999,3.1321213,4.012283
-30.810574,3.1287382,4.0097847
-30.837912,3.1266892,4.0089707
-30.864979,3.1259725,4.0098352
-30.8988,3.0995278,3.9797084
-30.919338,3.124124,4.0112696
-30.947699,3.1192229,4.0072937
-30.976158,3.1143997,4.0034876
-31.003588,3.1134195,4.0043864
-31.032978,3.106243,3.9978967
-31.060118,3.1066668,4.0006294
-31.087875,3.1052837,4.00126
-31.115877,3.1033506,4.001301
-31.143272,3.1033678,4.003756
-31.172012,3.099711,4.0018754
-31.198318,3.1029956,4.0083914
-31.229021,3.0945077,4.0008726
-31.257011,3.0935798,4.002489
-31.284538,3.0939713,4.0057564
-31.313828,3.0900874,4.003987
-31.342943,3.0869064,4.0031366
-31.369762,3.089386,4.009118
-31.39494,3.095651,4.0196776
-31.42275,3.0957916,4.0230064
-31.457846,3.079944,4.00739
-18.04871,0.7462621,4.163209
-18.297462,0.80958605,4.1560144
-18.52246,0.86398935,4.1448765
-18.824627,0.9539063,4.158626
-19.025255,1.0004196,4.145777
-19.216564,1.0439234,4.1323256
-19.525684,1.1420796,4.157426
-19.645733,1.1556573,4.1264625
-19.883265,1.2241282,4.134573
-20.08434,1.2771394,4.133445
-20.231071,1.3058636,4.116372
-20.393866,1.34304,4.1063743
-20.633652,1.4180119,4.1250286
-20.845875,1.4813099,4.136728
-20.999138,1.5173357,4.129565
-21.144268,1.5503073,4.1211095
-21.290676,1.5847876,4.1147404
-21.460335,1.6317732,4.118904
-21.60406,1.6668122,4.114931
-21.684265,1.6704996,4.087395
-21.906008,1.7470236,4.1177053
-22.020687,1.7698531,4.106801
-22.13256,1.7918961,4.0959682
-22.312908,1.8505775,4.1154246
-22.390066,1.8558531,4.0925164
-22.525543,1.8926659,4.0959425
-22.666231,1.9331915,4.103274
-22.749216,1.9432929,4.0860915
-22.91578,1.9996808,4.108272
-23.00542,2.0147312,4.096491
-23.160149,2.0666282,4.1166344
-23.246664,2.081261,4.1057224
-23.364145,2.1139803,4.1109333
-23.489897,2.1522477,4.121658
-23.573051,2.1667948,4.112339
-23.653612,2.180315,4.102569
-23.78741,2.22562,4.1214457
-23.860266,2.2357779,4.109716
-23.943863,2.2527666,4.1045074
-24.007032,2.2579336,4.0890617
-24.118738,2.2929883,4.1011114
-24.215298,2.3195686,4.1060386
-24.283146,2.3290205,4.0957384
-24.401058,2.3701859,4.115115
-24.427448,2.3544915,4.0822706
-24.547506,2.3984075,4.1052437
-24.628626,2.4182782,4.1062827
-24.67734,2.4176795,4.0884027
-24.76093,2.4400995,4.092601
-24.837505,2.458487,4.0933843
-24.87705,2.4527068,4.071377
-24.978039,2.4883575,4.089457
-25.050098,2.5052075,4.0898676
-25.085737,2.4975865,4.0668306
-25.157415,2.5149398,4.0683327
-25.252384,2.5490596,4.086646
-25.280682,2.53701,4.059928
-25.36216,2.5627408,4.070711
-25.44952,2.593359,4.0867615
-25.501438,2.5990372,4.0783467
-25.56227,2.6115174,4.0769815
-25.631159,2.630358,4.082301
-25.699032,2.6489701,4.087716
