x,y,z
-40.80005,2.2644582,4.1071916
-41.02865,2.2227855,4.105019
-41.268806,2.1784942,4.101958
-41.49594,2.1399841,4.105446
-41.73645,2.0982928,4.107621
-42.082138,2.0232024,4.0828705
-42.369144,1.9693712,4.0782757
-42.72973,1.8933642,4.0571237
-42.987926,1.8522992,4.067042
-43.332794,1.7851722,4.0575624
-43.734257,1.7022645,4.0378075
-44.051292,1.6479287,4.043292
-44.477154,1.561907,4.026362
-44.93777,1.4677696,4.0062
-45.36219,1.3871939,3.9994802
-45.75013,1.3198965,4.0055914
-46.275146,1.21436,3.9866495
-46.839134,1.1004634,3.9655428
-47.391323,0.99319744,3.9532242
-47.966545,0.88248706,3.942616
-48.600822,0.7583518,3.9272404
-49.284927,0.6238904,3.9098253
-49.96013,0.495749,3.901723
-12.448513,0.9773042,3.8621755
-14.161968,1.4108157,4.1137733
-14.709228,1.5186553,4.135527
-14.861501,1.5145833,4.0764832
-15.46946,1.6453645,4.1220984
-15.733238,1.6772842,4.0947385
-16.059147,1.7292979,4.085066
-16.26696,1.747222,4.050152
-17.298847,1.9355748,4.066085
-17.630207,1.998321,4.0758195
-17.892471,2.0408535,4.070311
-18.1541,2.0846577,4.0675607
-18.4224,2.1321301,4.069673
-18.653389,2.168818,4.063853
-18.928503,2.221541,4.073873
-19.241009,2.2884927,4.0985193
-19.454449,2.3235781,4.095793
-19.662796,2.3581297,4.093839
-19.869677,2.393365,4.093754
-20.05887,2.423582,4.0901275
-20.19728,2.4368625,4.071411
-20.35067,2.456236,4.0593386
-20.552807,2.4940968,4.0661044
-20.705345,2.5150256,4.057405
-20.87437,2.5428925,4.0564094
-20.991585,2.5524178,4.0380487
-21.170347,2.58573,4.044224
-21.39952,2.6392896,4.071894
-21.535725,2.6585956,4.0658555
-21.68729,2.6846323,4.0674567
-21.807896,2.6994326,4.058216
-21.962055,2.7281783,4.064147
-22.041283,2.727914,4.0403976
-22.212723,2.765215,4.0567656
-22.30185,2.7700624,4.039465
-22.426805,2.7900963,4.038867
-22.521502,2.7982926,4.026122
-22.63641,2.815467,4.023573
-22.77892,2.8450046,4.0350842
-22.84406,2.8423457,4.011937
-23.019344,2.887537,4.0419374
-23.07986,2.8838634,4.0185204
-23.201302,2.9072623,4.025606
-23.289024,2.9164276,4.0172796
-23.407162,2.9397316,4.025317
-23.487722,2.946745,4.015415
-23.573027,2.956359,4.008836
-23.695726,2.9837375,4.023004
-23.764936,2.9869595,4.009903
-23.901344,3.022203,4.034172
-23.951454,3.0173278,4.0124
-24.032152,3.0273292,4.0082045
-24.123817,3.0431156,4.0111446
-24.20079,3.052273,4.0066633
-24.319588,3.0825677,4.0275407
-24.367477,3.0782752,4.007805
-24.445261,3.0892363,4.006463
-24.554867,3.1168764,4.025448
-24.589916,3.1069405,3.999655
-24.700274,3.1361818,4.021339
-24.748323,3.1335433,4.0048027
-24.79483,3.1302702,3.987663
-24.896326,3.1565926,4.00688
-24.968393,3.1677632,4.007924
-25.0349,3.1763477,4.0060654
-25.10194,3.185621,4.0053115
-25.167252,3.194337,4.0041237
-25.228617,3.201229,4.000912
-25.282394,3.2041652,3.992987
-25.365501,3.2241974,4.0066767
-25.413029,3.224233,3.995552
-25.477972,3.2346678,3.9977047
-25.545553,3.2470794,4.002598
-25.599882,3.2520366,3.9982815
-25.644041,3.2511647,3.9867337
-25.704525,3.2604184,3.988257
-25.769014,3.272526,3.9936502
-25.819155,3.2761579,3.9883914
-25.88384,3.289194,3.9954114
-25.930859,3.2914805,3.9887812
-25.971565,3.2899609,3.977374
-26.027332,3.2983532,3.9789603
-26.07675,3.3029509,3.9757967
-26.13144,3.3113165,3.9777107
-26.181873,3.3171992,3.97656
-26.229465,3.3214693,3.9734576
-26.274927,3.3245583,3.968953
-26.330166,3.33463,3.9737947
-26.36289,3.329409,3.9586115
-26.388517,3.3192525,3.936977
-26.44851,3.3335142,3.9478133
-26.474192,3.3235745,3.9266486
-26.496841,3.3113854,3.9025383
-26.538635,3.3131776,3.8971534
-26.580969,3.3155823,3.8927104
-26.62009,3.3157976,3.8854518
-26.667187,3.3222458,3.8866858
-26.707973,3.3241582,3.8819487
-26.740158,3.3195987,3.8685858
-26.822464,3.3544736,3.908663
-26.874685,3.3664021,3.9179173
-26.87377,3.336076,3.869934
-26.888737,3.3181205,3.838728
-26.950157,3.3380966,3.8592505
-26.989695,3.340502,3.855968
-27.027412,3.3415928,3.850993
-27.07531,3.3515282,3.8582444
-27.085709,3.3295689,3.8218336
-27.126717,3.3339136,3.821597
-27.199188,3.366263,3.8600616
-27.232496,3.3645973,3.851815
-27.267426,3.3645086,3.8458288
-27.30932,3.3709407,3.8489594
-27.339823,3.367136,3.8380058
-27.373005,3.3658981,3.8306868
-27.372112,3.3324475,3.778633
-27.364086,3.2914472,3.716003
-27.325533,3.2198486,3.6105933
-27.33418,3.193083,3.5676255
-27.338812,3.1617677,3.518269
-27.344048,3.1304028,3.4688053
-27.321308,3.0697021,3.37814
-27.322702,3.0326033,3.3204942
-27.296852,2.9660006,3.221282
-27.302872,2.931747,3.1674857
-27.325127,2.914272,3.1373224
-27.340706,2.8891635,3.0964026
-27.344778,2.8507335,3.0366411
-27.331383,2.7917018,2.9476633
-27.334036,2.7495027,2.8824353
-27.34109,2.7113602,2.8229113
-27.365595,2.6928124,2.791195
-27.322304,2.5929637,2.643848
-27.299492,2.5151322,2.5276284
-27.329048,2.4995291,2.499978
-27.33633,2.455831,2.4322715
-27.330475,2.394315,2.339065
-27.342949,2.3546607,2.277038
-27.342173,2.2966175,2.1886578
-27.374222,2.280517,2.160317
-27.337532,2.1712818,1.9984112
-27.34424,2.1182091,1.9169459
-27.336493,2.0433984,1.8041863
-27.351185,1.9980981,1.7337775
-27.367157,1.9532974,1.6640677
-27.364483,1.879777,1.5529461
-27.350134,1.7864399,1.4131508
-27.353504,1.7169147,1.3076019
-27.361065,1.6515679,1.2080216
-36.358807,0.8385155,0.44523048
-36.39796,0.8650806,0.4943304
-36.363304,0.95094514,0.6241045
-36.369347,1.0026898,0.707325
-36.35399,1.0704706,0.81218195
-36.36159,1.1191194,0.8910084
-36.39457,1.1474037,0.9422908
-36.320568,1.25703,1.1031122
-36.392704,1.2542145,1.1124582
-36.313103,1.3650663,1.2743912
-36.37998,1.3656142,1.2883267
-36.29912,1.4743841,1.4469051
-36.347168,1.4879348,1.4782166
-36.3075,1.5642066,1.5929856
-36.33899,1.5887995,1.6389685
-36.333527,1.6390269,1.7188997
-36.300854,1.7073214,1.8225522
-36.339043,1.7259028,1.8605237
-36.3936,1.7332778,1.883852
-36.44474,1.7430754,1.9105034
-36.50994,1.7436125,1.9251876
-36.529007,1.7747483,1.979948
-36.56259,1.7960873,2.0219665
-36.599277,1.815278,2.061257
-36.59023,1.9053345,2.2066865
-36.612206,1.932879,2.256751
-36.44642,2.1925194,2.6470337
-36.344093,2.291038,2.7864761
-36.386642,2.3027346,2.8156986
-36.40859,2.326454,2.8601737
-36.43089,2.3497732,2.9041667
-36.430664,2.38575,2.9640164
-36.449127,2.4107373,3.0100808
-36.44853,2.4461632,3.0691223
-36.467583,2.4702835,3.1140804
-36.475693,2.5002046,3.1662068
-36.487854,2.5276122,3.2152028
-36.517857,2.5451698,3.2521114
-36.536873,2.568504,3.2961378
-36.546288,2.59672,3.3461127
-36.576893,2.6136017,3.382329
-36.59326,2.637788,3.427431
-36.63892,2.6467934,3.4542947
-36.67663,2.65993,3.4862533
-36.72204,2.6692255,3.5137463
-36.77288,2.6759212,3.5383062
-36.82923,2.68006,3.5600276
-36.897552,2.6785684,3.5753345
-36.96516,2.6777391,3.5916905
-37.031227,2.6779513,3.6095328
-37.102207,2.6761267,3.6252766
-37.17328,2.6745908,3.641646
-37.253418,2.669174,3.653851
-37.329613,2.6659787,3.66894
-37.412506,2.6601007,3.6813025
-37.498863,2.6530817,3.692737
-37.589554,2.6445785,3.7028842
-37.669617,2.641257,3.7192454
-37.784077,2.623252,3.7196069
-37.85274,2.6257913,3.743267
-37.977867,2.6043532,3.7408185
-38.041676,2.6097527,3.768363
-38.10884,2.6139743,3.7948995
-38.20665,2.6056695,3.8081803
-38.291832,2.603093,3.8280873
-38.38568,2.5973692,3.8450332
-38.4969,2.5850768,3.855464
-38.58504,2.5826437,3.87684
-39.877262,2.102147,3.3982196
-39.900864,2.1306083,3.4560661
-39.910954,2.164207,3.519256
-39.924034,2.196424,3.580997
-39.9138,2.2373493,3.651575
-39.90294,2.2781415,3.7218647
-39.900284,2.315489,3.7885485
-39.905933,2.349458,3.85177
-39.919067,2.3804421,3.911996
-39.93174,2.411418,3.9722042
-39.903713,2.4568663,4.04641
-39.916245,2.487399,4.1060443
-40.10186,2.4567032,4.1074734
-40.301502,2.4221683,4.1063724
-40.495377,2.3907776,4.109385
-40.694283,2.358762,4.112974
-40.907333,2.32308,4.1144075
-41.14736,2.2795606,4.110051
-41.390804,2.2362947,4.107403
-41.68985,2.1761565,4.091348
-41.93747,2.1345012,4.0933485
-42.29061,2.0602832,4.0687847
-42.599644,2.0022051,4.0602875
-42.93263,1.9383576,4.0489364
-43.220196,1.8906009,4.0531607
-43.52793,1.8382285,4.055489
-43.954597,1.7512612,4.031864
-44.289192,1.6946013,4.0353255
-44.76942,1.5962665,4.0082994
-45.17417,1.5230455,4.004051
-45.6024,1.4452367,3.999126
-46.068314,1.3589344,3.9908504
-46.606934,1.2544427,3.9724927
-47.16764,1.1467595,3.9557118
-47.73347,1.0408192,3.9442563
-48.28354,0.9424336,3.9422293
-48.99897,0.8017962,3.9154158
-49.73985,0.6583133,3.8920894
-50.40908,0.5382097,3.8897104
-51.18078,0.3946681,3.8774586
-12.557798,1.1628928,3.9405189
-13.926147,1.4867463,4.1166577
-14.231168,1.5217972,4.084321
-14.743938,1.617126,4.100403
-15.2206335,1.7050779,4.1142664
-15.536614,1.7493579,4.096727
-15.875399,1.802016,4.088046
-16.949532,1.988748,4.099415
-17.271093,2.0439565,4.101848
-17.507544,2.0747867,4.0853024
-17.821156,2.1309156,4.092337
-18.010365,2.1497242,4.0683417
-18.295856,2.2001271,4.073757
-18.545692,2.240723,4.0720572
-18.828753,2.29352,4.0830364
-19.058014,2.3303316,4.0809484
-19.282124,2.3667388,4.0798464
-19.473839,2.3935814,4.071036
-19.68503,2.4280782,4.070629
-19.90648,2.4672914,4.075983
-20.119164,2.5047708,4.080927
-20.311434,2.5363758,4.081325
-20.472689,2.5581644,4.0730968
-20.62104,2.5762575,4.062069
-20.7156,2.5758257,4.0332108
-20.94691,2.625482,4.055623
-21.122448,2.6561148,4.059869
-21.264763,2.6754751,4.0534496
-21.415504,2.6987886,4.051878
-21.584232,2.7297702,4.059115
-21.78212,2.7729006,4.080034
-21.838005,2.7625232,4.0452485
-21.996538,2.7922904,4.0535755
-22.097355,2.800323,4.0393476
-22.226461,2.8201163,4.038333
-22.36893,2.8460228,4.044617
-22.432041,2.840645,4.017322
-22.616467,2.885142,4.0453005
-22.688572,2.8844528,4.0240746
-22.836945,2.9159074,4.039038
-22.910364,2.916728,4.0203414
-23.06114,2.9508057,4.039503
-23.129921,2.9506385,4.020526
-23.2663,2.9801145,4.035667
-23.325548,2.9766784,4.0136976
-23.469322,3.0108843,4.035372
-23.537312,3.0121934,4.019596
-23.666868,3.0416067,4.036833
-23.706596,3.030949,4.0077705
-23.833689,3.0605729,4.026209
-23.899292,3.0624843,4.0124836
-23.98339,3.0733898,4.0096965
-24.10747,3.1037297,4.0304327
-24.148392,3.0951383,4.005104
-24.24605,3.1140628,4.0130033
-24.320267,3.1221807,4.008267
-24.402964,3.1348968,4.009406
-24.486935,3.1487522,4.0122714
-24.551004,3.15313,4.003893
-24.63286,3.1668687,4.0072494
-24.715944,3.181755,4.012349
-24.754684,3.1742187,3.9900532
-24.857265,3.200151,4.0094223
-24.933302,3.2128186,4.0126896
-24.973293,3.2067463,3.9928234
-25.054197,3.2228193,4.000867
-25.133226,3.23842,4.008633
-25.169964,3.2313206,3.9880292
-25.26264,3.2553415,4.006978
-25.313305,3.256518,3.9972425
-25.376411,3.2649784,3.996972
-25.431969,3.2695048,3.9918952
-25.493206,3.2776165,3.9916136
-25.555677,3.2868204,3.9929562
-25.609262,3.2911832,3.988267
-25.664137,3.2966056,3.9851341
-25.718134,3.301815,3.9819095
-25.778341,3.3111053,3.9841824
-25.827751,3.314158,3.9785163
-25.884739,3.3221684,3.979504
-25.924828,3.3199515,3.967252
-25.946943,3.3065033,3.9403274
-25.989176,3.3058348,3.9303153
-26.064102,3.3264756,3.9486358
-26.110098,3.3288438,3.9429753
-26.13916,3.3202734,3.9229035
-26.185726,3.3233814,3.9184742
-26.230844,3.3257647,3.9132178
-26.27586,3.328312,3.9083173
-26.322733,3.3323758,3.905587
-26.347347,3.3212156,3.882507
-26.397976,3.328294,3.88408
-26.438784,3.3287215,3.8768158
-26.49163,3.3379874,3.8816442
-26.52653,3.3345928,3.869444
-26.563328,3.3326921,3.859366
-26.605097,3.3346128,3.8545964
-26.634407,3.3273945,3.8374562
-26.669947,3.3249164,3.8268704
-26.70731,3.3239532,3.818454
-26.75068,3.3278022,3.8167481
-26.80051,3.33698,3.822501
-26.857233,3.3520088,3.8364713
-26.870565,3.3326893,3.803146
-26.900612,3.3266723,3.7882385
-26.966093,3.3498094,3.8138332
-27.001158,3.3483543,3.8054667
-27.035635,3.3465307,3.7966728
-27.06897,3.3438528,3.7867713
-27.090553,3.331146,3.7629437
-27.136213,3.3392854,3.7683063
-27.201998,3.365544,3.7991798
-27.236681,3.3648162,3.7923899
-27.271332,3.3641973,3.7858357
-27.308622,3.3661337,3.7829614
-27.350063,3.3721185,3.7858858
-27.37455,3.3624973,3.7668867
-27.37479,3.3297374,3.7152157
-27.384922,3.3058167,3.6760092
-27.323246,3.2114248,3.5368724
-27.331001,3.1833048,3.491539
-27.336311,3.1521585,3.4418783
-27.336802,3.115465,3.384285
-27.31557,3.0556405,3.293665
-27.305208,3.005682,3.2169895
-27.31829,2.9792688,3.1738682
-27.337074,2.958398,3.1386685
-27.345516,2.9259014,3.0868235
-27.341679,2.8791604,3.0145192
-27.326925,2.819096,2.923007
-27.335028,2.78334,2.8663287
-27.345177,2.7490735,2.8117638
-27.349407,2.7070928,2.7460575
-27.345358,2.654272,2.6646657
-27.314503,2.5679176,2.5347652
-27.329477,2.5349102,2.481814
-27.340508,2.4962082,2.42061
-27.346127,2.4497073,2.348081
-27.338036,2.3844738,2.2483397
-27.3345,2.3232613,2.154337
-27.358353,2.296293,2.110012
-27.34643,2.2208388,1.995183
-27.344536,2.156722,1.8967447
-27.35003,2.1008713,1.8102727
-27.346214,2.0302584,1.702218
-27.35968,1.9821181,1.6268783
-27.382465,1.946048,1.5691476
-27.351398,1.829299,1.3934503
-27.353682,1.758771,1.2852068
-27.359846,1.6918466,1.1821709
-36.352364,0.9030535,0.42757034
-36.36148,0.9536743,0.51014996
-36.36551,1.0075164,0.597106
-36.358974,1.0687847,0.6942067
-36.362713,1.1209643,0.77867556
-36.338177,1.1940954,0.89181805
-36.38378,1.2123933,0.9296298
-36.320034,1.3130884,1.0801997
-36.359272,1.3350277,1.1229286
-36.31056,1.4216874,1.2538619
-36.35284,1.4403391,1.292069
-36.3072,1.5223582,1.4162922
-36.342506,1.5450919,1.4599981
-36.358757,1.5810912,1.5216713
-36.333496,1.6456311,1.6217699
-36.329887,1.6941104,1.700078
-36.32342,1.7438097,1.7799134
-36.33658,1.7794611,1.8408322
-36.370445,1.800775,1.8825765
-36.419415,1.8119185,1.9108324
-36.468246,1.8232067,1.9394021
-36.508095,1.8403792,1.9758916
-36.537415,1.8642483,2.0213146
-36.509167,1.9245203,2.114767
-36.551216,1.9396052,2.1485896
-36.588165,1.9578447,2.1866465
-36.615013,1.9822285,2.2328143
-36.641464,2.0066488,2.2790613
-36.432407,2.1731236,2.5100813
-36.431683,2.2498443,2.6377072
-36.377552,2.3189757,2.7410617
-36.36722,2.3615906,2.8100047
-36.4022,2.3776128,2.8447437
-36.403122,2.4129486,2.904233
-36.421917,2.437799,2.9502954
-36.441795,2.4618292,2.9953227
-36.46726,2.4825754,3.036209
-36.465363,2.5181358,3.0958133
-36.47871,2.5450244,3.144434
-36.498447,2.568239,3.188438
-36.52315,2.5886395,3.2289467
-36.509212,2.6292071,3.294568
-36.53078,2.6507967,3.3365378
-36.587624,2.6540835,3.3559494
-36.61569,2.6722531,3.3938556
-36.65286,2.6857529,3.426103
-36.69063,2.6989708,3.4581122
-36.73769,2.707619,3.4846802
-36.793373,2.712156,3.5064316
-36.85143,2.715743,3.5272384
-36.91588,2.716476,3.544835
-36.986004,2.7147865,3.5597863
-37.05219,2.715282,3.5776129
-37.12329,2.713772,3.5933256
-37.19042,2.714432,3.6118803
-37.268215,2.710498,3.6253161
-37.34451,2.7076328,3.6403232
-37.417618,2.7065623,3.657733
-37.49743,2.7028508,3.6723962
-37.576534,2.6998403,3.6882048
-37.67493,2.6888041,3.6951756
-37.757683,2.6850617,3.710887
-37.864082,2.6716163,3.7159839
-37.970783,2.6586432,3.722107
-38.03798,2.662816,3.7479067
-38.113655,2.6637344,3.7703729
-38.199604,2.6607628,3.7888727
-38.264267,2.666863,3.8177347
-38.364944,2.6586914,3.8312893
-38.448586,2.6578393,3.8532672
-38.565147,2.6443658,3.8620267
-39.88803,2.159787,3.3668165
-39.91078,2.1885614,3.4251099
-39.908646,2.2267444,3.4933777
-39.904167,2.265499,3.562141
-39.889423,2.3077826,3.6344595
-39.897835,2.3410516,3.697287
-39.904858,2.3746114,3.7603712
-39.922905,2.4039235,3.8190851
-39.93695,2.434537,3.8791313
-39.93984,2.4689744,3.9430008
-39.936832,2.505252,4.008628
-39.888405,2.5571578,4.089524
-40.011982,2.5488312,4.1113048
-40.239513,2.5054517,4.099897
-40.415276,2.4810023,4.107941
-40.624107,2.446404,4.1073804
-40.83623,2.4119017,4.1081457
-41.071716,2.3709092,4.1041474
-41.29231,2.3361244,4.107279
-41.522614,2.299446,4.1100273
-41.85089,2.2327874,4.087235
-42.107414,2.190732,4.088378
-42.45229,2.1225078,4.068146
-42.765785,2.066002,4.0602946
-43.106087,2.003088,4.0489726
-43.37293,1.9643673,4.0603223
-43.7605,1.8909452,4.0444574
-44.183662,1.809205,4.024332
-44.549953,1.7465713,4.0225525
-45.00804,1.659375,4.003627
-45.41565,1.5892775,4.0013
-45.823246,1.521467,4.0035586
-46.31849,1.4313307,3.991661
-46.957577,1.3040731,3.955492
-47.459156,1.2182083,3.9543447
-48.029137,1.1165726,3.9454365
-48.684917,0.9951031,3.9266567
-49.38881,0.86455536,3.906436
-50.084747,0.74004555,3.8955832
-50.893852,0.5900686,3.8730698
-51.761127,0.42970848,3.8500094
-12.413235,1.2321115,3.8634243
-14.056746,1.6215823,4.0994787
-14.650897,1.7343006,4.130472
-14.905909,1.7567542,4.0937233
-15.498494,1.8748103,4.135933
-15.653587,1.8727431,4.0835524
-16.856438,2.086147,4.120165
-17.078918,2.1091998,4.095797
-17.32521,2.140531,4.0800843
-17.590487,2.1789274,4.072183
-17.896797,2.231304,4.0785084
-18.194897,2.2829046,4.086011
-18.447056,2.3219097,4.08372
-18.63245,2.3413177,4.064675
-18.910969,2.3913403,4.0755467
-19.206036,2.4483032,4.094677
-19.38073,2.4679055,4.079628
-19.638733,2.5158007,4.0930376
-19.849674,2.5496035,4.094122
-20.045555,2.579567,4.0926013
-20.130857,2.5731897,4.0558977
-20.316067,2.601352,4.0544043
-20.529469,2.640319,4.0648985
-20.694769,2.663751,4.0606537
-20.876575,2.6939406,4.064271
-20.960907,2.6904354,4.033794
-21.167576,2.7313604,4.0503216
-21.373505,2.7732754,4.0689955
-21.530205,2.7983649,4.070848
-21.590683,2.7886412,4.0361824
-21.801857,2.835641,4.0630198
-21.896103,2.8396811,4.0442553
-22.017178,2.8544543,4.0376816
-22.199488,2.8935719,4.0585117
-22.261826,2.8870053,4.0296183
-22.42926,2.9221137,4.0474753
-22.533379,2.9330645,4.0390472
-22.639807,2.9455128,4.0327945
-22.751064,2.960516,4.0299354
-22.842466,2.968009,4.019016
-22.985256,2.997284,4.0335174
-23.06511,3.0011246,4.019325
-23.197704,3.0276618,4.0318217
-23.269558,3.0291066,4.015653
-23.38879,3.051323,4.024145
-23.482664,3.0632453,4.02104
-23.558905,3.0679488,4.0097923
-23.692595,3.0985625,4.0296984
-23.756815,3.0989125,4.0140147
-23.894413,3.1328006,4.0388756
-23.928108,3.120105,4.0081325
-24.021044,3.13481,4.010704
-24.117668,3.1518035,4.016451
-24.175404,3.1510792,4.0009394
-24.29538,3.180231,4.022325
-24.332851,3.1705701,3.996373
-24.423466,3.1867743,4.002552
-24.531034,3.211872,4.020151
-24.579258,3.2083368,4.002477
-24.635286,3.2088838,3.9900804
-24.730068,3.2292638,4.0028114
-24.805847,3.2406,4.004514
-24.861347,3.2419567,3.9938722
-24.932827,3.251893,3.9943256
-25.007093,3.263729,3.9974685
-25.066675,3.2682388,3.9915187
-25.142683,3.2818763,3.9974952
-25.204868,3.2885287,3.994761
-25.267607,3.295841,3.9931002
-25.320496,3.298081,3.985088
-25.381392,3.3050537,3.9834065
-25.436218,3.3089633,3.9779422
-25.496742,3.316411,3.97729
-25.530943,3.3090775,3.9574566
-25.536377,3.285084,3.9158015
-25.6419,3.3195782,3.9512706
-25.680372,3.3152156,3.9357357
-25.727377,3.3160803,3.9272447
-25.74683,3.3004837,3.8970025
-25.818344,3.316616,3.9091036
-25.885296,3.3304665,3.9184015
-25.929783,3.330771,3.9097672
-25.939156,3.3091173,3.8717551
-25.958466,3.2935405,3.8419142
-26.053331,3.3265235,3.8776815
-26.12051,3.3423662,3.8905838
-26.145796,3.3311641,3.8670106
-26.183887,3.3284283,3.8550029
-26.235188,3.3347018,3.8553784
-26.287611,3.342061,3.8573933
-26.329405,3.342461,3.8500397
-26.354311,3.3313298,3.8269775
-26.38517,3.3243146,3.8096228
-26.42568,3.3241754,3.8018146
-26.49652,3.3459692,3.8244026
-26.546118,3.3530192,3.8268197
-26.588032,3.354767,3.822031
-26.623665,3.3520722,3.811184
-26.643942,3.3379798,3.7845607
-26.67177,3.3294666,3.7657456
-26.720882,3.337253,3.7697592
-26.767378,3.34336,3.7715616
-26.801197,3.3398356,3.7599888
-26.865723,3.3607616,3.7828403
-26.881767,3.343432,3.752058
-26.91147,3.3369534,3.7365813
-26.971176,3.3551369,3.7559886
-27.01847,3.3635988,3.7618246
-27.0514,3.3603425,3.7511897
-27.081541,3.3548002,3.7373862
-27.105082,3.3436003,3.7156048
-27.144222,3.3458896,3.7130613
-27.210533,3.3723752,3.7451081
-27.253544,3.3788555,3.7487926
-27.28941,3.379193,3.743805
-27.319387,3.3743038,3.7314177
-27.347322,3.3675523,3.7164207
-27.373272,3.3589203,3.6987782
-27.387003,3.338603,3.6643786
-27.372078,3.2903092,3.589695
-27.329887,3.2143092,3.474957
-27.338175,3.1863756,3.4294062
-27.33565,3.1470327,3.3673377
-27.319744,3.093219,3.2842607
-27.30494,3.039248,3.2008424
-27.323738,3.0190172,3.166273
-27.343391,2.999303,3.1324654
-27.341454,2.9560685,3.0644622
-27.337618,2.9097314,2.991877
-27.353447,2.8839266,2.9491525
-27.335938,2.8202877,2.8512082
-27.34694,2.7873158,2.7979503
-27.336578,2.7289796,2.7075691
-27.379179,2.7309349,2.7053747
-27.32033,2.612911,2.5274029
-27.327147,2.5704927,2.4600983
-27.346127,2.5418189,2.4129405
-27.341719,2.483442,2.322116
-27.340557,2.4275162,2.234816
-27.33211,2.3606894,2.1313887
-27.344082,2.318457,2.064128
-27.376068,2.3014867,2.0341258
-27.34403,2.1981888,1.8766441
-27.340754,2.130908,1.772232
-27.354218,2.0847967,1.6990647
-27.353157,2.0168006,1.5934591
-27.362587,1.9617221,1.5069246
-27.371376,1.9039726,1.4163866
-27.364496,1.821054,1.2884364
-36.35383,0.9627092,0.39680767
-36.359993,1.0152931,0.4829378
-36.362198,1.0701113,0.5721235
-36.36097,1.1266701,0.66365576
-36.314095,1.2174504,0.80293226
-36.302475,1.2796309,0.9020047
-36.365547,1.284435,0.921
-36.4021,1.3092029,0.9679098
-36.336937,1.4086916,1.1185613
-36.357487,1.4438212,1.1797156
-36.329468,1.5135,1.2886114
-36.39035,1.5185621,1.308167
-36.323837,1.6136775,1.4518375
-36.370235,1.6282506,1.4845076
-36.30799,1.7178016,1.6200476
-36.328365,1.7493119,1.6758552
-36.30539,1.8097305,1.7711086
-36.32636,1.8397849,1.8248324
-36.33145,1.8799908,1.8923464
-36.38286,1.8893328,1.9179645
-36.433487,1.8992712,1.9445162
-36.453365,1.9289958,1.9978833
-36.48781,1.949157,2.0383787
-36.535034,1.9611688,2.0679975
-36.6018,2.0023463,2.150485
-36.64137,2.0189774,2.1865435
-36.641117,2.0595407,2.254476
-36.448956,2.2521625,2.537353
-36.431065,2.3003223,2.6146045
-36.42677,2.33993,2.6804638
-36.359207,2.4152277,2.792964
-36.39926,2.4283278,2.8238697
-36.42516,2.4493835,2.865232
-36.438885,2.477053,2.915216
-36.439507,2.5116537,2.9741502
-36.46047,2.5347767,3.0182085
-36.468277,2.564805,3.0711608
-36.48087,2.591965,3.1203985
-36.50137,2.6146936,3.1639576
-36.507,2.6450257,3.2172127
-36.54358,2.65902,3.2497
-36.57225,2.6770723,3.2874103
-36.597553,2.6967623,3.3272414
-36.631115,2.7121978,3.3617811
-36.667587,2.7261693,3.3945756
-36.7298,2.7274716,3.4116979
-36.77864,2.735562,3.4374604
-36.83612,2.7396107,3.4583917
-36.900772,2.7404466,3.475575
-36.966278,2.7411582,3.492845
-37.023796,2.7458978,3.5152745
-37.095837,2.7441077,3.529982
-37.152565,2.7496939,3.5538893
-37.232883,2.7447443,3.56532
-37.29782,2.747135,3.5858736
-37.37592,2.7439184,3.5999894
-37.443428,2.7457645,3.6204348
-37.52256,2.74281,3.6354756
-37.603474,2.7394662,3.6503878
-37.684517,2.736463,3.6660376
-37.771545,2.7313104,3.679531
-37.850315,2.7300673,3.697925
-37.980675,2.7077112,3.6923494
-38.056416,2.7086587,3.7140627
-38.150913,2.7022831,3.7277632
-38.237907,2.6994238,3.7458706
-38.307877,2.703792,3.7725
-38.376114,2.7091274,3.8005104
-38.429653,2.7204921,3.835517
-38.527195,2.7149153,3.8520203
-38.62576,2.709433,3.8690891
-39.89814,2.2576263,3.3999367
-39.870583,2.3051198,3.4786034
-39.875603,2.3399558,3.5434103
-39.887123,2.3721368,3.6053214
-39.907867,2.4007483,3.663423
-39.927296,2.4297078,3.7219229
-39.9383,2.4615517,3.7834601
-39.902515,2.5097988,3.8619738
-39.901707,2.5452442,3.92703
-39.90215,2.5799897,3.9912825
-39.910152,2.611883,4.052568
-39.943798,2.6348538,4.104875
-40.13068,2.6061969,4.106012
-40.28545,2.589303,4.1197844
-40.468678,2.5638463,4.1260715
-40.736115,2.5119114,4.1078343
-40.941414,2.4816337,4.1118913
-41.191143,2.438297,4.104791
-41.454414,2.392111,4.0965176
-41.682556,2.3584366,4.101429
-41.977615,2.305306,4.0898952
-42.278122,2.2522066,4.0802145
-42.66188,2.1755915,4.0513616
-42.90383,2.143751,4.064541
-43.24023,2.0852056,4.05592
-43.60081,2.0214758,4.044997
-43.950176,1.9630531,4.040933
-44.35563,1.8904936,4.027307
-44.809967,1.8063583,4.006814
-45.248566,1.7292364,3.9950924
-45.642998,1.6668496,3.9981608
-46.104355,1.5882738,3.9911513
-46.61499,1.4989016,3.978963
-47.244293,1.3805461,3.948258
-47.732765,1.3031261,3.9526901
-48.321102,1.2021999,3.9433327
-49.0393,1.0708802,3.9163322
-49.720963,0.95295334,3.9040718
-50.51014,0.8115821,3.8806572
-51.39099,0.65166426,3.8506308
-51.97077,0.571126,3.8797593
-12.50556,1.4137707,3.9372554
-13.900991,1.7246406,4.1183467
-14.235783,1.7635164,4.092181
-14.684463,1.8346162,4.0943775
-15.179326,1.9207017,4.111914
-15.5410795,1.973192,4.1046343
-15.914289,2.0308456,4.1040897
-16.217226,2.0709229,4.0908213
-16.470875,2.0987113,4.0687456
-16.803501,2.1504428,4.069424
-17.602478,2.2580748,4.040032
-17.93214,2.315821,4.0537515
-18.20267,2.3575993,4.0544615
-18.478039,2.4023829,4.0596294
-18.715885,2.4371526,4.0568056
-19.001743,2.4882421,4.071187
-19.264782,2.5338016,4.081809
-19.481422,2.5660918,4.080814
-19.689297,2.5967839,4.07944
-19.883915,2.6243339,4.0760555
-20.079842,2.653408,4.075291
-20.24815,2.674409,4.067314
-20.393549,2.6886392,4.0532312
-20.575459,2.716047,4.053655
-20.717466,2.7308009,4.0417376
-20.925213,2.7691174,4.055523
-21.071735,2.7872286,4.048825
-21.18151,2.7931435,4.029749
-21.38665,2.8337202,4.0487785
-21.54958,2.8603044,4.053591
-21.707592,2.886051,4.058303
-21.794117,2.886364,4.0356555
-21.961796,2.9173145,4.047535
-22.075766,2.9290707,4.038722
-22.214619,2.9509096,4.0418215
-22.328808,2.9640932,4.035761
-22.415123,2.9670963,4.0186033
-22.579454,3.0010977,4.037441
-22.6661,3.0053883,4.022731
-22.79693,3.0277832,4.029438
-22.87462,3.0295079,4.0125957
-23.020763,3.0595322,4.029326
-23.099676,3.0627875,4.015117
-23.221298,3.0842113,4.0228057
-23.297274,3.087195,4.009036
-23.4273,3.113505,4.0235457
-23.499483,3.1158464,4.0097556
-23.592226,3.1274452,4.007462
-23.686329,3.1401722,4.0069284
-23.789963,3.1576638,4.0126085
-23.895649,3.1767123,4.0206356
-23.970814,3.182671,4.0129733
-24.058754,3.1948466,4.0133033
-24.110916,3.191092,3.9941854
-24.227299,3.217366,4.0127325
-24.279177,3.2141764,3.9948404
-24.372416,3.230788,4.002043
-24.441507,3.2364402,3.9957743
-24.515148,3.2446656,3.9930277
-24.598763,3.2581816,3.997291
-24.671112,3.2666678,3.9954524
-24.72924,3.2684913,3.9853427
-24.799637,3.276771,3.9837413
-24.871344,3.2861266,3.9837868
-24.927483,3.2879224,3.9743028
-24.99266,3.2946787,3.9714577
-25.062187,3.304084,3.972297
-25.10205,3.298223,3.9534142
-25.110455,3.2756646,3.9127371
-25.201319,3.2973826,3.930325
-25.2568,3.3004801,3.9236634
-25.329868,3.3135514,3.9303935
-25.322594,3.2824106,3.8786545
-25.408585,3.303275,3.8961062
-25.446182,3.2973073,3.878022
-25.519197,3.3117528,3.8873878
-25.529428,3.2903209,3.8488104
-25.602089,3.3052163,3.859152
-25.654522,3.3086677,3.8542864
-25.706823,3.3123188,3.849854
-25.742168,3.3060133,3.8320665
-25.764347,3.2917461,3.8035326
-25.869791,3.3287344,3.844969
-25.889835,3.3134842,3.8153338
-25.93609,3.3146195,3.8081903
-25.952389,3.2969124,3.7752876
-26.02766,3.316959,3.7943969
-26.080349,3.32295,3.794351
-26.13884,3.3330758,3.8001838
-26.165333,3.322364,3.7773018
-26.206425,3.321412,3.7680345
-26.253344,3.324582,3.764617
-26.297544,3.3261466,3.759091
-26.341652,3.3278685,3.7539039
-26.362055,3.3131967,3.7258663
-26.39347,3.306191,3.708619
-26.481556,3.3398247,3.7486115
-26.518959,3.3376665,3.7384448
-26.5613,3.33926,3.7336674
-26.602322,3.3400905,3.7279215
-26.634119,3.334207,3.7127638
-26.65207,3.317872,3.682835
-26.691908,3.3181188,3.676509
-26.738235,3.323576,3.6777072
-26.790295,3.3338294,3.6858754
-26.845007,3.346602,3.6977892
-26.86978,3.335814,3.6761136
-26.929848,3.3536034,3.695475
-26.930687,3.3233192,3.6459355
-27.009071,3.356956,3.6883373
-27.03677,3.34892,3.6709137
-27.072924,3.3480563,3.6638951
-27.095823,3.3359113,3.6406498
-27.136938,3.3395276,3.6402583
-27.18982,3.3537903,3.6554027
-27.224669,3.3524458,3.6480289
-27.262678,3.354091,3.6450777
-27.30533,3.3601952,3.6487079
-27.340519,3.3596835,3.6427956
-27.370003,3.3539526,3.6293416
-27.373562,3.3235302,3.5798464
-27.391348,3.3062048,3.5494852
-27.321075,3.2024689,3.3924866
-27.327097,3.1717372,3.34232
-27.303423,3.1105292,3.247343
-27.30326,3.0717595,3.185238
-27.327318,3.0570843,3.158565
-27.338398,3.0286052,3.111568
-27.342094,2.9916754,3.0520787
-27.341917,2.9497144,2.9851122
-27.331635,2.8957152,2.9002776
-27.336464,2.8570597,2.8380756
-27.338512,2.8143406,2.7698083
-27.3291,2.7575023,2.680532
-27.303465,2.68042,2.5610857
-27.36324,2.7013655,2.5872889
-27.32494,2.6063926,2.4410582
-27.34309,2.5769153,2.392239
-27.325054,2.502308,2.2761006
-27.34569,2.4737554,2.228601
-27.333519,2.4029517,2.1179643
-27.336327,2.3493357,2.0329313
-27.306625,2.2516713,1.8818936
-27.351463,2.250051,1.8746066
-27.338173,2.1700382,1.7498355
-27.340052,2.1083643,1.6524768
-27.352074,2.0589588,1.5734844
-27.356777,1.997638,1.4765487
-27.363487,1.9372668,1.3809848
-27.368305,1.872159,1.2782383
-36.340046,1.0330896,0.38481522
-36.35369,1.0792022,0.46249866
-36.357567,1.1321816,0.5499263
-36.37479,1.1739941,0.6213727
-36.352036,1.2456031,0.73512745
-36.362534,1.2908854,0.81135416
-36.35564,1.3484044,0.90485
-36.396423,1.3698666,0.9472666
-36.318024,1.4778929,1.1118522
-36.414886,1.4577107,1.0955362
-36.29942,1.5894051,1.2929139
-36.377914,1.5819743,1.294641
-36.304134,1.6810458,1.445642
-36.36008,1.6889143,1.4688773
-36.328197,1.7567565,1.5758367
-36.341488,1.7929888,1.6386147
-36.350174,1.8318143,1.704958
-36.32497,1.8924682,1.801477
-36.342716,1.924093,1.857697
-36.410355,1.9231167,1.868957
-36.375183,1.9881566,1.9712129
-36.439648,1.9891219,1.985312
-36.497322,1.9946067,2.0057797
-36.54531,2.0062683,2.0348363
-36.519524,2.0631943,2.1256747
-36.566765,2.074951,2.1549392
-36.618076,2.084316,2.1810756
-36.384243,2.412295,2.6898055
-36.380424,2.4505587,2.7542439
-36.37593,2.4887102,2.818439
-36.41937,2.4998665,2.846746
-36.443413,2.521698,2.8892765
-36.441795,2.5572817,2.9499636
-36.459015,2.5823283,2.9967222
-36.484856,2.6025805,3.037202
-36.491467,2.632822,3.090765
-36.512012,2.6554925,3.1344304
-36.541367,2.6734588,3.1720119
-36.56891,2.6922755,3.210752
-36.6008,2.708812,3.2466063
-36.631668,2.7258184,3.283135
-36.67086,2.7386565,3.314402
-36.739643,2.7370303,3.3273401
-36.789646,2.7448409,3.3525076
-36.85855,2.7437131,3.366528
-36.91485,2.7489045,3.38876
-36.983883,2.748294,3.403902
-37.043392,2.7524438,3.4252486
-37.106926,2.754963,3.4447742
-37.174522,2.755882,3.4625459
-37.242184,2.7570705,3.4809022
-37.305,2.7607207,3.5025377
-37.372738,2.762437,3.522038
-37.44627,2.761897,3.5390463
-37.52567,2.7591436,3.553659
-37.593582,2.7617188,3.5750217
-37.661526,2.7645667,3.5969748
-37.742016,2.762398,3.6131983
-37.83017,2.7574131,3.626402
-37.9168,2.7535026,3.6412492
-37.999344,2.7516928,3.6589346
-38.082844,2.749888,3.6769753
-38.181767,2.7422853,3.6886196
-38.261242,2.742927,3.710249
-38.340775,2.7439022,3.732603
-38.420357,2.7452126,3.755682
-38.512074,2.742196,3.7741823
-38.56578,2.7541304,3.8100061
-38.617607,2.766924,3.8470063
-38.683224,2.7746906,3.8785954
-39.870598,2.367309,3.4498315
-39.913338,2.3881466,3.4994702
-39.929367,2.418709,3.5599022
-39.94493,2.4492726,3.6203394
-39.9237,2.4927523,3.6947136
-39.892014,2.5394833,3.7723665
-39.90149,2.5713856,3.8339891
-39.91227,2.602645,3.8949037
-39.92617,2.6326616,3.9544978
-39.92253,2.6684432,4.020073
-39.900307,2.7101579,4.091651
-40.020317,2.7044652,4.1146398
-40.239292,2.6669965,4.106122
-40.38437,2.6547105,4.124078
-40.623573,2.6130388,4.1136503
-40.831497,2.5826614,4.1157055
-41.086666,2.5386376,4.1056685
-41.28838,2.512662,4.1145234
-41.51171,2.4811573,4.1192803
-41.845383,2.4174,4.094927
-42.13567,2.368619,4.0865817
-42.4666,2.309421,4.0703993
-42.74362,2.2679572,4.0724306
-43.09301,2.2070136,4.0586376
-43.378918,2.1662986,4.0650344
-43.746822,2.103859,4.054174
-44.137215,2.037182,4.0420136
-44.565216,1.9622622,4.025361
-44.968887,1.89645,4.0191927
-45.391415,1.8277729,4.0133305
-45.827183,1.7578952,4.0093246
-46.312195,1.6773696,3.9997263
-46.88461,1.5766196,3.9774933
-47.426067,1.487113,3.9679751
-48.019154,1.3873847,3.954475
-48.62021,1.2889376,3.9461536
-49.375313,1.1552563,3.9163227
-49.997227,1.0587351,3.9186954
-50.90585,0.89556456,3.8787823
-51.718582,0.76061344,3.8650637
-12.548447,1.5777211,4.0093384
-12.4212265,1.4926522,3.8795772
-13.99851,1.8419328,4.1009264
-14.599828,1.9482559,4.132818
-14.87498,1.9726894,4.1001472
-15.256522,2.0267072,4.094396
-15.743796,2.1111293,4.117344
-16.12254,2.1689315,4.1201296
-16.269405,2.1653295,4.070813
-16.715225,2.2452312,4.0974665
-17.483631,2.3373084,4.055977
-17.77496,2.3809843,4.0574503
-18.069267,2.4271698,4.0630474
-18.351704,2.471506,4.068588
-18.618626,2.5127985,4.0727997
-18.870115,2.5509312,4.075432
-19.025473,2.5610504,4.051584
-19.285912,2.6044927,4.062103
-19.530968,2.644628,4.070723
-19.686035,2.6577132,4.0529776
-19.885345,2.6857576,4.051524
-20.097717,2.7191472,4.056719
-20.307663,2.752966,4.063503
-20.511562,2.7860084,4.0705795
-20.617796,2.787653,4.0451574
-20.723042,2.7894719,4.020442
-20.938969,2.8295028,4.037731
-21.153246,2.8702657,4.0569353
-21.28149,2.8823998,4.0456915
-21.437786,2.905083,4.046778
-21.58126,2.9241104,4.04455
-21.756002,2.955172,4.056557
-21.859962,2.9616213,4.0415516
-22.002197,2.9826267,4.043613
-22.113491,2.9930062,4.0341654
-22.22192,3.0029144,4.024683
-22.384624,3.03391,4.0401692
-22.46907,3.0360446,4.0227265
-22.619583,3.0640628,4.03604
-22.711273,3.0700998,4.0240936
-22.83862,3.090643,4.0297647
-22.92385,3.0952106,4.0169377
-23.054668,3.1185167,4.026952
-23.147,3.1270204,4.0196958
-23.270208,3.1486773,4.0287695
-23.339333,3.1487114,4.012044
-23.460945,3.171009,4.0228357
-23.52472,3.1696467,4.0050583
-23.661285,3.199616,4.026226
-23.714773,3.194697,4.0046897
-23.825748,3.2149982,4.014778
-23.895382,3.21783,4.003458
-23.97873,3.2270975,4.000493
-24.062635,3.2370894,3.998769
-24.134167,3.2419593,3.9908803
-24.221603,3.2544837,3.993
-24.29272,3.2599928,3.9864976
-24.366047,3.2669153,3.9820719
-24.443922,3.2763903,3.981203
-24.496286,3.274167,3.9655128
-24.565115,3.2800822,3.9605498
-24.643917,3.2912235,3.9626353
-24.688194,3.2858934,3.943503
-24.71315,3.271124,3.9121377
-24.814594,3.294626,3.9311416
-24.871038,3.2960787,3.9214444
-24.897635,3.2825468,3.892105
-24.947193,3.2808394,3.8785212
-25.021627,3.292314,3.882647
-25.093504,3.3029144,3.8858657
-25.11206,3.28558,3.8519053
-25.15987,3.2838562,3.838945
-25.249762,3.3051944,3.8572092
-25.30608,3.3087716,3.851789
-25.318409,3.2882524,3.8138885
-25.400843,3.3068142,3.8290977
-25.44526,3.30446,3.8160882
-25.508327,3.3129478,3.8180199
-25.52759,3.2965145,3.7860131
-25.594685,3.3078842,3.7922182
-25.657242,3.31703,3.7955775
-25.687275,3.3071923,3.7729297
-25.73836,3.310037,3.7678976
-25.774073,3.3037958,3.750413
-25.844955,3.3192668,3.763204
-25.877827,3.3116412,3.7440343
-25.925743,3.3135085,3.7382016
-25.945194,3.2975428,3.7075381
-25.99308,3.2996879,3.7023067
-26.090824,3.3344235,3.7430305
-26.128881,3.3309703,3.7302732
-26.137371,3.3080392,3.6901069
-26.171078,3.3016987,3.6733956
-26.263823,3.3354063,3.7135386
-26.308825,3.3373523,3.7088633
-26.342222,3.3314972,3.6932034
-26.36363,3.3173077,3.6657333
-26.412342,3.3223162,3.665722
-26.47963,3.340917,3.685299
-26.528477,3.3467782,3.6868067
-26.571604,3.3487656,3.68288
-26.603636,3.3427687,3.667571
-26.6321,3.3341446,3.6485434
-26.65588,3.3219545,3.6244197
-26.695953,3.3221426,3.6182394
-26.726503,3.3151348,3.6017275
-26.801117,3.342682,3.6354308
-26.844269,3.3461003,3.6342778
-26.884405,3.3473554,3.6300821
-26.898167,3.3273983,3.595046
-26.936663,3.327457,3.5892444
-27.012161,3.3584614,3.628797
-27.04297,3.3527758,3.6148224
-27.067781,3.3420086,3.593453
-27.100418,3.3378942,3.5818973
-27.14554,3.3447452,3.5865402
-27.205475,3.3650284,3.6110826
-27.240484,3.363678,3.6038718
-27.278627,3.3652956,3.60112
-27.311993,3.3627334,3.5922718
-27.34691,3.3617096,3.5857687
-27.379248,3.3583884,3.5759325
-27.369164,3.3146677,3.5061736
-27.346478,3.257773,3.4167457
-27.326958,3.202628,3.329794
-27.289986,3.1288443,3.2149472
-27.30105,3.1015613,3.1692986
-27.324152,3.0859778,3.14111
-27.325283,3.0474215,3.0785956
-27.325798,3.0073185,3.0137162
-27.332693,2.9730413,2.9575157
-27.329762,2.9273741,2.8841958
-27.338629,2.8934736,2.8284807
-27.316025,2.8238568,2.7190456
-27.3249,2.787812,2.6600003
-27.3088,2.7223556,2.5566206
-27.33109,2.699634,2.5175676
-27.371244,2.6974356,2.5095077
-27.336754,2.6061592,2.3669453
-27.321598,2.5357056,2.2556953
-27.34183,2.5068476,2.2072911
-27.336061,2.4447167,2.1084862
-27.310558,2.3556795,1.9688039
-27.305763,2.2907166,1.8655052
-27.347511,2.2849813,1.8520813
-27.34064,2.214297,1.7400022
-27.330778,2.137364,1.6183271
-27.346191,2.0929284,1.5460305
-27.34981,2.0305743,1.4464126
-27.35547,1.9691551,1.3481622
-27.384977,1.9404848,1.2998357
-36.328613,1.095927,0.36863756
-36.343937,1.1403196,0.44446373
-36.34833,1.1924307,0.5314269
-36.36968,1.2307582,0.59838676
-36.348686,1.3004062,0.7105241
-36.37011,1.3372228,0.7751961
-36.343662,1.4087574,0.8897786
-36.384373,1.4301305,0.9321656
-36.318295,1.5281858,1.0844836
-36.361263,1.5467753,1.1228137
-36.31232,1.6299484,1.2534065
-36.35594,1.6471727,1.2897625
-36.331333,1.7112963,1.3928885
-36.348106,1.74615,1.4542918
-36.380512,1.770021,1.5001192
-36.339813,1.8423903,1.6145334
-36.34981,1.88009,1.6798038
-36.340523,1.9298556,1.7620101
-36.334316,1.9768753,1.8402386
-36.36155,2.0018427,1.887455
-36.36262,2.0431037,1.9574814
-36.392937,2.065514,2.0011282
-36.499744,2.0404434,1.9787245
-36.55951,2.0449805,1.9977846
-36.564377,2.0829659,2.063344
-36.56926,2.1204531,2.1281524
-36.591766,2.1470146,2.177835
-36.609573,2.1760812,2.2309752
-36.429527,2.3573031,2.5056367
-37.376884,1.855351,1.8336935
-36.352654,2.4742355,2.690977
-36.37343,2.4983442,2.7366624
-36.412125,2.5123606,2.7686996
-36.390198,2.5594854,2.845509
-36.435577,2.569558,2.8722892
-36.458496,2.591734,2.9154296
-36.467575,2.6210802,2.9681864
-36.479916,2.6484118,3.0182228
-36.502396,2.670221,3.0608969
-36.52757,2.6904964,3.1015635
-36.55701,2.7084835,3.1392446
-36.586952,2.7261505,3.1765618
-36.621258,2.7415788,3.2110014
-36.676304,2.7467601,3.2321177
-36.69545,2.769668,3.276516
-36.78946,2.7562115,3.2736921
-36.837364,2.7653983,3.3005276
-36.904945,2.7653773,3.3156352
-36.96625,2.7686067,3.335155
-37.02678,2.772442,3.355659
-37.093727,2.7735586,3.3729038
-37.14704,2.7811744,3.3986392
-37.220516,2.7798686,3.4132671
-37.29166,2.7799497,3.4299135
-37.36043,2.7813997,3.4485393
-37.431717,2.7820506,3.4664207
-37.51047,2.7797825,3.4809384
-37.567047,2.787404,3.5080047
-37.661705,2.7790463,3.5155773
-37.732456,2.7812448,3.5364852
-37.806583,2.7823389,3.5563164
-37.885807,2.781664,3.5742884
-37.954166,2.7857845,3.5983748
-38.02591,2.7888155,3.6214166
-38.128227,2.7799325,3.6304865
-38.215446,2.7775645,3.6477523
-38.296806,2.7779121,3.6686006
-38.37737,2.7789366,3.6905851
-38.463158,2.7783175,3.7109847
-38.525696,2.7869236,3.7424908
-38.594223,2.7934957,3.7718935
-38.66531,2.7993755,3.8007832
-38.7128,2.8142247,3.8402252
-39.89579,2.4153361,3.4098592
-39.928978,2.4397883,3.4635339
-39.900997,2.4860382,3.541741
-39.905872,2.5201936,3.6062436
-39.88539,2.5629773,3.6802287
-39.902485,2.5923426,3.7392864
-39.920025,2.6214142,3.7980356
-39.933548,2.651713,3.8581285
-39.93854,2.6847148,3.9211183
-39.909737,2.7287169,3.9957695
-39.9001,2.7659802,4.063057
-39.913414,2.7954803,4.122077
-40.112286,2.7651963,4.1190042
-40.309887,2.7364454,4.1185966
-40.504364,2.7097907,4.121416
-40.74596,2.6695528,4.1115847
-40.941498,2.6448836,4.118709
-41.22938,2.5931618,4.10012
-41.474834,2.5558958,4.0973916
-41.719994,2.5200975,4.097515
-42.022224,2.4688509,4.084238
-42.30766,2.4242258,4.0790596
-42.673798,2.3579497,4.055267
-42.94685,2.3203125,4.060298
-43.283085,2.2663724,4.0520515
-43.60986,2.216958,4.0499945
-44.034954,2.1422777,4.0274158
-44.35684,2.0981264,4.0344644
-44.79712,2.0238595,4.017394
-45.23471,1.9527886,4.005934
-45.69319,1.8786695,3.9947844
-46.147045,1.8083119,3.989811
-46.67212,1.7221661,3.9749851
-47.30868,1.6106408,3.9433432
-47.76674,1.5474775,3.9542994
-48.35827,1.4537153,3.9446998
-49.053284,1.3378716,3.922471
-49.777573,1.218806,3.90281
-50.481323,1.1086555,3.8949013
-51.47168,0.9347191,3.846528
-51.95729,0.88395166,3.8916078
-12.557648,1.6809773,3.9663649
-13.962788,1.9747872,4.1483135
-14.223708,1.9911416,4.106822
-14.698868,2.0629568,4.114305
-15.075392,2.1121876,4.1053047
-15.477643,2.1701293,4.10636
-15.7921915,2.207331,4.09146
-16.105207,2.2458248,4.079681
-17.371311,2.420815,4.0711823
-17.745157,2.4850488,4.09345
-17.920837,2.495174,4.0652585
-18.202972,2.5367587,4.069009
-18.414055,2.5592978,4.055434
-18.725344,2.6123984,4.0737467
-18.982288,2.6511662,4.079274
-19.240368,2.691734,4.0880737
-19.434483,2.7143621,4.0797377
-19.662891,2.748577,4.0845413
-19.886099,2.7824812,4.090245
-20.057747,2.801489,4.0813136
-20.203615,2.8132582,4.065516
-20.332027,2.8201988,4.045244
-20.53601,2.8522744,4.052977
-20.697998,2.8717802,4.047963
-20.916069,2.9107482,4.0652776
-21.013569,2.9106839,4.040224
-21.156464,2.926424,4.033353
-21.376335,2.9692512,4.0577736
-21.552834,2.9984503,4.067785
-21.61301,2.9881048,4.0333705
-21.786018,3.0177484,4.045291
-21.897846,3.026629,4.0339537
-22.010311,3.0363302,4.024082
-22.186184,3.0697024,4.04251
-22.30661,3.0837793,4.038971
-22.435364,3.1016243,4.040447
-22.537807,3.110342,4.031597
-22.626251,3.1142995,4.0174704
-22.770264,3.139989,4.0299635
-22.845383,3.1399024,4.011799
-22.985956,3.1657577,4.0255985
-23.047108,3.1611147,4.0026016
-23.180916,3.1857128,4.0158825
-23.272943,3.1943035,4.009909
-23.386524,3.212177,4.015864
-23.469624,3.2181962,4.007468
-23.565004,3.2297604,4.0063663
-23.652628,3.2386162,4.0022287
-23.751553,3.2527542,4.005131
-23.840265,3.2631068,4.0036087
-23.903332,3.2628665,3.988896
-24.00951,3.2817688,3.9989727
-24.061691,3.2774923,3.9796083
-24.092068,3.2636821,3.9480896
-24.17411,3.2731667,3.946893
-24.279911,3.2939434,3.9607184
-24.275217,3.2645907,3.9093764
-24.351963,3.2727587,3.907217
-24.43479,3.2842183,3.9096715
-24.479572,3.2781396,3.889239
-24.539265,3.2793446,3.8786056
-24.612871,3.2875698,3.8775167
-24.689335,3.2976189,3.8791213
-24.696888,3.2741003,3.8360128
-24.7831,3.2895956,3.845326
-24.842203,3.2919974,3.8372886
-24.90346,3.2957938,3.8313277
-24.918468,3.2761278,3.793734
-25.02475,3.3037305,3.820467
-25.08254,3.306687,3.8139477
-25.103756,3.290544,3.7814698
-25.127445,3.2756295,3.7507095
-25.2411,3.3093507,3.7869244
-25.304247,3.3163764,3.7867045
-25.314077,3.2943115,3.7464318
-25.373466,3.2996886,3.7442145
-25.44705,3.3134143,3.7537909
-25.490252,3.31033,3.7401648
-25.515678,3.2971625,3.712562
-25.56744,3.2992697,3.706407
-25.648571,3.3189175,3.7250395
-25.690144,3.3156815,3.7117157
-25.720617,3.3059225,3.6892953
-25.760181,3.3016877,3.6747522
-25.83331,3.3181715,3.6896777
-25.874048,3.3151302,3.6770911
-25.928297,3.3206992,3.6768665
-25.942745,3.3013787,3.641283
-25.98354,3.2987177,3.6295218
-26.083935,3.3347855,3.6733475
-26.130869,3.3368564,3.6686916
-26.160051,3.327428,3.6476188
-26.1725,3.306798,3.6104584
-26.245865,3.3270984,3.6323972
-26.29059,3.3284678,3.6271667
-26.345379,3.3370156,3.632453
-26.36022,3.3180254,3.5979023
-26.422306,3.3321924,3.611589
-26.484024,3.3466053,3.6258092
-26.528736,3.3492415,3.6230102
-26.56783,3.3480139,3.6146712
-26.620222,3.3567796,3.6210613
-26.641087,3.3423452,3.5935502
-26.653248,3.321175,3.5561638
-26.709597,3.3335161,3.568099
-26.74214,3.3278928,3.5536995
-26.818974,3.35702,3.5906763
-26.855299,3.3549004,3.5816665
-26.879597,3.3432574,3.5586295
-26.914293,3.3399544,3.5479984
-26.94001,3.3293662,3.5266185
-27.018822,3.3628526,3.5708394
-27.05268,3.35949,3.5603948
-27.071785,3.3436422,3.5313954
-27.09985,3.335301,3.5136256
-27.140923,3.338285,3.5128417
-27.197292,3.3550458,3.5327826
-27.24429,3.3640027,3.5411649
-27.2853,3.3679247,3.5420995
-27.319458,3.3658173,3.5340614
-27.351564,3.3619099,3.5233817
-27.380163,3.3547552,3.5078688
-27.335789,3.2778459,3.3871603
-27.327229,3.2337263,3.3157854
-27.313704,3.1837175,3.2354264
-27.311407,3.1436872,3.1700778
-27.340618,3.1344995,3.1514187
-27.330158,3.0846808,3.0711565
-27.326836,3.0410442,3.000198
-27.336937,3.010457,2.949017
-27.339872,2.9715412,2.8851404
-27.34452,2.9335368,2.822608
-27.326706,2.869968,2.7210484
-27.315546,2.8121219,2.6281114
-27.301252,2.7492049,2.5273333
-27.329224,2.7330406,2.4979634
-27.359623,2.719404,2.472496
-27.348293,2.6562285,2.3711581
-27.340385,2.5953894,2.2733088
-27.341953,2.54438,2.190464
-27.337341,2.4842975,2.0936246
-27.299822,2.381076,1.9303741
-27.303358,2.3271873,1.8428636
-27.337412,2.311386,1.8139648
-27.361097,2.2815657,1.7635007
-27.335115,2.1841998,1.6088467
-27.34193,2.1285255,1.5184112
-27.34957,2.0722728,1.4270368
-27.34659,1.9992185,1.3096414
-27.375158,1.9692142,1.2587771
-36.430733,1.073302,0.2239232
-36.33201,1.206136,0.43088055
-36.34222,1.2532957,0.5113697
-36.368893,1.2873039,0.5724907
-36.368984,1.3406332,0.6619415
-36.337006,1.4166627,0.7845278
-36.306572,1.4901681,0.90321636
-36.354412,1.5060506,0.9376526
-36.362156,1.5504017,1.0136294
-36.331406,1.6211462,1.1279101
-36.389668,1.628737,1.1503601
-36.320488,1.7241161,1.300076
-36.373856,1.7343578,1.3263817
-36.321774,1.8156207,1.4552684
-36.381973,1.8207111,1.4741883
-36.299942,1.9196107,1.628068
-36.33736,1.9389076,1.6673846
-36.333275,1.9848225,1.7448606
-36.30759,2.0438216,1.8409281
-36.345413,2.0618215,1.8783774
-36.346355,2.1027422,1.9484944
-36.373833,2.1267185,1.9944859
-36.39198,2.1561825,2.0482774
-36.508434,2.1259263,2.017684
-36.538692,2.148139,2.061429
-36.531498,2.1923442,2.1361437
-36.599525,2.191895,2.1481
-37.212086,1.9606347,1.8649249
-37.291553,1.9573789,1.8745813
-36.336437,2.5294938,2.6817036
-36.361485,2.551053,2.7240329
-36.414055,2.5574787,2.745533
-36.41275,2.593091,2.8072944
-36.375217,2.6475892,2.8948636
-36.44924,2.6423783,2.9005966
-36.473248,2.663701,2.942728
-36.483345,2.6920743,2.9944696
-36.509624,2.711882,3.0345778
-36.542446,2.7282677,3.0701046
-36.582676,2.740899,3.100645
-36.631203,2.749452,3.1258125
-36.67501,2.760451,3.1543903
-36.73422,2.7640347,3.1731977
-36.780956,2.7738538,3.20048
-36.836212,2.7797189,3.2226572
-36.899323,2.7820673,3.240364
-36.96247,2.7846596,3.2585993
-37.02168,2.789334,3.2797728
-37.08168,2.7938669,3.3009534
-37.152115,2.7938995,3.3164778
-37.20329,2.8028932,3.3438616
-37.281902,2.7998455,3.3558602
-37.35903,2.7978377,3.3694835
-37.422405,2.8021889,3.3915324
-37.503822,2.799015,3.404204
-37.56974,2.8028526,3.4260855
-37.64394,2.8034606,3.4441185
-37.71738,2.804719,3.4632454
-37.795883,2.8042078,3.4804296
-37.871967,2.8050513,3.4996037
-37.948963,2.8058677,3.5190349
-38.016754,2.8107247,3.5437574
-38.127693,2.7987103,3.5479841
-38.19817,2.80322,3.5728998
-38.271202,2.8070207,3.5972238
-38.349377,2.8091428,3.6198015
-38.41214,2.8174844,3.6501865
-38.483444,2.8228216,3.6772108
-38.54522,2.8320024,3.7091017
-38.609505,2.8404644,3.7403784
-38.660656,2.8539596,3.7778382
-38.738716,2.8578415,3.8042312
-39.911263,2.4698741,3.3749266
-39.900547,2.5099626,3.4467072
-39.879494,2.553319,3.5221043
-39.886055,2.5866563,3.5858703
-39.89299,2.6196427,3.6491914
-39.90743,2.6498642,3.709354
-39.926765,2.6782806,3.7674966
-39.933136,2.7108939,3.8303237
-39.888725,2.760027,3.9113083
-39.90207,2.789785,3.9707823
-39.900513,2.8241973,4.0353026
-39.904762,2.8565087,4.097475
-39.93032,2.8818977,4.152207
-40.25685,2.813301,4.1075506
-40.43945,2.7911224,4.1133914
-40.666405,2.756401,4.107177
-40.871964,2.7294295,4.110194
-41.10469,2.695479,4.1072264
-41.35093,2.6588435,4.102854
-41.59781,2.6234064,4.101078
-41.882362,2.5784647,4.09131
-42.176033,2.5325308,4.0822287
-42.50956,2.4769976,4.065581
-42.80949,2.432746,4.061723
-43.13071,2.3842893,4.0556884
-43.460205,2.3353682,4.051168
-43.807377,2.283512,4.0459614
-44.208984,2.219073,4.0314493
-44.61064,2.1568756,4.021481
-45.094463,2.0755174,3.9970918
-45.42337,2.0367575,4.0130267
-45.932983,1.9538052,3.9930654
-46.413406,1.8810368,3.9850917
-46.980515,1.789403,3.9645996
-47.52222,1.7071562,3.955628
-48.082253,1.6234541,3.9491792
-48.756287,1.515549,3.9274664
-49.427937,1.4119372,3.9138021
-50.040493,1.3258092,3.9181771
-50.972282,1.1694429,3.874651
-51.79345,1.0434113,3.8599973
-12.395102,1.7430642,3.8817873
