x,y,z
-38.229126,1.5458837,3.8352985
-38.323578,1.5324185,3.8526645
-38.4429,1.5060718,3.860241
-38.528706,1.4983308,3.8833666
-40.001835,0.75705576,3.3276944
-39.982224,0.8116679,3.4055896
-39.98689,0.8530531,3.4729471
-40.0027,0.88831925,3.535502
-40.020527,0.9222853,3.597052
-40.02267,0.9639559,3.664424
-39.981876,1.0268362,3.7475471
-39.979294,1.0699351,3.8155956
-40.000835,1.1007144,3.8744712
-40.01594,1.1344545,3.9355311
-40.0237,1.171525,3.9989753
-40.02663,1.2106266,4.0638
-40.167187,1.1836529,4.082111
-40.34789,1.1384475,4.0887074
-40.543896,1.0871544,4.092384
-40.75009,1.0323253,4.0950465
-40.986637,0.96475387,4.090639
-41.238,0.8918972,4.0844483
-41.51657,0.8082793,4.0730658
-41.809334,0.72006035,4.060777
-42.051838,0.656152,4.0661273
-42.361515,0.5639849,4.055558
-18.044209,0.6993456,4.0857644
-18.349648,0.78811693,4.0958457
-18.540043,0.82788706,4.0760756
-18.76173,0.8827238,4.067652
-19.00388,0.948117,4.0679073
-19.295204,1.0373666,4.086131
-19.551361,1.1124141,4.0966587
-19.74474,1.1601083,4.089923
-19.935806,1.2079058,4.0845957
-20.107239,1.2476478,4.074832
-20.292862,1.2951488,4.071822
-20.461538,1.3357036,4.0650043
-20.665733,1.3944228,4.0726986
-20.870028,1.4545271,4.082803
-21.040297,1.4992936,4.0827484
-21.090221,1.4855897,4.0394163
-21.281721,1.542624,4.050562
-21.475832,1.6022608,4.064984
-21.654001,1.655133,4.0753965
-21.808834,1.6972594,4.0785
-21.956415,1.7366548,4.0804186
-22.130066,1.7905962,4.094927
-22.19276,1.7874408,4.064399
-22.335583,1.8269744,4.0689874
-22.467976,1.8618891,4.0706663
-22.549904,1.8704593,4.0513477
-22.658638,1.8940222,4.044996
-22.750778,1.9091487,4.0321946
-22.926891,1.9712698,4.0597005
-22.974705,1.963098,4.028363
-23.136658,2.0193093,4.05253
-23.196224,2.0185857,4.0284576
-23.335423,2.063724,4.0446053
-23.402586,2.0682492,4.0259933
-23.527304,2.1066542,4.0376067
-23.606638,2.1192658,4.0270534
-23.724897,2.1554322,4.03796
-23.814556,2.1753392,4.034932
-23.929491,2.211091,4.0467167
-24.013767,2.2290118,4.0429354
-24.077785,2.2350101,4.0287
-24.205923,2.2811093,4.0516696
-24.243546,2.2715867,4.023916
-24.358541,2.3109684,4.041794
-24.444275,2.332618,4.0437284
-24.486172,2.3266702,4.0201745
-24.570663,2.3484576,4.022999
-24.65554,2.3710904,4.0270658
-24.709774,2.374083,4.0128284
-24.788177,2.393443,4.014537
-24.862604,2.4106755,4.014592
-24.935286,2.4272294,4.0143614
-25.032255,2.4609275,4.031168
-25.078352,2.4602432,4.014879
-25.16161,2.4856756,4.024424
-25.2288,2.500443,4.023873
-25.276651,2.5019093,4.0104704
-25.344833,2.5181806,4.0119967
-25.401554,2.526629,4.006034
-25.481724,2.5525727,4.0178714
-25.536602,2.560499,4.0119615
-25.598873,2.5742633,4.012198
-25.669758,2.5949507,4.019745
-25.717922,2.598929,4.010604
-25.77475,2.609803,4.008718
-25.840742,2.6281579,4.0147605
-25.90707,2.6473012,4.02192
-25.936077,2.637477,3.9994354
-26.003927,2.6586332,4.0091825
-26.066189,2.6758628,4.0151544
-26.12037,2.6870146,4.015055
-26.15763,2.684626,4.0009933
-26.198097,2.685011,3.989983
-26.26262,2.705749,4.000601
-26.318588,2.71981,4.00444
-26.365545,2.726593,4.0007896
-26.414845,2.735694,3.9997964
-26.4615,2.7428234,3.9968958
-26.510456,2.7522817,3.996677
-26.567717,2.7695026,4.004999
-26.616234,2.7793434,4.0056086
-26.666945,2.7915406,4.00896
-26.718014,2.8044744,4.013315
-26.745914,2.7962375,3.994864
-26.784428,2.7979603,3.9873486
-26.827515,2.8042169,3.9849248
-26.872189,2.8122807,3.9846444
-26.907032,2.8110905,3.9743648
-26.956532,2.8244426,3.9802198
-27.006891,2.8390918,3.987702
-27.04866,2.845558,3.9863253
-27.101276,2.8633575,3.9976773
-27.141039,2.868457,3.9951148
-27.182844,2.8759403,3.99535
-27.21648,2.875113,3.9864511
-27.259106,2.883994,3.9885335
-27.302603,2.8941567,3.99221
-27.339144,2.8970923,3.9879155
-27.395159,2.9217682,4.0082564
-27.426262,2.9192863,3.998137
-27.430656,2.886598,3.9539118
-27.438107,2.8567286,3.9128366
-27.430252,2.8084526,3.8508034
-27.483389,2.8308482,3.8691587
-27.444647,2.744446,3.763544
-27.471098,2.734641,3.745246
-27.45082,2.6675603,3.6613903
-27.440622,2.6113303,3.5898085
-27.433727,2.5578804,3.5212927
-27.43418,2.5124772,3.4619355
-27.435425,2.4669986,3.4024138
-27.440151,2.4249582,3.3467941
-27.406263,2.330688,3.2306333
-27.418612,2.2960732,3.183415
-27.455296,2.2938046,3.173758
-27.452785,2.2373981,3.101202
-27.445381,2.1726255,3.0187964
-27.455748,2.1313982,2.9637556
-27.451256,2.067611,2.8823018
-27.445066,1.9995551,2.7957392
-27.461254,1.9629061,2.7458868
-27.480446,1.9298241,2.7002153
-27.429134,1.7875142,2.5260868
-27.4501,1.7536657,2.4793458
-27.464108,1.7078505,2.418501
-27.452143,1.6188211,2.3065987
-27.46524,1.5680821,2.2398152
-27.485743,1.5281401,2.1857848
-27.445448,1.3839443,2.0081587
-27.429474,1.276859,1.8742824
-27.44851,1.227613,1.8089595
-27.452158,1.1492989,1.7090383
-27.46622,1.0872612,1.6284175
-27.466326,0.99725866,1.5144057
-27.479015,0.9278116,1.4248252
-27.50942,0.88996434,1.3729663
-36.529,0.69676256,1.9086556
-36.639072,0.65936613,1.8879752
-36.61795,0.729249,1.9796844
-36.663704,0.74435353,2.0142102
-36.705948,0.76219416,2.0517073
-36.690258,0.875592,2.2069707
-37.208935,0.680243,2.0877976
-36.50416,1.2536435,2.687335
-36.42565,1.3560419,2.8092747
-36.47784,1.3615663,2.8336883
-36.504044,1.385963,2.877109
-36.498158,1.4330595,2.9431
-36.512093,1.4654775,2.9944377
-36.534084,1.4918728,3.0398245
-36.526283,1.5387111,3.1052547
-36.543705,1.5675495,3.1529775
-36.563583,1.5944085,3.1987767
-36.567753,1.6316228,3.254592
-36.593334,1.6540473,3.2961063
-36.58985,1.6955774,3.3559508
-36.607204,1.7228827,3.4021235
-36.630844,1.7458239,3.4441657
-36.656384,1.7673514,3.484921
-36.683105,1.7879629,3.5248728
-36.71934,1.8023977,3.5591307
-36.7622,1.8126397,3.5896273
-36.818645,1.8144636,3.6125317
-36.870476,1.8193352,3.6384912
-36.93071,1.8192062,3.660122
-36.99715,1.8155501,3.678842
-37.081528,1.8014042,3.6884394
-37.150513,1.7969196,3.7071395
-37.202316,1.8029027,3.7355084
-37.219376,1.8293705,3.7822366
-37.28589,1.8269076,3.8035445
-37.39933,1.7977278,3.8018637
-37.44776,1.8063817,3.8336549
-37.48004,1.8242688,3.8736215
-37.81141,1.6744254,3.770208
-37.902565,1.6609247,3.7847571
-38.027176,1.6294866,3.7846947
-38.12617,1.612845,3.7977629
-38.196785,1.6121294,3.8246355
-38.283813,1.6028821,3.8448544
-38.374268,1.5922484,3.8644352
-38.468166,1.5802536,3.8834329
-39.957787,0.838583,3.3158145
-39.981293,0.870316,3.3757348
-39.99848,0.9050875,3.438097
-40.004257,0.94541764,3.5048141
-40.001034,0.9899428,3.5747051
-39.968437,1.0487633,3.6554546
-39.973175,1.0883646,3.7211838
-39.992664,1.1203587,3.7810774
-40.015106,1.1506987,3.8397532
-40.02683,1.1860471,3.902183
-40.03461,1.2230225,3.9657707
-39.98239,1.2882724,4.049803
-40.05033,1.2960286,4.0920835
-40.29246,1.22246,4.0770645
-40.471127,1.1799333,4.0855293
-40.68694,1.1213851,4.084128
-40.925323,1.0538869,4.078125
-41.157497,0.99071145,4.0767574
-41.381603,0.93259645,4.0804415
-41.626675,0.86652803,4.080499
-41.92295,0.7793989,4.0686483
-42.24064,0.68479085,4.054202
-42.512245,0.61217237,4.0560484
-42.881004,0.49946952,4.034938
-17.621899,0.68982244,4.0867124
-17.921225,0.77106786,4.0901546
-18.179562,0.8365967,4.085515
-18.44336,0.9060569,4.0853543
-18.68775,0.9686804,4.0825024
-18.961418,1.0456822,4.0911846
-19.170773,1.095881,4.0833426
-19.398838,1.1557178,4.0836906
-19.606047,1.2075562,4.079982
-19.82134,1.2643523,4.0812464
-20.006348,1.3085866,4.074913
-20.215954,1.3653455,4.0789843
-20.4404,1.4303751,4.09059
-20.63642,1.4834757,4.0948157
-20.769886,1.50809,4.078869
-20.916744,1.5398841,4.069246
-21.06319,1.5723541,4.0610886
-21.2611,1.6308205,4.074061
-21.407349,1.6651874,4.069439
-21.490608,1.6691859,4.041717
-21.706856,1.7401557,4.0679364
-21.925468,1.8138535,4.097759
-22.071152,1.851964,4.1000986
-22.139668,1.8513615,4.0716434
-22.301144,1.8992224,4.0835714
-22.384216,1.9071943,4.0633087
-22.53719,1.9524486,4.0747848
-22.623863,1.9634846,4.0582786
-22.725903,1.9832268,4.049673
-22.830095,2.0047395,4.043175
-22.951805,2.036456,4.0460916
-23.080307,2.0727265,4.053684
-23.183334,2.0957239,4.050405
-23.264385,2.1070497,4.037415
-23.38992,2.1439824,4.0475984
-23.46883,2.155199,4.0355268
-23.606071,2.2004344,4.05447
-23.648935,2.1918855,4.0255365
-23.797718,2.2454867,4.0533767
-23.848925,2.242577,4.030315
-23.99258,2.2949886,4.0584636
-24.040329,2.2908337,4.035014
-24.135832,2.315822,4.03894
-24.226336,2.3384118,4.041131
-24.29894,2.3505554,4.0339565
-24.390299,2.3748274,4.0386395
-24.44277,2.375266,4.021107
-24.516993,2.389735,4.017243
-24.612633,2.4184022,4.0274115
-24.660227,2.4167109,4.0087256
-24.74554,2.439814,4.0143404
-24.856213,2.480246,4.0373077
-24.90036,2.4773817,4.0183907
-24.969276,2.4912798,4.0161777
-25.065453,2.5240912,4.0330205
-25.091969,2.5100765,4.003789
-25.177393,2.5366344,4.0151615
-25.268764,2.5680213,4.031804
-25.303688,2.5604897,4.0096984
-25.365454,2.5720463,4.0070286
-25.443794,2.5958786,4.0171127
-25.498768,2.6034403,4.010979
-25.554977,2.612222,4.0063367
-25.617886,2.626287,4.007374
-25.70034,2.6553469,4.024169
-25.727318,2.6434374,3.9989247
-25.792233,2.6602607,4.003631
-25.856173,2.6768317,4.0083685
-25.919142,2.6931446,4.0131235
-25.960648,2.6931648,4.001037
-26.018553,2.7062957,4.002936
-26.0984,2.7373457,4.024047
-26.131023,2.7311459,4.0059834
-26.169521,2.7297564,3.9931512
-26.22528,2.7426794,3.9957552
-26.280157,2.7552905,3.99826
-26.327229,2.7617688,3.9944005
-26.37917,2.7726607,3.9954872
-26.426548,2.780025,3.99297
-26.473776,2.7875617,3.9908276
-26.519623,2.7942004,3.9878922
-26.59327,2.8256876,4.012262
-26.649467,2.8424137,4.0208
-26.699966,2.854501,4.02448
-26.734211,2.8521643,4.0124826
-26.764938,2.8466773,3.99712
-26.804493,2.8494425,3.990985
-26.843395,2.8517952,3.9845328
-26.886253,2.858108,3.982625
-26.939795,2.8749962,3.99267
-26.980026,2.8794346,3.989008
-27.022953,2.8867679,3.9887342
-27.066835,2.8953578,3.9900298
-27.104488,2.898004,3.9847918
-27.145887,2.904665,3.9842157
-27.185524,2.9097965,3.9820561
-27.223972,2.9139442,3.978919
-27.265505,2.9215798,3.9798784
-27.302673,2.9248683,3.9760327
-27.36005,2.9502223,3.997503
-27.39737,2.9543686,3.994939
-27.439182,2.9637241,3.9984732
-27.425243,2.9108934,3.9307146
-27.44823,2.8988147,3.9097257
-27.490217,2.9084148,3.9137883
-27.484499,2.862822,3.8542142
-27.442749,2.7736769,3.744111
-27.439024,2.7277942,3.6839085
-27.474997,2.7289042,3.678228
-27.433529,2.6351793,3.5622382
-27.438728,2.5971,3.510868
-27.440468,2.5537705,3.4533129
-27.444332,2.5121088,3.3976407
-27.418459,2.4309392,3.295587
-27.402897,2.361183,3.206729
-27.421394,2.3349464,3.1689053
-27.43991,2.308137,3.1304173
-27.478529,2.3082309,3.1236887
-27.456846,2.22468,3.0182052
-27.44666,2.1550157,2.9289684
-27.463186,2.12166,2.88264
-27.446661,2.0394208,2.7782683
-27.460814,2.0000734,2.7247252
-27.47882,1.9654341,2.6767707
-27.43753,1.8396313,2.5201125
-27.451466,1.7953537,2.4605007
-27.4643,1.7480803,2.3972821
-27.452646,1.6603217,2.285564
-27.459476,1.5998142,2.2063608
-27.476076,1.5535636,2.144205
-27.451138,1.4361675,1.9965324
-27.44342,1.3442817,1.8793316
-27.453249,1.2798281,1.7950368
-27.461193,1.2099125,1.7041001
-27.463068,1.1266997,1.5970397
-27.456945,1.0259237,1.4686499
-27.477833,0.9720323,1.3968592
-27.489555,0.89881134,1.301641
-36.490982,0.73461246,1.8421102
-36.520126,0.7635529,1.8909955
-36.58759,0.7611575,1.9065971
-36.622597,0.7850542,1.9503217
-36.632347,0.8287585,2.0150423
-36.667774,0.85168624,2.0578232
-36.54805,1.091609,2.364871
-36.417866,1.3721111,2.7287107
-36.44682,1.3948178,2.770434
-36.476128,1.4170732,2.8117561
-36.494568,1.446887,2.8608007
-36.492783,1.4906573,2.9239326
-36.51516,1.5169377,2.9693608
-36.51429,1.5590744,3.0306845
-36.5106,1.6025918,3.093267
-36.53728,1.6248772,3.1346536
-36.561447,1.6486757,3.1775894
-36.55679,1.6915185,3.2392864
-36.552933,1.7332759,3.299788
-36.566135,1.7633164,3.3487477
-36.607056,1.7750304,3.379921
-36.63067,1.797905,3.422008
-36.654686,1.8203368,3.4637122
-36.679874,1.841855,3.504591
-36.71231,1.8586779,3.5410657
-36.749058,1.8727498,3.5750422
-36.79936,1.8784659,3.6012993
-36.849583,1.8843584,3.6279373
-36.915928,1.8806365,3.6458611
-36.982346,1.8771746,3.664349
-37.034813,1.882293,3.691042
-37.117714,1.8696513,3.7017574
-37.190605,1.8633127,3.718627
-37.202057,1.8928504,3.76823
-37.28677,1.8801303,3.77993
-37.36452,1.8718364,3.7960262
-37.416824,1.8782637,3.8255596
-37.48589,1.8754742,3.8472362
-37.73474,1.7735167,3.782713
-37.867752,1.7371223,3.7765846
-37.95255,1.7278388,3.79458
-38.08072,1.6956077,3.7934356
-38.11353,1.7151532,3.8369684
-38.25623,1.6764338,3.8315768
-38.339233,1.6700041,3.8540258
-38.427296,1.6613338,3.875084
-38.54458,1.6380186,3.8846064
-39.996693,0.9325235,3.3386745
-40.00636,0.9710429,3.4042835
-39.982685,1.0260026,3.4830127
-39.97847,1.0706584,3.5532622
-39.983772,1.1101823,3.6193185
-39.99955,1.1442356,3.6810217
-40.006313,1.1824226,3.7459111
-40.013382,1.2201467,3.8103743
-40.007904,1.2635562,3.8790774
-39.996643,1.3092976,3.9493709
-39.989914,1.352468,4.017556
-39.997303,1.3886731,4.0804596
-40.126667,1.3683405,4.102225
-40.36431,1.2991872,4.0897646
-40.5932,1.2355378,4.082884
-40.777294,1.1934729,4.092765
-41.004955,1.1330829,4.091217
-41.261543,1.0613222,4.083502
-41.54905,0.97763944,4.0695744
-41.795883,0.91344476,4.0707536
-42.077232,0.83589983,4.0649376
-42.41028,0.73804283,4.0480056
-42.73194,0.64710975,4.0379987
-43.061802,0.5547421,4.0295024
-43.355865,0.47929907,4.034019
-17.222595,0.6970222,4.1025767
-17.483154,0.75771856,4.0910563
-17.692865,0.7988434,4.068656
-18.002216,0.8828726,4.076171
-18.324831,0.97443104,4.0909953
-18.53701,1.0209746,4.077525
-18.751312,1.0696697,4.0670304
-18.99155,1.1308835,4.0667744
-19.28834,1.2183139,4.0867352
-19.554142,1.2940006,4.10039
-19.780426,1.3538065,4.1044073
-19.92905,1.3801675,4.085494
-20.052097,1.3957694,4.0595937
-20.281792,1.460736,4.071419
-20.477728,1.5116386,4.074162
-20.659185,1.5570481,4.0740113
-20.836601,1.601697,4.074465
-21.021137,1.6508307,4.0795717
-21.135773,1.6677928,4.0605655
-21.275743,1.6975708,4.052441
-21.484077,1.7613854,4.0724745
-21.655983,1.8087854,4.080583
-21.742067,1.8149102,4.0561104
-21.936451,1.875427,4.0768824
-22.106527,1.9250789,4.089874
-22.190811,1.9323714,4.0684958
-22.329008,1.9676626,4.071199
-22.429436,1.9843562,4.058935
-22.546936,2.0105102,4.055351
-22.652542,2.0311494,4.047698
-22.757023,2.0518224,4.040681
-22.896244,2.0916975,4.0510697
-22.980461,2.102872,4.0369825
-23.112213,2.140365,4.0467114
-23.182993,2.1453037,4.0281196
-23.296188,2.1740708,4.031329
-23.391369,2.1935294,4.0267496
-23.48465,2.2125053,4.022253
-23.60771,2.2489967,4.03432
-23.711277,2.2751904,4.037583
-23.807362,2.2977538,4.0380445
-23.908546,2.3239303,4.042399
-23.999977,2.3450534,4.042557
-24.068611,2.3532233,4.0309696
-24.171768,2.3824773,4.039741
-24.233807,2.3875797,4.026011
-24.314823,2.404585,4.024002
-24.416815,2.4350433,4.035385
-24.468422,2.4349217,4.0176535
-24.556107,2.4576535,4.0224266
-24.645649,2.4821854,4.029412
-24.704256,2.48759,4.0180273
-24.770159,2.4980025,4.0118666
-24.85134,2.5187554,4.0162935
-24.917505,2.5302205,4.0118523
-24.998035,2.5516238,4.017688
-25.07022,2.5680287,4.018885
-25.134182,2.579373,4.015308
-25.190765,2.5860827,4.0073166
-25.274296,2.6116667,4.018838
-25.31982,2.6114917,4.0043716
-25.375185,2.6184034,3.9973812
-25.468937,2.6528285,4.019055
-25.506378,2.647809,4.0002832
-25.574335,2.6649094,4.0046782
-25.642668,2.6827884,4.010198
-25.7011,2.693898,4.0089297
-25.74233,2.692605,3.9948587
-25.832172,2.7279568,4.0196676
-25.883818,2.73521,4.015109
-25.924646,2.7344909,4.0022793
-25.978706,2.744153,4.000691
-26.036522,2.7571058,4.0028543
-26.10389,2.7780168,4.0138226
-26.14945,2.7821357,4.006976
-26.194271,2.7858996,3.9999223
-26.240282,2.790864,3.9943461
-26.293169,2.8017378,3.9953837
-26.341423,2.8091464,3.9928522
-26.39516,2.8214607,3.9958873
-26.45612,2.8403044,4.006316
-26.503143,2.8477616,4.0044537
-26.54633,2.8522093,3.999446
-26.60279,2.8685071,4.0077357
-26.667992,2.893024,4.0253944
-26.70579,2.8937376,4.0168
-26.741173,2.8924308,4.0060773
-26.781265,2.8955393,4.000421
-26.82303,2.9004016,3.9968767
-26.864101,2.9048686,3.9930382
-26.903343,2.9078493,3.9876685
-26.952198,2.920207,3.993051
-26.992891,2.925112,3.990162
-27.033472,2.9301558,3.9875746
-27.073935,2.9353385,3.9852881
-27.117031,2.9434066,3.9864416
-27.16269,2.9543824,3.9910803
-27.2065,2.9638653,3.9941738
-27.244217,2.967412,3.9905934
-27.285032,2.974414,3.9911246
-27.32517,2.980999,3.9913166
-27.385998,3.0100365,4.0176497
-27.416359,3.0068824,4.0068665
-27.441132,2.99765,3.9891014
-27.449865,2.970497,3.9505148
-27.441547,2.923611,3.888864
-27.501438,2.9533725,3.9167671
-27.468092,2.8764575,3.819872
-27.428362,2.7902317,3.7118049
-27.439617,2.7622526,3.6719894
-27.444239,2.7257166,3.6220727
-27.474861,2.7199423,3.608427
-27.428942,2.6199007,3.4833646
-27.442223,2.5911741,3.4424915
-27.445112,2.5486565,3.3852425
-27.428574,2.4801855,3.2970762
-27.404402,2.400021,3.1948261
-27.425915,2.3779893,3.1617088
-27.43007,2.3322573,3.1003041
-27.449572,2.3061767,3.0623503
-27.47206,2.2835956,3.0286055
-27.435371,2.1778173,2.895049
-27.456945,2.1516452,2.8568983
-27.453415,2.0886953,2.7745051
-27.449026,2.0227118,2.6883516
-27.432806,1.9372709,2.5786061
-27.48162,1.9473646,2.5841503
-27.453432,1.839978,2.44767
-27.453333,1.7730045,2.3599339
-27.452215,1.7023923,2.2676878
-27.448715,1.6257644,2.168035
-27.464716,1.5786183,2.1041307
-27.481213,1.5308585,2.0394583
-27.449461,1.3999414,1.8733726
-27.461222,1.339531,1.7931037
-27.492088,1.3106396,1.7513099
-27.454313,1.158325,1.5585518
-27.466673,1.0917227,1.4704933
-27.471539,1.008919,1.3625212
-27.482693,0.935009,1.2653799
-27.51858,0.9060228,1.223382
-36.488342,0.7399888,1.7423978
-36.507896,0.7771816,1.800499
-36.509495,0.8283849,1.873764
-36.53226,0.8618734,1.9277792
-36.58513,0.87110496,1.9556823
-36.62672,0.88924146,1.9933157
-36.66408,0.9105568,2.0344586
-36.69433,0.98653746,2.1524305
-36.755352,0.98919463,2.1739693
-37.210827,0.7989361,2.0324836
-36.437138,1.4530597,2.7531633
-36.44751,1.4886513,2.8083577
-36.484734,1.5048828,2.8435502
-36.48778,1.5448966,2.9032607
-36.5094,1.5715551,2.9492283
-36.52059,1.6050882,3.0022125
-36.539177,1.6332169,3.0496778
-36.530567,1.6793349,3.1152983
-36.546684,1.7083678,3.1635957
-36.564545,1.7359462,3.2104301
-36.579784,1.7649674,3.2587042
-36.58571,1.799722,3.3126454
-36.580696,1.8410921,3.3730435
-36.61984,1.8538625,3.4052386
-36.63854,1.8795159,3.4501534
-36.6659,1.899529,3.4896016
-36.697514,1.9167843,3.5264502
-36.734203,1.9308496,3.560327
-36.777576,1.9408345,3.5904288
-36.83158,1.9444776,3.6146674
-36.88554,1.9483156,3.6393304
-36.950325,1.9459231,3.6583705
-37.019062,1.9414966,3.6758204
-37.092583,1.9346125,3.6913214
-37.153633,1.9352756,3.7141724
-37.219425,1.9334667,3.7350416
-37.271763,1.9395492,3.7634435
-37.345543,1.9337521,3.7813015
-37.45305,1.9095685,3.78296
-37.47892,1.9310327,3.826118
-37.53192,1.9375634,3.8560543
-37.814247,1.820126,3.7766676
-37.93066,1.7940135,3.7792149
-38.030304,1.7775459,3.790842
-38.11953,1.7671335,3.8082714
-38.186672,1.7687187,3.836502
-38.302567,1.7453053,3.8437738
-38.392246,1.7360435,3.863699
-38.47872,1.7288594,3.8858752
-40.00398,0.99611306,3.304634
-39.9549,1.0638671,3.3946247
-39.982307,1.0928667,3.4524307
-39.99746,1.1277313,3.5150628
-40.00448,1.1663024,3.5806603
-40.012638,1.203999,3.6454892
-40.015137,1.2441034,3.7121572
-39.992218,1.2959249,3.7878914
-39.999496,1.3329864,3.8519053
-40.007103,1.3695996,3.9155116
-40.015915,1.4053695,3.9784174
-40.010334,1.4474671,4.0460267
-40.078987,1.4554443,4.088115
-40.24176,1.4212253,4.099569
-40.470608,1.3584406,4.0913486
-40.670387,1.3099735,4.095012
-40.91919,1.241199,4.0856376
-41.15294,1.180542,4.0837197
-41.404243,1.1137514,4.0792093
-41.63415,1.0576663,4.0838237
-41.93683,0.9721153,4.0701923
-42.21463,0.8989196,4.067008
-42.52281,0.8147695,4.058667
-42.830173,0.7328644,4.0540667
-43.18254,0.6344168,4.041209
-43.54053,0.5358696,4.030955
-16.525118,0.58114505,4.0591173
-16.98561,0.71675014,4.0921717
-17.228113,0.7675276,4.0737157
-17.554598,0.85380244,4.080363
-17.901598,0.95049214,4.0963507
-18.13649,1.0030174,4.084995
-18.314545,1.0332208,4.06
-18.638226,1.1256688,4.07948
-18.903069,1.1952085,4.0851526
-19.182095,1.2724717,4.0981917
-19.369236,1.3118138,4.0858383
-19.590218,1.366997,4.086314
-19.7947,1.4162905,4.0839515
-20.002926,1.4684958,4.085143
-20.240135,1.5349627,4.0984974
-20.43037,1.5817633,4.098454
-20.602648,1.6215682,4.0942764
-20.718224,1.6363754,4.071761
-20.864622,1.6660705,4.0616646
-21.059568,1.7193222,4.071193
-21.22211,1.7585635,4.070759
-21.325253,1.7705598,4.0493217
-21.49709,1.8160591,4.055836
-21.714031,1.8845153,4.08233
-21.892004,1.9354519,4.095668
-22.009514,1.9577943,4.0861797
-22.106583,1.9706644,4.069395
-22.276958,2.020817,4.084895
-22.34924,2.022513,4.059883
-22.49776,2.063434,4.069159
-22.559782,2.0608163,4.0414147
-22.708218,2.1033165,4.053564
-22.769144,2.1009793,4.02698
-22.94927,2.1618915,4.0569797
-23.005705,2.1581688,4.03015
-23.168253,2.2117462,4.0552835
-23.211437,2.2017226,4.0236187
-23.351929,2.2450752,4.0409265
-23.41817,2.248414,4.0222344
-23.563171,2.295977,4.04481
-23.616251,2.2929149,4.0210657
-23.759342,2.3411334,4.0456142
-23.80265,2.3332992,4.018145
-23.950104,2.3857474,4.048001
-24.01573,2.3916495,4.0343146
-24.10372,2.4110436,4.033883
-24.207582,2.4404368,4.043545
-24.255674,2.4371653,4.0221047
-24.357285,2.4664116,4.0325527
-24.439396,2.4845068,4.0326147
-24.49622,2.4875743,4.0183005
-24.568031,2.5002203,4.013719
-24.644108,2.5159812,4.0125823
-24.726612,2.5363069,4.0163755
-24.804314,2.554141,4.0180793
-24.86842,2.5637426,4.011862
-24.941149,2.5793314,4.012006
-25.035486,2.609601,4.02743
-25.075592,2.6046739,4.007368
-25.158339,2.628383,4.016843
-25.22918,2.644686,4.019088
-25.296154,2.6588476,4.0194488
-25.342995,2.6596017,4.0061874
-25.411667,2.6757278,4.0091515
-25.491264,2.7000108,4.020974
-25.525103,2.6925197,3.9997678
-25.580524,2.7005022,3.9950056
-25.658518,2.7251182,4.008102
-25.719633,2.738079,4.009169
-25.762129,2.7377524,3.996324
-25.826237,2.7536652,4.0010333
-25.914902,2.7885053,4.0263658
-25.937527,2.774113,3.999022
-25.982918,2.7770386,3.9904695
-26.076319,2.8173347,4.022668
-26.120571,2.8201976,4.0145288
-26.158897,2.8185995,4.001685
-26.19916,2.818673,3.9908104
-26.260544,2.8359232,3.99897
-26.313326,2.8466835,4.0002327
-26.357674,2.85089,3.9944553
-26.404428,2.8573387,3.991335
-26.451044,2.8639574,3.9885821
-26.507404,2.879137,3.9955626
-26.549355,2.8824358,3.9894753
-26.62593,2.9159555,4.017462
-26.674086,2.9254556,4.01875
-26.718449,2.9319487,4.0168285
-26.746605,2.9242291,3.998988
-26.784903,2.9256597,3.9916067
-26.822563,2.9266825,3.9838924
-26.867723,2.9348068,3.984405
-26.91271,2.9430933,3.9852686
-26.960377,2.9542398,3.9895747
-27.001587,2.959608,3.9874215
-27.04211,2.964576,3.984951
-27.081963,2.9691384,3.9821534
-27.128323,2.9803824,3.9872224
-27.167892,2.9852312,3.9850461
-27.206264,2.9891174,3.9818857
-27.25259,3.0013769,3.9886053
-27.286436,3.00113,3.9808974
-27.33132,3.012589,3.9869843
-27.379099,3.0275323,3.997315
-27.426579,3.0426514,4.008026
-27.439486,3.0206625,3.9752479
-27.439602,2.98417,3.9253674
-27.430336,2.936429,3.862131
-27.463596,2.9356391,3.8543496
-27.43105,2.8596935,3.7575483
-27.427078,2.8150315,3.6976771
-27.431595,2.779302,3.648347
-27.43722,2.7440872,3.5995808
-27.455692,2.7235565,3.5683084
-27.448477,2.6712513,3.4990387
-27.434845,2.6097298,3.4186153
-27.436417,2.565735,3.3590884
-27.393852,2.464542,3.2307172
-27.401527,2.4254448,3.1768446
-27.425692,2.406953,3.1477857
-27.426773,2.3574684,3.0813212
-27.442444,2.3263304,3.0369806
-27.472187,2.3136473,3.0149994
-27.44457,2.2212725,2.896368
-27.45077,2.1738336,2.8321328
-27.456202,2.1240177,2.7649493
-27.4457,2.0497324,2.6678858
-27.418371,1.948525,2.537828
-27.458042,1.944469,2.526276
-27.456232,1.8774338,2.4377584
-27.446556,1.7962506,2.331808
-27.46303,1.7536025,2.272994
-27.445318,1.6551709,2.1456447
-27.455893,1.5994706,2.0706697
-27.430725,1.4830647,1.9208999
-27.45832,1.4513588,1.875329
-27.462282,1.3783376,1.778799
-27.48018,1.3271172,1.7091231
-27.455187,1.198267,1.5434074
-27.455961,1.1113036,1.4293365
-27.470318,1.0462129,1.342278
-27.482704,0.9751301,1.2477427
-27.513573,0.9367604,1.1937919
-36.486248,0.73481655,1.6453061
-36.497627,0.7791698,1.7116799
-36.48527,0.84207916,1.7984233
-36.501472,0.88109684,1.8587446
-36.53842,0.9031272,1.9004416
-36.578945,0.9221611,1.9389524
-36.613274,0.9458847,1.9826641
-36.647236,0.9696722,2.026517
-36.68083,0.9935229,2.0705042
-36.699986,1.0280471,2.1260476
-36.763794,1.0769844,2.2156014
-37.186108,0.8650074,2.0285459
-36.466824,1.4743629,2.7108464
-36.417877,1.5517766,2.8102808
-36.47956,1.5507398,2.827343
-36.51015,1.5714576,2.8672976
-36.48988,1.6268537,2.9432693
-36.508812,1.6548502,2.9907289
-36.518673,1.6886568,3.044166
-36.538143,1.7156742,3.0906048
-36.539722,1.7542224,3.1488056
-36.56485,1.7769058,3.190814
-36.58007,1.8058212,3.2391639
-36.593365,1.835675,3.288444
-36.59207,1.8744888,3.3466682
-36.60886,1.9014418,3.3929691
-36.62749,1.9269881,3.4378762
-36.652527,1.9483447,3.478663
-36.683315,1.9660263,3.5158963
-36.720707,1.9796169,3.549224
-36.764793,1.9891682,3.578761
-36.812603,1.9965692,3.6063943
-36.86805,1.9995646,3.629992
-36.925022,2.0018542,3.653162
-37.000713,1.9934838,3.6664624
-37.07028,1.9890308,3.6838412
-37.13914,1.9853039,3.7022433
-37.19146,1.9912374,3.7300043
-37.246086,1.9960251,3.756936
-37.34375,1.9771006,3.7622485
-37.403244,1.9797578,3.7878714
-37.452248,1.9883456,3.8191814
-37.56498,1.9626102,3.8196578
-37.769814,1.8882692,3.777092
-37.91222,1.8486388,3.7667518
-38.01678,1.8298905,3.7757573
-38.103558,1.821023,3.7940469
-38.16986,1.8231764,3.8224392
-38.262615,1.8120222,3.839634
-38.363846,1.7970462,3.8540587
-38.46112,1.7846112,3.8712358
-39.9445,1.0809939,3.3034506
-39.974068,1.1091182,3.3605666
-39.99395,1.1418493,3.4216032
-40.008286,1.1770589,3.484702
-40.00258,1.2216587,3.5554714
-39.99112,1.2685809,3.6279664
-39.982403,1.3137391,3.698842
-39.986755,1.3523278,3.7643023
-40.006035,1.3836505,3.8239398
-40.01968,1.4173772,3.885479
-40.022453,1.4558413,3.9506693
-40.02033,1.4962053,4.0172205
-40.018497,1.5360873,4.0832777
-40.201344,1.4934032,4.087281
-40.407516,1.4415264,4.0856986
-40.598522,1.3975544,4.0913234
-40.7936,1.352958,4.0978026
-41.041374,1.2868671,4.0902276
-41.280216,1.2261279,4.0881877
-41.550022,1.1537733,4.079722
-41.797527,1.0924299,4.0807858
-42.132446,0.99630547,4.059955
-42.447014,0.91067004,4.048625
-42.778763,0.8199792,4.0362644
-43.088146,0.74037576,4.0335994
-43.408363,0.65830374,4.0316505
-43.748512,0.5702505,4.0283184
-16.253517,0.655766,4.124517
-16.465103,0.6892183,4.0910773
-16.7916,0.76853275,4.0887575
-17.050201,0.82313037,4.0726547
-17.459887,0.93909454,4.099234
-17.673626,0.97928023,4.0777035
-17.994717,1.0639818,4.0881405
-18.279835,1.1360233,4.0921063
-18.55513,1.2057767,4.0964913
-18.738651,1.2391856,4.076944
-18.954666,1.2872093,4.0691795
-19.252516,1.371041,4.0890265
-19.486526,1.4296095,4.092292
-19.728596,1.4930863,4.100819
-19.88547,1.521174,4.0842566
-20.051626,1.554203,4.0724916
-20.25142,1.6030326,4.0740066
-20.434883,1.6458354,4.072136
-20.656837,1.707041,4.0859604
-20.80958,1.7383435,4.0774436
-21.004166,1.789669,4.0859838
-21.088825,1.7915735,4.055687
-21.267746,1.8376849,4.0620646
-21.466515,1.8942575,4.0782156
-21.616795,1.9292063,4.077606
-21.726696,1.9458079,4.062498
-21.92175,2.004042,4.0833273
-22.083931,2.0476403,4.092864
-22.168236,2.0541205,4.071412
-22.321865,2.0953088,4.0805655
-22.41071,2.1051803,4.0632377
-22.544231,2.138013,4.066647
-22.621836,2.1432996,4.0463715
-22.736427,2.1679182,4.043806
-22.848991,2.192202,4.041589
-22.968533,2.2208288,4.043948
-23.065638,2.2384214,4.0369053
-23.171377,2.2611766,4.03514
-23.282402,2.2874317,4.0371976
-23.3922,2.313748,4.039926
-23.475946,2.3265707,4.0306115
-23.60572,2.3652153,4.0460844
-23.65627,2.3607845,4.0214148
-23.806465,2.4123755,4.050433
-23.858244,2.4094644,4.027983
-23.997005,2.4563835,4.0538654
-24.049994,2.454981,4.0336113
-24.120836,2.4641564,4.023919
-24.212368,2.4858587,4.026864
-24.290455,2.5002208,4.023039
-24.36905,2.5153694,4.0203805
-24.447374,2.530849,4.0184402
-24.516327,2.5411263,4.0116754
-24.634098,2.5817795,4.0358067
-24.673904,2.575079,4.0126705
-24.754097,2.5937207,4.015436
-24.851036,2.6234834,4.0299397
-24.896484,2.6211977,4.012073
-24.981623,2.6445913,4.020838
-25.06415,2.6669273,4.0289216
-25.088854,2.6519878,3.998681
-25.170887,2.6748798,4.0079703
-25.269756,2.7096415,4.030086
-25.30797,2.7043636,4.0105734
-25.367565,2.7137218,4.0066576
-25.44605,2.7364244,4.01715
-25.494616,2.7389908,4.0065775
-25.553583,2.749073,4.0042315
-25.61929,2.7642965,4.0076528
-25.695055,2.7871776,4.0196075
-25.742283,2.7901034,4.0103517
-25.798288,2.7996523,4.0084634
-25.862225,2.8153942,4.0135465
-25.915768,2.8238988,4.011006
-25.955091,2.8220778,3.997376
-26.016335,2.8369927,4.0022793
-26.081245,2.8551803,4.0110526
-26.126148,2.8584356,4.003587
-26.172266,2.8628676,3.9975958
-26.209225,2.8603287,3.9840217
-26.283432,2.8875775,4.0038357
-26.327803,2.8915317,3.9978843
-26.379038,2.9013062,3.9986367
-26.428812,2.910242,3.9986453
-26.474655,2.9162548,3.9955444
-26.51417,2.9172373,3.9869156
-26.591124,2.9501472,4.0146976
-26.641233,2.9609015,4.0175743
-26.68023,2.9624066,4.0100784
-26.719166,2.9640417,4.0028667
-26.750298,2.958952,3.9880652
-26.799816,2.9703505,3.9923382
-26.832096,2.9665499,3.9792569
-26.887676,2.984125,3.991004
-26.933681,2.99338,3.9933195
-26.972054,2.9958482,3.9879124
-27.011488,2.9995162,3.9840317
-27.053637,3.0060074,3.9835823
-27.097866,3.014803,3.9859762
-27.138042,3.0199718,3.9842722
-27.177547,3.024735,3.9822276
-27.219648,3.032349,3.9836755
-27.259432,3.0379314,3.9828684
-27.29589,3.040371,3.978475
-27.337551,3.0484054,3.9808333
-27.396276,3.0747013,4.005034
-27.430172,3.0753636,3.9989398
-27.449684,3.060685,3.9746444
-27.442049,3.0161781,3.9147243
-27.46082,2.9998317,3.8884268
-27.475887,2.9790673,3.856855
-27.423935,2.8820255,3.733595
-27.432156,2.8516176,3.690257
-27.432728,2.81167,3.6353817
-27.431158,2.7682886,3.5762882
-27.438847,2.7349367,3.5292583
-27.469488,2.7285712,3.5149188
-27.434364,2.6416104,3.4027567
-27.424965,2.584356,3.3264942
-27.409412,2.5179102,3.2389116
-27.41642,2.4785528,3.184238
-27.425014,2.4402864,3.130856
-27.444279,2.415089,3.0934372
-27.436985,2.3539314,3.0119395
-27.441395,2.306955,2.9477415
-27.477165,2.3017583,2.9348598
-27.452785,2.212814,2.8189359
-27.435349,2.131137,2.7117767
-27.447937,2.0902023,2.6547604
-27.45216,2.0359602,2.5812635
-27.448002,1.9677656,2.4904256
-27.480545,1.9527593,2.4654202
-27.456772,1.8513474,2.3332233
-27.44911,1.7718086,2.2280092
-27.445143,1.695626,2.1268454
-27.440054,1.6152396,2.0203319
-27.427883,1.5207047,1.8960509
-27.472391,1.5172741,1.885386
-27.449387,1.399699,1.73213
-27.461311,1.338238,1.6488981
-27.457956,1.2479284,1.5294771
-27.44608,1.139245,1.3868923
-27.46994,1.091686,1.3208923
-27.486404,1.0287857,1.2356167
-27.518425,0.9930401,1.1844726
-36.47881,0.74196196,1.5481014
-36.47704,0.79746914,1.6275678
-36.514362,0.82046866,1.6704416
-36.447674,0.92653704,1.8062806
-36.469376,0.96065116,1.8614182
-36.534645,0.96015024,1.8780842
-36.548363,0.9999511,1.9396348
-36.576557,1.0280793,1.9882488
-36.6149,1.0481775,2.028059
-36.63361,1.0829268,2.0840373
-36.663837,1.1086526,2.1301327
-36.692986,1.134923,2.1768703
-36.714252,1.1667025,2.2296367
-36.78629,1.1613362,2.242208
-36.84539,1.165611,2.2654624
-36.39111,1.5775204,2.7443528
-36.424263,1.5965357,2.7823544
-36.468403,1.6078436,2.8122516
-36.485455,1.6376958,2.8619142
-36.51487,1.6588514,2.9024043
-36.506683,1.7050707,2.9692645
-36.530922,1.7291172,3.012795
-36.52144,1.7751465,3.0792427
-36.539654,1.8024979,3.126174
-36.55891,1.8289056,3.172133
-36.55713,1.8685262,3.2316785
-36.558426,1.9057,3.2886105
-36.547974,1.9498088,3.3525085
-36.60343,1.9523187,3.3740869
-36.62578,1.9754395,3.416686
-36.648533,1.9981291,3.4588876
-36.677025,2.0171707,3.4974833
-36.712864,2.0316951,3.5316648
-36.74926,2.0458648,3.5656152
-36.79779,2.0528736,3.5926461
-36.843903,2.0614073,3.6213684
-36.914806,2.0556927,3.6364121
-36.963932,2.0628102,3.664216
-37.037308,2.0562696,3.6790833
-37.118694,2.0455866,3.6903472
-37.18125,2.0458517,3.7124386
-37.25576,2.0397594,3.728815
-37.343967,2.0265245,3.738851
-37.426777,2.0167165,3.7525496
-37.449306,2.0397947,3.7972078
-37.48687,2.054705,3.8343782
-37.72412,1.9640267,3.7749405
-37.86976,1.9232378,3.7623515
-37.966873,1.9086509,3.7742949
-38.068336,1.8923666,3.7852497
-38.140327,1.8916914,3.8106813
-38.230568,1.8820863,3.8285851
-38.318462,1.8741169,3.8484235
-38.429024,1.8553195,3.8593078
-38.52645,1.8436167,3.8769674
-39.980656,1.1700928,3.327352
-39.99464,1.2056115,3.390914
-39.99286,1.2484226,3.4606066
-39.981102,1.2955799,3.533803
-39.975487,1.3393729,3.6040096
-39.988056,1.3742576,3.6667356
-39.999264,1.409518,3.7297387
-40.001343,1.4487045,3.7958736
-40.012363,1.4834945,3.858395
-40.004673,1.5264659,3.9273577
-39.9955,1.5697055,3.996364
-40.008385,1.6027727,4.0573006
-40.101288,1.6004903,4.091083
-40.280193,1.5611887,4.097317
-40.52561,1.4942615,4.0839972
-40.771896,1.42852,4.0732493
-40.972107,1.3838463,4.07967
-41.16044,1.3453434,4.0919385
-41.436466,1.2714229,4.080133
-41.675034,1.2146771,4.082433
-41.93576,1.1502986,4.0810947
-42.231354,1.0733645,4.0729756
-42.605232,0.96680164,4.046876
-42.92718,0.8832605,4.038956
-43.221172,0.81270814,4.0419836
-43.631973,0.69823146,4.018629
-43.992317,0.6058502,4.0125194
-44.376465,0.5064969,4.0047426
-16.011185,0.69637966,4.1123037
-16.298256,0.75592184,4.0951753
-16.664814,0.8472891,4.100928
-16.975792,0.9195657,4.0967345
-17.290457,0.99510956,4.0970054
-17.51833,1.0386682,4.0777164
-17.84401,1.1220279,4.0875955
-18.12638,1.1901779,4.089131
-18.36036,1.240629,4.0800695
-18.587456,1.2896671,4.0716133
-18.881771,1.3674848,4.085723
-19.187544,1.4518673,4.10673
-19.357304,1.4816599,4.08904
-19.581564,1.5352628,4.0904813
-19.775112,1.5772402,4.0845356
-20.013866,1.6396735,4.095688
-20.206152,1.683598,4.0939646
-20.426712,1.7409825,4.1041284
-20.6334,1.7936847,4.1120014
-20.683739,1.7785006,4.066501
-20.891167,1.8335447,4.078405
-21.068443,1.8763442,4.0815783
-21.18053,1.8906207,4.0622187
-21.29928,1.9085467,4.0465784
-21.481068,1.9562991,4.056823
-21.695408,2.0204322,4.0821424
-21.896904,2.079987,4.104874
-22.001007,2.0946286,4.0899734
-22.11501,2.1145854,4.080309
-22.235434,2.138308,4.0746155
-22.337904,2.1539881,4.062492
-22.467665,2.1836853,4.0634637
-22.546253,2.1887703,4.0430427
-22.70177,2.23281,4.0583396
-22.756779,2.2270641,4.0291095
-22.946632,2.2903337,4.0635643
-22.997158,2.2832441,4.034041
-23.156208,2.3327,4.0574136
-23.205667,2.3258362,4.0289044
-23.33446,2.3610904,4.0403523
-23.411947,2.3698423,4.0273576
-23.528568,2.4000912,4.0352902
-23.603966,2.4087253,4.023088
-23.750753,2.4569292,4.0495105
-23.808891,2.457172,4.0301213
-23.930042,2.492862,4.045658
-24.015293,2.5091987,4.0428195
-24.072144,2.5099077,4.024964
-24.205908,2.555018,4.051493
-24.247623,2.5478475,4.0265117
-24.313297,2.5547771,4.015856
-24.432472,2.593629,4.037725
-24.460236,2.5789714,4.0059447
-24.552711,2.603158,4.013836
-24.641737,2.6259155,4.0207253
-24.702562,2.6320367,4.0109367
-24.780445,2.649025,4.0126534
-24.855042,2.6644845,4.0131555
-24.92861,2.6797917,4.013848
-25.019547,2.7066288,4.0269613
-25.06829,2.7070963,4.012778
-25.139557,2.7223587,4.014423
-25.22284,2.7459614,4.0252414
-25.279776,2.7528162,4.0186152
-25.327976,2.754169,4.006348
-25.389643,2.7647958,4.004233
-25.477274,2.7934537,4.021818
-25.519363,2.7916121,4.0068197
-25.573341,2.7981496,4.001078
-25.646635,2.8185036,4.0106177
-25.697435,2.8235526,4.003745
-25.760475,2.8376052,4.0069594
-25.819828,2.8494534,4.0080166
-25.891823,2.870907,4.0199394
-25.91625,2.8580198,3.9940944
-25.994423,2.8849144,4.0125747
-26.047482,2.893704,4.011192
-26.108282,2.9086955,4.016967
-26.139257,2.9013538,3.9979038
-26.18532,2.9056797,3.9920835
-26.255224,2.9288585,4.007749
-26.28997,2.9249647,3.9930177
-26.33433,2.928805,3.9871926
-26.38556,2.9384139,3.9881096
-26.429035,2.942076,3.9824238
-26.479282,2.9515376,3.9835458
-26.537388,2.96788,3.9927735
-26.608706,2.9958115,4.015598
-26.661777,3.0090187,4.0216966
-26.70367,3.013077,4.0173936
-26.72802,3.0021706,3.9958425
-26.763872,3.0012507,3.9859862
-26.804443,3.004639,3.9812784
-26.843163,3.0065894,3.9750254
-26.903358,3.0281749,3.9919524
-26.941183,3.029911,3.9857578
-26.980093,3.0328321,3.9810855
-27.02346,3.0401378,3.9817252
-27.063847,3.0449305,3.979539
-27.104116,3.049862,3.9776533
-27.147585,3.058147,3.9798925
-27.189772,3.0655117,3.9811852
-27.229622,3.0708685,3.9802215
-27.267189,3.0742002,3.976964
-27.303598,3.0765736,3.9726763
-27.377964,3.1181521,4.0156555
-27.413862,3.1208582,4.012089
-27.448128,3.1220446,4.0067987
-27.447971,3.086697,3.9574134
-27.44083,3.0430584,3.897912
-27.5119,3.0839376,3.9409482
-27.448318,2.9769504,3.804369
-27.429556,2.9175982,3.7254734
-27.428444,2.8768916,3.6691847
-27.431444,2.8399885,3.6174746
-27.43177,2.7991369,3.5608716
-27.436136,2.762111,3.508895
-27.446766,2.7317305,3.4650378
-27.479614,2.72762,3.4535046
-27.418606,2.6081192,3.2997513
-27.39362,2.53036,3.1971936
-27.416378,2.5109344,3.166606
-27.430674,2.4802618,3.1221147
-27.442047,2.4450576,3.071992
-27.43689,2.3871775,2.9936676
-27.445517,2.346207,2.9362822
-27.44778,2.2955298,2.866763
-27.45428,2.249334,2.8027654
-27.464079,2.2065058,2.7429252
-27.458578,2.1407735,2.6543894
-27.465012,2.0903833,2.5849671
-27.444996,1.9997778,2.4650383
-27.472963,1.9779344,2.4313045
-27.466724,1.903755,2.331791
-27.451385,1.8133016,2.211669
-27.45067,1.7428861,2.1166472
-27.438189,1.6515403,1.9951138
-27.43423,1.5710373,1.8871317
-27.464565,1.5443809,1.8471546
-27.498503,1.5230036,1.8139081
-27.460821,1.3788636,1.6250763
-27.455421,1.2857263,1.5007076
-27.464325,1.2146366,1.4042244
-27.459652,1.1165824,1.273386
-27.484245,1.0687425,1.2063494
-27.520689,1.0414314,1.1654778
-36.459267,0.76042485,1.4634347
-36.4513,0.8212731,1.549767
-36.474518,0.85591173,1.6060009
-36.48062,0.9037876,1.6773095
-36.44877,0.98100996,1.7818489
-36.4685,1.0164745,1.8388262
-36.532482,1.0171394,1.8565154
-36.485294,1.103442,1.9707813
-36.551884,1.1017492,1.9859805
-36.611923,1.1052799,2.0072618
-36.610546,1.1547678,2.079969
-36.733505,1.20703,2.1911864
-36.923443,1.2115214,2.2512383
-36.416714,1.6520379,2.7666283
-36.464336,1.6609676,2.793851
-36.480618,1.6911523,2.8440971
-36.51498,1.7089012,2.8810081
-36.5017,1.7581496,2.9516234
-36.510723,1.7920623,3.0057597
-36.517754,1.8268735,3.0607958
-36.525696,1.8606884,3.1147213
-36.55218,1.8822718,3.1557517
-36.568752,1.9099677,3.2032232
-36.553738,1.9571807,3.270997
-36.573757,1.9820113,3.3154006
-36.60464,1.9999447,3.3527112
-36.626217,2.0234592,3.395833
-36.64668,2.0474563,3.4394784
-36.675144,2.0664687,3.4780803
-36.707912,2.0828252,3.5140672
-36.74659,2.0956585,3.5466094
-36.7874,2.1072612,3.578054
-36.83503,2.1149676,3.6057692
-36.89736,2.1143787,3.6254573
-36.955032,2.1166892,3.6482859
-37.019768,2.1152465,3.6676936
-37.098766,2.106151,3.6799455
-37.163654,2.1052523,3.7005324
-37.230167,2.1037369,3.7208319
-37.313534,2.0933914,3.7329917
-37.393867,2.0851197,3.747552
-37.5034,2.0617425,3.7482285
-37.59387,2.0490947,3.7595892
-37.705704,2.0257902,3.7614722
-37.802395,2.0110123,3.771885
-37.910812,1.9907672,3.7777796
-38.01461,1.973511,3.7870102
-38.121162,1.9554613,3.7960944
-38.1724,1.965631,3.8312464
-38.27014,1.9529114,3.8461199
-38.358887,1.9451251,3.8659267
-38.452785,1.9352715,3.8843937
-39.973526,1.2387767,3.3019428
-39.970543,1.2822199,3.3725505
-39.96862,1.3247552,3.442237
-39.969475,1.3655939,3.5103421
-39.988518,1.3976178,3.5708656
-40.001953,1.4320211,3.6334033
-39.989952,1.4777889,3.7053828
-39.98074,1.5218489,3.7757554
-39.982136,1.5607338,3.841721
-39.997726,1.5929854,3.902213
-40.010235,1.6263866,3.9636273
-40.023132,1.6593916,4.024705
-40.00927,1.7037559,4.094689
-40.17931,1.6688399,4.102843
-40.38418,1.6201158,4.1014967
-40.5888,1.5727417,4.1025553
-40.84278,1.5059936,4.090433
-41.091404,1.4430497,4.0828896
-41.292698,1.401041,4.0924377
-41.563328,1.3320289,4.083791
-41.79718,1.2794857,4.0888405
-42.14398,1.18325,4.0646706
-42.42531,1.1150801,4.0625696
-42.789635,1.0160723,4.0412984
-43.08545,0.94593143,4.0422597
-43.41656,0.86395836,4.037484
-43.770462,0.77528167,4.0307508
-44.188297,0.66456676,4.0123997
-44.61289,0.5538652,3.9972215
-14.996655,0.56873226,4.106688
-15.431593,0.6745107,4.1133995
-15.7569685,0.7430937,4.0995803
-16.716518,0.9539287,4.075777
-17.00045,1.0144117,4.0657926
-17.428886,1.1314974,4.09702
-17.714622,1.196492,4.094782
-17.862286,1.2097018,4.057702
-18.202595,1.2989473,4.0764575
-18.446526,1.3522885,4.071368
-18.73817,1.4260676,4.083081
-18.959148,1.4732585,4.076883
-19.209816,1.533792,4.082293
-19.496122,1.6104431,4.101761
-19.672386,1.6434789,4.089328
-19.87914,1.6902297,4.088799
-20.048252,1.7224057,4.078068
-20.252949,1.7706554,4.081298
-20.433321,1.8097548,4.0784454
-20.640217,1.8613986,4.086997
-20.854216,1.9174435,4.1005073
-20.947653,1.9218377,4.072335
-21.054005,1.9323957,4.0498843
-21.256771,1.9866728,4.0651636
-21.430384,2.0290995,4.0715632
-21.566532,2.0555487,4.065227
-21.723625,2.092441,4.0687966
-21.901428,2.1399393,4.082626
-22.063251,2.1811278,4.0919437
-22.145035,2.1855388,4.069412
-22.28398,2.2175965,4.072179
-22.375458,2.227691,4.0558558
-22.512724,2.2605002,4.060762
-22.599522,2.2694645,4.044536
-22.725971,2.2984848,4.0473404
-22.808994,2.306647,4.031414
-22.956059,2.3474784,4.0465794
-23.030333,2.352347,4.0286064
-23.152676,2.3822165,4.034781
-23.259077,2.4046493,4.034511
-23.369148,2.4296694,4.0373034
-23.449768,2.43989,4.0263486
-23.56553,2.4692338,4.034439
-23.64002,2.4772248,4.0222163
-23.770876,2.5161238,4.0408354
-23.83767,2.5209827,4.0264077
-23.947754,2.5500398,4.0364246
-24.036915,2.5682268,4.0361185
-24.106985,2.5762622,4.02603
-24.206469,2.601346,4.033546
-24.286144,2.6157928,4.0307345
-24.364777,2.630133,4.028201
-24.4301,2.6372056,4.018573
-24.496801,2.6454403,4.0104446
-24.586128,2.667475,4.0169535
-24.655397,2.6781213,4.0120173
-24.722952,2.6881428,4.0067434
-24.826977,2.7208219,4.025631
-24.876064,2.7204792,4.0101156
-24.948086,2.7345967,4.010157
-25.039724,2.7615008,4.024166
-25.078844,2.7558331,4.0037265
-25.160297,2.7773395,4.0126553
-25.233376,2.7940438,4.016776
-25.29388,2.803063,4.0128965
-25.352045,2.810907,4.007998
-25.413603,2.8213482,4.0061812
-25.485573,2.839167,4.01272
-25.531136,2.8396256,4.0004673
-25.575258,2.8392887,3.9875112
-25.669464,2.8737347,4.0132875
-25.720139,2.8786664,4.0066586
-25.778257,2.8891182,4.006394
-25.845037,2.9061193,4.013706
-25.900621,2.9155855,4.0128326
-25.94386,2.916453,4.0024877
-25.999111,2.9263191,4.002481
-26.06148,2.941824,4.0090966
-26.119568,2.9546103,4.012875
-26.158993,2.9537218,4.0012693
-26.19318,2.9489808,3.985386
-26.26955,2.9768405,4.007071
-26.312555,2.979442,3.9999747
-26.361233,2.9867241,3.9984426
-26.40784,2.992673,3.995547
-26.456825,3.0008173,3.995375
-26.496248,3.0015228,3.9867153
-26.564804,3.026317,4.00634
-26.621166,3.0416799,4.0151944
-26.669266,3.0505958,4.016695
-26.709885,3.0535169,4.01131
-26.743195,3.0503864,3.9989195
-26.780111,3.0504637,3.9904253
-26.817587,3.051181,3.9828105
-26.865597,3.061392,3.9866092
-26.918634,3.0764794,3.996395
-26.960953,3.0823457,3.995359
-26.997969,3.0836353,3.9889855
-27.043457,3.0929441,3.9923563
-27.085358,3.0992503,3.9922736
-27.124317,3.103056,3.9893162
-27.164282,3.1080549,3.9879277
-27.20522,3.1142545,3.9881248
-27.246008,3.1205964,3.9886284
-27.277487,3.1179833,3.9783773
-27.328205,3.1347747,3.9918587
-27.373817,3.1469183,3.9998465
-27.415504,3.1554527,4.0035768
-27.445587,3.1522431,3.9930513
-27.43307,3.1041498,3.927496
-27.44533,3.0814514,3.8930564
-27.48769,3.0908685,3.898191
-27.437164,2.998931,3.7783294
-27.433222,2.9564414,3.7193203
-27.434935,2.9193428,3.666904
-27.430561,2.8744872,3.6048036
-27.429876,2.832841,3.5466022
-27.42759,2.788356,3.484795
-27.429855,2.74821,3.428319
-27.4444,2.7218568,3.3890119
-27.458502,2.694389,3.3483067
-27.39776,2.5739467,3.1910977
-27.423101,2.55799,3.1646519
-27.42317,2.5096595,3.0975633
-27.439796,2.4814105,3.0556746
-27.435877,2.4256623,2.9791255
-27.426207,2.3608122,2.8909945
-27.434927,2.3189263,2.8317642
-27.45393,2.2899795,2.7888722
-27.444897,2.2214541,2.6958284
-27.456074,2.1794214,2.6362805
-27.462866,2.1299758,2.5672836
-27.45335,2.0554533,2.4663315
-27.452578,1.9916108,2.3788571
-27.472422,1.9567692,2.328277
-27.453146,1.8613453,2.200348
-27.447514,1.7840452,2.0954127
-27.418959,1.668194,1.9410248
-27.437784,1.6244683,1.8788252
-27.443665,1.5582957,1.7878265
-27.470592,1.5248902,1.7388325
-27.469439,1.4430382,1.6275935
-27.455395,1.3362186,1.4841266
-27.460913,1.2598932,1.379775
-27.46009,1.1695704,1.2573028
-36.521057,0.7119231,1.293643
-36.475834,0.8041699,1.4177403
-36.461025,0.87019205,1.510962
-36.47544,0.9117496,1.5755901
-36.479607,0.9608202,1.6488705
-36.509888,0.9886975,1.6975946
-36.43957,1.0942156,1.8356924
-36.47087,1.1199157,1.8817344
-36.489967,1.1546159,1.9381194
-36.51443,1.1848412,1.9893894
-36.59551,1.1726036,1.9924064
-36.63141,1.1941447,2.0340147
-36.65621,1.2236078,2.084651
-36.722122,1.2699251,2.1718283
-36.766876,1.284441,2.2058492
-36.787285,1.3160031,2.258996
-37.455936,0.99518967,1.9602876
-36.432114,1.7332428,2.7912288
-36.47449,1.7456384,2.8221798
-36.493107,1.7737546,2.8704038
-36.51631,1.7985764,2.9150515
-36.50732,1.8440583,2.982078
-36.532486,1.8669803,3.024644
-36.519287,1.9141321,3.0932522
-36.539867,1.939348,3.138246
-36.56301,1.9627342,3.1813092
-36.561287,2.0013168,3.2405071
-36.565662,2.0356827,3.2951517
-36.55899,2.0763648,3.3563557
-36.609756,2.0819867,3.3807712
-36.633163,2.1040509,3.4224968
-36.656242,2.126151,3.4643016
-36.68817,2.1429124,3.5006428
-36.72447,2.1570795,3.5344157
-36.7652,2.1686878,3.5656981
-36.810436,2.1777725,3.5945659
-36.864914,2.18173,3.6184301
-36.927193,2.181508,3.6383266
-36.99344,2.1793473,3.656567
-37.063705,2.175278,3.6732168
-37.133266,2.1719227,3.690906
-37.210087,2.164978,3.7053976
-37.290253,2.1566389,3.718903
-37.374596,2.1465054,3.7310658
-37.425987,2.154096,3.7607694
-37.559246,2.1192958,3.7500186
-37.658848,2.102722,3.7573862
-37.775097,2.0782342,3.7577872
-37.870384,2.0650632,3.7694778
-37.975796,2.0473468,3.7774262
-38.085632,2.0280395,3.784473
-38.153397,2.030072,3.8118062
-38.234493,2.0258667,3.833765
-38.318176,2.0207872,3.8553572
-38.434723,2.000365,3.8635526
-38.55412,1.979265,3.8718061
-39.9663,1.3507917,3.3411179
-39.98216,1.3847733,3.4035864
-39.992405,1.4211087,3.4681044
-40.005535,1.4558425,3.5311866
-40.00271,1.4975648,3.6002493
-39.978607,1.5484779,3.6770139
-39.986588,1.5845551,3.7409701
-40.002705,1.6167629,3.801632
-40.025307,1.6459277,3.8597713
-40.03876,1.6789098,3.9210935
-40.03512,1.7190251,3.9882007
-40.015976,1.7653959,4.060211
-40.126408,1.7566121,4.0880365
-40.28549,1.7280138,4.1009207
-40.519295,1.6693349,4.091381
-40.76986,1.6052196,4.079224
-40.930473,1.5792797,4.097873
-41.16907,1.5227621,4.094546
-41.391384,1.4741933,4.0987744
-41.69059,1.3964744,4.0831046
-41.964684,1.3304603,4.078038
-42.221565,1.272795,4.080884
-42.581337,1.1769879,4.058602
-42.90603,1.096801,4.049808
-43.232594,1.0178609,4.0442266
-43.59472,0.9275415,4.0333333
-43.98713,0.82815003,4.0190725
-44.369713,0.73473716,4.01166
-44.763466,0.6395304,4.0059633
-45.218052,0.5246773,3.9907846
-45.574417,0.44769335,4.0026903
-14.489606,0.5745456,4.146952
-14.826579,0.6402087,4.1257296
-15.209941,0.72405124,4.118563
-15.559192,0.7980244,4.1079
-16.549618,1.011179,4.085247
-16.795898,1.0552187,4.063881
-17.278507,1.1884003,4.106508
-17.439577,1.2040737,4.0693855
-17.741896,1.2739985,4.072319
-18.068653,1.3550637,4.0854855
-18.294258,1.3991416,4.07365
-18.527405,1.4474487,4.066509
-18.747364,1.4919424,4.058062
-19.13049,1.6023688,4.101573
-19.391655,1.6665108,4.111858
-19.578985,1.7024679,4.1018076
-19.77914,1.7447317,4.0979724
-19.982258,1.7894018,4.0973663
-20.195343,1.8394301,4.1024103
-20.38573,1.8812712,4.1021338
-20.550098,1.9132704,4.094939
