x,y,z
-28.082756,3.0702395,2.900783
-28.121555,3.0735164,2.902773
-28.159542,3.075901,2.903429
-28.197433,3.0783966,2.904326
-28.233887,3.0789807,2.9022827
-28.268965,3.0776424,2.897275
-28.30371,3.0758934,2.8916774
-28.33941,3.0757623,2.8886847
-28.377888,3.0803094,2.893128
-28.414997,3.0829315,2.8945994
-28.449903,3.0820873,2.8906631
-28.485382,3.0823605,2.8885474
-28.522556,3.0858026,2.8914971
-28.558765,3.0878136,2.8922458
-28.595726,3.0914664,2.8956523
-28.630669,3.0916264,2.8935914
-28.66531,3.091367,2.890923
-28.700443,3.0922325,2.8900905
-28.736797,3.0957737,2.893556
-28.771053,3.0952847,2.8906903
-28.806019,3.0964384,2.8904858
-28.84211,3.1002786,2.894597
-28.876932,3.1016264,2.8948112
-28.911022,3.1015112,2.8927565
-28.945524,3.1025267,2.892552
-28.979763,3.103115,2.8917217
-29.012724,3.1006713,2.8861208
-29.045313,3.0972688,2.879046
-29.07854,3.0955164,2.8746424
-29.111784,3.0938492,2.8704276
-29.14431,3.0901785,2.863069
-29.176191,3.0844967,2.8525558
-29.208181,3.0788944,2.842215
-29.238132,3.0665581,2.8211842
-29.26787,3.0527174,2.7977958
-29.296375,3.0336947,2.76618
-29.321917,3.0026507,2.7154217
-29.347166,2.9679728,2.6588902
-29.338926,2.7997189,2.389174
-29.367392,2.7655709,2.3334913
-29.383478,2.6751175,2.1879253
-29.396133,2.5598848,2.0027761
-29.391926,2.3518145,1.6692991
-29.418756,2.2760563,1.5471687
-29.38694,1.8772802,0.9088378
-29.413422,1.7586687,0.7181668
-40.09391,0.8483913,0.33452702
-40.051464,0.9224396,0.45716095
-40.080433,0.9594228,0.52831984
-40.079834,1.0108781,0.6194215
-40.063778,1.0693889,0.7201042
-40.062843,1.1197786,0.8094969
-40.04091,1.1797717,0.91189003
-40.052113,1.2231336,0.99146223
-40.08367,1.256423,1.0573206
-40.065247,1.3129668,1.1546416
-40.081314,1.3528006,1.2292714
-40.096718,1.392596,1.3038206
-40.09793,1.4385114,1.3865209
-40.0328,1.513865,1.5083747
-40.036976,1.5572343,1.5873618
-40.000893,1.6179657,1.689249
-40.01884,1.654315,1.7587323
-40.009342,1.7022643,1.8434362
-40.016186,1.7427042,1.9181776
-40.047806,1.7722864,1.9787064
-40.083088,1.8001955,2.0371122
-40.10885,1.8319597,2.100565
-40.124146,1.8678491,2.1693525
-41.42302,1.6114562,1.990787
-40.16569,2.137195,2.672697
-40.21821,2.1568215,2.7209678
-40.04787,2.2600112,2.8724823
-40.08441,2.2848523,2.9269443
-40.115402,2.3116965,2.983944
-40.148598,2.337665,3.0399475
-40.101246,2.392518,3.1308928
-40.074837,2.4392686,3.2117953
-40.164314,2.4447587,3.2432585
-40.28194,2.4408238,3.2639132
-40.3503,2.454437,3.305766
-40.416733,2.468922,3.3489075
-40.496315,2.479174,3.3873844
-40.58471,2.4867811,3.4231377
-40.720413,2.4791317,3.4417577
-40.829453,2.4808784,3.471724
-41.005947,2.4613328,3.4780927
-41.1342,2.4581666,3.5037274
-41.296936,2.444726,3.5185165
-41.37297,2.4592433,3.5650392
-41.42884,2.4802556,3.6190214
-41.48169,2.502312,3.674367
-41.543365,2.5217993,3.727151
-41.61669,2.5379648,3.7766433
-41.694397,2.5530734,3.8253503
-41.763626,2.57093,3.877306
-41.84277,2.5861325,3.926818
-41.930046,2.5992877,3.974599
-42.07928,2.5952566,4.005276
-42.164513,2.6098433,4.05556
-42.316616,2.606267,4.088127
-43.30343,2.3754616,3.8970356
-43.31534,2.4138467,3.974845
-43.330433,2.4512184,4.05166
-43.35155,2.4868596,4.126829
-43.47477,2.495797,4.1769
-43.962036,2.411535,4.1410484
-44.259674,2.378287,4.1550207
-44.688534,2.3136492,4.14246
-45.076633,2.2615132,4.1437645
-45.527313,2.196146,4.1359415
-46.0142,2.1244888,4.1256137
-46.514534,2.0522954,4.1180363
-47.006344,1.9848621,4.1177697
-47.619728,1.8917403,4.09972
-48.163445,1.8180466,4.101527
-48.68799,1.7516623,4.1128626
-49.310566,1.6660876,4.1129827
-50.139465,1.5381656,4.0853796
-50.957478,1.4171741,4.0688915
-51.783783,1.2988527,4.060298
-52.988914,1.1043437,4.0038705
-53.89995,0.9782429,4.003687
-54.96672,0.82477665,3.992014
-12.119616,0.41679502,1.0960646
-12.191275,0.37727237,1.0035181
-12.393194,0.37881565,0.9588814
-14.4068985,0.6781862,1.0596046
-14.406976,0.6210182,0.9516487
-22.353996,2.5643468,2.8311453
-22.492851,2.5903432,2.8503819
-22.580763,2.5945482,2.8403635
-22.725697,2.6248817,2.8664312
-22.817684,2.6321177,2.8612714
-22.916496,2.642996,2.8614378
-23.01889,2.6561127,2.8650293
-23.08191,2.6513705,2.8441796
-23.154228,2.6512797,2.8299885
-23.2442,2.6599805,2.8282905
-23.336954,2.6705432,2.8294854
-23.42785,2.6807454,2.8304706
-23.51462,2.6894474,2.8296318
-23.598072,2.6969962,2.8274336
-23.674484,2.7014673,2.8211346
-23.757435,2.709678,2.8203716
-23.843828,2.7201443,2.823073
-23.9136,2.7224855,2.8144403
-24.029629,2.7495031,2.8413148
-24.08564,2.745496,2.82406
-24.159845,2.751469,2.8213015
-24.251204,2.7671669,2.8327746
-24.319084,2.7706108,2.826818
-24.390368,2.7762992,2.8242998
-24.47068,2.7874475,2.8299065
-24.545704,2.7961175,2.8321404
-24.610598,2.7994554,2.8268108
-24.679516,2.8054633,2.8255558
-24.749596,2.812549,2.826067
-24.818735,2.8195,2.8265724
-24.884201,2.8246717,2.8246484
-24.953548,2.832559,2.826898
-25.017214,2.837413,2.8248549
-25.08337,2.8441648,2.8257852
-25.15129,2.8524187,2.8291144
-25.219604,2.8613515,2.8336315
-25.280384,2.865932,2.831852
-25.33901,2.869474,2.828679
-25.394873,2.8715377,2.823443
-25.451889,2.8746505,2.8199105
-25.513233,2.8809547,2.8212972
-25.574986,2.8879142,2.823821
-25.633345,2.8929565,2.823615
-25.690254,2.8973494,2.8225713
-25.746359,2.9015145,2.821321
-25.805374,2.9080539,2.8237891
-25.862324,2.9135008,2.8247461
-25.919678,2.9195917,2.8268132
-25.972597,2.922816,2.8246655
-26.022976,2.9244637,2.82024
-26.07442,2.9271677,2.8175344
-26.126902,2.9309366,2.8165674
-26.17689,2.9331079,2.8132777
-26.229061,2.9372365,2.8130894
-26.281065,2.9415462,2.813295
-26.335167,2.9478352,2.8166485
-26.390179,2.9552176,2.8218017
-26.438814,2.9578178,2.8197284
-26.482895,2.9569497,2.81242
-26.541162,2.9680626,2.8236623
-26.587711,2.9697948,2.8205628
-26.63469,2.9721384,2.8185039
-26.686867,2.9792333,2.8238902
-26.734596,2.9828212,2.8239589
-26.782175,2.9865694,2.8243732
-26.828053,2.9890842,2.8229723
-26.871244,2.9894242,2.8182821
-26.916388,2.991765,2.8167887
-26.962915,2.9956548,2.8177962
-27.010778,3.0011032,2.8213272
-27.05649,3.0048306,2.82227
-27.100113,3.0068223,2.82059
-27.145065,3.0103698,2.8214264
-27.189877,3.014062,2.822578
-27.234074,3.0174236,2.8232965
-27.277668,3.02045,2.8235755
-27.320677,3.0231373,2.8234043
-27.362658,3.0250022,2.822021
-27.404985,3.027477,2.8216743
-27.445871,3.0286405,2.8193421
-27.488422,3.0318565,2.8203173
-27.529549,3.033756,2.819295
-27.571003,3.036265,2.8193083
-27.611923,3.0384161,2.818831
-27.653572,3.0416641,2.8201618
-27.695501,3.0455284,2.8225417
-27.733253,3.0446367,2.8174672
-27.778936,3.0536442,2.8281431
-27.82986,3.0696685,2.8500342
-27.86837,3.0706298,2.8481202
-27.918251,3.0864801,2.8699203
-27.954193,3.084736,2.8638525
-27.99346,3.087541,2.8650794
-28.028606,3.085014,2.8578873
-28.066635,3.0865536,2.8572264
-28.1067,3.091187,2.8615603
-28.143143,3.0909598,2.8582115
-28.181595,3.0938294,2.8598642
-28.219269,3.0958123,2.8601642
-28.254871,3.094899,2.8558993
-28.292076,3.096592,2.8558574
-28.329521,3.0988936,2.8568492
-28.36687,3.1013033,2.8580751
-28.403513,3.1028118,2.8579183
-28.440083,3.1044233,2.857986
-28.474802,3.1031053,2.853414
-28.510965,3.104412,2.853106
-28.546778,3.1053135,2.8522043
-28.581976,3.1052978,2.8498855
-28.617414,3.1058874,2.8485937
-28.654135,3.1091201,2.851604
-28.689707,3.1104167,2.8515596
-28.724197,3.1097696,2.848442
-28.759417,3.1107488,2.8479948
-28.794338,3.1113124,2.8469315
-28.828981,3.1114576,2.8452477
-28.864054,3.1127222,2.8454194
-28.898392,3.1125422,2.8433142
-28.933363,3.1139953,2.8438954
-28.968273,3.1155443,2.8446827
-29.002499,3.115641,2.8431797
-29.036495,3.1153138,2.841042
-29.069107,3.1114624,2.833262
-29.102163,3.1087272,2.8273315
-29.135258,3.106077,2.8215852
-29.167683,3.1014402,2.812676
-29.199678,3.0953312,2.8014288
-29.22981,3.0830777,2.7802877
-29.259409,3.068299,2.7550993
-29.288258,3.0499504,2.7241702
-29.312948,3.0155494,2.6672907
-29.342794,2.9973156,2.6366115
-29.34642,2.8765976,2.4399915
-29.380587,2.867807,2.4246445
-29.393034,2.766322,2.2591586
-29.416245,2.7023623,2.1544695
-29.390211,2.399953,1.6633024
-29.414719,2.313995,1.5229139
-29.384068,1.9261315,0.89302254
-29.409912,1.8055904,0.69650126
-40.063457,0.9911728,0.40814257
-40.056847,1.0457318,0.50444365
-40.07443,1.0877509,0.58298016
-40.057365,1.195771,0.7734895
-40.067905,1.2397428,0.8545475
-40.04579,1.2986851,0.95635414
-40.074997,1.332936,1.0237622
-40.106003,1.3661249,1.0897231
-40.069397,1.4300275,1.1980009
-40.11409,1.456296,1.254384
-40.061222,1.5262086,1.3705516
-40.08709,1.5602522,1.4375091
-40.068207,1.6137116,1.5308552
-40.03547,1.6725683,1.6313353
-40.006546,1.7290516,1.7283816
-40.00432,1.773493,1.8090286
-40.024235,1.8081694,1.876503
-40.00992,1.8568735,1.9626803
-40.09455,1.8642356,1.9937797
-40.08146,1.9118171,2.07838
-40.119934,1.9380627,2.1347146
-40.172207,1.9587283,2.1838045
-41.44518,1.6789415,1.9396124
-41.419205,1.7333612,2.0350409
-41.46601,1.7601438,2.095109
-40.234406,2.2571566,2.750308
-40.072266,2.3550544,2.897163
-40.112762,2.378414,2.94981
-40.148582,2.4034414,3.0046444
-40.160496,2.4368656,3.069973
-40.187634,2.4647703,3.128477
-40.262627,2.476066,3.1666765
-40.292603,2.5029976,3.2242136
-40.230316,2.5610356,3.3194895
-40.313263,2.569804,3.3550658
-40.45214,2.5604038,3.3692436
-40.593964,2.5507631,3.3837557
-40.696712,2.5544994,3.4147043
-40.813835,2.554092,3.4412389
-40.937355,2.5522137,3.4665847
-41.085358,2.543268,3.4843173
-41.239937,2.5330436,3.501278
-41.381187,2.5277011,3.524538
-41.420753,2.5538495,3.5840864
-41.46177,2.5795753,3.6432924
-41.541733,2.5937948,3.6898317
-41.63986,2.6029823,3.731172
-41.711254,2.6203113,3.7818818
-41.77045,2.6413596,3.8369427
-41.860756,2.6537552,3.8829546
-41.93704,2.6704252,3.9339495
-42.042797,2.6792064,3.9769793
-42.145683,2.6892223,4.021829
-42.26431,2.6954167,4.063249
-43.318085,2.4525895,3.8506398
-43.324425,2.4923925,3.9300852
-43.297333,2.5407104,4.017996
-43.319347,2.5759854,4.092764
-43.344604,2.610343,4.1666856
-43.69792,2.5621994,4.1611214
-44.015133,2.5249617,4.1680655
-44.48935,2.4509435,4.1423874
-44.84319,2.4087284,4.149106
-45.30235,2.3432376,4.136775
-45.712006,2.291966,4.1401377
-46.264706,2.209563,4.118556
-46.706734,2.1556873,4.125413
-47.251106,2.0809393,4.117288
-47.876213,1.9910553,4.10005
-48.45453,1.9149506,4.098408
-48.977104,1.8541527,4.113105
-49.753113,1.7415235,4.0902486
-50.522907,1.634453,4.0771613
-51.32505,1.524775,4.0675592
-52.425896,1.3576365,4.0210543
-53.324265,1.2378314,4.0169134
-54.394024,1.0883772,3.9984694
-0.2965889,0.2483449,3.3856392
-0.598917,0.22307992,3.2568893
-10.73666,0.42766285,1.1830349
-10.865856,0.4008429,1.1012254
-11.009069,0.37856197,1.025178
-11.110596,0.3445089,0.9361162
-12.013281,0.55001307,1.1268687
-12.079969,0.50867057,1.0320644
-12.326208,0.5222173,1.0024238
-12.384546,0.47898388,0.9062381
-12.486958,0.38793683,0.7088332
-14.392505,0.7661884,1.0089822
-14.410259,0.7151561,0.90812397
-14.283645,0.61512256,0.7458973
-14.278026,0.55497885,0.63317204
-14.327566,0.51335335,0.54373646
-22.358282,2.6163175,2.808896
-22.510036,2.647253,2.8362656
-22.598713,2.6515174,2.8270187
-22.737284,2.678377,2.8496299
-22.82214,2.6820834,2.8402615
-22.91862,2.6914918,2.8391752
-23.079082,2.7307389,2.8804865
-23.084873,2.6996174,2.8228006
-23.197594,2.7181613,2.8355408
-23.26576,2.7163956,2.819746
-23.359991,2.727367,2.8223214
-23.447758,2.735783,2.8215327
-23.532185,2.7430782,2.8194022
-23.618618,2.7518384,2.8196306
-23.703999,2.7605793,2.8200903
-23.78683,2.7685406,2.819675
-23.864914,2.7745688,2.8167
-23.950169,2.784715,2.819934
-24.029938,2.7925339,2.8200269
-24.112362,2.802213,2.823063
-24.185722,2.8075933,2.820044
-24.261036,2.814427,2.8193593
-24.332493,2.8196113,2.8164577
-24.410894,2.828992,2.8199368
-24.481155,2.8343585,2.8177032
-24.551905,2.840395,2.8166485
-24.62664,2.8490899,2.8197289
-24.696892,2.8556871,2.8198915
-24.761337,2.859352,2.8158727
-24.828363,2.8648713,2.814786
-24.899973,2.8734784,2.818489
-24.971977,2.8827717,2.82341
-25.034199,2.8866382,2.8203716
-25.092873,2.8886895,2.8147573
-25.15341,2.8921893,2.8114672
-25.221077,2.9004562,2.8155222
-25.282534,2.9052515,2.814497
-25.341171,2.9086096,2.8114443
-25.396393,2.9100919,2.8056836
-25.459879,2.9172282,2.8086457
-25.521833,2.9237597,2.8108425
-25.578463,2.9271393,2.8083792
-25.628613,2.9264758,2.7998705
-25.700626,2.9409037,2.8145633
-25.74859,2.9393542,2.8049488
-25.811935,2.9487016,2.8121629
-25.867634,2.9531147,2.8119416
-25.921934,2.956863,2.810821
-25.978476,2.9625397,2.8127952
-26.031818,2.966242,2.8118482
-26.086178,2.971006,2.8126597
-26.140938,2.976402,2.8145685
-26.190247,2.9780297,2.8107553
-26.243486,2.9829178,2.812107
-26.291948,2.984446,2.80835
-26.342571,2.9879162,2.807716
-26.394726,2.992899,2.809545
-26.445017,2.9967198,2.809671
-26.493483,2.9993658,2.8080654
-26.541267,3.0017247,2.806108
-26.58838,3.0037901,2.8037882
-26.637524,3.0078247,2.8046494
-26.687035,3.0124798,2.8065844
-26.735838,3.0168474,2.8081675
-26.782383,3.0195506,2.8072286
-26.827759,3.0214887,2.8051767
-26.874046,3.0244937,2.804894
-26.917152,3.0248828,2.8005705
-26.963694,3.0286458,2.8016582
-27.01306,3.035345,2.8074803
-27.056803,3.037094,2.8055634
-27.099957,3.038517,2.8032074
-27.146854,3.0438159,2.8070827
-27.19499,3.0506766,2.813527
-27.237741,3.052527,2.8121004
-27.280386,3.0545118,2.810964
-27.323381,3.0571022,2.8108702
-27.364897,3.0584066,2.808803
-27.406322,3.0598385,2.8070135
-27.44854,3.0623498,2.8070188
-27.488892,3.063084,2.8042593
-27.531326,3.06633,2.8055868
-27.573204,3.0692291,2.8064337
-27.614536,3.0717776,2.8067918
-27.65368,3.072045,2.803565
-27.69604,3.0762882,2.8067822
-27.734207,3.0758278,2.8025198
-27.780697,3.0856538,2.8148508
-27.836336,3.1072881,2.8462563
-27.873611,3.1067376,2.842071
-27.910088,3.1053185,2.8365464
-27.948801,3.1069334,2.835968
-27.986319,3.1071935,2.83327
-28.024874,3.109033,2.8331785
-28.061546,3.1085289,2.8293648
-28.100655,3.1115732,2.8313437
-28.138952,3.1137483,2.8319798
-28.175446,3.1135635,2.8288598
-28.213915,3.1164515,2.8307705
-28.252604,3.1199477,2.8337278
-28.28922,3.1205778,2.8321028
-28.325144,3.120316,2.8290873
-28.364162,3.1251366,2.8343725
-28.400263,3.1255808,2.8326163
-28.435408,3.1246266,2.8286433
-28.472902,3.1277726,2.8313851
-28.507967,3.1270149,2.827839
-28.544998,3.129868,2.8302178
-28.580538,3.1303117,2.828732
-28.615484,3.1298463,2.825819
-28.649876,3.1284664,2.8214674
-28.685566,3.1297035,2.8214302
-28.722214,3.1330616,2.8249035
-28.75651,3.1319659,2.8211684
-28.791286,3.1319752,2.8192854
-28.826979,3.134109,2.8209205
-28.862822,3.136849,2.823597
-28.89722,3.1366355,2.8215036
-28.931812,3.1370237,2.8204408
-28.966156,3.1369944,2.818746
-29.0013,3.1390982,2.8205876
-29.035969,3.140276,2.8209658
-29.06902,3.1374555,2.8148513
-29.101921,3.1342084,2.8080816
-29.134323,3.1295083,2.7989788
-29.16699,3.125402,2.7908916
-29.197676,3.1152196,2.7728934
-29.228245,3.1040814,2.7533684
-29.259052,3.0930157,2.7339983
-29.286728,3.0707023,2.6962252
-29.312548,3.0402064,2.645063
-29.341887,3.0200634,2.6109066
-29.363434,2.9685287,2.525278
-29.371185,2.8571634,2.3414707
-29.386702,2.767435,2.1931572
-29.378786,2.565073,1.8599162
-29.39036,2.4313293,1.6392832
-29.414074,2.3420246,1.4916148
-29.3844,1.9624474,0.8671484
-29.41029,1.8430221,0.6699467
-40.071854,1.0569756,0.3719039
-40.053085,1.1171172,0.47700882
-40.063744,1.1622343,0.5604167
-40.06805,1.2591848,0.7366295
-40.042194,1.3200357,0.842186
-40.052593,1.3632541,0.922565
-40.05677,1.4089189,1.0063453
-40.08374,1.443744,1.074781
-40.053276,1.5042086,1.1792274
-40.11851,1.5212247,1.2226486
-40.041668,1.6010787,1.3539057
-40.089043,1.6255071,1.4076862
-40.054028,1.6855264,1.5108967
-40.054283,1.729698,1.5919828
-40.031876,1.783032,1.6855922
-40.0289,1.8276021,1.7669983
-40.039074,1.8662777,1.8402486
-40.03052,1.9123158,1.9234776
-40.06327,1.9411106,1.983191
-40.079006,1.9766285,2.052041
-40.11829,2.002527,2.107922
-40.177242,2.0206351,2.1534367
-40.225903,2.042862,2.20462
-40.25995,2.0707517,2.2634583
-41.424625,1.757194,1.9189239
-41.43868,1.7963231,1.995059
-41.480408,1.8250723,2.0576644
-40.236763,2.3186717,2.722127
-40.072754,2.4160323,2.8704019
-40.095047,2.4458728,2.931293
-40.12558,2.4726918,2.9883542
-40.17753,2.492021,3.035974
-40.12767,2.5463448,3.127922
-40.11026,2.5890064,3.2049193
-40.282486,2.567642,3.201837
-40.358875,2.5790553,3.2401805
-40.41387,2.5977638,3.2878137
-40.51844,2.6005006,3.3160472
-40.58648,2.6154401,3.3595886
-40.731304,2.606207,3.374107
-40.844994,2.6075048,3.4019394
-40.97496,2.6042745,3.4248505
-41.10328,2.602187,3.4496956
-41.24532,2.5965564,3.4709358
-41.385742,2.592122,3.494227
-41.43351,2.6159,3.550949
-41.470905,2.6427915,3.6114311
-41.55092,2.6573153,3.6578774
-41.6592,2.664013,3.695788
-41.779404,2.6678004,3.7309208
-41.84708,2.6868658,3.78368
-41.936684,2.700057,3.8302307
-42.03077,2.7123666,3.8762274
-42.093155,2.7336333,3.9323988
-42.17293,2.7504172,3.9840188
-42.274883,2.7616217,4.0300674
-43.24992,2.5452015,3.8365865
-43.30481,2.572133,3.9025927
-43.31049,2.6117198,3.9818978
-43.316517,2.6510265,4.0608654
-43.338936,2.68607,4.1354866
-43.531837,2.6791449,4.168335
-43.985233,2.6099787,4.141019
-44.25103,2.5882998,4.162546
-44.73957,2.5153127,4.1364646
-45.16836,2.4590006,4.1291323
-45.524616,2.421758,4.1422057
-46.063007,2.344959,4.1211843
-46.541332,2.2846189,4.118444
-47.098236,2.2094514,4.105583
-47.616894,2.1456897,4.106302
-48.241333,2.061894,4.0932255
-48.758125,2.0044167,4.106484
-49.403084,1.9227734,4.103241
-50.259823,1.800734,4.0716987
-51.028236,1.7014117,4.064119
-51.7505,1.6155312,4.072358
-52.90761,1.4471455,4.023273
-53.88327,1.3205848,4.0134726
-0.5670605,0.63134193,3.6885357
-0.52654266,0.45864654,3.3437567
-0.67794037,0.4040525,3.1952176
-0.73104477,0.33115554,3.0332956
-0.75125885,0.25183177,2.8664656
-9.209774,0.38760376,1.1662416
-9.381716,0.36681056,1.08712
-9.648064,0.3724811,1.0390744
-9.719711,0.325711,0.931736
-10.733185,0.54211926,1.1309605
-10.905518,0.5270083,1.063643
-11.085257,0.5147486,1.0004454
-11.071701,0.4473517,0.8723674
-12.0987835,0.6839957,1.1087613
-12.22057,0.6591506,1.0342631
-12.347153,0.6361594,0.96249676
-12.398209,0.5907469,0.86377525
-12.446329,0.54436636,0.763989
-12.492447,0.49727035,0.66342306
-12.5240555,0.4455185,0.55714655
-14.424929,0.9856572,1.1937027
-14.391141,0.8629017,0.9654541
-14.399146,0.80887413,0.86043215
-14.38336,0.7466004,0.7447529
-14.424753,0.7029166,0.6528754
-14.380211,0.6300125,0.5231724
-22.238346,2.6530707,2.7782393
-22.4529,2.7089214,2.8418288
-22.558542,2.719756,2.8423696
-22.659834,2.729317,2.8414388
-22.756817,2.7375731,2.8389678
-22.847958,2.7437916,2.8338842
-22.924648,2.7440612,2.8205433
-23.071053,2.776115,2.8531675
-23.13543,2.7718394,2.8338404
-23.219984,2.777108,2.8285012
-23.31281,2.78668,2.8296576
-23.402235,2.7951944,2.8295517
-23.490593,2.8037171,2.829722
-23.578648,2.8126059,2.830686
-23.655025,2.8163464,2.8243551
-23.734976,2.822239,2.8214016
-23.816181,2.8291984,2.8202448
-23.898613,2.8372335,2.8209052
-23.970371,2.8403518,2.8145142
-24.053013,2.8494086,2.8171325
-24.131676,2.8569074,2.8176608
-24.210793,2.8651032,2.8194432
-24.285994,2.8717048,2.8190584
-24.360218,2.8782208,2.8187451
-24.427021,2.8811653,2.8132682
-24.500065,2.8878617,2.8136053
-24.567894,2.892115,2.8104482
-24.633411,2.8954537,2.8060827
-24.697348,2.8982537,2.801066
-24.765985,2.9040651,2.8007722
-24.836464,2.9113338,2.8028646
-24.907364,2.9192767,2.8061614
-24.977985,2.9274964,2.810059
-25.05239,2.938408,2.818245
-25.110289,2.9399095,2.8122172
-25.177418,2.9473078,2.8153644
-25.23565,2.9496615,2.8109274
-25.298347,2.9550953,2.8113627
-25.359514,2.9599423,2.8110414
-25.418526,2.9637778,2.8093004
-25.479294,2.9690735,2.8099523
-25.536,2.9720974,2.8072252
-25.593817,2.9761627,2.80624
-25.650187,2.979599,2.8044076
-25.70576,2.9828172,2.80236
-25.764902,2.9887707,2.8046951
-25.82135,2.9932444,2.8048544
-25.875767,2.9966438,2.8034573
-25.93002,3.0002365,2.8024793
-25.984104,3.0040221,2.801919
-26.033825,3.0049846,2.7970438
-26.08878,3.010005,2.798646
-26.144123,3.0156553,2.8013558
-26.196337,3.0193272,2.8010654
-26.250696,3.0249283,2.8039265
-26.300257,3.0272174,2.8016691
-26.349682,3.0296752,2.799777
-26.396717,3.0305362,2.795456
-26.447002,3.0342078,2.79568
-26.49602,3.0371635,2.7948685
-26.545986,3.0411758,2.7958317
-26.600132,3.0489318,2.8028488
-26.650791,3.054191,2.8060007
-26.69539,3.0546808,2.8016472
-26.74307,3.0580187,2.8019214
-26.787987,3.0592546,2.7989278
-26.8328,3.0606346,2.7962475
-26.879047,3.0635245,2.7960668
-26.926678,3.0679343,2.798407
-26.974638,3.07296,2.8018255
-27.019928,3.0758524,2.801909
-27.065083,3.0788918,2.8023095
-27.112043,3.0839221,2.805996
-27.156897,3.087258,2.8070397
-27.200657,3.0898118,2.806903
-27.241941,3.090179,2.8033166
-27.285011,3.0925376,2.8030152
-27.327503,3.0945647,2.8022532
-27.368979,3.0957878,2.8002625
-27.413052,3.099956,2.803111
-27.455196,3.1023812,2.8032122
-27.497662,3.1054099,2.8043637
-27.5387,3.1071515,2.8034987
-27.579638,3.1090188,2.8029056
-27.619633,3.11006,2.8010373
-27.65913,3.1107452,2.798655
-27.698557,3.111548,2.796527
-27.745995,3.1220365,2.8102422
-27.786354,3.124532,2.8110113
-27.82385,3.1237855,2.8065567
-27.86131,3.1231465,2.8023357
-27.902552,3.1274402,2.806229
-27.942135,3.1299257,2.8072348
-27.979757,3.1301074,2.804534
-28.01915,3.132824,2.8060403
-28.058432,3.1356583,2.8078003
-28.097244,3.1381207,2.8090153
-28.133514,3.137281,2.8048735
-28.171127,3.1384985,2.804161
-28.208668,3.1398244,2.8036833
-28.245138,3.1397853,2.8010197
-28.28319,3.1423063,2.8026175
-28.32114,3.1449375,2.8044543
-28.357105,3.144719,2.80166
-28.392725,3.1441061,2.7982683
-28.429525,3.1455703,2.7983484
-28.466547,3.1476338,2.79947
-28.502901,3.1488097,2.799183
-28.538052,3.148099,2.795837
-28.574574,3.1499724,2.7968044
-28.609379,3.1489573,2.793056
-28.646837,3.1530278,2.7977557
-28.68208,3.153206,2.79608
-28.718555,3.1559834,2.7987485
-28.754187,3.1573584,2.7991524
-28.788778,3.156825,2.7964478
-28.824062,3.157891,2.7964392
-28.859753,3.1600595,2.798304
-28.89491,3.1613188,2.7987132
-28.93023,3.1631777,2.8001642
-28.964619,3.1631136,2.798479
-28.998981,3.1631422,2.7969923
-29.03372,3.164273,2.7973819
-29.067232,3.1624591,2.792934
-29.100191,3.1592126,2.7861524
-29.132652,3.1545284,2.777028
-29.1652,3.1499257,2.7680798
-29.1968,3.1423557,2.7542458
-29.228228,3.1338458,2.7388887
-29.256964,3.1162488,2.7084713
-29.286247,3.0992231,2.6790357
-29.31016,3.0623786,2.6166844
-29.33931,3.0413866,2.5807114
-29.363386,2.9995244,2.5100608
-29.365147,2.8657362,2.2865138
-29.386953,2.8019083,2.179326
-29.373552,2.57799,1.805748
-29.391014,2.4716332,1.6277533
-29.411818,2.3693638,1.4565573
-29.38252,1.995543,0.83326054
-29.392477,1.7890983,0.48854113
-40.02948,1.1481979,0.36843538
-40.042366,1.1923523,0.4510188
-40.068985,1.2295103,0.5233321
-40.054794,1.3345041,0.71255445
-40.04279,1.3883643,0.8089609
-40.081997,1.4181314,0.8704066
-40.053425,1.4784844,0.9759917
-40.084305,1.5114038,1.0419512
-40.10201,1.5499701,1.1160293
-40.10001,1.5968752,1.2019978
-40.076454,1.652663,1.3005204
-40.083134,1.6947708,1.3794408
-40.09151,1.735769,1.4567261
-40.073322,1.7875888,1.5492258
-40.067204,1.8337872,1.6336613
-40.00891,1.9010274,1.7474747
-40.00589,1.9447978,1.8281932
-40.005398,1.9871151,1.9067936
-40.024834,2.0210738,1.9737172
-40.06942,2.0448635,2.026586
-40.102013,2.0733373,2.0860019
-40.152554,2.094757,2.135795
-40.1919,2.1205127,2.1916375
-40.2517,2.1789834,2.3129978
-41.388073,1.7975137,1.8195858
-41.45168,1.8626306,1.9548388
-41.4497,1.9071426,2.0384555
-40.23878,2.3810103,2.6912017
-40.26306,2.4109333,2.7527266
-40.122112,2.498206,2.8896022
-40.112717,2.5388482,2.9648294
-40.192574,2.5487425,2.999948
-40.243458,2.568694,3.0483642
-40.296715,2.5879438,3.0960312
-40.336494,2.6117377,3.149684
-40.39097,2.6307528,3.197359
-40.466496,2.6431034,3.2367725
-40.58907,2.640729,3.257926
-40.687706,2.6464977,3.2897744
-40.7953,2.649902,3.3190746
-40.887676,2.658483,3.355214
-41.049355,2.6463299,3.3662543
-41.15447,2.6520686,3.3998418
-41.2931,2.6482868,3.422329
-41.439175,2.6430001,3.4436135
-41.503494,2.6622424,3.494876
-41.53926,2.6898816,3.5563498
-41.606674,2.708512,3.6073174
-41.692207,2.7222514,3.6528368
-41.803352,2.729195,3.6908422
-41.88772,2.7439814,3.7383728
-42.00798,2.7493398,3.7755194
-42.093945,2.764439,3.8242445
-42.14164,2.7899992,3.8850794
-42.28303,2.7911108,3.9189482
-42.33301,2.8165329,3.9802566
-42.41912,2.8328204,4.031816
-43.309433,2.646496,3.8653283
-43.32263,2.6840968,3.9427276
-43.3042,2.7293396,4.0281863
-43.36622,2.7546935,4.092699
-43.337128,2.8020785,4.1802244
-43.75915,2.7421732,4.158127
-44.05598,2.7139015,4.1703205
-44.57773,2.6352649,4.134172
-44.973137,2.5883415,4.132228
-45.406555,2.5350096,4.1264467
-45.92212,2.4657965,4.1081514
-46.36314,2.4157386,4.1110153
-46.841423,2.3600001,4.1113625
-47.418587,2.2857559,4.097887
-47.995934,2.214611,4.0908747
-48.556038,2.1501617,4.09348
-49.092957,2.0934563,4.106429
-49.83471,1.9983064,4.0904326
-50.70853,1.8809168,4.0610285
-51.360973,1.8116391,4.076631
-52.38332,1.674402,4.0428753
-53.438618,1.5364287,4.0157747
-54.611576,1.3820913,3.98388
-0.5602398,0.71578264,3.4382915
-0.5927181,0.63908577,3.272972
-0.7051773,0.57689714,3.119398
-0.72424316,0.49766397,2.9524746
-0.75611687,0.42062998,2.7873983
-0.7852402,0.34291625,2.6218219
-0.83486366,0.2690127,2.4596395
-7.838249,0.22605443,0.8313694
-9.391989,0.559901,1.1616898
-9.499657,0.5220082,1.0642004
-9.67067,0.50131416,0.98745155
-9.698954,0.44277382,0.8663664
-10.781147,0.6720803,1.0907335
-10.893824,0.6398771,1.0041184
-11.09107,0.6316867,0.94717884
-11.53191,0.6933861,0.9767952
-12.12882,0.802336,1.0667567
-12.567335,0.86896586,1.1068196
-12.900284,0.9071951,1.1132913
-13.151966,0.92317677,1.0931859
-13.446327,0.9532912,1.0920415
-13.731823,0.9823408,1.0907779
-14.002232,1.0083365,1.0867872
-14.373613,1.0671735,1.1262589
-14.387027,1.0158005,1.0243645
-14.344693,0.8899045,0.7900953
-14.251528,0.8027165,0.6407242
-14.423308,0.8014324,0.60459995
-14.405854,0.7381251,0.48656368
-14.214995,0.61602235,0.28972387
-22.417225,2.7803996,2.8579116
-22.455963,2.7625878,2.817833
-22.590574,2.7851274,2.8362832
-22.67097,2.7854767,2.8229256
-22.797417,2.8060026,2.8391995
-22.892376,2.8136628,2.8370686
-23.020966,2.8366156,2.8576307
-23.078262,2.8287892,2.8333616
-23.150448,2.8278277,2.8193517
-23.243523,2.8366642,2.8200145
-23.33396,2.844828,2.8199506
-23.414082,2.848736,2.8138223
-23.513912,2.8622859,2.8222709
-23.59808,2.8690548,2.8208847
-23.674395,2.8725462,2.8148274
-23.758806,2.8803492,2.8154392
-23.834671,2.884471,2.8107476
-23.914804,2.8911035,2.8100405
-23.991703,2.8965812,2.8078012
-24.07279,2.9045973,2.809607
-24.160923,2.916681,2.8177972
-24.224583,2.916734,2.8079343
-24.301193,2.9238226,2.8089452
-24.371756,2.928183,2.8059878
-24.447128,2.9354873,2.8077097
-24.512243,2.9377291,2.8018627
-24.582867,2.9432979,2.801282
-24.653957,2.9495292,2.8018942
-24.723398,2.9552612,2.8019118
-24.795383,2.9628255,2.8049269
-24.862253,2.9679275,2.8043075
-24.929585,2.9736803,2.8048558
-24.991903,2.9769237,2.8016663
-25.055399,2.9811947,2.8002186
-25.122736,2.9880998,2.8030224
-25.179775,2.9892526,2.7970037
-25.238014,2.9914165,2.7926912
-25.304684,2.9990482,2.7970705
-25.371735,3.0073419,2.8026404
-25.42678,3.0085564,2.7972426
-25.48881,3.0144691,2.7993555
-25.545471,3.0173273,2.7967906
-25.600697,3.0195649,2.7933674
-25.658937,3.0240703,2.7936459
-25.716978,3.0287888,2.7943854
-25.771702,3.0316327,2.792276
-25.828741,3.0363464,2.7932491
-25.880672,3.0379028,2.7893224
-25.935516,3.04175,2.7891464
-25.988373,3.044522,2.7873693
-26.039278,3.046203,2.783956
-26.094807,3.0514739,2.7863803
-26.150124,3.056944,2.789235
-26.202894,3.060892,2.789765
-26.256063,3.0654573,2.7913885
-26.306173,3.0680442,2.7899404
-26.354431,3.0695004,2.7867699
-26.405392,3.0732973,2.787458
-26.453386,3.075084,2.7850041
-26.505688,3.0805397,2.788559
-26.553392,3.082658,2.7868247
-26.60423,3.0875838,2.7897167
-26.65326,3.0913563,2.7908387
-26.70052,3.0939624,2.7901616
-26.747116,3.0962794,2.7891011
-26.793056,3.0983038,2.7876496
-26.83732,3.0991328,2.7843366
-26.883543,3.1019018,2.7842565
-26.932163,3.107077,2.788176
-26.978582,3.1106074,2.789503
-27.022856,3.112476,2.7882013
-27.067017,3.114487,2.7872071
-27.113491,3.118919,2.7902455
-27.157389,3.1212175,2.789876
-27.201637,3.1241148,2.7905598
-27.245281,3.1266935,2.7907968
-27.286472,3.127107,2.7875552
-27.328968,3.1290321,2.7868629
-27.370897,3.1306267,2.7856965
-27.416763,3.136531,2.7916842
-27.45977,3.139792,2.7933998
-27.500008,3.1403883,2.7907991
-27.53974,3.1406379,2.7876892
-27.582819,3.1447575,2.7910247
-27.624477,3.1476028,2.7923265
-27.66393,3.1482208,2.7900167
-27.70249,3.1480129,2.7864008
-27.743832,3.1512296,2.7885084
-27.78424,3.1536248,2.7893205
-27.822964,3.1542408,2.78725
-27.862394,3.1559231,2.7870035
-27.90173,3.1577222,2.7870107
-27.939842,3.158204,2.7848916
-27.97789,3.158796,2.783011
-28.017696,3.1618986,2.785357
-28.05738,3.1651204,2.787962
-28.09623,3.1674962,2.7892203
-28.133236,3.1675723,2.7867084
-28.169504,3.1667857,2.7828126
-28.207766,3.1690083,2.7839804
-28.244934,3.1698854,2.7829618
-28.283012,3.1723266,2.784605
-28.320988,3.1748788,2.7864876
-28.35635,3.1736372,2.7820916
-28.39139,3.1720026,2.7770882
-28.42824,3.1734002,2.7771978
-28.465607,3.1758828,2.7791734
-28.501713,3.1765072,2.7780938
-28.536625,3.175265,2.77394
-28.5732,3.1770718,2.7749372
-28.610239,3.1799674,2.7778087
-28.646639,3.1819801,2.7792525
-28.68217,3.1826108,2.778429
-28.718163,3.184329,2.7794776
-28.75358,3.1851556,2.7790794
-28.788456,3.1850853,2.7772236
-28.824251,3.1870978,2.7789102
-28.859734,3.1887112,2.7799745
-28.89447,3.1889265,2.778737
-28.92939,3.1897342,2.7785416
-28.964687,3.1916347,2.780229
-28.999908,3.1936314,2.7821245
-29.03425,3.1937215,2.78086
-29.0668,3.1893935,2.7722058
-29.099615,3.1856499,2.7645755
-29.131945,3.1804829,2.7545896
-29.164906,3.1769044,2.7473178
-29.197239,3.1713982,2.7368388
-29.228853,3.1634555,2.7222953
-29.255848,3.1404757,2.6824489
-29.286287,3.1271288,2.658865
-29.310974,3.0931644,2.600555
-29.339851,3.0713592,2.5627685
-29.363539,3.0283916,2.4893198
-29.358862,2.8706746,2.2223191
-29.39063,2.8469322,2.1813054
-29.375565,2.6187193,1.7952833
-29.392973,2.5134382,1.616662
-29.402685,2.3589823,1.3550267
-29.384369,2.0421958,0.81930685
-40.0458,1.2641029,0.41672897
-40.080048,1.2975047,0.48379755
-40.11145,1.3320229,0.5525527
-40.050434,1.4088643,0.6841159
-40.081017,1.442852,0.75196695
-40.064274,1.4979548,0.850996
-40.023804,1.5629778,0.96447706
-40.067898,1.5898018,1.0216637
-40.094982,1.6239839,1.0896912
-40.077812,1.6770663,1.1853147
-40.097992,1.7135594,1.25665
-40.077477,1.7669988,1.3525596
-40.08257,1.809089,1.4318933
-40.039215,1.8708591,1.5395403
-40.084084,1.8956625,1.5938048
-40.020897,1.9642653,1.7109089
-40.01624,2.0084279,1.7927904
-40.000946,2.0563781,1.8799629
-40.012897,2.0931063,1.9510775
-40.07734,2.1091533,1.9929276
-40.096622,2.1427243,2.0596318
-40.148815,2.1635642,2.1084661
-40.173023,2.1949985,2.1722403
-40.202637,2.2242584,2.2330046
-41.4011,1.8672655,1.7804632
-41.47161,1.929884,1.91258
-41.50745,1.9608495,1.9782586
-40.01065,2.526558,2.7706537
-40.10675,2.5307496,2.7970219
-40.206375,2.534161,2.8226705
-40.150208,2.5906281,2.9197907
-40.18653,2.6154952,2.9744368
-40.240906,2.6343815,3.0212264
-40.307346,2.6494389,3.0631208
-40.37186,2.6653228,3.1063213
-40.464516,2.6724062,3.1382284
-40.553604,2.6810038,3.1724439
-40.64266,2.6899772,3.2074747
-40.761147,2.6902206,3.231608
-40.86721,2.6948214,3.2617831
-40.995773,2.693104,3.2843423
-41.125397,2.6916971,3.3078194
-41.272346,2.68581,3.3262053
-41.377834,2.6927578,3.3612242
-41.50785,2.6930933,3.3884783
-41.61976,2.6992106,3.4234009
-41.706997,2.712772,3.4678926
-41.81975,2.7195637,3.504521
-41.89576,2.736961,3.5544086
-41.93196,2.7654324,3.617844
-42.01114,2.782363,3.6676927
-42.11695,2.7925043,3.7098813
-42.19764,2.80968,3.760748
-42.306015,2.8199737,3.8039966
-42.33323,2.8514874,3.8720798
-43.23796,2.6612794,3.6881933
-43.288673,2.6895795,3.7551503
-43.287388,2.730777,3.8366857
-43.287357,2.771436,3.91754
-43.29048,2.8111165,3.9972477
-43.298676,2.8493977,4.07538
-43.331837,2.881672,4.1470594
-43.599598,2.8597312,4.161546
-44.02165,2.8040152,4.1422253
-44.352398,2.771174,4.148896
-44.7276,2.730228,4.149189
-45.174202,2.6756606,4.1379566
-45.610264,2.6258035,4.134016
-46.098923,2.5670865,4.124008
-46.61544,2.505162,4.11386
-47.09451,2.4538,4.1168776
-47.685165,2.3821867,4.1039743
-48.319393,2.3049846,4.089662
-48.868835,2.248058,4.09765
-49.49461,2.1791058,4.0985484
-50.241554,2.0901148,4.086174
-51.1072,1.9825685,4.063017
-51.8471,1.9032421,4.0691648
-52.99769,1.7520783,4.0220113
-53.851295,1.661094,4.030627
-0.55332565,0.8864491,3.3534532
-0.6667919,0.82387924,3.1997442
-0.71201134,0.7495413,3.0367393
-0.7495632,0.67376447,2.8726702
-0.7755947,0.59577394,2.706771
-0.798893,0.5170958,2.5402966
-0.82915115,0.43953013,2.3748617
-0.8063793,0.35164618,2.1998472
-0.8853607,0.28304863,2.0428934
-9.506275,0.71584487,1.1352978
-9.86957,0.7437978,1.1184659
-10.301474,0.7915766,1.1274881
-10.642775,0.817827,1.1119895
-11.054207,0.8646376,1.1234813
-11.400276,0.8960595,1.1175957
-11.756502,0.9321406,1.119071
-12.041512,0.95044875,1.0996027
-12.334133,0.9723942,1.0859642
-12.410885,0.93465924,0.997067
-12.928259,1.0235357,1.0716667
-12.997568,0.985374,0.98367023
-13.079113,0.9508836,0.9006667
-13.317329,0.96313,0.8792467
-13.559547,0.977818,0.8619814
-14.426756,1.1288245,0.9924793
-14.403595,1.066118,0.87502384
-14.275368,0.9697647,0.7120285
-14.190293,0.88581705,0.56519365
-14.393971,0.8938103,0.54300547
-14.196205,0.77211857,0.34426117
-14.236331,0.7268779,0.24959755
-22.497347,2.8676605,2.880968
-22.576918,2.8668833,2.866262
-22.712643,2.889717,2.8867593
-22.782906,2.8860464,2.8682928
-22.855501,2.8836613,2.8519273
-22.9748,2.9015548,2.866053
-23.015432,2.8862271,2.8307638
-23.0924,2.8867958,2.8194332
-23.191895,2.8976755,2.8238344
-23.274677,2.9016948,2.8181567
-23.35569,2.9053543,2.8121562
-23.444965,2.9132028,2.812726
-23.529337,2.9193053,2.8108816
-23.608868,2.9236255,2.806542
-23.68362,2.926127,2.7996302
-23.76272,2.931077,2.7966576
-23.85284,2.9417577,2.8026814
-23.93289,2.9480999,2.802269
-24.013416,2.9551308,2.8031225
-24.090706,2.9610226,2.8024201
-24.155258,2.9609642,2.7926984
-24.235023,2.9689243,2.795566
-24.31594,2.9779508,2.80029
-24.389315,2.983568,2.7999048
-24.462444,2.9894748,2.8001475
-24.53318,2.994538,2.7992468
-24.601559,2.9987395,2.7971635
-24.665499,3.0009184,2.7920647
-24.734177,3.0060205,2.7917056
-24.805408,3.0129285,2.7943473
-24.86876,3.0158625,2.7908869
-24.936058,3.0213664,2.7916265
-25.001753,3.0263488,2.7916932
-25.063152,3.0292308,2.7885752
-25.1264,3.0335224,2.7878304
-25.19078,3.0388439,2.7888598
-25.252935,3.043218,2.7885213
-25.312244,3.04623,2.7861428
-25.374,3.051062,2.786798
-25.435543,3.0561254,2.7879524
-25.49945,3.063034,2.7921948
-25.556036,3.065724,2.7898035
-25.609272,3.0665827,2.784584
-25.66555,3.069673,2.7830606
-25.719774,3.0717344,2.779993
-25.777592,3.0764608,2.78133
-25.830256,3.078089,2.7777796
-25.8834,3.0803168,2.7752995
-25.937613,3.083565,2.7745757
-25.989843,3.0857506,2.7722325
-26.044926,3.0902176,2.773694
-26.094465,3.0910888,2.7694154
-26.14566,3.0933971,2.7675676
-26.199047,3.09758,2.7688694
-26.252825,3.1023762,2.7712736
-26.305252,3.1065083,2.772694
-26.35522,3.1091075,2.7717066
-26.403912,3.111017,2.7696786
-26.450794,3.111796,2.7658844
-26.501453,3.1157615,2.7674012
-26.550835,3.1190321,2.7678676
-26.597881,3.1207263,2.76583
-26.645348,3.1230133,2.7648492
-26.691608,3.1245806,2.7627664
-26.739338,3.1276207,2.7631884
-26.785347,3.1294942,2.7617688
-26.82968,3.1301901,2.758481
-26.87443,3.1314719,2.7562351
-26.919073,3.132898,2.754301
-26.963608,3.1344671,2.7526774
-27.00952,3.1375232,2.7535925
-27.052336,3.1380334,2.7503576
-27.0975,3.1409297,2.7511554
-27.14204,3.1435204,2.7515187
-27.185974,3.1458006,2.7514372
-27.230253,3.148675,2.7524147
-27.274395,3.1516902,2.7536993
-27.317017,3.1534772,2.7530046
-27.359982,3.1558542,2.7533612
-27.401928,3.1574483,2.7524772
-27.442883,3.1582515,2.7503352
-27.483755,3.1591792,2.748464
-27.52454,3.1602316,2.7468615
-27.566944,3.163261,2.7486324
-27.607529,3.164564,2.7475743
-27.650515,3.1687832,2.7514691
-27.689238,3.1684701,2.7478204
-27.729933,3.170609,2.7483468
-27.76972,3.1719337,2.7475638
-27.808237,3.1719677,2.744667
-27.846695,3.172114,2.7420144
-27.890064,3.178505,2.7499313
-27.926823,3.176995,2.7446032
-27.965418,3.177957,2.7434902
-28.00357,3.1785574,2.7418222
-28.041656,3.1792674,2.7403917
-28.079676,3.180087,2.7392006
-28.117275,3.1805394,2.7374392
-28.154812,3.1810985,2.7359104
-28.192963,3.182723,2.7362342
-28.230694,3.1839774,2.7359848
-28.268671,3.185821,2.736784
-28.306559,3.1877737,2.7378197
-28.343102,3.1879046,2.7358189
-28.380516,3.1895874,2.7364979
-28.417547,3.1908932,2.736587
-28.456871,3.1961815,2.743486
-28.492834,3.1962442,2.7415662
-28.52989,3.1983519,2.7431655
-28.565742,3.1986153,2.7416806
-28.600456,3.197026,2.7370925
-28.638105,3.2009032,2.7418442
-28.671188,3.196571,2.7326794
-28.706633,3.1967325,2.7312021
-28.742785,3.198462,2.7324395
-28.778374,3.1993089,2.7322192
-28.813908,3.2002532,2.7322102
-28.849384,3.201293,2.7324104
-28.884804,3.2024302,2.73282
-28.920383,3.204157,2.7342796
-28.954823,3.2035105,2.7317352
-28.989246,3.202955,2.7293887
-29.02426,3.2039764,2.729775
-29.059023,3.2045953,2.729519
-29.09166,3.1998503,2.7201443
-29.125853,3.19916,2.7177339
-29.157194,3.1906064,2.7019286
-29.189232,3.1836202,2.688838
-29.22125,3.176215,2.675066
-29.253263,3.168389,2.6606112
-29.278078,3.1366992,2.6053805
-29.307028,3.1165323,2.569878
-29.330647,3.0759451,2.4994678
-29.361048,3.0568879,2.4659147
-29.379221,2.9888735,2.3486013
-29.388918,2.8798177,2.1610336
-29.377926,2.6710477,1.8027272
-29.39519,2.566876,1.623466
-29.407082,2.4250853,1.3797722
-29.388851,2.1131747,0.8446684
-29.406668,1.9551702,0.57313013
-40.068935,1.3280237,0.36626863
-40.06888,1.3772821,0.4577651
-40.056034,1.4799447,0.64677525
-40.093613,1.5106826,0.7099929
-40.065956,1.57019,0.81662893
-40.08578,1.6081114,0.89062595
-40.05613,1.6672022,0.9963584
-40.092636,1.6971359,1.0582914
-40.084152,1.7460504,1.1485839
-40.10673,1.7813733,1.2185454
-40.07577,1.8387136,1.3211675
-40.083244,1.8795304,1.399157
-40.07463,1.9265301,1.4862132
-40.075752,1.9691153,1.5666661
-40.09818,2.0028107,1.6340132
-40.027393,2.0730324,1.7547412
-40.028572,2.1142027,1.8328128
-40.019115,2.1590989,1.9162211
-40.02631,2.1971865,1.9896641
-40.096222,2.211289,2.0284643
-40.099876,2.25034,2.1033106
-40.15581,2.2697518,2.1499686
-40.196312,2.2948985,2.204947
-40.197502,2.3342323,2.280179
-41.419525,1.980586,1.820426
-41.460896,2.0096004,1.8833342
-39.919838,2.5860445,2.7126193
-40.019394,2.589065,2.7363005
-40.10605,2.5969002,2.766995
-40.192696,2.6050918,2.798462
-40.202637,2.6390197,2.8656268
-40.18231,2.682639,2.9460378
-40.278786,2.6880214,2.9741554
-40.3313,2.7078972,3.022275
-40.488617,2.6947105,3.0258927
-40.58789,2.700538,3.0556602
-40.65697,2.7161353,3.098845
-40.768665,2.7189224,3.125216
-40.850945,2.7311175,3.1644511
-40.978848,2.7299879,3.1864433
-41.096123,2.7326214,3.2138538
-41.22791,2.7315624,3.2369146
-41.335434,2.7381468,3.270379
-41.491943,2.7312338,3.2869143
-41.587788,2.7422202,3.326954
-41.74556,2.7363465,3.3459706
-41.86701,2.7412708,3.3792615
-41.972904,2.750978,3.4190407
-42.080585,2.7606564,3.4592137
-42.209404,2.765185,3.4934745
-42.289307,2.7831347,3.5447283
-42.348625,2.806694,3.603119
-42.381638,2.8371305,3.6700244
-42.431885,2.863195,3.731789
-43.275375,2.6914399,3.5590453
-43.26875,2.7341888,3.6428242
-43.28207,2.7718134,3.7205176
-43.289192,2.8107834,3.7997556
-43.303257,2.8479302,3.8768716
-43.327137,2.8826504,3.9512367
-43.337276,2.9204762,4.0291376
-43.354424,2.9565575,4.105083
-43.450714,2.9747376,4.1614056
-43.77486,2.9427314,4.1637383
-44.086304,2.9152448,4.1726727
-44.539474,2.8588057,4.1526403
-44.972637,2.8091087,4.1422014
-45.341602,2.7752457,4.1505594
-45.848328,2.7148092,4.133968
-46.296547,2.669073,4.1350865
-46.808105,2.6129837,4.1286054
-47.398678,2.5439682,4.1126013
-48.03093,2.4699936,4.0954404
-48.559967,2.419317,4.10412
-49.151794,2.3595283,4.107664
-49.86284,2.280597,4.0975733
-50.706173,2.1811156,4.0737643
-51.34099,2.1239772,4.0924206
-52.416676,1.9914794,4.0509367
-53.330505,1.8932161,4.0453014
-54.5551,1.7460759,4.0061073
-0.48697662,1.2116516,3.613944
-0.51719284,1.1348281,3.4482327
-0.572958,1.0621245,3.286107
-0.6805382,0.9981749,3.1318383
-0.7227688,0.92332625,2.968484
-0.7524662,0.8462262,2.8032427
-0.76190567,0.76539636,2.6346207
-0.7696228,0.6839907,2.465393
-0.7988968,0.60624003,2.2995958
-1.0374317,0.5671346,2.1715994
-0.88020325,0.45451474,1.9719133
-0.83566666,0.36219454,1.7916412
-0.8618889,0.2829945,1.6244125
-0.8767681,0.20134759,1.4546623
-4.338911,0.351871,1.0834603
-4.639578,0.3408072,1.0029993
-4.5219803,0.23766184,0.8174386
-8.071085,0.7615266,1.1930285
-8.3369255,0.7567315,1.1330042
-8.741808,0.78685665,1.1168208
-9.1701145,0.82487416,1.1121888
-9.645809,0.8769691,1.126955
-9.670359,0.8182757,1.005259
-10.2667675,0.9049437,1.0667481
-10.286154,0.84629464,0.9464321
-10.587275,0.8609233,0.91975117
-11.151459,0.9466245,0.9857769
-11.371099,0.94344497,0.9390955
-11.4151325,0.893765,0.8326645
-11.638496,0.8931365,0.79065895
-12.371748,0.9755852,0.82032585
-12.8302765,1.0460119,0.87633514
-12.820381,0.98446846,0.75701714
-13.085505,1.0024676,0.74491835
-14.390927,1.3281002,1.1512556
-14.432856,1.2860665,1.0614033
-14.418422,1.226958,0.9482198
-14.468875,1.1871343,0.8614464
-14.184551,1.0440402,0.6318388
-14.427747,1.0630498,0.6264229
-14.442591,1.0113399,0.5230756
-14.179609,0.8706553,0.29484224
-14.224985,0.8271456,0.20243025
-22.316671,2.8829432,2.81456
-22.431719,2.895162,2.8196616
-22.531801,2.9020324,2.8170166
-22.617102,2.90344,2.8063774
-22.728659,2.9160647,2.8130012
-22.842182,2.9301696,2.8221917
-22.9235,2.9314356,2.8121014
-23.030716,2.9441004,2.8196678
-23.120213,2.9498062,2.8168511
-23.193008,2.948756,2.8038793
-23.28282,2.9555058,2.8031125
-23.361492,2.957822,2.7957268
-23.447685,2.9639094,2.7943797
-23.52977,2.968616,2.7911081
-23.617716,2.9764526,2.7929115
-23.696999,2.9807892,2.7894793
-23.779072,2.986859,2.78895
-23.866135,2.9957504,2.7930398
-23.937918,2.9978595,2.786704
-24.019928,3.0052776,2.7888832
-24.096466,3.0105038,2.7878065
-24.169083,3.0142214,2.7845302
-24.242218,3.0185907,2.782452
-24.312946,3.022149,2.7792583
-24.395752,3.0322483,2.7866092
-24.463837,3.0352795,2.7829137
-24.535297,3.0404348,2.782755
-24.60297,3.044001,2.780219
-24.671146,3.0482044,2.77885
-24.734198,3.0500276,2.7738194
-24.804752,3.0562625,2.776
-24.873661,3.0620105,2.777553
-24.936129,3.0645795,2.7741385
-24.99637,3.0662284,2.7693715
-25.06325,3.0719655,2.7713294
-25.130558,3.0783482,2.7744718
-25.194256,3.0830398,2.7750187
-25.251076,3.0840564,2.7697358
-25.309086,3.0860646,2.7661757
-25.365625,3.087495,2.7617903
-25.426586,3.0919065,2.7623706
-25.487337,3.096545,2.763443
-25.544018,3.0990088,2.7610846
-25.598623,3.100472,2.7571979
-25.65309,3.1021295,2.7537327
-25.710556,3.1060054,2.7540078
-25.764711,3.1080573,2.7513967
-25.81748,3.1094847,2.7478604
-25.871956,3.1123257,2.7467484
-25.929314,3.1174173,2.7494454
-25.977385,3.1165235,2.742373
-26.031376,3.1199353,2.742497
-26.083408,3.1222892,2.7409697
-26.132929,3.1231544,2.7370706
-26.184673,3.1258636,2.7363129
-26.235682,3.1283317,2.7352476
-26.292864,3.1356173,2.7422733
-26.340662,3.1363351,2.7384806
-26.389484,3.1380615,2.7364492
-26.437616,3.1395261,2.7340631
-26.48507,3.1407244,2.7313123
-26.53131,3.141221,2.7274694
-26.580717,3.1444523,2.728273
-26.628344,3.1465557,2.7272716
-26.675837,3.148817,2.7266126
-26.725307,3.1529746,2.72921
-26.773026,3.1559923,2.7299767
-26.81748,3.1565437,2.7266793
-26.860298,3.1559207,2.7214794
-26.905085,3.1571918,2.7195292
-26.949762,3.1586068,2.7178912
-26.995323,3.16105,2.7180548
-27.037796,3.1609774,2.714047
-27.082142,3.1628175,2.7133298
-27.127333,3.1656911,2.714428
-27.171902,3.1682634,2.715084
-27.213985,3.1687334,2.712253
-27.260172,3.1733844,2.7165608
-27.304798,3.1768322,2.7189035
-27.34745,3.1786134,2.7184863
-27.388643,3.179166,2.7160487
-27.43153,3.1816633,2.716971
-27.47166,3.1815588,2.7135358
-27.511292,3.1811178,2.7095842
-27.553007,3.183084,2.7097845
-27.593765,3.1842608,2.7086978
-27.635265,3.1864803,2.7094464
-27.67665,3.188827,2.7104702
-27.717104,3.190375,2.7101898
-27.757061,3.1915812,2.709383
-27.796928,3.1929066,2.7088332
-27.836704,3.1943505,2.7085414
-27.876772,3.1963785,2.709302
-27.9156,3.197124,2.707924
-27.954727,3.1984513,2.707592
-27.994862,3.2013009,2.7099204
-28.032354,3.2009783,2.7068691
-28.069092,3.1998208,2.702433
-28.10755,3.2011254,2.7022676
-28.144894,3.2011228,2.6999092
-28.182861,3.2021732,2.6994061
-28.220755,3.2033327,2.6991386
-28.258244,3.2041247,2.6982894
-28.296627,3.2064528,2.7001271
-28.33302,3.2060277,2.697281
-28.372152,3.210006,2.7020564
-28.40842,3.2097893,2.6996613
-28.44376,3.2082338,2.6950054
-28.48229,3.212058,2.6996603
-28.516983,3.20974,2.6937785
-28.556152,3.215222,2.701386
-28.592144,3.2155116,2.700089
-28.62809,3.2158997,2.699006
-28.664768,3.2178388,2.7006416
-28.70034,3.2179413,2.6991534
-28.736124,3.218625,2.6987114
-28.771364,3.2184355,2.696803
-28.80705,3.2193139,2.6967816
-28.843143,3.2212634,2.6986551
-28.878704,3.2223363,2.699057
-28.914425,3.223994,2.7005124
-28.949217,3.223795,2.6987967
-28.983566,3.222709,2.6955867
-29.018316,3.2226934,2.6942697
-29.052645,3.2217896,2.6914544
-29.085068,3.216068,2.6803317
-29.117235,3.2094438,2.6676812
-29.151316,3.2078168,2.6637259
-29.184036,3.20234,2.6531348
-29.216034,3.1944823,2.6384506
-29.24772,3.1852226,2.621369
-29.275303,3.162221,2.5804825
-29.30106,3.131373,2.5260048
-29.326841,3.0980992,2.4673367
-29.355452,3.0722878,2.4216418
-29.379875,3.0282216,2.3442817
-29.384474,2.900492,2.1216745
-29.368677,2.6735826,1.7268114
-29.394306,2.6061716,1.6088896
-29.372149,2.3060987,1.0868392
-29.390188,2.1701264,0.8497844
-40.01093,1.4253285,0.3707981
-40.07866,1.443069,0.41396713
-40.09529,1.5319138,0.583282
-40.08339,1.5845969,0.68060875
-40.062702,1.6404955,0.7827692
-40.08096,1.678896,0.8578987
-40.04734,1.7391398,0.96648645
-40.10362,1.7606208,1.0156264
-40.13575,1.792244,1.0803409
-40.10585,1.8493531,1.1838417
-40.07408,1.906518,1.2872496
-40.06301,1.9545913,1.3767219
-40.079414,1.9911461,1.4487047
-40.048843,2.0460312,1.5482397
-40.121,2.060004,1.586236
-39.979744,2.1568966,1.7483993
-40.008736,2.1869473,1.8103466
-40.032288,2.218923,1.8751826
-40.022934,2.2630646,1.9580545
-40.070347,2.2857025,2.0090628
-40.119957,2.30756,2.05902
-40.15078,2.336283,2.1191573
-40.22588,2.3490067,2.155942
-40.24667,2.3812659,2.221394
-40.30975,2.4378011,2.3407636
-39.936985,2.6420527,2.6723814
-40.030605,2.6475427,2.698832
-40.118206,2.655437,2.7289968
-40.29789,2.6334465,2.71704
-40.344814,2.655606,2.7680812
-40.359074,2.688309,2.8340669
-40.30349,2.7430062,2.930841
-40.48201,2.7235446,2.9239392
-40.548904,2.7397234,2.9671474
-40.706898,2.7281644,2.9722462
-40.777275,2.744016,3.0155997
-40.90812,2.7419727,3.034698
-40.99712,2.7529693,3.0720181
-41.107582,2.7580364,3.1016145
-41.227985,2.760724,3.1284056
-41.334053,2.7680764,3.1618862
-41.504368,2.7577362,3.1721964
-41.615147,2.764913,3.2063665
-41.754143,2.764795,3.2313523
-41.92978,2.755363,3.2446995
-41.997803,2.7758212,3.2976131
-42.124275,2.7809327,3.3309436
-42.225044,2.7933805,3.3741884
-42.289764,2.815598,3.4302745
-42.36252,2.8359368,3.4842129
-42.48134,2.844846,3.5240645
-43.275246,2.6855278,3.3546834
-43.28295,2.7250407,3.4350066
-43.286324,2.7654228,3.5163584
-43.29001,2.8055182,3.597302
-43.305267,2.8426616,3.6746273
-43.31903,2.8800278,3.752221
-43.336,2.9165187,3.8287735
-43.35714,2.9519475,3.9040918
-43.478886,2.9646363,3.9529934
-43.633667,2.970515,3.994618
-43.791294,2.9764962,4.0371056
-44.060165,2.9591684,4.054082
-44.20656,2.969357,4.1031256
-44.44926,2.9599628,4.131315
-44.839455,2.9212255,4.128827
-45.22753,2.885015,4.131175
-45.689224,2.8360443,4.122112
