x,y,z
-28.952265,3.4316049,2.4321065
-28.990381,3.4365225,2.4412608
-29.024,3.431818,2.4313955
-29.052565,3.4152436,2.398056
-29.088556,3.4155707,2.398178
-29.131289,3.4328527,2.431881
-29.167477,3.4347203,2.435093
-29.202085,3.4326842,2.430594
-29.236717,3.430738,2.4262896
-29.272297,3.4315524,2.4274707
-29.308565,3.434691,2.43327
-29.347708,3.4472957,2.4578357
-29.381578,3.4439387,2.4508085
-29.417986,3.4491572,2.4607835
-29.448399,3.4334579,2.4293408
-29.48063,3.423197,2.4086838
-29.517479,3.430477,2.422793
-29.557383,3.451747,2.4646392
-29.592207,3.4529583,2.466763
-29.624826,3.4439425,2.4486399
-29.657675,3.4350076,2.4306898
-29.690994,3.4275005,2.415586
-29.724876,3.422322,2.4051118
-29.762337,3.4396996,2.4393563
-29.797485,3.444143,2.4479847
-29.831932,3.44418,2.4478989
-29.86434,3.4263117,2.4123392
-29.8966,3.4022229,2.3644648
-29.932505,3.4133186,2.3863454
-29.967646,3.4182072,2.3959389
-30.003275,3.4339921,2.4271498
-30.038208,3.4440172,2.4469585
-30.071875,3.4221566,2.4035802
-30.10619,3.4035337,2.3666372
-30.141098,3.4102223,2.3798833
-30.175573,3.4422226,2.4433188
-30.21024,3.4292712,2.417667
-30.244722,3.4308217,2.4207768
-30.27969,3.4221036,2.4035497
-30.314783,3.4152772,2.390089
-30.349997,3.4094431,2.378613
-30.385414,3.4032512,2.3664432
-30.416363,3.4412463,2.4418716
-30.452065,3.4307292,2.4211636
-30.490088,3.4050198,2.3703618
-30.52494,3.4059386,2.372354
-30.558271,3.416383,2.3932405
-30.590393,3.432298,2.4249835
-30.627645,3.4186594,2.3981767
-30.661856,3.422175,2.4053793
-30.70032,3.4055963,2.3727841
-30.737204,3.398091,2.3581867
-30.771053,3.4041245,2.37043
-30.803839,3.4138234,2.3899508
-30.838797,3.414653,2.3919182
-30.871344,3.4240675,2.4109058
-30.914553,3.3969305,2.357512
-30.949907,3.3976014,2.3592172
-30.984543,3.4005935,2.3655381
-31.015951,3.4130316,2.3905802
-31.051132,3.4139662,2.392857
-31.08746,3.4118786,2.3891687
-31.126917,3.4018903,2.3698564
-31.166853,3.391572,2.3499131
-31.199848,3.399108,2.3653316
-31.231546,3.4093814,2.3861828
-31.264933,3.4153035,2.398436
-31.30597,3.404069,2.376758
-31.349812,3.3876593,2.3448634
-31.385893,3.3885825,2.3472848
-31.416769,3.4001713,2.3708196
-31.446926,3.412708,2.3962426
-31.479763,3.419599,2.4105139
-31.527042,3.3993742,2.3711843
-31.57033,3.3876264,2.3486447
-31.598902,3.402694,2.379137
-31.630148,3.412577,2.3993917
-31.663761,3.41817,2.4111834
-31.700188,3.4190562,2.4136915
-31.763723,3.3765666,2.3305278
-31.799126,3.3803253,2.33876
-31.831085,3.3893745,2.357459
-31.85102,3.4162345,2.4113407
-31.885887,3.4202182,2.4200625
-31.93571,3.4027386,2.386435
-31.980555,3.3931727,2.3684583
-32.013863,3.400069,2.3829918
-32.043545,3.4117627,2.4070058
-32.07944,3.414962,2.414277
-32.139355,3.3870833,2.3602805
-32.18132,3.383291,2.353816
-32.21424,3.3911083,2.3702621
-32.246326,3.399853,2.3885531
-32.281765,3.4044375,2.3986607
-32.325024,3.3998177,2.390654
-32.37539,3.3873198,2.367157
-32.405464,3.398553,2.3904247
-32.43981,3.4048135,2.4039145
-32.472157,3.4132557,2.4217153
-32.510532,3.4150891,2.426529
-32.55089,3.4149473,2.427477
-32.593323,3.4128451,2.4245944
-32.62943,3.4175093,2.435042
-32.64912,3.4388201,2.4782324
-32.706055,3.4225886,2.4476466
-32.753838,3.4160304,2.4361062
-32.814228,3.3977242,2.401524
-32.84802,3.4054346,2.4180737
-32.87994,3.4148626,2.4380121
-32.93558,3.402378,2.4149637
-32.99881,3.3835952,2.3795986
-33.04405,3.381649,2.3773046
-33.08484,3.383883,2.3832378
-33.110344,3.3995197,2.4154663
-33.151955,3.401152,2.4202619
-33.22212,3.3789039,2.378304
-33.264153,3.3808603,2.3838024
-33.29991,3.3881125,2.399694
-33.335083,3.3958557,2.4165668
-33.37511,3.3997393,2.4259071
-33.440727,3.3836546,2.3962264
-33.4871,3.3831277,2.3970094
-33.510017,3.4007463,2.4332838
-33.559486,3.398118,2.4300141
-33.605995,3.3979876,2.4316573
-33.664757,3.3891025,2.4162445
-33.70787,3.3920054,2.4238787
-33.744553,3.3996553,2.4407997
-33.790382,3.4008925,2.445241
-33.852753,3.390827,2.4276876
-33.903873,3.3889792,2.4261937
-33.94734,3.3926091,2.4354043
-34.004356,3.3873165,2.427279
-34.05936,3.383733,2.422524
-34.112854,3.381467,2.420374
-34.146267,3.392441,2.4440007
-34.21689,3.3797238,2.421619
-34.30741,3.3550725,2.3761263
-34.333973,3.3709595,2.4094
-34.363235,3.3850584,2.4392147
-34.443573,3.3681617,2.408945
-34.494667,3.369417,2.413928
-34.53543,3.3770041,2.4312158
-34.58107,3.3818264,2.4431787
-34.626095,3.3871539,2.456153
-34.70063,3.375824,2.4369473
-34.748398,3.3800898,2.4479551
-34.801926,3.381325,2.4531455
-34.876114,3.3714652,2.4369602
-34.94359,3.365759,2.4288578
-34.98595,3.373931,2.4475822
-35.04596,3.3728485,2.448501
-35.146454,3.3508883,2.4092617
-35.180477,3.3641174,2.4378605
-35.234398,3.3671582,2.4468822
-35.31942,3.3547144,2.4261837
-35.357395,3.3663487,2.4518275
-35.42666,3.3625767,2.4479198
-35.49549,3.359408,2.4452367
-35.57842,3.349831,2.4303346
-35.60462,3.3678083,2.468308
-35.703434,3.3514998,2.4406528
-35.781677,3.345461,2.4327512
-35.831856,3.3527951,2.4504957
-35.861298,3.3697135,2.4865913
-35.986732,3.3434374,2.4402556
-36.009686,3.3636167,2.482668
-36.076626,3.3643596,2.4880476
-36.186127,3.3469598,2.4589477
-36.231556,3.3577862,2.4836764
-36.298325,3.3596673,2.4914393
-36.39794,3.3480957,2.47372
-36.449448,3.357075,2.4951148
-36.545254,3.3480759,2.48247
-36.6241,3.3465147,2.484026
-36.678864,3.354993,2.5046701
-36.81607,3.3310642,2.4640942
-36.866592,3.3419418,2.4894366
-36.9394,3.3443506,2.4988465
-37.043358,3.335209,2.4865637
-37.08931,3.3485591,2.5167646
-37.2236,3.3290699,2.485228
-37.288567,3.335986,2.5034895
-37.412857,3.321557,2.4817514
-37.459885,3.3356922,2.513739
-37.542667,3.3372102,2.5221386
-37.63765,3.3348393,2.5233636
-37.764317,3.3219633,2.5050764
-37.832474,3.3299155,2.525835
-37.957523,3.3188443,2.511211
-38.01942,3.3296561,2.5374994
-38.14438,3.3198063,2.5254393
-38.19902,3.3336644,2.5575795
-38.258495,3.3461127,2.5871658
-50.516983,1.839026,0.3373766
-50.58354,1.8880906,0.44526434
-50.6168,1.943778,0.56458044
-50.628662,2.0034852,0.6907697
-50.64427,2.0622363,0.81530476
-50.704933,2.1123242,0.92515993
-50.650154,2.1837711,1.0711093
-50.640343,2.2464333,1.202115
-50.703194,2.295774,1.3107681
-50.66597,2.3627782,1.4489269
-50.662735,2.4234176,1.5763841
-50.74312,2.4695697,1.679882
-50.65815,2.5435193,1.829164
-50.83142,2.574368,1.9077735
-50.891632,2.6241784,2.0176134
-51.699066,2.5558364,1.9366832
-51.065155,2.7752893,2.3505235
-51.0484,2.837013,2.4797444
-51.530285,2.945081,2.746799
-52.809036,2.8275983,2.599688
-53.13289,2.8466187,2.665884
-54.160454,2.773652,2.5932674
-54.425926,2.8053648,2.6818728
-54.996246,2.7994695,2.7151508
1.6802578,1.6995721,0.46908522
-11.810995,3.0409665,2.4347782
-11.87818,2.9989815,2.3414655
-11.883247,2.9468942,2.2308135
-11.920408,2.8999991,2.1291375
-11.932716,2.8488324,2.0200663
-11.821239,2.6675851,1.6439686
-11.969269,2.6400838,1.5764556
-11.943512,2.5808964,1.4531069
-11.952347,2.5278168,1.3405118
-11.952713,2.4728885,1.2245984
-11.936325,2.4144113,1.1023064
-11.939447,2.3594072,0.98616076
-11.934221,2.302447,0.86646557
-11.939156,2.2472265,0.7498498
-11.954182,2.193818,0.6364727
-11.975565,2.1415243,0.5250969
-11.930098,2.0747678,0.3874812
-22.177494,3.4905608,2.7419057
-22.117401,3.4409487,2.6420846
-22.08644,3.399872,2.5584178
-22.060425,3.3598742,2.4767447
-21.803165,3.177068,2.111238
-21.891895,3.173139,2.0982924
-22.064888,3.1984556,2.1414943
-22.170528,3.2015607,2.1422787
-22.313278,3.2182364,2.1692352
-22.439476,3.2299256,2.1867638
-22.509888,3.2223387,2.1673398
-22.67607,3.249827,2.215526
-22.810802,3.2668688,2.243761
-22.910631,3.271779,2.2487354
-22.999268,3.2730305,2.2467456
-23.123058,3.2881367,2.2716136
-23.247757,3.3043764,2.2988
-23.332935,3.3060045,2.2978349
-23.40876,3.3043885,2.2906651
-23.479889,3.301264,2.2806392
-23.57789,3.309323,2.2923717
-23.616537,3.2936997,2.2582207
-23.745903,3.3156254,2.2970438
-23.829472,3.319285,2.3004832
-23.888535,3.3130302,2.284708
-24.021961,3.3388693,2.3314643
-23.40395,3.0398576,1.7454748
-23.711544,3.1402342,1.9373779
-23.6973,3.100513,1.8563051
-23.711708,3.0731008,1.7992225
-23.718863,3.0421243,1.7351723
-23.73087,3.0130267,1.6747813
-23.732967,2.9790087,1.6047597
-23.742733,2.9481728,1.540945
-23.733099,2.9077432,1.4583354
-24.935295,3.4509559,2.5190835
-24.938635,3.4226353,2.460792
-25.033985,3.4393713,2.4908528
-25.113245,3.4487798,2.506619
-25.164028,3.444323,2.4952264
-25.195532,3.4301958,2.4648728
-25.285898,3.446504,2.4943533
-25.341642,3.4453611,2.489592
-25.36608,3.4278805,2.4527292
-25.41341,3.4225545,2.4397974
-25.479298,3.427469,2.447064
-25.590021,3.4574444,2.5037556
-25.63292,3.4506848,2.488131
-25.670847,3.4412365,2.4672308
-25.69087,3.421621,2.4262924
-25.750732,3.4247975,2.4303432
-25.818312,3.4328392,2.444044
-25.897665,3.4483194,2.4724903
-25.91989,3.4302244,2.43464
-25.965149,3.4259162,2.4240537
-26.042355,3.4413886,2.4526205
-26.11196,3.452787,2.4731836
-26.1235,3.428154,2.4224725
-26.159243,3.4185872,2.4015927
-26.255743,3.448296,2.4585361
-26.311619,3.452434,2.46488
-26.326237,3.429575,2.4177375
-26.391466,3.4403617,2.4373217
-26.46069,3.4543982,2.463397
-26.518476,3.4611642,2.475093
-26.539682,3.4427986,2.436933
-26.596666,3.4495077,2.448575
-26.665564,3.4651837,2.478067
-26.697632,3.4547434,2.455708
-26.737679,3.4501362,2.4449577
-26.77671,3.4448767,2.432931
-26.83261,3.4524777,2.446506
-26.880617,3.4544625,2.4489427
-26.937452,3.4636056,2.4656549
-26.958347,3.4448593,2.426876
-27.01485,3.4543173,2.4442697
-27.066154,3.4600492,2.454277
-27.115765,3.4647744,2.462309
-27.154743,3.4609723,2.4533734
-27.176435,3.442617,2.415443
-27.225323,3.4473445,2.4235497
-27.290417,3.466589,2.4606404
-27.322414,3.4572845,2.440812
-27.364374,3.4568803,2.4387608
-27.384691,3.4368958,2.3976436
-27.420673,3.4310436,2.3847475
-27.49662,3.4629002,2.4471784
-27.53561,3.4605865,2.441401
-27.572906,3.4567583,2.4326167
-27.597439,3.4403954,2.3987994
-27.641453,3.4432812,2.4034653
-27.69613,3.4573674,2.4305482
-27.739267,3.4601433,2.4350448
-27.772501,3.4527571,2.4192376
-27.799328,3.4384353,2.3895698
-27.83631,3.434922,2.381537
-27.885986,3.4456105,2.4019446
-27.934193,3.4552171,2.4202147
-27.970856,3.4520674,2.41297
-28.00113,3.441501,2.3908896
-28.028824,3.427654,2.3622508
-28.075756,3.436925,2.3799305
-28.12981,3.455592,2.416462
-28.167648,3.4546556,2.4137397
-28.197927,3.4441206,2.391797
-28.229073,3.4344983,2.371695
-28.273342,3.442314,2.3865662
-28.323212,3.4583309,2.4179049
-28.362259,3.460058,2.4206119
-28.401196,3.4618974,2.423562
-28.423973,3.4403794,2.379674
-28.464441,3.4445372,2.3873057
-28.50586,3.4505262,2.398631
-28.544315,3.4523504,2.401617
-28.582935,3.454712,2.4057007
-28.614613,3.4459963,2.3875647
-28.646223,3.4369245,2.3687239
-28.685297,3.440441,2.3751736
-28.727406,3.4496884,2.393149
-28.768494,3.4577641,2.4087906
-28.802797,3.4538245,2.4003177
-28.831043,3.4382539,2.3684945
-28.862099,3.4275208,2.3463993
-28.90114,3.4325242,2.3559337
-28.944801,3.4476595,2.3858442
-28.980501,3.446788,2.3836093
-29.013628,3.4403336,2.3701677
-29.046322,3.432648,2.3542652
-29.082699,3.4333587,2.3552527
-29.11491,3.4240875,2.3361888
-29.16288,3.4543717,2.3966622
-29.19815,3.4536362,2.3947911
-29.226185,3.4332142,2.3533487
-29.257378,3.420327,2.327067
-29.294237,3.4233615,2.3328166
-29.335255,3.439716,2.3653708
-29.371431,3.4420776,2.3697991
-29.405043,3.436149,2.3575673
-29.435812,3.4197035,2.324193
-29.47409,3.4298472,2.3443198
-29.510052,3.4321363,2.3486595
-29.549421,3.4491258,2.3825908
-29.58491,3.4511695,2.3864684
-29.619383,3.4488757,2.3816328
-29.65154,3.4346998,2.352903
-29.685616,3.4290278,2.3412976
-29.720284,3.4261045,2.3352356
-29.760551,3.4587848,2.400836
-29.794416,3.452943,2.3889313
-29.828602,3.44852,2.3798933
-29.859797,3.4170744,2.3164868
-29.894796,3.4150403,2.312284
-29.931194,3.428658,2.3395967
-29.966688,3.435256,2.3527956
-30.002703,3.4539561,2.3903666
-30.036682,3.439387,2.360991
-30.071157,3.4280179,2.3380704
-30.10602,3.4211862,2.3242955
-30.14106,3.4117742,2.3053403
-30.176012,3.437603,2.3573303
-30.21065,3.4466138,2.375483
-30.24559,3.4410303,2.364277
-30.281162,3.426196,2.334466
-30.316456,3.4221303,2.3263426
-30.351198,3.4266055,2.3354225
-30.385042,3.4396157,2.3616948
-30.41981,3.4407094,2.3639965
-30.455248,3.4361155,2.3548656
-30.493979,3.4080713,2.2985568
-30.528109,3.4165492,2.315763
-30.563236,3.417566,2.3179674
-30.592896,3.4497302,2.382863
-30.630335,3.4362788,2.3559809
-30.665907,3.4340117,2.3516197
-30.7081,3.4017146,2.2868495
-30.74199,3.409392,2.302528
-30.77753,3.4096315,2.3032537
-30.811367,3.4165957,2.3175235
-30.847685,3.4139214,2.3124175
-30.885872,3.4051619,2.295085
-30.927113,3.387242,2.259345
-30.961233,3.3936937,2.2726412
-30.995636,3.3989077,2.283462
-31.028414,3.4086092,2.3033204
-31.063936,3.4100323,2.3065438
-31.102547,3.4031994,2.293182
-31.142899,3.3925257,2.2721148
-31.181122,3.3881078,2.2636414
-31.204096,3.4210253,2.3302407
-31.240055,3.4215913,2.3318138
-31.275454,3.4235637,2.3362288
-31.327173,3.3898318,2.2689009
-31.360357,3.3976984,2.2851973
-31.394844,3.402596,2.2955399
-31.420977,3.4241076,2.3392758
-31.465984,3.4078724,2.3071866
-31.50254,3.408697,2.309389
-31.54335,3.4018211,2.2961416
-31.5815,3.4002562,2.2935786
-31.615536,3.4061399,2.3059897
-31.646675,3.4168525,2.3281093
-31.692072,3.4035175,2.3019633
-31.736559,3.3924763,2.280446
-31.775171,3.3914475,2.2790446
-31.8075,3.400384,2.297659
-31.83879,3.4106789,2.3190126
-31.874756,3.4137821,2.3259487
-31.920698,3.4024837,2.3040104
-31.966108,3.392608,2.2849503
-32.001137,3.397745,2.296019
-32.03359,3.4063644,2.3140845
-32.07158,3.4074407,2.3170404
-32.109932,3.4081995,2.3193784
-32.155567,3.399791,2.3033605
-32.196808,3.397417,2.299458
-32.23102,3.4039824,2.3134847
-32.259922,3.4169168,2.3402843
-32.301575,3.4144402,2.3362293
-32.348736,3.4058313,2.3199139
-32.39584,3.3977907,2.3047643
-32.43695,3.3969631,2.3040757
-32.451897,3.4252594,2.361692
-32.489376,3.428326,2.3688254
-32.530712,3.4273722,2.3679333
-32.57686,3.421605,2.3574343
-32.620056,3.4192686,2.3538218
-32.653313,3.4272985,2.370955
-32.692562,3.429285,2.3760233
-32.73889,3.424461,2.3675008
-32.816532,3.3897312,2.299255
-32.853905,3.3946037,2.310165
-32.878292,3.4116967,2.3454967
-32.918465,3.4139183,2.3511434
-32.994938,3.3833156,2.2912936
-33.045467,3.3770528,2.2800655
-33.076767,3.3881335,2.3034692
-33.094555,3.4108336,2.350058
-33.14292,3.4069307,2.3436012
-33.223423,3.376268,2.2838292
-33.257355,3.3853958,2.303412
-33.285374,3.3993275,2.3325815
-33.319916,3.4078228,2.3509302
-33.374462,3.4003766,2.3375525
-33.429813,3.3927321,2.3238134
-33.47845,3.3907197,2.3213177
-33.502907,3.4074469,2.356133
-33.53573,3.4176512,2.3779807
-33.627907,3.383723,2.3120975
-33.672493,3.38581,2.3178668
-33.700233,3.4002526,2.3482118
-33.735165,3.4094205,2.3680897
-33.80711,3.3925264,2.3362331
-33.87963,3.3759139,2.3049865
-33.90279,3.39382,2.3422894
-33.941086,3.4012604,2.3588357
-34.037434,3.3699763,2.298615
-34.08061,3.3748052,2.310052
-34.12036,3.381987,2.326178
-34.1721,3.3815346,2.3272023
-34.245407,3.367659,2.3016825
-34.297024,3.36798,2.3043156
-34.322845,3.3845148,2.3390589
-34.376266,3.3840299,2.3401523
-34.431034,3.3830073,2.3402176
-34.528236,3.3569818,2.290914
-34.53071,3.3876302,2.35363
-34.58035,3.39037,2.3612294
-34.641808,3.3865259,2.3558693
-34.72345,3.3715925,2.328679
-34.752262,3.386911,2.3611999
-34.791565,3.39633,2.3821063
-34.918728,3.3577328,2.3084502
-34.94048,3.3773224,2.3494716
-35.00649,3.373096,2.3436284
-35.09622,3.356743,2.3139825
-35.153732,3.3578677,2.3187728
-35.185604,3.3724737,2.3500948
-35.263153,3.363782,2.3356757
-35.33774,3.3570843,2.3252344
-35.38907,3.3624146,2.3384523
-35.452633,3.3619149,2.3402739
-35.525948,3.357007,2.3335056
-35.571358,3.3659172,2.3538623
-35.63954,3.3641386,2.3533258
-35.74627,3.3446655,2.3182292
-35.784977,3.357469,2.346335
-35.837627,3.3639238,2.3620596
-35.953457,3.341987,2.322381
-35.99435,3.3543925,2.3498316
-36.06024,3.3558095,2.3558788
-36.15229,3.3461173,2.3403292
-36.193897,3.3587646,2.3683724
-36.260944,3.3606234,2.3754454
-36.37004,3.345073,2.3487158
-36.40432,3.3614106,2.3840694
-36.49858,3.3530405,2.3714547
-36.601486,3.3417196,2.3532043
-36.64776,3.3538105,2.3804564
-36.756634,3.341123,2.359726
-36.821224,3.3465095,2.374102
-36.88969,3.3506565,2.3861365
-37.012753,3.3341606,2.358325
-37.08631,3.3372188,2.3684144
-37.204975,3.3237176,2.3466115
-37.250175,3.3381424,2.3787866
-37.367252,3.326354,2.3604894
-37.458107,3.3247504,2.3619227
-37.49862,3.341599,2.3989382
-37.585773,3.3420227,2.4044218
-37.745773,3.3174767,2.3620605
-37.78878,3.3342786,2.3991818
-37.937893,3.3150146,2.3672357
-37.984184,3.3312626,2.4034333
-38.12536,3.3160617,2.3795362
-38.17657,3.331243,2.4138346
-38.26369,3.334899,2.4261885
-38.345192,3.3407602,2.4428387
-50.550766,1.9532187,0.26731825
-50.64346,1.997427,0.36634922
-50.71788,2.0453584,0.47214127
-50.663666,2.1175563,0.62107086
-50.682167,2.175694,0.7449775
-50.67067,2.2390864,0.8781357
-50.63557,2.3063312,1.0179853
-50.684174,2.3583708,1.1310935
-50.655502,2.4237635,1.2675505
-50.67498,2.4805346,1.3889093
-50.693584,2.5372932,1.5102429
-50.711315,2.5940368,1.6315436
-50.70342,2.6547542,1.7596626
-50.756584,2.7055106,1.8706794
-50.93544,2.796137,2.0745049
-50.967365,2.8504627,2.191877
-51.047092,2.9566755,2.4226484
-51.130646,3.0036132,2.527876
-51.19715,3.0531614,2.6375875
-53.117027,2.8515153,2.3351898
-54.144554,2.7788754,2.2484517
-54.36956,2.8160913,2.3425603
-3.7941914,2.0757098,0.4918108
-11.8204,3.1032128,2.2748032
-11.801218,2.994146,2.0435963
-11.898895,2.956868,1.959384
-11.947922,2.911757,1.8609848
-11.883625,2.847341,1.7272325
-11.90881,2.7978392,1.6207638
-11.935684,2.74853,1.5146594
-11.95863,2.6984138,1.4070745
-11.942211,2.6409805,1.2859354
-11.914652,2.5811076,1.1602063
-11.92992,2.5288699,1.0486116
-11.93582,2.4746442,0.93329906
-11.925962,2.4170947,0.8117471
-11.938276,2.3635736,0.6976924
-11.953291,2.3103666,0.5842123
-11.970995,2.2574909,0.47134256
-22.179201,3.548239,2.7192564
-22.042824,3.4758592,2.5732899
-22.130997,3.472012,2.5614
-22.070255,3.421681,2.458456
-22.057266,3.3858268,2.3838348
-22.060474,3.354816,2.3186946
-22.015335,3.2749414,2.1532536
-22.004452,3.2381957,2.0767536
-22.095955,3.2357621,2.067822
-22.243029,3.252841,2.097435
-22.352903,3.2579103,2.1034794
-22.47343,3.267333,2.1182122
-22.58481,3.274205,2.1280055
-22.696533,3.281836,2.1393905
-22.80625,3.2893798,2.150694
-22.899263,3.2913961,2.1511426
-23.000456,3.2969599,2.158689
-23.098959,3.3020802,2.1654382
-23.183372,3.3023672,2.162673
-23.264515,3.301821,2.158317
-23.346199,3.3018928,2.1552482
-23.435907,3.3055604,2.1593838
-23.49396,3.2970295,2.1393275
-23.591347,3.3046613,2.1514673
-23.655107,3.2990642,2.137343
-23.756222,3.3092504,2.154698
-23.889668,3.3336663,2.2004867
-23.928677,3.3188596,2.1681676
-24.050081,3.339557,2.2067008
-23.764313,3.1836853,1.892879
-23.738401,3.1390479,1.8009357
-23.725544,3.0995526,1.7192268
-23.767752,3.0843644,1.6860819
-23.715742,3.0261436,1.5668902
-23.731153,2.9980893,1.5079994
-23.741598,2.967426,1.4438815
-23.493301,2.8138757,1.1336412
-24.904858,3.4525547,2.410524
-24.934729,3.4368205,2.3767867
-24.957462,3.4175193,2.335905
-25.044025,3.4297786,2.3583465
-25.11216,3.433384,2.3634758
-25.175415,3.4349017,2.3644547
-25.210325,3.4221625,2.3368344
-25.296095,3.4359322,2.362496
-25.36197,3.4398406,2.3683896
-25.37187,3.414242,2.3149853
-25.424902,3.4116306,2.3078175
-25.530203,3.4378593,2.3587189
-25.576399,3.4322758,2.3456464
-25.63999,3.4365988,2.3525457
-25.669405,3.4219027,2.321166
-25.720482,3.4195764,2.3147254
-25.79271,3.429786,2.333582
-25.845848,3.429277,2.3308654
-25.904823,3.4325142,2.3357334
-25.917389,3.4080513,2.2847366
-26.014439,3.4349532,2.337421
-26.072765,3.438805,2.3436232
-26.101994,3.4247484,2.313683
-26.139484,3.4158468,2.294167
-26.217342,3.4329827,2.32729
-26.278856,3.4401588,2.3403225
-26.313309,3.429887,2.3181057
-26.352331,3.4226606,2.3020597
-26.437887,3.4470804,2.350061
-26.48257,3.4442892,2.3430414
-26.538465,3.4494882,2.3522172
-26.555855,3.4278705,2.3071213
-26.635252,3.4503083,2.3512554
-26.673815,3.4439662,2.3371277
-26.732536,3.4525216,2.3532052
-26.752638,3.4327488,2.311893
-26.799429,3.4328456,2.3108659
-26.861591,3.444969,2.334249
-26.90699,3.444636,2.3323975
-26.943,3.4371178,2.315991
-26.986845,3.4358861,2.3123522
-27.040657,3.4429405,2.3255506
-27.08282,3.4408355,2.3201804
-27.143633,3.4544804,2.3468084
-27.172085,3.4413145,2.3190155
-27.209934,3.4360645,2.30731
-27.272635,3.4525957,2.3398733
-27.31517,3.4519658,2.3375936
-27.351465,3.445915,2.3243132
-27.382185,3.434793,2.3007364
-27.424702,3.4345024,2.299192
-27.48153,3.4479306,2.3255658
-27.523266,3.447531,2.3238397
-27.558325,3.4408262,2.3093023
-27.582094,3.4229288,2.2720022
-27.624323,3.4232428,2.271769
-27.681484,3.4390728,2.3031354
-27.721355,3.4376464,2.299398
-27.759647,3.4347062,2.292593
-27.79226,3.4257529,2.2735572
-27.825039,3.4168768,2.2546878
-27.882586,3.4355414,2.2919316
-27.923267,3.4359226,2.2919512
-27.95746,3.4290104,2.2771254
-27.994568,3.4254847,2.2692122
-28.030668,3.4208183,2.258987
-28.072578,3.423292,2.263328
-28.116676,3.428796,2.2738662
-28.160223,3.43402,2.2838478
-28.197132,3.4310367,2.277112
-28.23122,3.4243925,2.26292
-28.268833,3.4224372,2.2583046
-28.317057,3.435263,2.283855
-28.361586,3.4436228,2.300314
-28.397646,3.4403346,2.293024
-28.430305,3.4320815,2.2756138
-28.465656,3.4277074,2.2661304
-28.510942,3.4386563,2.2879333
-28.55023,3.4408464,2.2918758
-28.584679,3.4355068,2.2804604
-28.613579,3.4209015,2.2501364
-28.647093,3.4135926,2.2347193
-28.688095,3.4191575,2.2456021
-28.734142,3.434236,2.275931
-28.776926,3.444328,2.296092
-28.812578,3.4417012,2.290289
-28.839647,3.4224434,2.250523
-28.878592,3.425991,2.2573562
-28.915094,3.4249196,2.2547631
-28.960506,3.4428837,2.2910786
-28.994946,3.438148,2.2810264
-29.017462,3.4063172,2.215613
-29.05468,3.4069083,2.2164645
-29.090948,3.4054365,2.2131124
-29.134644,3.4226725,2.2480106
-29.176657,3.437008,2.2769957
-29.207317,3.421974,2.2459579
-29.246243,3.429148,2.2603302
-29.280334,3.4229603,2.247398
-29.316135,3.4216406,2.244429
-29.35644,3.434777,2.27103
-29.394135,3.4406238,2.2827392
-29.428661,3.4361115,2.2732778
-29.4601,3.4199073,2.2399182
-29.495775,3.4186165,2.2370658
-29.531672,3.4182916,2.2362003
-29.571545,3.435542,2.2712908
-29.60642,3.4319146,2.2636948
-29.640503,3.4239998,2.2473402
-29.674707,3.4157321,2.2302742
-29.70935,3.4088628,2.2160788
-29.746176,3.414787,2.2280636
-29.78345,3.425191,2.2492242
-29.818485,3.4207869,2.2401056
-29.854088,3.420419,2.239254
-29.888124,3.4047875,2.207189
-29.923746,3.402405,2.202239
-29.960072,3.4088924,2.215445
-29.996393,3.4185476,2.2351427
-30.032156,3.4221504,2.2424703
-30.067238,3.4078414,2.2131658
-30.102875,3.4024053,2.2020245
-30.138664,3.3983774,2.1937747
-30.174402,3.4106908,2.2189674
-30.209932,3.4173863,2.232678
-30.245844,3.409243,2.2160435
-30.281939,3.4020715,2.2014074
-30.31844,3.3919213,2.1806908
-30.354492,3.3910835,2.1790357
-30.388596,3.411401,2.2206693
-30.422281,3.4304848,2.2597885
-30.458328,3.4259675,2.250638
-30.497787,3.3974319,2.1923704
-30.534506,3.3926747,2.182754
-30.56979,3.3976514,2.1930609
-30.603933,3.4084096,2.2152038
-30.639053,3.4126856,2.2240992
-30.677044,3.4026144,2.2036605
-30.715042,3.3939593,2.186131
-30.753609,3.3840969,2.1661448
-30.787912,3.3926811,2.1838965
-30.8228,3.398294,2.1955838
-30.857311,3.4048662,2.2092419
-30.89762,3.3910422,2.181203
-30.938204,3.3777688,2.1543064
-30.975574,3.375925,2.1507921
-31.007076,3.3920045,2.1839347
-31.04254,3.3955562,2.191474
-31.079975,3.3935564,2.1876755
-31.124514,3.3730147,2.145987
-31.163563,3.3682024,2.1364675
-31.195597,3.3812377,2.1634398
-31.228025,3.3926153,2.1870337
-31.264854,3.3932734,2.1887288
-31.300348,3.3970468,2.196803
-31.349333,3.37162,2.1452212
-31.387564,3.3704462,2.1432137
-31.414877,3.39172,2.1870813
-31.450335,3.3958755,2.195983
-31.485048,3.4014056,2.207705
-31.53089,3.386051,2.1767783
-31.571556,3.3810978,2.1671143
-31.609272,3.3818097,2.169034
-31.642319,3.3907206,2.1877084
-31.67871,3.3937504,2.194386
-31.719475,3.3896525,2.186522
-31.767822,3.3737955,2.1546683
-31.80556,3.3754585,2.1585956
-31.837769,3.3856783,2.1800027
-31.870033,3.395549,2.200704
-31.91189,3.391167,2.1923323
-31.96011,3.3780766,2.1662073
-32.00425,3.3714392,2.1532679
-32.037617,3.3800223,2.1713934
-32.066437,3.3945389,2.2016315
-32.106678,3.3936658,2.200492
-32.15898,3.3774924,2.1681666
-32.201916,3.3739707,2.1616592
-32.236977,3.380535,2.1757302
-32.267147,3.392983,2.201806
-32.30259,3.3988826,2.2145448
-32.361557,3.377251,2.1711898
-32.406868,3.3722851,2.1618214
-32.442207,3.378952,2.176168
-32.473736,3.3898027,2.1990495
-32.509544,3.3958204,2.2120972
-32.540695,3.4068208,2.235303
-32.598297,3.3898354,2.201539
-32.62899,3.4014454,2.2260132
-32.661434,3.4110982,2.2465124
-32.699745,3.4147732,2.254856
-32.73272,3.4237862,2.274075
-32.82318,3.3770792,2.179956
-32.858704,3.3843954,2.195765
-32.882614,3.4025822,2.2336917
-32.92337,3.404872,2.2393017
-32.98862,3.3850458,2.1999702
-33.03726,3.3809052,2.1925511
-33.077595,3.3844233,2.2007165
-33.111584,3.393567,2.2203274
-33.15689,3.3929825,2.2201881
-33.22553,3.3729763,2.1806283
-33.282143,3.363764,2.1630192
-33.289692,3.3951895,2.227931
-33.33252,3.39749,2.2337236
-33.388996,3.3891003,2.2178454
-33.46104,3.3689713,2.1781797
-33.49899,3.3759909,2.193615
-33.532333,3.3865561,2.2162528
-33.577168,3.3884315,2.2212868
-33.638973,3.377907,2.201209
-33.689278,3.376317,2.1992674
-33.730328,3.3816853,2.2114444
-33.766594,3.3905568,2.2307315
-33.83207,3.37892,2.2085118
-33.88991,3.373127,2.1981559
-33.922478,3.3850145,2.2236075
-33.98119,3.379198,2.213254
-34.040188,3.373592,2.2033567
-34.098907,3.368565,2.1946616
-34.131947,3.3805897,2.2204647
-34.20349,3.367895,2.1963263
-34.26001,3.365283,2.1925974
-34.312107,3.3657634,2.1951442
-34.347965,3.3765054,2.2184348
-34.406647,3.3733501,2.2136898
-34.471493,3.3668327,2.2021928
-34.521084,3.369804,2.2098722
-34.556244,3.3814373,2.2350407
-34.599144,3.3885756,2.251163
-34.70459,3.360043,2.195428
-34.736122,3.37424,2.225832
-34.776768,3.3832889,2.245882
-34.858143,3.3699522,2.2208905
-34.940674,3.3565993,2.1959162
-34.9657,3.3747866,2.2344365
-35.059113,3.3564916,2.199607
-35.130543,3.3504734,2.1895146
-35.1821,3.3552074,2.2010694
-35.232376,3.360787,2.2143488
-35.306458,3.3544872,2.2038078
-35.375557,3.3511398,2.1992378
-35.42079,3.3599784,2.219154
-35.501038,3.3518264,2.2050257
-35.57353,3.347927,2.1994753
-35.602547,3.3651702,2.2363238
-35.673935,3.3623705,2.2330475
-35.771206,3.3479166,2.2064939
-35.804928,3.3633704,2.239839
-35.872776,3.3632817,2.2421188
-35.962692,3.3536234,2.2253165
-36.003353,3.3664,2.2533956
-36.101,3.3542235,2.2316718
-36.187675,3.3474436,2.2207875
-36.23569,3.3577406,2.2440271
-36.315613,3.354648,2.2406015
-36.40898,3.3463688,2.2268968
-36.466003,3.3536813,2.2443109
-36.577755,3.338835,2.2176576
-36.64029,3.34459,2.23207
-36.701378,3.3511705,2.248166
-36.8234,3.3339643,2.217041
-36.889404,3.3393807,2.2309346
-36.988155,3.3324654,2.2204027
-37.054462,3.3384614,2.2355528
-37.142326,3.3366244,2.2352266
-37.24512,3.3297029,2.224896
-37.312653,3.3363123,2.2414293
-37.455837,3.3157594,2.2042856
-37.504246,3.3300905,2.236218
-37.567455,3.3392842,2.2580318
-37.719227,3.3177328,2.2192063
-37.77249,3.33119,2.249567
-37.91105,3.3156712,2.2228537
-37.97328,3.3267367,2.2486186
-38.10313,3.3154862,2.230515
-38.175266,3.3239868,2.2513642
-38.230354,3.3383143,2.2837195
-38.33266,3.3376303,2.286644
-50.62214,2.1299238,0.31273603
-50.65085,2.1863775,0.43395472
-50.685226,2.2416646,0.5530205
-50.651337,2.3090272,0.6943979
-50.68764,2.3635836,0.81209326
-50.70337,2.4216108,0.9361863
-50.698395,2.4829552,1.0663428
-50.693375,2.5439997,1.1959028
-50.707253,2.6016502,1.319233
-50.70601,2.6615481,1.4466286
-50.73708,2.716077,1.5642653
-50.766384,2.7708066,1.6822829
-50.83209,2.8199198,1.7902207
-50.947792,2.8617053,1.8851194
-51.11281,2.8966928,1.9680734
-51.143143,2.9517148,2.0869408
-51.13805,3.0116644,2.2145572
-51.166687,3.06671,2.3334742
-51.2659,3.1121626,2.4355717
-54.149376,2.7895463,1.894547
-54.5858,2.7997417,1.9387455
-11.790998,3.0991035,1.9894819
-11.875467,3.0593452,1.9013591
-11.905676,3.0110564,1.7970133
-11.9319,2.9620476,1.6913028
-11.922209,2.906922,1.5738559
-11.919994,2.8527656,1.4582376
-11.929884,2.800444,1.346128
-11.931276,2.746418,1.2307134
-11.913988,2.6887767,1.1082835
-11.928337,2.6365383,0.99627495
-11.914787,2.5789256,0.87382793
-11.913307,2.5232232,0.75505304
-11.939493,2.472526,0.6459956
-11.924162,2.413601,0.5208988
-11.927273,2.3579264,0.40210724
-22.154423,3.5629263,2.6143885
-22.150524,3.531117,2.547183
-22.155457,3.5017352,2.4848495
-22.081545,3.4475157,2.3724632
-22.051247,3.4062223,2.2860656
-22.003967,3.3589723,2.1876154
-22.003769,3.326308,2.1185555
-21.988121,3.2882743,2.038638
-21.829174,3.2022147,1.8616424
-22.041239,3.2392826,1.9334741
-22.181412,3.2533157,1.9588461
-22.351702,3.2785783,2.0070395
-22.441687,3.2769437,2.0008712
-22.549433,3.282024,2.0083604
-22.669998,3.2922873,2.0264215
-22.766026,3.2943933,2.0280113
-22.8525,3.2935135,2.0235968
-22.962502,3.3017852,2.0378094
-23.056019,3.3045213,2.0408425
-23.13784,3.3033235,2.0359344
-23.212666,3.2998424,2.0264292
-23.2866,3.2963583,2.0169559
-23.403667,3.310193,2.04276
-23.449629,3.2964509,2.012494
-23.5378,3.299807,2.0170689
-23.5963,3.291545,1.9980192
-23.714626,3.3081918,2.0297647
-23.87143,3.3417196,2.0959954
-23.895842,3.3204467,2.050538
-24.03389,3.347687,2.1040769
-23.776936,3.20484,1.8104982
-23.900536,3.2257726,1.8511834
-23.700962,3.104197,1.6008258
-23.715824,3.0763671,1.5418959
-23.727766,3.0469315,1.479681
-23.702326,2.999981,1.3816442
-23.428883,2.8368297,1.0458837
-23.482254,2.824111,1.0177588
-23.512047,2.8002498,0.96684694
-24.915966,3.4394774,2.2736378
-24.929993,3.4156265,2.2231784
-25.029448,3.433759,2.2587318
-25.093288,3.434829,2.2593675
-25.158234,3.436798,2.2618737
-25.189161,3.421683,2.2293768
-25.273235,3.4340956,2.2533512
-25.332457,3.4340599,2.2518244
-25.363544,3.419358,2.2202225
-25.413803,3.4149184,2.2096953
-25.513483,3.4376156,2.2549124
-25.574463,3.4398093,2.2580624
-25.614878,3.4308534,2.2383308
-25.671288,3.4310143,2.2373476
-25.678389,3.4032066,2.178897
-25.768572,3.4231977,2.2187157
-25.828194,3.426017,2.2232618
-25.891726,3.4315174,2.2333465
-25.906815,3.4082344,2.184236
-26.000992,3.4329143,2.2338285
-26.06028,3.4369287,2.2409277
-26.102722,3.4307647,2.2270927
-26.14066,3.4218488,2.207605
-26.209053,3.4325442,2.2285223
-26.261414,3.4333436,2.2290797
-26.31527,3.4354122,2.2322721
-26.35636,3.4292583,2.2185378
-26.434313,3.4481754,2.2564983
-26.485857,3.4497218,2.2586756
-26.521824,3.4407203,2.2391205
-26.570541,3.4407182,2.2381363
-26.627983,3.447206,2.250557
-26.682543,3.452028,2.259563
-26.720514,3.4450378,2.2442112
-26.75705,3.4370227,2.2267547
-26.810179,3.4415665,2.2352352
-26.876408,3.4565217,2.2652326
-26.916182,3.4515762,2.2541566
-26.93954,3.4337757,2.2165413
-27.00011,3.445469,2.2398582
-27.065441,3.4616046,2.272375
-27.109642,3.4610398,2.2704062
-27.15652,3.462929,2.2735229
-27.189089,3.452957,2.2521372
-27.235365,3.4547203,2.2550201
-27.287727,3.4620876,2.2695045
-27.329216,3.4602501,2.2649727
-27.3498,3.4397173,2.221786
-27.391888,3.4384642,2.218481
-27.426289,3.4302394,2.200766
-27.49008,3.4497726,2.2404933
-27.53137,3.448532,2.2372556
-27.562435,3.4374769,2.213716
-27.602547,3.435256,2.2084703
-27.640257,3.430753,2.1985106
-27.695156,3.4439747,2.2252588
-27.73884,3.446144,2.2291393
-27.761936,3.4267108,2.1882973
-27.802647,3.425865,2.185954
-27.845499,3.4275625,2.1888905
-27.90051,3.4431696,2.2206535
-27.937216,3.4386535,2.210744
-27.972921,3.4330125,2.1985135
-28.006298,3.4246075,2.1805649
-28.047958,3.4260967,2.183127
-28.095158,3.4346738,2.2003927
-28.14204,3.4434018,2.2179837
-28.176725,3.4370527,2.2043362
-28.204584,3.42172,2.1720715
-28.24302,3.4200718,2.1681843
-28.295092,3.437154,2.203145
-28.339767,3.4448729,2.2187061
-28.376572,3.4419284,2.2121644
-28.40796,3.431174,2.1894355
-28.448837,3.4342477,2.195394
-28.487919,3.434933,2.1964107
-28.534435,3.4474394,2.2219596
-28.570568,3.444172,2.2147965
-28.603659,3.4359622,2.1973882
-28.63367,3.4223673,2.1688128
-28.67404,3.4260936,2.1761875
-28.716875,3.434572,2.1934342
-28.757792,3.4402225,2.204824
-28.789883,3.4299269,2.183127
-28.820007,3.4154708,2.1528034
-28.853502,3.4070127,2.1349344
-28.899504,3.4236763,2.1692224
-28.942352,3.4349573,2.1923504
-28.980314,3.4365804,2.1954374
-29.01666,3.434898,2.1916733
-29.039536,3.4021795,2.123476
-29.074547,3.3963842,2.1111846
-29.122803,3.4231558,2.1665268
-29.161938,3.4286907,2.1777835
-29.197186,3.4244845,2.1688209
-29.232056,3.4190817,2.1573806
-29.267342,3.414624,2.147911
-29.308271,3.4270015,2.1734166
-29.351135,3.4468024,2.2143497
-29.38495,3.4387732,2.1974902
-29.422066,3.4415882,2.2031622
-29.454239,3.4268415,2.1723638
-29.489487,3.422513,2.1632142
-29.524729,3.4178429,2.1533632
-29.56576,3.437861,2.1948066
-29.602741,3.4420192,2.2033129
-29.637573,3.4363377,2.1913872
-29.670755,3.4212348,2.159894
-29.706228,3.4170222,2.1510348
-29.74374,3.425014,2.1675396
-29.779497,3.4227173,2.1626778
-29.816557,3.4300382,2.1778064
-29.851974,3.4253294,2.1679492
-29.885775,3.4038138,2.1231804
-29.922712,3.4109817,2.1380162
-29.959763,3.4225805,2.162068
-29.996239,3.430375,2.1782231
-30.031424,3.4152844,2.1468358
-30.067589,3.4176276,2.151681
-30.10337,3.402718,2.1206865
-30.139666,3.4121854,2.1403513
-30.175634,3.4273834,2.1719322
-30.211615,3.4244597,2.1658683
-30.247614,3.4233634,2.1636086
-30.28408,3.414122,2.1444335
-30.320955,3.402809,2.1209621
-30.357033,3.4054618,2.1265187
-30.39275,3.4112403,2.138578
-30.429024,3.410611,2.13733
-30.465698,3.4070437,2.1299877
-30.503794,3.3940487,2.1030645
-30.54023,3.3945713,2.1042376
-30.575945,3.3995142,2.1146026
-30.610678,3.4093032,2.1350427
-30.645315,3.4183133,2.1538725
-30.683592,3.4088333,2.1342978
-30.723698,3.392551,2.1006012
-30.759468,3.3966606,2.1092768
-30.79438,3.4038785,2.1244173
-30.831175,3.403427,2.1236339
-30.869936,3.3961816,2.1087475
-30.906643,3.3967874,2.110178
-30.94615,3.3884594,2.0930624
-30.981749,3.3931303,2.102954
-31.018404,3.3944557,2.1059065
-31.05354,3.4001648,2.117972
-31.092945,3.393965,2.1053114
-31.132883,3.3870175,2.0911112
-31.169327,3.3895903,2.0966897
-31.204329,3.395674,2.1095662
-31.240103,3.3997104,2.1182003
-31.276735,3.4017057,2.1226048
-31.318958,3.3914497,2.101582
-31.361712,3.3808925,2.079946
-31.395763,3.3891501,2.0973797
-31.430046,3.3966398,2.1132274
-31.467207,3.3982813,2.1169434
-31.505482,3.3979056,2.1164804
-31.553907,3.3790438,2.0776606
-31.584084,3.3940897,2.1092253
-31.623295,3.3927662,2.1068263
-31.654434,3.405433,2.1334667
-31.693876,3.4038854,2.130621
-31.740152,3.3915453,2.1053925
-31.786566,3.379768,2.081346
-31.82036,3.3882005,2.0992374
-31.850653,3.40172,2.127689
-31.890799,3.400305,2.1251688
-31.937395,3.3898551,2.1039224
-31.982286,3.382458,2.0890193
-32.02084,3.384313,2.093316
-32.058178,3.3879273,2.1012692
-32.086746,3.4031963,2.1333961
-32.124165,3.4065723,2.1408725
-32.18195,3.3841476,2.0948758
-32.219017,3.3885953,2.1045985
-32.24933,3.4013286,2.1315017
-32.28515,3.4071786,2.144145
-32.335094,3.3964055,2.1223545
-32.387535,3.383356,2.0958633
-32.42394,3.3891532,2.1084318
-32.45625,3.3994977,2.1304297
-32.492786,3.4050667,2.1425438
-32.534878,3.4046853,2.142344
-32.59421,3.3863356,2.104947
-32.631714,3.3914602,2.1161757
-32.67033,3.3954837,2.1251354
-32.700565,3.4079928,2.1516695
-32.74547,3.4058375,2.1478577
-32.804436,3.3903232,2.1164136
-32.854385,3.384126,2.10427
-32.893673,3.3883588,2.113721
-32.935066,3.3907313,2.1193347
-32.998066,3.3735905,2.084599
-33.046345,3.3703845,2.0787067
-33.077553,3.3825598,2.1046338
-33.107174,3.395969,2.133119
-33.147408,3.4001217,2.1424766
-33.236275,3.363374,2.067305
-33.267765,3.375595,2.0933719
-33.31358,3.3759637,2.094954
-33.33716,3.3944902,2.1340656
-33.40118,3.3805652,2.1061454
-33.443344,3.3843966,2.1149225
-33.496326,3.3799999,2.1067219
-33.525208,3.3943214,2.1371856
-33.562332,3.4022875,2.1545362
-33.624718,3.3915637,2.1333218
-33.695724,3.375077,2.1002402
-33.725887,3.3887134,2.1293354
-33.774094,3.3893983,2.1317215
-33.841953,3.3765323,2.106176
-33.903366,3.3687208,2.0910797
-33.92903,3.3857665,2.1272554
-33.982082,3.3841696,2.1250072
-34.05013,3.3729,2.1028442
-34.11087,3.3669765,2.0917249
-34.14395,3.379375,2.118371
-34.20052,3.3767033,2.1139894
-34.268116,3.3674064,2.095986
-34.31314,3.3726707,2.1079874
-34.35526,3.3798542,2.1239538
-34.40492,3.3825493,2.1306992
-34.47704,3.3719854,2.1101847
-34.52821,3.3743603,2.1163125
-34.578262,3.3776052,2.1242485
-34.631397,3.3792713,2.1289582
-34.700466,3.3720944,2.115512
-34.752705,3.3748534,2.1225123
-34.78832,3.387072,2.1489654
-34.8942,3.3607025,2.0961785
-34.95574,3.3593142,2.0947356
-35.009254,3.3625567,2.1028233
-35.07496,3.3595698,2.0981488
-35.157616,3.348097,2.076095
-35.179283,3.3686976,2.1198587
-35.24552,3.366376,2.1166267
-35.340878,3.3497484,2.0841012
-35.388615,3.3575406,2.1016617
-35.45096,3.3582823,2.1047983
-35.538254,3.3472023,2.0837507
-35.58353,3.3568852,2.1052547
-35.61989,3.3708954,2.1356301
-35.736042,3.347507,2.0895052
-35.795906,3.351075,2.0985723
-35.84686,3.3589756,2.1165252
-35.91521,3.3591676,2.118743
-36.001987,3.3514714,2.1048756
-36.072235,3.3516045,2.1070452
-36.16966,3.3402374,2.0857682
-36.214733,3.3520594,2.1118703
-36.257523,3.3649375,2.1401453
-36.388367,3.3408349,2.0930161
-36.436455,3.3520765,2.1180172
-36.51589,3.3505526,2.1170254
-36.621326,3.3388968,2.0954342
-36.662945,3.353497,2.1273646
-36.823387,3.3210597,2.0635762
-36.849575,3.3423557,2.1092014
-36.93631,3.3401299,2.1069994
-37.034668,3.333922,2.0967517
-37.090103,3.344486,2.120636
-37.23563,3.3216052,2.0766282
-37.306763,3.3271227,2.090354
-37.44436,3.3087373,2.055622
-37.474102,3.3300416,2.1014614
-37.56041,3.331175,2.1064248
-37.66886,3.3249555,2.0965443
-37.777737,3.3192005,2.087669
-37.844303,3.3285494,2.109429
-37.98239,3.3139343,2.0827532
-38.0405,3.3269002,2.1119242
-38.163475,3.3186135,2.0981874
-38.24666,3.324008,2.1121554
-38.312958,3.3352134,2.1378999
-50.65396,2.3085563,0.3783722
-50.6874,2.3639328,0.49781132
-50.7022,2.4224224,0.6232562
-50.701996,2.4832516,0.7531848
-50.721504,2.5405116,0.87623835
-50.731636,2.5991416,1.0019078
-50.718163,2.6613493,1.1343956
-50.731133,2.7190418,1.2582293
-50.765026,2.773309,1.3755374
-50.827583,2.8231606,1.4844866
-50.914207,2.8695338,1.5869112
-51.097603,2.902008,1.6631961
-51.45671,2.910089,1.6938004
-51.914898,2.9060426,1.7021451
-51.182648,3.0683212,2.022499
-51.232414,3.1207328,2.1366463
-51.32189,3.1679585,2.2411942
-54.537735,2.8111088,1.5965881
-4.3054104,2.8835688,1.4206843
-4.389885,2.8223908,1.2869587
-11.668112,3.1354215,1.7901635
-11.89513,3.1172884,1.745955
-11.880852,3.061893,1.6272492
-11.8844185,3.0090625,1.5136628
-11.889772,2.9563024,1.4002037
-11.90346,2.9047208,1.289104
-11.909563,2.8516698,1.1750388
-11.923044,2.799674,1.0630898
-11.919703,2.7445183,0.944757
-11.906155,2.6872354,0.82210636
-11.921318,2.634836,0.7093077
-11.934559,2.581884,0.59538364
-11.952335,2.5295773,0.48276043
-22.188255,3.5657136,2.4809566
-22.193584,3.5365512,2.4185872
-21.936203,3.425942,2.1875696
-21.917812,3.3878574,2.1066442
-22.00766,3.3836548,2.0959086
-21.836266,3.2284412,1.7680826
-21.982964,3.2430809,1.7964802
-22.113163,3.2530453,1.8152337
-22.28993,3.2796855,1.8686662
-22.378874,3.2771142,1.8614926
-22.485508,3.2811685,1.8681192
-22.5933,3.286221,1.8768611
-22.70684,3.2939403,1.8911881
-22.811462,3.2990825,1.9001985
-22.899668,3.2987761,1.897912
-23.002789,3.304472,1.9081473
-23.100964,3.3088946,1.9157696
-23.189005,3.3100033,1.9165263
-23.27826,3.3120437,1.9192533
-23.368692,3.315025,1.9239726
-23.458797,3.3183744,1.9294877
-23.533155,3.3159182,1.9229331
-23.602966,3.3119738,1.9132991
-23.688616,3.3148372,1.9178848
-23.81001,3.3330157,1.9544463
-23.866135,3.3246047,1.9355707
-23.987125,3.343969,1.97468
-24.03367,3.3321438,1.9487205
-23.95995,3.268006,1.8135428
-23.70873,3.124402,1.5123649
-23.723488,3.096418,1.452599
-23.461798,2.9432395,1.1312509
-23.452024,2.901936,1.043591
-23.488876,2.8816228,0.99979496
-23.526749,2.8617043,0.95683
-23.564949,2.8418682,0.9140425
-24.906696,3.4478118,2.18011
-24.91672,3.4218028,2.1246772
-24.982006,3.4226687,2.125473
-25.073261,3.4368157,2.1540809
-25.148981,3.4438026,2.167729
-25.170773,3.4237518,2.1247973
-25.259565,3.4381416,2.1539803
-25.314075,3.4352658,2.1470318
-25.359026,3.4275637,2.1299882
-25.405277,3.420672,2.1146517
-25.47082,3.4243855,2.1215477
-25.568768,3.4463112,2.1666284
-25.60719,3.4359467,2.1440582
-25.667595,3.4380064,2.1475396
-25.685032,3.4158778,2.1003237
-25.759071,3.4262025,2.1211615
-25.821405,3.4302247,2.1288
-25.89756,3.442833,2.1544652
-25.915554,3.4211066,2.1081204
-25.973274,3.42327,2.1119018
-26.0571,3.4418652,2.150178
-26.106216,3.439541,2.1445732
-26.126019,3.4188802,2.10049
-26.213673,3.4414432,2.147149
-26.26466,3.4410555,2.1456437
-26.298565,3.429677,2.1210718
-26.339155,3.4227169,2.1057844
-26.449017,3.4626694,2.1890397
-26.48162,3.4510195,2.1639285
-26.524946,3.4467552,2.1543388
-26.570868,3.444456,2.1488862
-26.63735,3.4570265,2.1746912
-26.692627,3.4620862,2.1847272
-26.721369,3.4480565,2.154652
-26.758884,3.4404075,2.1379948
-26.820229,3.4507813,2.1592317
-26.87822,3.4591286,2.1762242
-26.91747,3.4533978,2.1636271
-26.941938,3.4360864,2.1266828
-26.986177,3.43432,2.122435
-27.071964,3.466468,2.1895308
-27.112352,3.4624114,2.18049
-27.140417,3.4481583,2.1500053
-27.186377,3.4488986,2.1510687
-27.234882,3.4520876,2.1572948
-27.288033,3.459672,2.17278
-27.330427,3.4581609,2.1691346
-27.352161,3.4381702,2.1266026
-27.40741,3.4485183,2.1479335
-27.448885,3.4465837,2.1434193
-27.50104,3.4549325,2.160561
-27.539024,3.4501307,2.1500273
-27.565014,3.4336433,2.1148944
-27.614723,3.4404416,2.1287994
-27.660246,3.4434526,2.134737
-27.705976,3.447,2.1418138
-27.745455,3.4443386,2.1358218
-27.777464,3.4338286,2.113305
-27.814829,3.4289746,2.1027064
-27.86671,3.440212,2.1260147
-27.91427,3.447214,2.140409
-27.953497,3.4451296,2.1356692
-27.981682,3.4302735,2.1040235
-28.020712,3.427975,2.0988426
-28.066051,3.4334648,2.1100826
-28.115408,3.4443612,2.1327233
-28.155062,3.443644,2.130899
-28.18331,3.4283948,2.0984507
-28.226473,3.4323545,2.1064935
-28.273703,3.4421582,2.1268663
-28.317305,3.4476118,2.1380744
-28.355429,3.4458175,2.1340132
-28.384094,3.4305756,2.1016045
-28.425184,3.4330776,2.1066113
-28.466686,3.4365208,2.1136103
-28.51474,3.4504037,2.1426287
-28.55262,3.4491417,2.139721
-28.584578,3.438457,2.1169481
-28.616781,3.4278445,2.0943313
-28.654863,3.426859,2.092022
-28.696022,3.4313838,2.1013417
-28.736996,3.4360268,2.1109166
-28.779827,3.444542,2.128665
-28.812204,3.4339647,2.1061497
-28.845049,3.4238794,2.0846772
-28.879597,3.4168024,2.0695543
-28.922619,3.4270067,2.0908918
-28.961954,3.4301984,2.097443
-28.996958,3.424249,2.0847158
-29.032272,3.4188068,2.0730643
-29.067701,3.4134526,2.061604
-29.109634,3.423796,2.0832672
-29.153234,3.439328,2.1158848
-29.189924,3.4380808,2.1131082
-29.224915,3.4322755,2.1007166
-29.257809,3.4202042,2.0751095
-29.295715,3.4221969,2.079185
-29.33708,3.435321,2.1067548
-29.37556,3.4404962,2.117558
-29.413118,3.4432266,2.123207
-29.445728,3.4286225,2.0922813
-29.482538,3.4285617,2.0920506
-29.518795,3.4264674,2.0875344
-29.558083,3.4372475,2.1101947
-29.59554,3.441315,2.1186934
-29.632156,3.4420693,2.1202064
-29.663597,3.4160328,2.0651813
-29.699461,3.4109879,2.0544639
-29.738636,3.425681,2.0854115
-29.775606,3.4285164,2.0913377
-29.81248,3.4314482,2.0974727
-29.847477,3.4195101,2.0722275
-29.882803,3.4076586,2.0471716
-29.918999,3.401885,2.0349479
-29.95652,3.4116085,2.0554414
-29.993622,3.4192908,2.0716295
-30.030376,3.4245005,2.0826058
-30.066326,3.4101124,2.0522203
-30.102741,3.398813,2.0283608
-30.139557,3.4064455,2.044467
-30.176107,3.4184537,2.0698147
-30.212753,3.4125733,2.0574098
-30.249353,3.4123542,2.0569582
-30.286257,3.4066637,2.0449653
-30.324163,3.3886583,2.0069833
-30.360983,3.3904371,2.0107665
-30.39389,3.4325225,2.0996299
-30.43113,3.424642,2.083036
-30.467747,3.4237013,2.0810943
-30.506487,3.4078956,2.0477839
-30.543524,3.4062958,2.0444622
-30.580189,3.4073539,2.0467563
-30.61598,3.413202,2.0591664
-30.65347,3.4097533,2.051959
-30.691162,3.4059768,2.0440664
-30.730425,3.3959074,2.0228972
-30.768564,3.391909,2.0145473
-30.800007,3.4148302,2.063015
-30.837917,3.4114423,2.0559654
-30.875826,3.408581,2.0500326
-30.919415,3.3871312,2.0048776
-30.956741,3.3878822,2.0065799
-30.99449,3.3874583,2.0058084
-31.028658,3.3977273,2.0276055
-31.064373,3.4029953,2.038856
-31.10311,3.399894,2.0324512
-31.147024,3.3837993,1.9986362
-31.18416,3.3859868,2.0034037
-31.217941,3.396282,2.0252829
-31.251463,3.4066553,2.0473318
-31.29203,3.4006977,2.0349312
-31.338995,3.3814065,1.9944067
-31.376785,3.3828304,1.9975929
-31.408829,3.3960924,2.0257568
-31.446241,3.3981183,2.0302234
-31.479513,3.408187,2.051661
-31.526833,3.3916073,2.016893
-31.570091,3.383517,2.00004
-31.605396,3.3901289,2.014204
-31.635498,3.4055579,2.046968
-31.675097,3.4044409,2.0448408
-31.71959,3.3955574,2.026342
-31.76724,3.3822563,1.9985366
-31.8042,3.38646,2.0076509
-31.834597,3.4006586,2.0378447
-31.869074,3.408329,2.0542793
-31.912155,3.4033391,2.044026
-31.956596,3.396835,2.0305886
-31.995691,3.3982487,2.0338502
-32.038715,3.3944535,2.0261378
-32.07395,3.4013946,2.0410647
-32.118107,3.3966126,2.0312858
-32.170094,3.3822086,2.001235
-32.20768,3.3866355,2.0108833
-32.24521,3.3911617,2.0207458
-32.28067,3.398209,2.0359268
-32.31942,3.4013133,2.0428057
-32.3689,3.3920553,2.023642
-32.417667,3.3841617,2.0073633
-32.45886,3.385232,2.0099792
-32.47681,3.4119833,2.066702
-32.51256,3.4188066,2.0814476
-32.5771,3.39511,2.0319133
-32.612682,3.4025843,2.0480442
-32.659737,3.3982797,2.0393748
-32.694057,3.407144,2.058447
-32.725826,3.4184513,2.0826678
-32.788036,3.3999958,2.0442266
-32.85168,3.3809848,2.0046296
-32.87656,3.3992972,2.043622
-32.917828,3.4020681,2.0498996
-32.97828,3.3874853,2.0196595
-33.029755,3.3816376,2.0078158
-33.084118,3.3736436,1.9914675
-33.103416,3.3966281,2.0403175
-33.16203,3.3854601,2.0173087
-33.224243,3.3718219,1.9891148
-33.270435,3.3721404,1.9902983
-33.304188,3.3828692,2.0133872
-33.335865,3.3951917,2.0398345
-33.399143,3.382267,2.0131884
-33.446564,3.3823786,2.0139713
-33.485348,3.389396,2.029285
-33.523067,3.3972666,2.0463982
-33.565155,3.401881,2.056673
-33.64186,3.3809793,2.0133219
-33.682762,3.387038,2.0266547
-33.723106,3.3935814,2.0410137
-33.76287,3.4006045,2.0563893
-33.834988,3.3850284,2.0242891
-33.887077,3.3839622,2.0226898
-33.931858,3.3881598,2.0321598
-33.98689,3.3856103,2.0274687
-34.063877,3.368818,1.9928799
-34.117874,3.3677819,1.991395
-34.134922,3.390914,2.0406642
-34.207924,3.3780253,2.014318
-34.277485,3.3679044,1.9937992
-34.32129,3.374315,2.0079932
-34.367935,3.3790946,2.0187755
-34.41401,3.3843696,2.0306063
-34.496307,3.3681366,1.9973273
-34.53444,3.3786583,2.0201883
-34.587875,3.3802798,2.024393
-34.64561,3.3796682,2.0239286
-34.717415,3.371369,2.0073595
-34.75978,3.3800797,2.0264678
-34.819855,3.3790543,2.025179
-34.92714,3.3525262,1.9704633
-34.952427,3.3712492,2.010591
-35.01567,3.3695605,2.0079622
-35.092426,3.3610969,1.9911613
-35.15939,3.358245,1.9861331
-35.211834,3.363239,1.997551
-35.279842,3.3605204,1.992836
-35.35593,3.3541327,1.9804626
-35.408752,3.3597527,1.9932365
-35.47019,3.361341,1.9975901
-35.55639,3.351241,1.9775119
-35.601517,3.3613405,1.9997034
-35.66679,3.3620229,2.0022159
-35.753292,3.3531282,1.9847264
-35.793064,3.3663156,2.0134168
-35.8767,3.3595686,2.0004592
-35.982204,3.3435025,1.96806
-36.02005,3.3582287,2.0000129
-36.093456,3.3573542,1.9993954
-36.190388,3.3466637,1.9783068
-36.2438,3.3552372,1.9974613
-36.313614,3.3570359,2.002492
-36.408745,3.3485801,1.9861498
-36.46891,3.3551538,2.0011897
-36.573463,3.3438358,1.9789371
-36.654423,3.342695,1.9779377
-36.734905,3.3421679,1.9782453
-36.84004,3.3323505,1.9592218
-36.856422,3.3576899,2.0134735
-37.004704,3.3321586,1.9617805
-37.06671,3.340403,1.9804678
-37.191475,3.325343,1.9506669
