x,y,z
-21.213238,3.1673603,3.9526165
-21.395172,3.1935625,3.964558
-21.489403,3.1927328,3.9431612
-21.620754,3.20437,3.9379644
-21.735876,3.2114072,3.9274359
-21.82258,3.2096398,3.9060688
-21.929398,3.215005,3.8942351
-22.032505,3.2196653,3.8819058
-22.095314,3.2110672,3.8526907
-22.240719,3.2312675,3.8614185
-22.241028,3.201593,3.8050728
-22.429905,3.2383242,3.8364916
-22.43052,3.208999,3.7809029
-22.617506,3.2467341,3.8147564
-22.644867,3.2274122,3.7728624
-22.742245,3.2338862,3.7657547
-22.871576,3.2527943,3.7758074
-22.91095,3.2385788,3.7413745
-23.036266,3.25716,3.75175
-23.076506,3.243751,3.7188077
-23.17781,3.2541692,3.7187047
-23.260513,3.2578492,3.7096653
-23.280972,3.2372212,3.6672592
-23.396523,3.254685,3.677791
-23.487804,3.2630115,3.6759882
-23.50362,3.2408993,3.6319132
-23.633717,3.2660131,3.654131
-23.691072,3.2615201,3.6351056
-23.733896,3.2511039,3.6078796
-23.86678,3.2793062,3.6355047
-23.894232,3.2628498,3.6000829
-23.99196,3.277052,3.60844
-24.053638,3.2759478,3.5952158
-24.11287,3.274033,3.581008
-24.136726,3.256433,3.5443954
-24.260038,3.2840574,3.5730877
-24.309603,3.2786157,3.554327
-24.325153,3.257529,3.512991
-24.432627,3.279489,3.5343013
-24.517324,3.2913802,3.5412588
-24.527777,3.2681673,3.4971185
-24.620472,3.2846322,3.511157
-24.68105,3.2859788,3.5032458
-24.730253,3.2819905,3.487637
-24.766018,3.2714605,3.4624844
-24.863483,3.2921877,3.4837008
-24.937529,3.3016477,3.4884815
-24.946716,3.2780545,3.4442906
-25.025621,3.290625,3.4540105
-25.090374,3.2962523,3.4535756
-25.16212,3.305983,3.4594603
-25.1633,3.278128,3.409122
-25.275463,3.3104012,3.449183
-25.313858,3.3029845,3.4297495
-25.363586,3.301962,3.420055
-25.395752,3.2912745,3.3958511
-25.487871,3.3146987,3.4234314
-25.53308,3.311895,3.4114218
-25.567272,3.3028624,3.3900313
-25.611809,3.299944,3.3780303
-25.696991,3.3213375,3.4032702
-25.73582,3.315593,3.3872056
-25.77603,3.310785,3.3726554
-25.802973,3.2979512,3.3458605
-25.864422,3.3064759,3.3519664
-25.925596,3.3152401,3.3585901
-25.983236,3.3221767,3.3625426
-25.99671,3.3011432,3.3233833
-26.065084,3.315481,3.3389993
-26.122866,3.3234076,3.3448396
-26.18165,3.3323934,3.3524609
-26.191856,3.3091788,3.3101215
-26.231138,3.3053865,3.2980309
-26.321695,3.3369367,3.3411655
-26.357523,3.3313959,3.3265734
-26.394611,3.3268175,3.3135524
-26.43776,3.3266435,3.3075023
-26.477245,3.324031,3.2977128
-26.536892,3.3362355,3.3112812
-26.574993,3.3330595,3.3007846
-26.604921,3.323911,3.2809482
-26.647717,3.3244448,3.276433
-26.692144,3.326435,3.2743015
-26.76205,3.348357,3.3037815
-26.808268,3.3524785,3.3052387
-26.846497,3.3505661,3.2972245
-26.88304,3.3474417,3.2873554
-26.903124,3.3310692,3.2564993
-26.941452,3.3294647,3.2491522
-26.989975,3.3364933,3.2556238
-27.039333,3.3445926,3.2639012
-27.081047,3.346556,3.2624846
-27.123173,3.349108,3.2620873
-27.151194,3.3395536,3.2424035
-27.185518,3.3355255,3.2316065
-27.24422,3.3534908,3.2561183
-27.28839,3.3588707,3.2605624
-27.322931,3.3556845,3.2513332
-27.345692,3.341558,3.2245731
-27.3833,3.341309,3.2201653
-27.443449,3.3629134,3.2510195
-27.479267,3.361562,3.2449942
-27.52258,3.3677557,3.2512035
-27.562435,3.3708315,3.2524571
-27.598026,3.3698285,3.2471886
-27.625418,3.360498,3.2285051
-27.634132,3.3315048,3.1780205
-27.618658,3.2761135,3.0847416
-27.582977,3.1974404,2.9536176
-27.587088,3.1601357,2.8894958
-27.587315,3.1175542,2.8167696
-27.59311,3.080119,2.752365
-27.585592,3.0264344,2.6614962
-27.553442,2.94255,2.5213952
-27.585867,2.9325738,2.5015697
-27.592148,2.8910282,2.4303164
-27.587938,2.8354905,2.336204
-27.602407,2.8015084,2.277223
-27.59737,2.7419362,2.176425
-27.62829,2.7267218,2.1480803
-27.564247,2.5870755,1.9162164
-27.573494,2.5401964,1.8359766
-27.592762,2.505422,1.7755365
-27.621273,2.4823372,1.7342515
-27.600168,2.3890073,1.5777974
-27.603436,2.3272517,1.4730396
-27.626263,2.29186,1.4115181
-27.61183,2.2000432,1.2573123
-36.67034,1.4607701,0.408185
-36.675755,1.5085127,0.49287415
-36.65024,1.5764053,0.60887575
-36.70201,1.5914927,0.64261866
-36.659084,1.6691098,0.77351475
-36.633717,1.7338662,0.8842635
-36.68489,1.748096,0.91666365
-36.728745,1.7670195,0.95640326
-36.674393,1.8478649,1.0917206
-36.731434,1.857713,1.1174569
-36.65931,1.9474416,1.2661033
-36.723274,1.9524229,1.2843819
-36.63763,2.0480044,1.4415927
-36.714127,2.0449564,1.4476194
-36.62628,2.139438,1.6027036
-36.663074,2.1593359,1.6437831
-36.67407,2.1940522,1.7074499
-36.669174,2.2374408,1.7842469
-36.680183,2.2712216,1.8464012
-36.731983,2.2817678,1.8733935
-36.75896,2.3061666,1.9213943
-36.756397,2.3465624,1.9935074
-36.765938,2.3798661,2.0548859
-37.237114,2.1651318,1.7442818
-36.905403,2.3814466,2.0802307
-36.930565,2.4061139,2.1288142
-36.65749,2.6211824,2.4723744
-36.599003,2.6861184,2.5801597
-36.676067,2.6817706,2.585174
-36.716698,2.6959798,2.617787
-36.77443,2.7017837,2.6381073
-37.864426,2.2042708,1.919395
-37.87815,2.2369807,1.9812903
-36.936096,2.7259057,2.7097478
-36.872448,2.7898204,2.8153186
-36.955647,2.7840505,2.819312
-37.006527,2.7936907,2.8458862
-37.095486,2.786023,2.84757
-37.186287,2.7780163,2.8490343
-37.23097,2.7912035,2.881236
-37.294453,2.7961156,2.9016857
-37.34207,2.8082418,2.9326196
-37.423847,2.8056214,2.9426675
-37.46974,2.8188426,2.9754596
-37.5364,2.8233092,2.9959745
-37.60793,2.8259912,3.0141668
-37.67546,2.8306484,3.0353527
-37.74953,2.8328788,3.0533404
-37.82695,2.83407,3.070105
-37.898705,2.8379,3.090787
-37.980404,2.838057,3.1065993
-38.058067,2.8401902,3.1254072
-38.154953,2.8351493,3.1345906
-38.22448,2.8412015,3.1593175
-38.305744,2.8430295,3.1784945
-38.40309,2.8391283,3.1901498
-38.485413,2.8413534,3.2104464
-38.587326,2.836678,3.221712
-38.69371,2.830882,3.2318382
-38.757572,2.8410788,3.2637448
-38.83165,2.8478236,3.2912612
-38.891926,2.8597653,3.3259225
-38.96418,2.8676836,3.3554678
-39.019913,2.8816257,3.3931737
-39.062435,2.900267,3.4372015
-39.09248,2.9232087,3.4869437
-39.16336,2.9323654,3.5189166
-40.199158,2.6204326,3.1378503
-40.2254,2.6483319,3.1965356
-40.23707,2.6808927,3.2612019
-40.242016,2.7154322,3.328354
-40.23485,2.753602,3.400024
-40.227074,2.7916543,3.471439
-40.224953,2.8276339,3.5401664
-40.23124,2.8607578,3.6052794
-40.224403,2.8976781,3.675015
-40.303684,2.908368,3.7126336
-40.478874,2.8907976,3.716312
-40.580925,2.8957164,3.7478638
-40.752197,2.88094,3.7563105
-40.82705,2.8948224,3.7995605
-41.031746,2.8720405,3.799934
-41.08826,2.8920417,3.8512945
-41.27057,2.877233,3.8625083
-41.355453,2.8901415,3.9064837
-41.570587,2.868033,3.9108953
-41.647156,2.8842435,3.9597101
-41.84989,2.8672976,3.971705
-41.937523,2.8815534,4.019376
-42.06886,2.8848448,4.055393
-42.271317,2.8705795,4.0729423
-42.615658,2.8215642,4.054084
-42.86695,2.7976675,4.063903
-43.21758,2.7506604,4.05069
-43.508682,2.720065,4.056557
-43.89395,2.6684346,4.042344
-44.26024,2.6234298,4.0370817
-44.665283,2.5713573,4.026811
-45.076935,2.51998,4.019595
-45.533283,2.4606605,4.00702
-46.00112,2.4012554,3.997095
-46.51965,2.3331473,3.981711
-46.977985,2.2810597,3.9845586
-47.59449,2.1972563,3.9609303
-48.193073,2.1206474,3.947743
-48.766853,2.0525057,3.9459538
-49.52674,1.9488592,3.9166937
-50.166515,1.8739207,3.9171853
-50.94661,1.7741239,3.9009128
-51.975998,1.6289933,3.8523636
-12.847588,2.3543298,3.995398
-14.139658,2.5772998,4.158327
-14.416904,2.5898256,4.1219673
-14.894609,2.647377,4.132125
-15.157566,2.6601791,4.0997725
-15.587859,2.7117267,4.1085935
-15.975379,2.7559404,4.112222
-16.316528,2.7916226,4.1090345
-17.316807,2.904252,4.116444
-17.507235,2.9108858,4.0884805
-17.742535,2.929463,4.0747333
-17.958662,2.9445345,4.0582514
-18.291311,2.9899836,4.0772147
-18.490559,3.0034056,4.0612936
-18.745312,3.032152,4.0639963
-18.953934,3.0502863,4.0556154
-19.17046,3.0716217,4.0519857
-19.370773,3.0898087,4.045666
-19.599228,3.1166756,4.0506225
-19.75534,3.1250405,4.034444
-19.990076,3.1559606,4.0462418
-20.148182,3.1667626,4.0346174
-20.200123,3.14833,3.9878383
-20.36515,3.1624336,3.981427
-20.57064,3.189157,3.991425
-20.582722,3.160327,3.9328094
-20.781168,3.1866517,3.9436476
-20.850298,3.1753035,3.9076054
-20.983244,3.1835828,3.8968387
-21.123966,3.1949472,3.890572
-21.204586,3.188406,3.8617883
-21.36081,3.205949,3.8645368
-21.402205,3.187902,3.821515
-21.577286,3.2128582,3.8349824
-21.602879,3.190291,3.786539
-21.797396,3.2231517,3.8115478
-21.816101,3.1988158,3.7612176
-21.996544,3.2286866,3.7833939
-22.0337,3.211015,3.7424016
-22.18632,3.2330089,3.755045
-22.255497,3.2269583,3.7302437
-22.322958,3.220588,3.705237
-22.441864,3.2327316,3.70577
-22.495493,3.2221441,3.6755137
-22.649632,3.248148,3.695877
-22.670023,3.2261143,3.6502948
-22.827566,3.254775,3.675202
-22.865776,3.2397723,3.6397529
-22.973736,3.2512093,3.6414309
-23.078005,3.2618508,3.6423578
-23.120413,3.249176,3.6107392
-23.22259,3.2599368,3.6124115
-23.28484,3.2555203,3.5928574
-23.331469,3.245124,3.5649633
-23.438715,3.2593012,3.5723386
-23.486107,3.2497246,3.5459776
-23.589525,3.263365,3.553162
-23.687698,3.2754452,3.558426
-23.705948,3.254479,3.516131
-23.857328,3.290008,3.5559297
-23.903515,3.2814035,3.53192
-23.920448,3.2602236,3.4896488
-24.037924,3.2830415,3.5118651
-24.09826,3.281306,3.4983678
-24.125706,3.2650905,3.4636965
-24.21327,3.276075,3.4692597
-24.315966,3.2945204,3.486134
-24.323442,3.269587,3.4388885
-24.402603,3.2779431,3.441187
-24.473091,3.2826662,3.4382868
-24.544886,3.2884007,3.4370914
-24.562138,3.2682073,3.397202
-24.670517,3.292328,3.4239464
-24.729752,3.2930057,3.4156818
-24.743587,3.2713454,3.3738294
-24.833094,3.2876103,3.3893824
-24.923605,3.305006,3.4068995
-24.954504,3.2923641,3.379003
-25.003727,3.2892432,3.365665
-25.076008,3.2984383,3.371244
-25.154442,3.3113594,3.38271
-25.156897,3.2840037,3.3326454
-25.245634,3.3031552,3.353971
-25.301437,3.3048978,3.3487444
-25.365505,3.311512,3.3511605
-25.370178,3.2852044,3.3028827
-25.47354,3.3145192,3.3406453
-25.519804,3.311992,3.3293252
-25.582417,3.3191204,3.3330998
-25.606113,3.3038445,3.3021693
-25.695417,3.3273258,3.331664
-25.74595,3.328342,3.3263235
-25.789722,3.3255153,3.315085
-25.819605,3.3143485,3.290873
-25.866695,3.3138127,3.2833838
-25.933891,3.3260775,3.2961035
-25.985203,3.3287868,3.2939482
-26.003,3.3103151,3.2585216
-26.07209,3.324863,3.275219
-26.130013,3.332647,3.2813878
-26.173239,3.331087,3.2728949
-26.205204,3.3221583,3.2528057
-26.244705,3.3183446,3.2408872
-26.31794,3.33779,3.2660117
-26.374826,3.346556,3.2743106
-26.4097,3.340283,3.2587628
-26.434458,3.326882,3.2318969
-26.48023,3.3284693,3.229012
-26.54532,3.3443487,3.249083
-26.590693,3.3463,3.2469854
-26.61162,3.3302908,3.2161684
-26.64949,3.326863,3.2055736
-26.697605,3.331369,3.2077985
-26.759644,3.3469372,3.2279243
-26.820127,3.3618708,3.2471619
-26.847506,3.3511589,3.225154
-26.898113,3.3589919,3.2331324
-26.915295,3.3400798,3.197968
-26.94631,3.332249,3.180746
-26.996109,3.3400466,3.1888914
-27.050413,3.3520308,3.2039242
-27.09338,3.35483,3.2041535
-27.132069,3.354186,3.198863
-27.152245,3.3374782,3.1675048
-27.196089,3.341537,3.1699772
-27.255844,3.3602118,3.196353
-27.294722,3.360522,3.1928887
-27.34336,3.370049,3.2045398
-27.35961,3.3496516,3.1673722
-27.39359,3.3457208,3.157146
-27.457571,3.3707693,3.1944199
-27.50632,3.3818169,3.2088819
-27.546383,3.3847404,3.2101102
-27.58126,3.382709,3.2032723
-27.614765,3.3793895,3.1943712
-27.642902,3.3705912,3.1765118
-27.60781,3.2952857,3.049255
-27.612076,3.259859,2.9875317
-27.5968,3.2023876,2.8894496
-27.59861,3.162107,2.8196368
-27.600044,3.120343,2.7473378
-27.576632,3.0492966,2.6266375
-27.560987,2.9851274,2.517198
-27.586853,2.9676366,2.4848719
-27.602695,2.9378588,2.4322329
-27.591644,2.8748064,2.3244848
-27.599087,2.8325613,2.251142
-27.60594,2.7883527,2.1745162
-27.589306,2.713003,2.0461884
-27.62446,2.7021594,2.0248685
-27.591158,2.6011386,1.8537803
-27.590385,2.5402575,1.749279
-27.617178,2.5149357,1.7038684
-27.60065,2.4288085,1.5572848
-27.601856,2.3647459,1.4473462
-27.610245,2.308822,1.3509164
-27.645708,2.2906997,1.3174648
-36.65644,1.5302744,0.39784336
-36.66418,1.5759192,0.4800167
-36.65789,1.6302228,0.57585335
-36.68325,1.6627824,0.6371999
-36.6528,1.7313108,0.7553625
-36.63819,1.7884388,0.85537577
-36.681015,1.8080442,0.89618015
-36.716396,1.832241,0.944262
-36.640976,1.9252467,1.1004057
-36.73395,1.9128177,1.09098
-36.61539,2.0298433,1.284358
-36.704395,2.0196009,1.2784567
-36.62255,2.1117003,1.4323907
-36.67598,2.1224148,1.4592729
-36.64833,2.1804786,1.5598555
-36.656494,2.2169716,1.6268096
-36.67913,2.2447495,1.680223
-36.636074,2.3093107,1.7905126
-36.67616,2.3264208,1.8273668
-36.68158,2.3626256,1.8936973
-36.691975,2.3956668,1.9551148
-36.72593,2.4156015,1.9963899
-36.771015,2.429494,2.028458
-36.837498,2.4321067,2.0433712
-36.862083,2.4569123,2.092286
-36.896435,2.4764707,2.1332316
-36.922432,2.500228,2.180604
-36.95098,2.522528,2.225791
-36.591343,2.7392526,2.565002
-36.679546,2.7296493,2.561459
-36.723183,2.7424366,2.5918612
-36.777195,2.750244,2.614873
-37.756752,2.3136127,1.9721403
-37.84894,2.3082817,1.9773741
-36.98323,2.753947,2.6552687
-37.0311,2.7654762,2.684404
-37.08039,2.7764513,2.7128239
-37.109398,2.7967799,2.7551951
-38.10231,2.3824675,2.15623
-38.118126,2.413086,2.215558
-37.29526,2.8136563,2.8178258
-37.35036,2.8227367,2.8440852
-37.463387,2.806951,2.8341956
-37.51382,2.8186216,2.8646097
-37.597,2.816557,2.8752208
-37.681152,2.8144968,2.886086
-37.746063,2.8208249,2.9092975
-37.801212,2.8313975,2.9387913
-37.867687,2.837535,2.9620762
-37.94645,2.8389971,2.9788747
-38.02613,2.8404531,2.9959035
-38.101772,2.8438575,3.0159392
-38.185764,2.8443422,3.0320787
-38.25488,2.850941,3.0570936
-38.352417,2.846993,3.0675173
-38.435047,2.8491526,3.086801
-38.537987,2.8441215,3.096335
-38.60562,2.8526278,3.1249986
-38.727562,2.8415906,3.1268644
-38.78933,2.852919,3.159944
-38.868958,2.858074,3.1847491
-38.92714,2.8711307,3.2206025
-38.98001,2.8862088,3.2593784
-39.03184,2.9017768,3.298973
-39.090424,2.915161,3.3357792
-39.14276,2.9308248,3.3758254
-39.20627,2.9428854,3.4112234
-40.19357,2.6500165,3.0419846
-40.232594,2.6738582,3.0953808
-40.230694,2.7109263,3.1662602
-40.231735,2.74677,3.235457
-40.225986,2.7844985,3.3070378
-40.22052,2.821838,3.3780189
-40.216236,2.858517,3.4480543
-40.21674,2.8934526,3.51577
-40.279587,2.9093235,3.5591846
-40.463917,2.8891282,3.5572562
-40.562885,2.8951385,3.5890255
-40.735264,2.8801706,3.5950236
-40.782627,2.9021707,3.6475906
-40.97458,2.8830519,3.6496997
-41.05005,2.8977833,3.6940517
-41.227955,2.884272,3.7044249
-41.33458,2.8913057,3.7403603
-41.509323,2.8802958,3.7551832
-41.611446,2.8896933,3.7950287
-41.82732,2.8693464,3.8003154
-41.87392,2.8945289,3.8597822
-42.13308,2.8647506,3.855815
-42.213943,2.8819952,3.907076
-42.456184,2.8587656,3.9126835
-42.59408,2.8628678,3.9502945
-42.68603,2.878934,4.00192
-42.852062,2.8773336,4.034468
-43.051178,2.868597,4.0600605
-43.39308,2.8270102,4.051176
-43.719692,2.7908778,4.04998
-44.083008,2.7480333,4.04348
-44.4737,2.7009242,4.0345473
-44.895702,2.648903,4.0227513
-45.308136,2.6013107,4.01788
-45.772022,2.5446796,4.00631
-46.205315,2.4971862,4.0065236
-46.78605,2.42059,3.9808698
-47.313324,2.3584144,3.9726105
-47.907967,2.2851202,3.957036
-48.46141,2.223476,3.9560113
-49.208748,2.1257157,3.925356
-49.87451,2.048234,3.917737
-50.538544,1.9746685,3.91788
-51.577675,1.832267,3.8627124
-52.314217,1.7530632,3.8681521
-12.804491,2.4480536,3.9377718
-14.181811,2.6810236,4.1219406
-14.522365,2.7054152,4.100129
-14.946589,2.7493021,4.1004834
-15.334655,2.7877164,4.0974245
-15.701961,2.8237004,4.093893
-16.091377,2.8665364,4.0997357
-16.362232,2.8849864,4.0810313
-16.74636,2.9305196,4.0936365
-17.013275,2.9512534,4.0805683
-17.325953,2.9840465,4.0824537
-17.480667,2.9813104,4.045454
-18.133387,3.023756,3.9981384
-18.629942,3.1094005,4.0689297
-18.831413,3.1238194,4.0572467
-18.968386,3.1228952,4.02806
-19.089497,3.1185484,3.9953349
-19.317844,3.1427283,3.9979625
-19.358353,3.118579,3.942175
-19.562984,3.1383362,3.9409256
-19.74968,3.1543589,3.9359171
-19.851723,3.148216,3.9038665
-19.959236,3.1440456,3.8747225
-20.16232,3.1671636,3.8807592
-20.196827,3.1435933,3.827827
-20.349394,3.1539254,3.8187041
-20.566647,3.1838546,3.8356256
-20.636412,3.171698,3.7985325
-20.764648,3.17718,3.784833
-20.921291,3.191864,3.7837758
-20.990051,3.1806731,3.7490044
-21.133644,3.1927638,3.7455235
-21.190828,3.1787403,3.7075787
-21.399364,3.2125387,3.7342591
-21.434336,3.1923318,3.6886196
-21.609274,3.2172132,3.7044187
-21.63822,3.1955862,3.657299
-21.835915,3.2295032,3.686521
-21.848392,3.2029595,3.633082
-22.006042,3.2251503,3.647159
-22.034403,3.204258,3.601861
-22.205086,3.2323291,3.6250324
-22.235264,3.2125459,3.5816817
-22.368267,3.2289295,3.589336
-22.446312,3.2265375,3.570899
-22.500532,3.2159297,3.541047
-22.650328,3.2402472,3.5611057
-22.69006,3.225034,3.5251508
-22.860785,3.2585583,3.5592332
-22.872831,3.233589,3.5096626
-23.01338,3.2572532,3.5303607
-23.067972,3.2488084,3.5049696
-23.172121,3.2597785,3.507968
-23.23812,3.2563853,3.4903316
-23.265614,3.238012,3.450951
-23.363441,3.2477803,3.4529428
-23.474722,3.2635608,3.464086
-23.493479,3.2421458,3.4206238
-23.602623,3.2580147,3.4324155
-23.701696,3.270351,3.439289
-23.759748,3.2659428,3.4215078
-23.847912,3.2746341,3.4234476
-23.919983,3.2768846,3.4159918
-23.958103,3.2646842,3.3870268
-24.049538,3.2760592,3.3936434
-24.12349,3.280195,3.3895898
-24.144588,3.2609076,3.3502846
-24.231478,3.2714806,3.3563032
-24.31112,3.2792463,3.358293
-24.33862,3.2632153,3.3242197
-24.420223,3.2725823,3.3289957
-24.516598,3.2894654,3.3454995
-24.532166,3.268174,3.3036766
-24.604092,3.2740812,3.3036923
-24.690628,3.2875714,3.31558
-24.733917,3.2801757,3.295433
-24.78828,3.2784505,3.2841544
-24.8674,3.2895138,3.2928357
-24.951971,3.3038816,3.3068562
-24.961758,3.2800925,3.261673
-25.055943,3.3002424,3.2850313
-25.096771,3.2928545,3.2655864
-25.15894,3.2969825,3.2642565
-25.173683,3.2758076,3.223371
-25.276367,3.302514,3.2577472
-25.311512,3.2927225,3.2349176
-25.370989,3.2965665,3.2336588
-25.40347,3.2854896,3.2089562
-25.505762,3.3142996,3.2474365
-25.54352,3.3067145,3.228478
-25.58472,3.3012145,3.2128978
-25.639341,3.3037555,3.210184
-25.690483,3.3045132,3.2047453
-25.759998,3.3166223,3.2175217
-25.800285,3.3113875,3.2027445
-25.854275,3.3147268,3.2017617
-25.911972,3.3206882,3.205093
-25.952105,3.315919,3.1913257
-25.999268,3.315756,3.1850333
-26.032427,3.3067634,3.1646233
-26.09521,3.317152,3.175496
-26.135855,3.3133636,3.1636271
-26.206177,3.3295577,3.1841192
-26.2245,3.3111582,3.1487947
-26.248034,3.296109,3.118906
-26.351536,3.3363185,3.1786757
-26.385136,3.3286955,3.161006
-26.418827,3.321167,3.1435404
-26.456146,3.31627,3.1304102
-26.51102,3.324218,3.138277
-26.55752,3.3264058,3.1368532
-26.619965,3.34072,3.155324
-26.62734,3.3141046,3.1069837
-26.688868,3.328329,3.1254888
-26.743828,3.33804,3.136722
-26.795158,3.3453546,3.1441283
-26.838003,3.346334,3.1412268
-26.880205,3.3470185,3.1379142
-26.9013,3.330782,3.1068215
-26.93551,3.325106,3.093145
-26.972952,3.322167,3.0840316
-27.03865,3.3431816,3.1145182
-27.076836,3.3414254,3.1075125
-27.130377,3.3531108,3.1227975
-27.156666,3.3413815,3.0994215
-27.185171,3.3314953,3.0791283
-27.238201,3.3436303,3.095389
-27.27907,3.345174,3.0941672
-27.331026,3.3572118,3.1104436
-27.354721,3.3432288,3.0835543
-27.391052,3.3410697,3.0763588
-27.445717,3.356733,3.0988994
-27.485064,3.358022,3.097581
-27.525696,3.3608034,3.098815
-27.56756,3.3650873,3.1026201
-27.602531,3.3626213,3.0952182
-27.639273,3.3620968,3.0911107
-27.626926,3.3100178,3.0008092
-27.605389,3.2466998,2.891623
-27.599384,3.1984868,2.8076477
-27.59194,3.1473742,2.7187557
-27.56653,3.0747187,2.5936642
-27.568636,3.0312521,2.517468
-27.58224,2.9998713,2.4615364
-27.604115,2.9773788,2.420535
-27.596169,2.9187315,2.3187337
-27.597322,2.86937,2.2324972
-27.60074,2.8213375,2.148456
-27.58868,2.7524261,2.0291977
-27.563374,2.6644075,1.8776479
-27.619732,2.6796472,1.9001832
-27.589375,2.5809228,1.7304478
-27.614397,2.5534265,1.6808815
-27.596506,2.466274,1.5305252
-27.60461,2.41241,1.4363542
-27.605194,2.3460226,1.3209686
-27.63411,2.3184159,1.271164
-36.635715,1.6045547,0.39224052
-36.658157,1.6398594,0.458508
-36.721226,1.6480148,0.48098755
-36.655006,1.7403154,0.6390791
-36.665558,1.7815676,0.71481514
-36.6881,1.8146231,0.77734804
-36.66297,1.8772051,0.8872237
-36.7099,1.8940029,0.92364454
-36.73762,1.9225574,0.9789295
-36.68451,1.999881,1.1120877
-36.731194,2.0159366,1.1473551
-36.662178,2.1006505,1.2919683
-36.71367,2.113104,1.3214817
-36.66692,2.182651,1.4416618
-36.697716,2.206491,1.4892397
-36.634895,2.283311,1.6206193
-36.707043,2.282982,1.6299582
-36.733517,2.308371,1.6799798
-36.66874,2.3836918,1.8085666
-36.68955,2.4111946,1.8618007
-36.748062,2.418165,1.8828526
-36.723305,2.46961,1.9736075
-36.76838,2.48354,2.0056372
-36.777275,2.5163386,2.0671563
-36.850746,2.51552,2.0763454
-36.888676,2.5331607,2.114365
-36.89924,2.5645552,2.1737542
-36.71571,2.727321,2.4467058
-36.68622,2.7762249,2.5326366
-36.729904,2.7890906,2.563044
-36.776443,2.8006508,2.591535
-36.94924,2.7526274,2.5289874
-36.99161,2.7669444,2.5620847
-37.007034,2.7937696,2.6143074
-37.055042,2.8054557,2.643528
-37.14232,2.799458,2.6460567
-37.17396,2.818863,2.6872158
-37.21779,2.8328075,2.7201924
-38.15821,2.4535608,2.1619887
-37.31989,2.8546126,2.7772913
-37.38304,2.8605099,2.7985296
-38.402634,2.4603534,2.2141795
-37.54848,2.8565695,2.8180838
-37.62464,2.8579428,2.833169
-37.75329,2.8380709,2.817038
-37.80721,2.8494165,2.8473477
-37.92119,2.8367245,2.842445
-38.013523,2.833316,2.8515024
-38.066704,2.8458107,2.8840742
-38.155987,2.844364,2.896471
-38.265278,2.8356354,2.898562
-38.327568,2.8454437,2.927823
-38.397285,2.8526537,2.9535074
-38.52892,2.8370087,2.9465413
-38.570274,2.8554802,2.988874
-38.720184,2.8343155,2.9747376
-38.789394,2.8432207,3.003869
-38.847504,2.8563485,3.039184
-38.91571,2.8660693,3.0698557
-38.968445,2.8814497,3.1086845
-39.032166,2.893153,3.1425114
-39.076805,2.911593,3.1859193
-39.12034,2.9304736,3.2300534
-39.20704,2.9349654,3.2544122
-40.202637,2.6390197,2.8656268
-40.238266,2.6643245,2.920949
-40.241943,2.6999457,2.990415
-40.235367,2.7385974,3.0639381
-40.21491,2.78132,3.1428618
-40.21765,2.816371,3.2113209
-40.214497,2.853002,3.281835
-40.225006,2.8851748,3.3463364
-40.277924,2.904349,3.39362
-40.455223,2.8864708,3.3923206
-40.53139,2.899445,3.4321012
-40.705734,2.8840296,3.4352274
-40.781025,2.8981442,3.477252
-40.952305,2.8851485,3.4847102
-41.053024,2.8929522,3.5194478
-41.18473,2.8925605,3.5441823
-41.318394,2.8922665,3.5695868
-41.45219,2.892584,3.5963168
-41.61827,2.8848712,3.6136308
-41.737625,2.8904114,3.6480293
-41.895794,2.8863173,3.671132
-42.08194,2.8757668,3.6870918
-42.20713,2.881772,3.7238688
-42.42444,2.865075,3.7340388
-42.513474,2.8815317,3.7845674
-42.7257,2.8679762,3.8001785
-42.901745,2.8643272,3.8283591
-43.028206,2.8734603,3.8721466
-43.26186,2.8577442,3.8880982
-43.4299,2.8586025,3.9239955
-43.599915,2.8598177,3.961124
-43.755802,2.8650727,4.0035844
-43.957222,2.8608193,4.036393
-44.324165,2.820837,4.031485
-44.70806,2.7791293,4.026718
-45.1185,2.7337651,4.020191
-45.527866,2.6908498,4.0185156
-45.976315,2.6419263,4.0129514
-46.507156,2.5783553,3.9950457
-46.99395,2.5266635,3.9921598
-47.577858,2.4580352,3.9753962
-48.154247,2.3940587,3.9666634
-48.806023,2.3184419,3.9502802
-49.52862,2.2326946,3.9283805
-50.181915,2.1640031,3.926786
-51.001106,2.067781,3.9043322
-52.063526,1.9311805,3.851211
4.496752,0.31723547,2.7718449
4.4868145,0.22306585,2.5745144
-13.012768,2.6410863,4.039535
-14.1151085,2.8087106,4.164034
-14.247449,2.7886498,4.0970087
-14.775016,2.8492928,4.1168313
-15.095673,2.8702512,4.0966034
-15.446427,2.8991668,4.086781
-15.858545,2.9429302,4.0952473
-16.159369,2.9650517,4.081605
-16.455883,2.987824,4.0702276
-16.713943,3.0036867,4.052427
-17.060543,3.040691,4.060356
-17.975075,3.0965023,3.9978297
-18.17884,3.107515,3.9812777
-18.293526,3.0980325,3.9406104
-18.507053,3.1132839,3.9308968
-18.681103,3.1198683,3.911374
-18.889214,3.1359055,3.904433
-18.943266,3.113834,3.8503747
-19.112076,3.1214786,3.8342214
-19.311905,3.1380908,3.8302383
-19.51862,3.1576,3.8308253
-19.575493,3.1381564,3.7818227
-19.736769,3.1471384,3.7700667
-19.935085,3.1671176,3.7733827
-19.976562,3.144684,3.7215347
-20.151562,3.159792,3.7196388
-20.335152,3.1782947,3.722962
-20.365944,3.153885,3.6693964
-20.610924,3.1917703,3.6999855
-20.751076,3.200253,3.6916385
-20.80607,3.1841145,3.650231
-20.981457,3.2044039,3.6589265
-21.028465,3.1865606,3.6157465
-21.179226,3.2008076,3.6171174
-21.2193,3.1813674,3.5721865
-21.400303,3.206439,3.589539
-21.488632,3.2030048,3.5675483
-21.59523,3.2058704,3.5547223
-21.746021,3.2236986,3.5634298
-21.810423,3.2138796,3.5333695
-21.958738,3.2323081,3.5438066
-22.023834,3.2235084,3.5157423
-22.153347,3.2369432,3.5198445
-22.240534,3.2365038,3.504346
-22.296923,3.225732,3.4741454
-22.423004,3.2397408,3.480133
-22.448023,3.2184124,3.434959
-22.640993,3.257619,3.478467
-22.630762,3.2239728,3.4155707
-22.79162,3.253081,3.4450984
-22.862642,3.2497282,3.4271326
-22.977543,3.2632284,3.43437
-23.074678,3.2706347,3.4328876
-23.063808,3.2369685,3.3703756
-23.221388,3.2685401,3.4054585
-23.265636,3.2565498,3.3756113
-23.293783,3.2382503,3.3363624
-23.449085,3.2710662,3.3743563
-23.48043,3.2545383,3.3380938
-23.562475,3.2588403,3.3335166
-23.669012,3.2737577,3.345324
-23.696518,3.2561407,3.3077693
-23.84831,3.2912478,3.3509455
-23.905636,3.286902,3.3340359
-23.89799,3.2545998,3.2742672
-24.021755,3.2795463,3.3026862
-24.106094,3.287878,3.305777
-24.11303,3.2620218,3.2561336
-24.22858,3.28511,3.2824478
-24.265648,3.2730758,3.2544312
-24.307419,3.2632627,3.2299466
-24.38328,3.2694845,3.2306013
-24.465641,3.2792141,3.236937
-24.51553,3.2739313,3.219921
-24.570625,3.27134,3.207243
-24.666311,3.2888057,3.2262878
-24.722528,3.2874525,3.215868
-24.730427,3.262237,3.1678276
-24.843426,3.2897763,3.2033658
-24.927505,3.3034458,3.217174
-24.945797,3.2837687,3.1781464
-25.01655,3.2912755,3.1824436
-25.080633,3.2957006,3.1819844
-25.145914,3.3011277,3.183269
-25.163284,3.2811322,3.1439805
-25.254168,3.3009872,3.168633
-25.302942,3.2983565,3.1573672
-25.355797,3.298195,3.1501722
-25.382576,3.283606,3.119824
-25.491756,3.315841,3.1651154
-25.529253,3.3077915,3.1455235
-25.572191,3.302976,3.1312327
-25.625124,3.3041766,3.1267767
-25.701723,3.3197312,3.145742
-25.745695,3.3162405,3.1338959
-25.777264,3.305359,3.1100879
-25.832287,3.3089035,3.109858
-25.901264,3.3214521,3.1244454
-25.941147,3.3161972,3.1100574
-25.984222,3.3130848,3.0992446
-26.002768,3.29432,3.0628376
-26.105852,3.3304598,3.1165953
-26.130632,3.316025,3.0874372
-26.191278,3.3254044,3.097506
-26.2181,3.312392,3.0707893
-26.256018,3.3068697,3.0564632
-26.344337,3.3362756,3.0998983
-26.383707,3.3323588,3.0884123
-26.393593,3.30769,3.0426264
-26.462454,3.3248937,3.066237
-26.526764,3.3394265,3.0855532
-26.564774,3.3352194,3.0738645
-26.60166,3.3302805,3.061017
-26.618809,3.3105788,3.0236487
-26.678888,3.3232896,3.0402975
-26.74413,3.3405054,3.0645757
-26.789093,3.342523,3.0636034
-26.827393,3.3395243,3.0543203
-26.877012,3.3457146,3.0604692
-26.892214,3.3243415,3.020546
-26.938534,3.3281837,3.0228868
-26.974207,3.3234596,3.0109339
-27.040522,3.3446481,3.042542
-27.08366,3.3467894,3.0422645
-27.111935,3.3363097,3.020825
-27.15648,3.3400187,3.0233054
-27.200865,3.343876,3.0261073
-27.252472,3.3545396,3.0404572
-27.298393,3.3604896,3.0469413
-27.31809,3.3424866,3.0130415
-27.353395,3.338831,3.0034041
-27.400023,3.3460498,3.01221
-27.454323,3.3610785,3.0343132
-27.49255,3.3609607,3.0308495
-27.540718,3.3709128,3.0445127
-27.574654,3.3669696,3.0346794
-27.601078,3.3553886,3.0119233
-27.624647,3.3406723,2.9838662
-27.610851,3.2862346,2.888297
-27.583776,3.21607,2.7659016
-27.5925,3.182883,2.7063527
-27.562416,3.1059268,2.572227
-27.56945,3.0684097,2.5052152
-27.583405,3.037778,2.449923
-27.589247,2.9969318,2.3771925
-27.58971,2.9485955,2.2916412
-27.582348,2.889464,2.1876068
-27.60085,2.8600564,2.1343284
-27.567211,2.7652073,1.9691076
-27.56292,2.7042851,1.8618317
-27.604656,2.7005038,1.8523493
-27.59422,2.628644,1.7262793
-27.607075,2.585374,1.6491475
-27.59059,2.5009947,1.5014935
-27.582603,2.4254148,1.3688545
-27.602013,2.3857014,1.2977233
-27.597801,2.310849,1.1662331
-36.60243,1.683341,0.3982172
-36.65444,1.6987648,0.43230057
-36.69435,1.7220378,0.4793377
-36.62919,1.8124928,0.6365285
-36.711983,1.8074641,0.6371765
-36.66705,1.8829329,0.7695756
-36.631462,1.951256,0.8901167
-36.699608,1.95485,0.9049673
-36.763237,1.9614453,0.924829
-36.678696,2.0569675,1.0893693
-36.745914,2.0608473,1.1048403
-36.659637,2.154863,1.2665429
-36.734657,2.1537464,1.2739615
-36.64136,2.2493763,1.43788
-36.69516,2.259942,1.464211
-36.67276,2.3132918,1.5595608
-36.678944,2.3499818,1.6279879
-36.753166,2.3489344,1.6357703
-36.822655,2.3508132,1.6484003
-36.68554,2.4637232,1.8388758
-36.694534,2.4970698,1.9017653
-36.72425,2.5191636,1.9466734
-36.775078,2.5301678,1.9739542
-36.816433,2.5461352,2.0092158
-36.863354,2.5592728,2.0400543
-36.90283,2.576209,2.0769887
-36.895164,2.6165376,2.150951
-36.93536,2.6328342,2.1869268
-36.953835,2.659683,2.2395778
-37.318268,2.5199676,2.0305572
-36.92421,2.7443666,2.3934526
-37.880005,2.3291655,1.7544098
-36.98066,2.7867708,2.4809008
-37.03082,2.7977116,2.5086865
-37.153545,2.7757118,2.485372
-37.911953,2.468023,2.0193267
-37.166737,2.8377314,2.6037989
-37.210163,2.85204,2.6371756
-37.246384,2.869547,2.6755614
-37.28314,2.886812,2.7136369
-37.35195,2.8903801,2.730785
-37.389946,2.9072597,2.7684517
-37.48338,2.9009748,2.7708678
-37.56191,2.9013612,2.7836852
-37.64458,2.9004223,2.7946987
-37.781425,2.877962,2.7733812
-37.96749,2.836667,2.7240615
-38.05375,2.836185,2.7367067
-38.12382,2.8424594,2.7597227
-38.14714,2.8671277,2.8104272
-38.235977,2.866563,2.8235345
-38.340683,2.860409,2.8285875
-38.464767,2.8475418,2.8240051
-38.53757,2.8544095,2.8489504
-38.64805,2.8477385,2.854166
-38.755455,2.8427703,2.8622184
-38.813324,2.8561423,2.8974147
-38.864285,2.8721323,2.936575
-38.968616,2.8694868,2.9488087
-39.01853,2.8862634,2.989461
-39.087086,2.8967395,3.0211587
-39.117737,2.9203317,3.0718827
-39.163567,2.938782,3.1153088
-40.197853,2.6289804,2.6913147
-40.219704,2.659127,2.7534685
-40.229744,2.6929758,2.820869
-40.236618,2.7276297,2.8893728
-40.220993,2.7691956,2.9675164
-40.218754,2.8061728,3.039133
-40.21237,2.8441494,3.112061
-40.22043,2.8773882,3.1783524
-40.240395,2.9068122,3.2393675
-40.357098,2.9071279,3.2605872
-40.485565,2.9045188,3.2782474
-40.645626,2.8932984,3.2847228
-40.771873,2.892715,3.3061314
-40.838722,2.9097297,3.3515797
-41.034767,2.8904443,3.3489108
-41.0907,2.9113612,3.4002523
-41.307404,2.8880537,3.3935685
-41.369614,2.908061,3.4444346
-41.57793,2.8888948,3.444591
-41.65469,2.9058573,3.492279
-41.894016,2.8803685,3.4857855
-41.98924,2.8935988,3.5296597
-42.17676,2.8835528,3.5444565
-42.368317,2.873457,3.5600014
-42.452473,2.8911982,3.6110873
-42.694668,2.8702395,3.6146302
-42.758255,2.8941023,3.6742854
-43.006676,2.8736775,3.6802692
-43.22936,2.8606877,3.696384
-43.350967,2.8725429,3.7432656
-43.572254,2.8618724,3.7639809
-43.786312,2.8539886,3.7890291
-43.931625,2.8626723,3.8343816
-44.144146,2.8570895,3.8639894
-44.37586,2.8483677,3.89107
-44.579308,2.8469326,3.9275317
-44.699055,2.864347,3.9860382
-44.968437,2.8508022,4.011004
-45.425545,2.7997239,3.9965167
-45.89128,2.749361,3.9852915
-46.333977,2.7061558,3.98424
-46.781326,2.6643937,3.9871707
-47.309345,2.6092286,3.9787974
-47.97045,2.5312443,3.950253
-48.54695,2.4729097,3.9452744
-49.18345,2.406433,3.9356909
-49.925682,2.3238873,3.9143696
-50.681877,2.2427979,3.8989863
-51.653088,2.1273675,3.856207
-52.27495,2.0785654,3.8806663
4.575041,0.582412,2.8664494
4.506651,0.49770474,2.6769824
4.440943,0.41261935,2.4874983
-12.953316,2.721009,3.9801898
-14.149609,2.900705,4.1267457
-14.471237,2.9169884,4.100586
-14.925778,2.961172,4.10709
-15.235794,2.978853,4.0861635
-15.578821,3.0048578,4.076276
-15.847793,3.0174093,4.052637
-16.158304,3.0400376,4.042036
-16.446407,3.059555,4.0292954
-16.637268,3.059672,3.9949133
-16.938246,3.0448847,3.910596
-17.07977,3.0365386,3.8682747
-17.50918,3.094257,3.9079285
-17.618176,3.080614,3.8609295
-17.831259,3.0917225,3.8453727
-18.0365,3.1020868,3.829805
-18.280554,3.1228166,3.828301
-18.408705,3.1167321,3.7934875
-18.510838,3.104848,3.7517028
-18.705633,3.1164708,3.7408652
-18.892654,3.1271586,3.7296014
-19.097734,3.1434402,3.7264633
-19.178293,3.1286201,3.6829185
-19.317646,3.1295023,3.6606054
-19.53909,3.1528397,3.6689615
-19.711594,3.164272,3.662115
-19.757343,3.142177,3.610406
-19.942097,3.1584005,3.6111436
-20.076637,3.1616545,3.5947747
-20.168592,3.1535864,3.5632668
-20.345943,3.1702693,3.5664034
-20.46723,3.171752,3.548997
-20.581184,3.171696,3.5298553
-20.770695,3.194526,3.5433173
-20.879654,3.1943574,3.524932
-20.976955,3.1911922,3.5026531
-21.097996,3.1957445,3.4917011
-21.177446,3.1880429,3.4635906
-21.343695,3.207859,3.4753242
-21.396658,3.192741,3.4371386
-21.587372,3.2219148,3.463354
-21.619377,3.200792,3.416955
-21.788311,3.2245588,3.4362512
-21.851458,3.2142527,3.4060984
-22.015133,3.2378888,3.4261127
-22.047256,3.2178922,3.3821554
-22.211777,3.2433019,3.4056153
-22.22615,3.217638,3.3535752
-22.357672,3.2329218,3.3626876
-22.439837,3.231467,3.3471208
-22.521048,3.2300565,3.3318496
-22.650635,3.2465725,3.3438344
-22.663132,3.2209265,3.2924337
-22.846899,3.2586126,3.3371043
-22.877712,3.2401927,3.296967
-23.034637,3.2695518,3.3297892
-23.072006,3.2541296,3.2945495
-23.163403,3.2596753,3.2915583
-23.261845,3.2684755,3.2938204
-23.284763,3.2479312,3.2510796
-23.372395,3.2532043,3.2482972
-23.49262,3.2721431,3.2669368
-23.484667,3.2394109,3.2055764
-23.642452,3.274859,3.250401
-23.677607,3.260157,3.2173243
-23.749138,3.2608497,3.2084146
-23.875309,3.2852411,3.2368736
-23.891747,3.2630992,3.19247
-23.988388,3.275824,3.2030416
-24.046051,3.2719438,3.187621
-24.101368,3.2672544,3.1710472
-24.148266,3.2589817,3.1489058
-24.265858,3.2830796,3.1783304
-24.311749,3.2749634,3.1567287
-24.33215,3.2550964,3.1164575
-24.435104,3.2739913,3.138204
-24.521141,3.285545,3.1484385
-24.539513,3.2650678,3.1074443
-24.644985,3.2868333,3.1344142
-24.71986,3.2943106,3.1386137
-24.74065,3.275333,3.1002698
-24.814518,3.282917,3.1049008
-24.883778,3.288608,3.1066294
-24.957788,3.297145,3.1131253
-24.985334,3.2819965,3.0812826
-25.062515,3.2928672,3.0918384
-25.144234,3.306662,3.1073332
-25.160002,3.2856014,3.0660734
-25.238482,3.2984,3.0802093
-25.28558,3.2945118,3.067174
-25.36206,3.3071144,3.0812845
-25.370205,3.28188,3.0333786
-25.481403,3.3148582,3.0812578
-25.523346,3.30906,3.065483
-25.56532,3.3033974,3.0500016
-25.602028,3.2947633,3.0296793
-25.690708,3.3170528,3.0605884
-25.733767,3.3126853,3.047515
-25.781357,3.3112125,3.0393162
-25.825666,3.3079274,3.0281901
-25.893559,3.319469,3.041802
-25.943342,3.3201234,3.0374155
-25.990498,3.319353,3.0307393
-26.010124,3.3010738,2.9949112
-26.086418,3.3195052,3.0204592
-26.127167,3.3151755,3.0080667
-26.185593,3.3227572,3.0156965
-26.209284,3.307307,2.9847999
-26.244043,3.2992678,2.9663696
-26.349085,3.339823,3.029674
-26.387589,3.3350463,3.016914
-26.403889,3.3146532,2.9779038
-26.460026,3.322519,2.9865494
-26.530832,3.341433,3.013945
-26.565758,3.334684,2.9981103
-26.605278,3.3313928,2.988171
-26.620153,3.3096824,2.9471054
-26.67375,3.3171422,2.9554715
-26.756767,3.3477035,3.0031133
-26.798117,3.3466852,2.997302
-26.832932,3.340674,2.9830675
-26.881706,3.3458993,2.9879904
-26.89958,3.3263671,2.9508467
-26.938805,3.3240905,2.943108
-26.981117,3.3245285,2.940054
-27.043882,3.3424537,2.966906
-27.08377,3.341474,2.9615784
-27.124107,3.3410542,2.9572644
-27.150444,3.328504,2.9322562
-27.193752,3.3309333,2.9329176
-27.252516,3.3475897,2.9580202
-27.292011,3.347248,2.9540763
-27.323345,3.3395014,2.93748
-27.367985,3.3442645,2.942401
-27.416162,3.3527348,2.9537601
-27.47235,3.3694053,2.9792924
-27.509415,3.3679345,2.973701
-27.545551,3.3656757,2.9668016
-27.582565,3.364421,2.961679
-27.614721,3.358315,2.9482388
-27.63008,3.3346624,2.9045649
-27.62843,3.2924287,2.8288112
-27.587671,3.2069519,2.678319
-27.5531,3.125737,2.535067
-27.576721,3.1067858,2.4993825
-27.589394,3.0750587,2.4416046
-27.59079,3.0295541,2.3599606
-27.584568,2.9738584,2.260625
-27.59285,2.9336965,2.1881633
-27.60243,2.8939462,2.1163917
-27.56843,2.7995803,1.949831
-27.570843,2.7475808,1.8567066
-27.589825,2.7149987,1.7972755
-27.63114,2.7103317,1.7863564
-27.592081,2.5999434,1.5916619
-27.59122,2.5369012,1.4792018
-27.594244,2.4770265,1.3722067
-27.603052,2.4231565,1.2756286
-36.675926,1.6924603,0.2967887
-36.67441,1.7430952,0.38975477
-36.682495,1.7867765,0.4710498
-36.68023,1.8363574,0.56213236
-36.68902,1.8782451,0.6403394
-36.668793,1.93747,0.7473264
-36.677635,1.9779367,0.8230524
-36.688927,2.0163631,0.8953562
-36.730213,2.0363538,0.93709755
-36.646633,2.129995,1.1006866
-36.710964,2.135511,1.1184511
-36.63568,2.2218707,1.2696567
-36.685646,2.2351377,1.3002234
-36.646065,2.2990158,1.4140968
-36.67534,2.3233762,1.4629102
-36.72683,2.3352757,1.4913125
-36.682213,2.3997402,1.6058564
-36.676544,2.4420996,1.6840844
-36.830154,2.3987935,1.6224227
-36.640167,2.5382974,1.8590221
-36.711834,2.5383832,1.8682175
-36.77296,2.5442555,1.8869572
-36.78108,2.5774395,1.9500966
-36.83902,2.5850575,1.971818
-36.830963,2.6258605,2.0472727
-36.884083,2.6358662,2.0729709
-36.914383,2.6571674,2.116953
-36.948025,2.676741,2.1581903
-36.9391,2.716622,2.232047
-36.934624,2.753888,2.3016343
-36.97066,2.7717218,2.3401008
-36.999653,2.792789,2.3837752
-37.056335,2.8010623,2.4071188
-37.014736,2.854078,2.5016456
-37.08996,2.853911,2.5116925
-37.908524,2.52427,2.0007892
-37.204483,2.8704162,2.5588913
-37.220886,2.8966875,2.6110477
-37.267292,2.9098725,2.6426377
-37.377884,2.8958685,2.6316953
-37.41798,2.9121678,2.668436
-37.37151,2.9644816,2.7614403
-37.493526,2.9467535,2.7452254
-37.5873,2.9412746,2.748363
-37.662064,2.9439483,2.764371
-37.799038,2.9221938,2.7428298
-38.080067,2.8445868,2.6356287
-38.16601,2.8450422,2.64923
-38.34201,2.8112166,2.6105256
-38.396606,2.8248072,2.6447978
-38.500515,2.8199508,2.6510859
-38.511982,2.8500931,2.710833
-38.571976,2.8621285,2.743134
-38.67192,2.8597803,2.753859
-38.78296,2.853931,2.7595968
-38.8556,2.8623624,2.787088
-38.94509,2.8651252,2.806292
-39.010956,2.8765373,2.838644
-39.05631,2.8952444,2.8820057
-39.106537,2.91235,2.923098
-39.14713,2.932808,2.9692564
-39.248512,2.9330256,2.985745
-40.190865,2.6564744,2.597156
-40.22793,2.6817584,2.6523767
-40.23246,2.7175076,2.7228794
-40.22419,2.75708,2.7988696
-40.212627,2.7973473,2.8757653
-40.21092,2.8341866,2.9476304
-40.218292,2.8679473,3.0150232
-40.20921,2.9065008,3.0892038
-40.3112,2.91133,3.115491
-40.472843,2.8988907,3.1177511
-40.578693,2.9037108,3.1448188
-40.75172,2.8895116,3.1456661
-40.813904,2.9080436,3.1926537
-41.006386,2.8898194,3.1889782
-41.07572,2.9071407,3.2349424
-41.25713,2.8936768,3.2389846
-41.34636,2.9063773,3.279336
-41.541096,2.8909411,3.2819052
-41.615803,2.9085667,3.329731
-41.84225,2.8864686,3.3246627
-41.91145,2.9065266,3.3765607
-42.138657,2.8861966,3.3753276
-42.300003,2.8838098,3.398581
-42.416245,2.8935254,3.4382672
-42.620502,2.8819785,3.45087
-42.73315,2.8938687,3.4944692
-42.93699,2.8842578,3.5110703
-43.173836,2.8678446,3.5199294
-43.299797,2.8787196,3.5641308
-43.51103,2.870391,3.5849123
-43.728203,2.8617826,3.6062918
-43.856205,2.874403,3.654676
-44.09642,2.862608,3.6739497
-44.351177,2.8488598,3.6919913
-44.48692,2.8622036,3.7435465
-44.721294,2.8550828,3.7715535
-44.97115,2.8458896,3.7982702
-45.197468,2.8428555,3.8333344
-45.454514,2.8346586,3.8636131
-45.619987,2.8462367,3.9175472
-45.844788,2.8467827,3.9599738
-46.21753,2.8194547,3.9727983
-46.6495,2.7826538,3.9772959
-47.189117,2.7276797,3.964614
-47.6931,2.6822743,3.9650717
-48.262672,2.6274543,3.9585304
-48.956142,2.5531838,3.9352436
-49.617958,2.4882956,3.9254928
-50.306133,2.4223013,3.9185486
-51.127617,2.3369002,3.8967557
-52.08775,2.2322896,3.8615422
4.48551,0.8001337,2.7884827
4.469137,0.70760655,2.5923142
4.5133343,0.41368818,1.9876547
4.506979,0.3183155,1.7882795
4.304598,0.2551191,1.6216187
-13.112041,2.8526886,3.9669428
-14.186419,3.0031948,4.0918922
-14.448537,3.006594,4.053875
-14.636559,2.9971316,4.0022345
-14.934774,3.009969,3.9776413
-15.267029,3.0310578,3.9642682
-15.481334,3.0302873,3.9262872
-15.767907,3.0452523,3.9083443
-15.9865265,3.0477092,3.8764338
-16.71668,3.077647,3.8148136
-16.826649,3.0610538,3.7627196
-17.084557,3.0776234,3.7534413
-17.37109,3.1019702,3.7552848
-17.54264,3.1017416,3.7264447
-17.652313,3.0881114,3.6807747
-17.877768,3.1019692,3.6717315
-18.059029,3.106566,3.6513157
-18.281815,3.1220336,3.646133
-18.476322,3.1318247,3.6342015
-18.592844,3.1234517,3.5984483
-18.717659,3.1176708,3.5666466
-18.906776,3.1286964,3.5583167
-19.09274,3.1399152,3.550963
-19.292933,3.1558022,3.550765
-19.33118,3.1303294,3.4936829
-19.533518,3.1484296,3.4977293
-19.728954,3.1657882,3.501463
-19.857819,3.1661122,3.4817867
-19.946823,3.1560938,3.4478383
-20.14738,3.1775432,3.459146
-20.169777,3.1498518,3.4005885
-20.362442,3.1707082,3.4120917
-20.573208,3.1978865,3.4334116
-20.63573,3.1829295,3.3941274
-20.760406,3.1865695,3.3821974
-20.921913,3.2018793,3.3877878
-20.99844,3.192338,3.3572826
-21.154827,3.2075887,3.3636713
-21.20581,3.1910207,3.3233023
-21.403355,3.2205768,3.3518162
-21.42644,3.1959324,3.2998648
-21.610832,3.2230222,3.3256245
-21.707386,3.222687,3.3106327
-21.793474,3.219382,3.2914257
-21.919704,3.229816,3.2932987
-22.023369,3.2333643,3.2850604
-22.119997,3.235056,3.2742786
-22.233356,3.2429883,3.2733216
-22.278084,3.2276683,3.2369566
-22.412025,3.2438185,3.249185
-22.446732,3.2254603,3.208455
-22.611675,3.2539623,3.240427
-22.657156,3.2400634,3.2069564
-22.788746,3.2579372,3.2231083
-22.858875,3.2537532,3.2051444
-22.966644,3.2640302,3.210013
-23.056896,3.2682643,3.2056694
-23.074585,3.2450764,3.158358
-23.203482,3.2649906,3.179119
-23.25285,3.254461,3.1520276
-23.303112,3.2444236,3.1258192
-23.427681,3.2643917,3.1474385
-23.473,3.252966,3.1193304
-23.539783,3.250463,3.105567
-23.670223,3.274696,3.134766
-23.680134,3.2492049,3.0844994
-23.845592,3.2895243,3.1400547
-23.9076,3.2866771,3.1264706
-23.940985,3.2716796,3.0933976
-24.034468,3.283045,3.103034
-24.100813,3.2829533,3.0943131
-24.113827,3.2592704,3.047411
-24.222511,3.2787528,3.0707564
-24.305038,3.2869952,3.0760293
-24.329649,3.2688956,3.0384536
-24.422987,3.2829018,3.0534453
-24.476656,3.278736,3.038855
-24.522936,3.2712424,3.0189023
-24.608767,3.28303,3.0307508
-24.675278,3.2859197,3.0281239
-24.728577,3.282628,3.0154295
-24.77895,3.2780902,3.000774
-24.888626,3.3037412,3.0361972
-24.92937,3.2949853,3.0148044
-24.958902,3.2805142,2.9839835
-25.062342,3.3046536,3.0174265
-25.116268,3.303423,3.0088296
-25.15139,3.292381,2.9839625
-25.206629,3.2922382,2.9773536
-25.281593,3.303148,2.989338
-25.3555,3.3139856,3.001349
-25.372313,3.2933965,2.960784
-25.463953,3.3149257,2.990975
-25.518326,3.315882,2.9867501
-25.576532,3.3193326,2.9868217
-25.603664,3.304929,2.9568882
-25.692358,3.3268857,2.988377
-25.745438,3.3282707,2.9852662
-25.776508,3.3166027,2.9601536
-25.817966,3.3112721,2.9458175
-25.87339,3.3147147,2.946426
-25.934916,3.3223035,2.9541736
-25.98679,3.3241858,2.9523258
-26.004446,3.3043823,2.9136496
-26.080254,3.3221152,2.9389443
-26.125652,3.320515,2.9313989
-26.18853,3.3307345,2.9441085
-26.200657,3.3072665,2.8993392
-26.244799,3.3052673,2.8913002
-26.341425,3.3396325,2.9456162
-26.381514,3.3356044,2.9342895
-26.409418,3.3230913,2.9084554
-26.45422,3.3225722,2.9032536
-26.533731,3.3473895,2.9416857
-26.569582,3.3410378,2.9266171
-26.61334,3.3406105,2.9218006
-26.627039,3.3177927,2.8784413
-26.678062,3.3230166,2.8834686
-26.7583,3.3511035,2.9280643
-26.804832,3.3538096,2.9289284
-26.845331,3.3520195,2.922083
-26.888435,3.3524776,2.9191852
-26.906277,3.3326457,2.8811893
-26.94373,3.3286204,2.8706093
-26.998158,3.338838,2.8847957
-27.056322,3.352688,2.9053779
-27.09695,3.3521037,2.9009614
-27.134527,3.349053,2.8923087
-27.17013,3.3443792,2.880878
-27.217468,3.350238,2.8878388
-27.273266,3.3641043,2.9088259
-27.310528,3.361562,2.9012747
-27.338354,3.3503606,2.878656
-27.366846,3.33966,2.856937
-27.437902,3.369575,2.9062371
-27.48494,3.3772311,2.9167237
-27.521374,3.374855,2.909719
-27.560905,3.3756938,2.9083877
-27.60079,3.3770986,2.9080982
-27.631474,3.3692489,2.8916354
-27.630207,3.327902,2.8164382
-27.601612,3.256403,2.6882787
-27.571388,3.1810768,2.5533032
-27.591465,3.1587143,2.5113
-27.59135,3.113319,2.4288077
-27.588694,3.0637584,2.338951
-27.59942,3.0281675,2.2736416
-27.595417,2.9743419,2.1762052
-27.590384,2.917668,2.0737042
-27.556879,2.8247755,1.907311
-27.57133,2.7879398,1.8396711
-27.592846,2.7588794,1.7857409
-27.63015,2.74914,1.7659221
-27.624014,2.6828241,1.6462202
-27.599228,2.589601,1.4789257
-27.604141,2.5331497,1.3765368
-27.60263,2.4659593,1.255126
-36.670433,1.805191,0.36563826
-36.684742,1.8445423,0.44039917
-36.73235,1.8625796,0.47895193
-36.663296,1.9524763,0.6394043
-36.635174,2.0157318,0.75450706
-36.69797,2.0231285,0.774992
-36.67365,2.0825942,0.8835449
-36.70174,2.1102092,0.9382324
-36.64956,2.184278,1.0712218
-36.67144,2.2144084,1.1300669
-36.65867,2.2639306,1.2215066
-36.67246,2.2977488,1.2864933
-36.711338,2.3172045,1.3273807
-36.674225,2.378382,1.4381638
-36.683167,2.413496,1.5052199
-36.7004,2.4437156,1.5640712
-36.694138,2.4861176,1.6432233
-36.712204,2.5151315,1.700017
-36.725513,2.546329,1.7604327
-36.710617,2.5916998,1.8443546
-36.72829,2.6198494,1.8996449
-36.78917,2.6259835,1.9185033
-36.795258,2.6596034,1.9828749
-36.833344,2.6770878,2.020598
-36.90034,2.6804621,2.035139
-36.926334,2.7038639,2.0827298
-36.95488,2.725895,2.128088
-36.96081,2.7584581,2.190724
-36.97061,2.7888682,2.249804
-37.024094,2.7988398,2.2754998
-37.04885,2.822051,2.3228626
-37.614338,2.6012826,1.9735079
-37.649525,2.622214,2.0179644
-37.10241,2.8999836,2.4784942
-37.192482,2.894049,2.4787807
-37.106472,2.9646125,2.6026883
-37.15425,2.9768918,2.632462
-37.195652,2.9919667,2.6668139
-37.30279,2.9796245,2.6572833
-37.43198,2.9916286,2.6975756
-37.54317,2.9791734,2.6885395
-37.59961,2.9892642,2.7156048
-37.70659,2.979544,2.7113886
-38.107723,2.8554087,2.5265336
-38.19648,2.8552117,2.538334
-38.25039,2.8687725,2.5719962
-38.32951,2.8729296,2.591014
-38.4243,2.8715665,2.601583
-38.510216,2.8739576,2.6182528
-38.602867,2.8742776,2.6319141
-38.70815,2.8704715,2.639409
-38.823704,2.8635335,2.642336
-38.885933,2.8760812,2.675655
-38.95479,2.8865044,2.7058501
-39.02865,2.8954394,2.73393
-39.078735,2.9127889,2.775066
-39.146484,2.9242618,2.8073525
-39.171432,2.9502814,2.8619137
-40.20092,2.644086,2.4132986
-40.221817,2.6750252,2.4770455
-40.22236,2.7123966,2.5504775
-40.22574,2.74857,2.6220527
-40.20764,2.7912595,2.7033105
-40.202766,2.8294075,2.7776847
-40.206875,2.8644693,2.8474073
-40.213043,2.8986616,2.9157982
-40.251263,2.9229698,2.969615
-40.449184,2.8997245,2.953858
-40.546654,2.9071753,2.9835367
-40.701084,2.8984807,2.9900656
-40.751446,2.9205072,3.0415277
-40.966248,2.8959358,3.0260444
-41.017414,2.9184835,3.0788221
-41.224083,2.898032,3.0704198
-41.30491,2.9131796,3.113266
-41.461678,2.908084,3.1277838
-41.59784,2.9092934,3.15171
-41.791527,2.8959837,3.1558285
-41.88155,2.910714,3.1996222
-42.099644,2.8928432,3.198668
-42.181477,2.910765,3.247714
-42.414997,2.8909333,3.245473
-42.495903,2.9101539,3.2971501
-42.711662,2.8966959,3.3050232
-42.92786,2.884269,3.3151298
-43.01247,2.904307,3.3693209
-43.28135,2.8813457,3.3669624
-43.51069,2.8690023,3.3796592
-43.671165,2.8736072,3.4153948
-43.809204,2.8840415,3.459323
-44.05721,2.8706145,3.4731903
-44.28585,2.8627322,3.4951882
-44.44398,2.871285,3.5389285
-44.679695,2.8640056,3.5635304
-44.896744,2.8618546,3.5955472
-45.177635,2.8475316,3.613586
-45.34663,2.8575587,3.66256
-45.57757,2.8558803,3.6981955
-45.857414,2.8456326,3.724699
-46.117485,2.8406854,3.7588043
-46.372032,2.838111,3.7969441
-46.639244,2.8344011,3.8350286
-46.921085,2.8292928,3.8728614
-47.213745,2.823609,3.9114833
-47.535576,2.814107,3.9473848
-48.0665,2.7689164,3.945922
-48.63704,2.7195816,3.942885
