x,y,z
-29.107187,3.327808,2.7419462
-29.14995,3.3506548,2.781663
-29.17324,3.322618,2.7306929
-29.206152,3.3196688,2.724484
-29.238611,3.3153567,2.715876
-29.278992,3.3347743,2.74964
-29.310858,3.3291974,2.7388449
-29.324505,3.263759,2.621231
-29.33764,3.191051,2.4906363
-29.370903,3.1836827,2.476698
-29.406921,3.1860857,2.4802399
-29.44224,3.1861598,2.4796605
-29.525145,3.382791,2.8302207
-29.55729,3.3802564,2.8250952
-29.589901,3.3797457,2.8236184
-29.633036,3.4308295,2.9143682
-29.664434,3.427597,2.9081016
-29.696686,3.4288223,2.909831
-29.728569,3.4281847,2.9082632
-29.760305,3.4266558,2.9051337
-29.792826,3.4305656,2.9117575
-29.82461,3.4296885,2.9098558
-29.85669,3.4313297,2.9124894
-29.888165,3.427692,2.905713
-29.920387,3.4314485,2.91219
-29.952778,3.4387028,2.9249544
-29.88424,1.918756,0.20652533
-29.935112,1.920578,0.20954943
-30.041016,3.2701893,2.6231318
-30.07465,3.2640967,2.6121454
-30.108904,3.2878582,2.6545863
-30.142752,3.370758,2.802834
-30.175364,3.3629732,2.7889185
-30.208117,3.3577123,2.7795506
-30.240616,3.3637588,2.7904372
-30.273376,3.3611066,2.785798
-30.306265,3.3575628,2.7795968
-30.339138,3.3555677,2.7761974
-30.371572,3.3595095,2.7834473
-30.404339,3.3591454,2.7830281
-30.437225,3.3578918,2.7810512
-30.469973,3.3581843,2.7818708
-30.502523,3.3600228,2.7854867
-30.535322,3.359997,2.7858014
-30.568443,3.3581088,2.7828183
-30.60137,3.3577666,2.7826324
-30.634495,3.3565366,2.780892
-30.667664,3.3553941,2.7793403
-30.700567,3.3557942,2.780579
-30.73185,3.3635633,2.7950149
-30.763983,3.3670413,2.801816
-30.796644,3.368176,2.8044605
-30.828789,3.3713338,2.8107505
-30.866705,3.3532636,2.7791672
-30.89899,3.356599,2.7858434
-30.934252,3.349861,2.7745695
-30.966684,3.352885,2.780755
-30.998905,3.3564742,2.7879815
-31.030571,3.361592,2.7979665
-31.062805,3.364861,2.8046837
-31.097431,3.3614705,2.7995548
-31.128002,3.3692384,2.8143597
-31.161585,3.3689103,2.8147593
-31.19385,3.3720312,2.8213415
-31.228848,3.3685207,2.8161383
-31.25064,3.3962479,2.8666215
-31.284847,3.3943317,2.8643198
-31.317612,3.3958554,2.8681793
-31.351482,3.3950777,2.8679748
-31.37259,3.4210958,2.9154959
-31.40059,3.4318993,2.9359531
-31.43004,3.4394345,2.950625
-31.894892,2.6081302,1.473711
-31.938782,2.6088727,1.4768028
-31.98141,2.6121025,1.4843612
-32.03537,2.5951014,1.4560223
-32.04818,2.6510174,1.5572495
-32.038662,2.7427363,1.7220249
-32.04383,2.8060403,1.836307
-32.07885,2.818011,1.8594828
-32.042835,2.9432046,2.0834985
-32.050785,2.99452,2.1764188
-32.061176,3.0401628,2.259262
-32.06799,3.0895002,2.3486342
-32.04351,3.1830795,2.5163317
-32.05194,3.2256968,2.593727
-32.052795,3.2775607,2.6874661
-32.076817,3.2954807,2.7211328
-32.099083,3.31529,2.7581544
-32.11883,3.3379,2.8001375
-32.14159,3.3559148,2.8340087
-32.1518,3.3896112,2.8955827
-32.180832,3.3984714,2.9133105
-32.213013,3.4032726,2.9239058
-32.25973,3.3903172,2.9032264
-32.312904,3.3702164,2.8700194
-32.340786,3.3808267,2.890986
-32.366505,3.39377,2.9160848
-32.396324,3.401774,2.9325137
-32.43607,3.398538,2.9292026
-32.492687,3.3769174,2.8936257
-32.534588,3.3721702,2.8877792
-32.561993,3.3832815,2.909833
-32.59938,3.3836942,2.913136
-32.63424,3.3869002,2.921383
-32.696102,3.3625512,2.8813734
-32.734356,3.3629074,2.8847394
-32.776237,3.3598285,2.8821387
-32.806957,3.3679461,2.8991838
-32.829304,3.3840847,2.9302845
-32.860584,3.3914511,2.9460707
-32.899715,3.3914328,2.9489956
-32.940815,3.3897836,2.9491253
-33.014618,3.358577,2.897766
-33.056297,3.3572721,2.8986425
-33.092205,3.3613095,2.9088783
-33.117184,3.3749714,2.935905
-33.148914,3.3826373,2.952526
-33.197227,3.3761864,2.944653
-33.254974,3.3621814,2.9237366
-33.2961,3.3625047,2.9277716
-33.322166,3.3753195,2.9535189
-33.361168,3.3775625,2.9609761
-33.40924,3.3727243,2.9562287
-33.468258,3.359608,2.9372382
-33.510315,3.3601804,2.941999
-33.53,3.3780842,2.9767423
-33.571983,3.3788683,2.9819622
-33.635227,3.3639574,2.9601927
-33.69216,3.3542733,2.9475317
-33.71592,3.369208,2.9773202
-33.745705,3.3796496,2.9994025
-33.783993,3.384001,3.0110602
-33.857807,3.3635042,2.980144
-33.900475,3.3653257,2.9876132
-33.927185,3.3782542,3.014162
-33.979965,3.3734317,3.0103755
-34.03717,3.3659782,3.0021806
-34.095867,3.3579354,2.9930797
-34.130978,3.3657155,3.0110602
-34.170315,3.3708067,3.024506
-34.221436,3.3684778,3.0253859
-34.288376,3.356451,3.0098686
-34.34623,3.3505926,3.0049477
-34.369347,3.3665133,3.0370574
-34.420372,3.3652945,3.0401578
-34.50315,3.3452096,3.0114312
-34.53451,3.3564367,3.0357747
-34.55916,3.3715987,3.0667944
-34.63299,3.358029,3.0494146
-34.70659,3.3451407,3.033327
-34.748516,3.350806,3.048575
-34.773594,3.3660707,3.0800033
-34.830254,3.3636727,3.0818439
-34.911625,3.3479834,3.0615363
-34.968082,3.346447,3.0650592
-35.00949,3.3532946,3.0826864
-35.07171,3.3491824,3.082106
-35.14882,3.3375833,3.0691843
-35.18479,3.347906,3.0928621
-35.242588,3.3470383,3.0980206
-35.32189,3.3355122,3.085627
-35.38152,3.3344142,3.0906577
-35.431915,3.3382094,3.103888
-35.48814,3.3393276,3.1127958
-35.579468,3.3236096,3.0940924
-35.6016,3.341841,3.1313987
-35.649246,3.3478086,3.1485987
-35.6991,3.3528938,3.1644416
-35.795944,3.3362615,3.144867
-35.844555,3.3425152,3.1628723
-35.920284,3.336566,3.16109
-36.02053,3.3199933,3.1421995
-36.041294,3.3395364,3.1821637
-36.16894,3.3118093,3.1455755
-36.22347,3.3169045,3.1623654
-36.261765,3.329213,3.1909046
-36.3551,3.3180752,3.1817617
-36.438667,3.311628,3.1803808
-36.483265,3.3219266,3.2060442
-36.618465,3.2949023,3.17209
-36.645058,3.3131838,3.2108016
-36.707195,3.3170428,3.2265778
-36.807774,3.3057961,3.2184963
-36.83402,3.3245332,3.258195
-36.92535,3.3177629,3.2575955
-37.04778,3.2994716,3.239056
-37.109695,3.3050904,3.2584639
-37.237038,3.2862034,3.2395592
-37.287758,3.296774,3.2671094
-37.393635,3.2870848,3.2631454
-37.48248,3.2842262,3.2701
-37.50252,3.3067186,3.3166442
-37.65411,3.2820385,3.2901816
-37.703293,3.2945402,3.321548
-37.843227,3.2754211,3.3043637
-37.90686,3.28354,3.3293772
-38.056953,3.2623227,3.3096805
-38.1251,3.2697253,3.3340678
-38.25816,3.2556894,3.3260512
-38.315365,3.2674923,3.3575706
-38.469704,3.2477276,3.341579
-38.524445,3.2610528,3.3758435
-38.582516,3.2734756,3.4088917
-38.719612,3.2611313,3.405098
-38.78731,3.2712061,3.4350944
-38.901352,3.2672377,3.444459
-39.02266,3.2616372,3.4517694
-39.170685,3.2486174,3.4485488
-39.303223,3.2410247,3.453762
-39.391727,3.2470922,3.47933
-39.52297,3.2411184,3.4876823
-39.61611,3.2467752,3.5132852
-39.760323,3.238346,3.5189085
-39.85099,3.2456994,3.5476332
-40.000195,3.237221,3.5540757
-40.158764,3.2269645,3.558515
-40.266075,3.2314115,3.5842743
-40.437935,3.2191122,3.5868769
-40.581062,3.215312,3.6019807
-40.67602,3.2247856,3.636044
-40.853355,3.2134714,3.6417108
-40.998024,3.2113938,3.6607332
-41.150253,3.2081409,3.67869
-41.293472,3.2078836,3.7012892
-41.459057,3.2028642,3.71801
-41.657352,3.190794,3.7259269
-41.826294,3.186756,3.7453299
-42.03926,3.1732237,3.7528567
-42.164856,3.181073,3.7893276
-42.379375,3.1691523,3.8005319
-42.538925,3.1707573,3.830134
-42.723976,3.1674604,3.8541083
-42.936565,3.1590447,3.872357
-43.13246,3.1553335,3.8974721
-43.31533,3.1553893,3.92816
-43.50592,3.1547194,3.9587572
-43.73751,3.146481,3.9809113
-44.031258,3.126707,3.990095
-44.42468,3.0883768,3.978311
-44.774036,3.0609245,3.981407
-45.16518,3.0271428,3.9787455
-45.556107,2.995489,3.9805121
17.586908,0.53309107,3.8697128
17.965994,0.36225057,3.570486
17.561049,0.28249717,3.334216
3.5470104,0.2929256,1.06429
3.4584904,0.21285701,0.8840475
-11.41806,2.2734373,2.7853656
-11.928568,2.320345,2.8020916
-12.334431,2.3487656,2.797296
-12.645695,2.3598485,2.77177
-12.9669075,2.3746142,2.7523546
-14.631005,2.5817668,2.9196548
-14.982101,2.612021,2.927691
-15.234135,2.6219642,2.9095707
-15.2916155,2.5889812,2.8338003
-15.4584875,2.5813115,2.7929883
-15.774842,2.609342,2.802164
-16.080194,2.6364949,2.8113089
-16.355173,2.6580317,2.8137274
-16.656216,2.6873903,2.8281665
-16.927906,2.7111862,2.835824
-17.13099,2.719356,2.8222022
-17.355637,2.734029,2.818594
-17.555115,2.7434623,2.8082237
-17.634062,2.722697,2.7548566
-17.631563,2.6808116,2.6710238
-17.66775,2.6489265,2.6017218
-17.650265,2.602567,2.5112529
-15.054265,1.8531163,1.384603
-15.090817,1.8121524,1.2973199
-17.590872,2.4591644,2.232688
-17.58548,2.4145865,2.144381
-17.592384,2.3731909,2.060758
-17.597301,2.330961,1.9758387
-17.586132,2.283737,1.8833251
-17.580166,2.2376595,1.7924466
-17.722387,2.235706,1.7686276
-17.743725,2.1977112,1.690165
-17.770895,2.1613283,1.6141753
-17.77171,2.1166017,1.5253758
-17.790585,2.0772195,1.444756
-17.767838,2.0243678,1.3432779
-17.764076,1.9771016,1.2503333
-17.824493,1.9503524,1.1892705
-17.780327,1.8892062,1.0745769
-17.758543,1.8348038,0.9702468
-17.73689,1.7798867,0.86496973
-17.751656,1.7368245,0.7782459
-17.740255,1.6844392,0.6767559
-17.764101,1.643848,0.59385633
-17.776945,1.5991352,0.50440454
-28.884254,3.3256466,2.6733828
-28.92007,3.3276312,2.6758127
-28.956661,3.3316054,2.6818752
-28.991451,3.3318949,2.6813107
-28.930021,3.0158682,2.1074843
-28.978765,3.0412736,2.1523495
-29.161573,3.3261697,2.6660028
-29.19449,3.3222437,2.658002
-29.227482,3.3184013,2.6501813
-29.26342,3.3232305,2.6580973
-29.297672,3.3233829,2.657576
-29.327316,3.30881,2.6304069
-28.96561,1.9718492,0.20694447
-29.395136,3.1797593,2.3943686
-29.427368,3.1658819,2.3685384
-29.556717,3.4138224,2.8168802
-29.62701,3.437845,2.859429
-29.66149,3.44904,2.879274
-29.69402,3.451192,2.8827477
-29.726318,3.452467,2.8846602
-29.758423,3.4528635,2.8850088
-29.790506,3.4533422,2.8855367
-29.822567,3.4539046,2.8862443
-29.8546,3.45455,2.8871331
-29.88651,3.4543135,2.8864503
-29.918285,3.452713,2.8833208
-29.950283,3.4536052,2.8847437
-29.884384,1.9782493,0.20668554
-29.93497,1.9776316,0.20534611
-30.040907,3.3298955,2.6597753
-30.072075,3.2490838,2.5130014
-30.106783,3.2643683,2.540691
-30.141357,3.3699727,2.7323642
-30.174452,3.3535874,2.7026286
-30.20758,3.354175,2.703733
-30.240595,3.3577428,2.7102761
-30.27405,3.3502998,2.6968627
-30.307579,3.3448732,2.6871405
-30.34079,3.3458033,2.6889868
-30.374107,3.3453715,2.6883917
-30.407297,3.3464723,2.6906085
-30.44041,3.3481402,2.6938834
-30.473608,3.3489292,2.6955943
-30.50574,3.3575091,2.7114725
-30.540255,3.348837,2.696076
-30.573906,3.346995,2.6931043
-30.607529,3.3457222,2.691195
-30.640745,3.3469408,2.6938376
-30.673462,3.3506472,2.7010221
-30.707428,3.3481927,2.697063
-30.73865,3.3583086,2.71593
-30.771578,3.360343,2.7201715
-30.803144,3.3677363,2.7341576
-30.837456,3.3641865,2.728335
-30.874132,3.3525896,2.7079582
-30.906956,3.3554502,2.7138195
-30.9419,3.3512228,2.7068677
-30.976519,3.3485234,2.7027183
-31.007614,3.3568945,2.718655
-31.04423,3.3486493,2.7045245
-31.077356,3.3509898,2.709599
-31.108345,3.3591278,2.7252002
-31.143501,3.355926,2.7203016
-31.176895,3.3575718,2.7242103
-31.210659,3.3583543,2.7265882
-31.245626,3.3563817,2.7240143
-31.258097,3.406598,2.8158612
-31.298897,3.3905656,2.7879124
-31.329708,3.3973393,2.801237
-31.357033,3.4112673,2.827518
-31.399618,3.3932,2.7960086
-31.415892,3.4289348,2.8617368
-31.872618,2.6038456,1.3728642
-31.895798,2.6449487,1.4487
-31.939232,2.6466756,1.4534664
-31.98241,2.648986,1.4593277
-32.036804,2.709039,1.5711408
-32.040268,2.7773368,1.6960616
-32.07312,2.7943475,1.7285161
-32.067837,2.8722987,1.8707895
-32.044174,2.9760983,2.0595727
-32.054237,3.0236273,2.146957
-32.08823,3.0331929,2.1659927
-32.05193,3.1467001,2.3720775
-32.05694,3.195871,2.4623399
-32.06464,3.2394547,2.542532
-32.081825,3.2682948,2.5962062
-32.10034,3.294384,2.6449385
-32.12064,3.317279,2.6879373
-32.142494,3.337452,2.7260556
-32.16178,3.3603847,2.7691364
-32.177326,3.387424,2.8195882
-32.20751,3.3953984,2.8358564
-32.271503,3.361781,2.7776132
-32.304916,3.3663707,2.7879057
-32.340553,3.368343,2.7935438
-32.374653,3.3722148,2.802619
-32.408714,3.3761775,2.811893
-32.447105,3.375305,2.8125548
-32.49807,3.3606915,2.7887044
-32.542923,3.3533914,2.7779856
-32.56939,3.3662553,2.8033218
-32.605667,3.3685207,2.8097668
-32.639828,3.373103,2.820382
-32.699783,3.3512828,2.7839723
-32.74508,3.3451047,2.775515
-32.78795,3.3417118,2.7720757
-32.810844,3.3581724,2.804019
-32.837925,3.3702962,2.8282619
-32.877144,3.3707078,2.831708
-32.917816,3.369934,2.833096
-32.958576,3.369286,2.834756
-33.015083,3.3545005,2.8113837
-33.058117,3.3524225,2.8106246
-33.097878,3.3534906,2.815496
-33.129845,3.3615363,2.8327699
-33.168133,3.3641086,2.8403902
-33.215958,3.358701,2.8339443
-33.273613,3.345387,2.8135924
-33.311726,3.3487988,2.822863
-33.344666,3.3565438,2.8398252
-33.38585,3.3576422,2.8451028
-33.440796,3.3479667,2.8314466
-33.484886,3.3472686,2.8336802
-33.52263,3.3517141,2.8450212
-33.54786,3.365821,2.873394
-33.582146,3.3729389,2.8895078
-33.66501,3.3438559,2.8421183
-33.699562,3.3512864,2.8589106
-33.733463,3.3592207,2.8766246
-33.75362,3.3770416,2.911686
-33.806103,3.371704,2.9062438
-33.86575,3.3616924,2.8927116
-33.91057,3.3624015,2.897996
-33.946648,3.3692915,2.9141269
-34.00222,3.363063,2.9074345
-34.047874,3.3638241,2.913001
-34.106873,3.3559911,2.9036813
-34.146107,3.3614483,2.9175568
-34.201843,3.356375,2.9131985
-34.254105,3.353864,2.9133735
-34.315235,3.3460612,2.9044604
-34.362865,3.347065,2.910893
-34.40426,3.352111,2.9243894
-34.452637,3.3530378,2.9308262
-34.511993,3.3475897,2.9263368
-34.55028,3.355009,2.9441261
-34.591095,3.3610172,2.9595366
-34.661354,3.3500636,2.9458342
-34.707577,3.3533792,2.95677
-34.763794,3.3512056,2.9583583
-34.79677,3.362353,2.9828687
-34.857864,3.357925,2.9807606
-34.934772,3.345192,2.9645624
-34.990265,3.3445969,2.9692326
-35.052074,3.3408966,2.9687028
-35.098186,3.3458495,2.9830189
-35.156124,3.344768,2.9871445
-35.23311,3.334119,2.9751258
-35.255527,3.3519099,3.011485
-35.3889,3.31341,2.9525332
-35.397842,3.338336,3.0011272
-35.476597,3.3284264,2.9908814
-35.52469,3.3340309,3.0069494
-35.59817,3.327503,3.0026736
-35.636173,3.338399,3.0278301
-35.688725,3.3424566,3.0415664
-35.793716,3.3221564,3.0145822
-35.818413,3.3397949,3.051292
-35.890587,3.3355958,3.0515547
-35.973495,3.3269281,3.0445123
-36.03713,3.3273969,3.0528507
-36.065243,3.3439105,3.0879745
-36.215836,3.306687,3.0340037
-36.24254,3.3243084,3.0711884
-36.305164,3.326466,3.082848
-36.439087,3.298667,3.0452247
-36.45245,3.322373,3.0927062
-36.581875,3.2977536,3.0607843
-36.648388,3.2998219,3.0729327
-36.688953,3.3127193,3.10294
-36.77694,3.3066537,3.1020503
-36.86043,3.302859,3.1050625
-36.900936,3.3163745,3.1364098
-37.028107,3.29632,3.1133637
-37.08482,3.3041172,3.1357179
-37.171516,3.300735,3.1401353
-37.280434,3.289463,3.1320457
-37.352123,3.2926428,3.1474543
-37.476482,3.2768106,3.1325407
-37.511414,3.294181,3.1710544
-37.630615,3.2813225,3.161397
-37.691196,3.2899594,3.1862526
-37.768444,3.2929668,3.2023106
-37.88939,3.2811656,3.1951156
-37.99897,3.2739513,3.1954818
-38.110565,3.2666495,3.1959982
-38.233513,3.256146,3.1917872
-38.320236,3.2583315,3.207766
-38.387413,3.2673264,3.23459
-38.53005,3.2521386,3.223969
-38.55953,3.273988,3.271173
-38.732994,3.250253,3.2479806
-38.77621,3.2682815,3.2896233
-38.90186,3.260904,3.2923613
-38.994656,3.2642307,3.3118348
-39.14975,3.2491813,3.3035579
-39.266666,3.2463896,3.314364
-39.378517,3.245682,3.328668
-39.509136,3.2400615,3.3358955
-39.600994,3.246274,3.3612866
-39.7374,3.2402267,3.36861
-39.83124,3.246844,3.3952188
-39.96632,3.2424357,3.405756
-40.118732,3.2339692,3.41073
-40.236355,3.235723,3.431221
-40.402912,3.2249608,3.4337716
-40.5889,3.2099557,3.4306989
-40.650875,3.2282903,3.4765816
-40.82564,3.2177799,3.481041
-40.995316,3.209487,3.4892864
-41.117695,3.2139463,3.5163255
-41.25761,3.2146375,3.5384302
-41.473206,3.1975107,3.5358658
-41.628387,3.1961236,3.5561895
-41.813393,3.1884065,3.5682383
-41.956047,3.191598,3.5961032
-42.163918,3.1803532,3.604591
-42.32557,3.1807675,3.6298418
-42.5229,3.1739278,3.645835
-42.73927,3.163861,3.658238
-42.917526,3.1632824,3.6842303
-43.1176,3.158864,3.7058153
-43.30756,3.1576166,3.7324018
-43.533615,3.1497197,3.7510428
-43.754307,3.1440926,3.7735825
-43.973377,3.1399174,3.7989297
-44.2136,3.132585,3.821178
-44.377945,3.14154,3.865117
-44.725464,3.1154459,3.8657598
-44.974224,3.110219,3.8939357
-45.198338,3.110925,3.9305472
-45.453293,3.1069794,3.9625235
17.3576,0.81631875,3.7835827
17.407263,0.6849253,3.5120087
17.26893,0.5743501,3.256135
17.20117,0.4559927,2.9948187
17.159346,0.33459353,2.7312913
17.131533,0.21138716,2.4663506
6.4565907,0.21069598,0.85946655
3.2775364,0.5232699,1.040988
3.3579655,0.41577482,0.8290577
3.585619,0.2826543,0.58568
3.4153538,0.2160387,0.42230034
-11.375929,2.4255693,2.8454962
-11.557863,2.405495,2.7778583
-11.951235,2.4273553,2.7663832
-12.435095,2.4691496,2.783095
-14.492758,2.640843,2.843141
-14.619167,2.620455,2.7835927
-14.961009,2.6476638,2.7912278
-15.312303,2.6788142,2.805688
-15.647787,2.7083316,2.8191123
-15.908048,2.7225475,2.8118868
-16.179813,2.7407951,2.811367
-17.039154,2.898015,3.0125804
-17.207596,2.896532,2.9863477
-17.377682,2.896273,2.9624557
-17.520008,2.890096,2.9304304
-17.60457,2.8703325,2.878811
-17.636383,2.8376794,2.8083272
-17.640451,2.797955,2.727365
-17.628815,2.753972,2.6399884
-17.601612,2.705606,2.545926
-16.753723,2.4408002,2.12507
-16.811583,2.4114623,2.0581722
-16.8456,2.3757813,1.98175
-17.584349,2.5326157,2.1995063
-17.592308,2.4919813,2.1167278
-17.590258,2.4483006,2.029223
-17.591595,2.405265,1.9426479
-17.49776,2.2902505,1.7242785
-14.596535,1.3923306,0.30228043
-14.647507,1.3521669,0.21535492
-17.748573,2.230756,1.5728931
-17.765057,2.1909933,1.4913788
-17.750143,2.1413217,1.3941727
-17.775803,2.1038554,1.316227
-17.764221,2.054459,1.219305
-17.840897,2.032818,1.1665902
-17.82647,1.9819243,1.0672035
-17.719408,1.9002407,0.9182844
-17.732573,1.857142,0.8311014
-17.748993,1.8148382,0.745173
-17.75856,1.7699349,0.65501785
-17.763872,1.7232373,0.5619111
-17.764156,1.6744189,0.46530342
-28.929464,3.0496495,2.0948386
-28.968699,3.0512588,2.0967617
-29.02168,3.0882442,2.1636438
-29.153906,3.3372386,2.619738
-29.180851,3.3163462,2.5805454
-29.21728,3.3209734,2.5882292
-29.256124,3.3332534,2.6099997
-29.29062,3.3333619,2.6094532
-29.319166,3.3146472,2.5743566
-29.386879,3.1835227,2.3313923
-29.425634,3.1934633,2.349031
-29.583628,3.4191983,2.7623668
-29.62732,3.4705522,2.8563313
-29.660433,3.474958,2.8640041
-29.692635,3.4751687,2.8639913
-29.724977,3.4764144,2.8659096
-29.757051,3.476316,2.8653827
-29.789461,3.4786825,2.8694177
-29.821484,3.4787505,2.8692517
-29.85338,3.477947,2.8675098
-29.88539,3.4781797,2.8677006
-29.917295,3.4775407,2.866315
-29.949402,3.4793692,2.8694968
-29.883198,2.0290196,0.20057058
-29.933767,2.029831,0.20185947
-30.071054,3.2741027,2.4913025
-30.105658,3.2787187,2.4997444
-30.140408,3.3598182,2.6489644
-30.173815,3.3617463,2.6525187
-30.207275,3.3589857,2.6474724
-30.240808,3.3563113,2.6426134
-30.274002,3.362316,2.6537542
-30.30768,3.3579042,2.6457548
-30.340948,3.3607388,2.6511168
-30.37493,3.3545933,2.6399841
-30.408129,3.358076,2.6465974
-30.441727,3.3573515,2.6454954
-30.47517,3.3581443,2.6472144
-30.508865,3.357117,2.6456132
-30.542595,3.3561764,2.6441998
-30.57628,3.3558002,2.6438532
-30.609148,3.3602703,2.6524496
-30.642902,3.3595898,2.6516013
-30.67813,3.3518643,2.6378264
-30.710808,3.3570669,2.6478539
-30.742609,3.3656762,2.6641712
-30.774778,3.3719888,2.6762924
-30.810537,3.3636749,2.6615534
-30.84311,3.3682594,2.670555
-30.876377,3.3700836,2.67451
-30.915722,3.3511624,2.6403756
-30.949924,3.3508084,2.64039
-30.985817,3.3453445,2.6310487
-31.018108,3.3513138,2.6427388
-31.04864,3.3620813,2.6632657
-31.081793,3.3649049,2.669231
-31.116821,3.362632,2.6658692
-31.150126,3.3651595,2.6713495
-31.18171,3.3720028,2.6847773
-31.213146,3.378923,2.6983724
-31.251997,3.3680944,2.6794353
-31.28521,3.3709693,2.6856685
-31.310781,3.3907776,2.7229795
-31.34456,3.391933,2.726111
-31.369646,3.4113867,2.7628098
-31.397243,3.4248223,2.788495
-31.429934,3.4276035,2.794681
-31.893234,2.6842046,1.4357376
-31.9331,2.6924493,1.4523606
-31.977716,2.69199,1.4530869
-32.0261,2.6851778,1.4422312
-32.037117,2.7427013,1.5491028
-32.048653,2.7969444,1.6499562
-32.083977,2.8101623,1.6757975
-32.04297,2.9448123,1.9235868
-32.05266,2.9947011,2.0164099
-32.075523,3.0225475,2.0689569
-32.059227,3.1080434,2.22677
-32.050774,3.1787465,2.3575177
-32.060555,3.220595,2.4355707
-32.06545,3.2678614,2.5234904
-32.08662,3.2909927,2.5673804
-32.104576,3.3177707,2.6179233
-32.125652,3.3395753,2.6594076
-32.151764,3.354178,2.6877785
-32.17334,3.3742352,2.7261
-32.201252,3.3857737,2.7489243
-32.239464,3.3843548,2.7481976
-32.288097,3.370509,2.7249107
-32.333393,3.3612986,2.7101083
-32.359207,3.3754249,2.7377605
-32.39012,3.3833685,2.754202
-32.426384,3.3851721,2.7595215
-32.464245,3.3853061,2.761847
-32.511433,3.375387,2.7459774
-32.560978,3.3634229,2.7264562
-32.58605,3.3780172,2.7551246
-32.62886,3.3737898,2.7497172
-32.680344,3.3609464,2.7287593
-32.73222,3.3482833,2.7081923
-32.770966,3.3493009,2.7124352
-32.802246,3.3578162,2.7302709
-32.831596,3.3681397,2.7514014
-32.85759,3.3815532,2.7781358
-32.90026,3.379075,2.776207
-32.942608,3.3771617,2.7753472
-32.99727,3.3642435,2.7546968
-33.04806,3.3553672,2.7414017
-33.09244,3.3526328,2.7392306
-33.11805,3.3666084,2.7671838
-33.15025,3.374701,2.7845736
-33.198685,3.368941,2.7770953
-33.252857,3.358716,2.7616587
-33.307877,3.348266,2.7458901
-33.33203,3.363536,2.7763367
-33.37243,3.3654993,2.7829423
-33.419125,3.3625984,2.78088
-33.46809,3.358196,2.7761889
-33.52311,3.3494189,2.7637339
-33.552094,3.3610106,2.7877712
-33.604218,3.355027,2.7804341
-33.64781,3.3557684,2.7851734
-33.69203,3.3562436,2.7894917
-33.738567,3.355238,2.7912254
-33.76833,3.3665245,2.8149147
-33.81154,3.3682055,2.8215346
-33.85136,3.3724356,2.8327413
-33.926445,3.352378,2.8008385
-33.954304,3.3653138,2.827633
-34.00253,3.3644085,2.8298984
-34.050278,3.3640635,2.8332214
-34.119667,3.3496933,2.8117723
-34.15093,3.3607216,2.83537
-34.2039,3.3577504,2.8342514
-34.237446,3.367431,2.8555536
-34.31469,3.3496625,2.8284588
-34.353905,3.3561575,2.8442636
-34.401848,3.3573856,2.8508415
-34.439125,3.3652892,2.8692298
-34.514507,3.3504164,2.84763
-34.558308,3.3548381,2.8600354
-34.60017,3.3605363,2.8747387
-34.647213,3.363355,2.8844519
-34.724434,3.3490934,2.864334
-34.771774,3.3523092,2.8749075
-34.813835,3.3586571,2.8910193
-34.881275,3.3510904,2.8829122
-34.964508,3.3353257,2.860632
-34.985878,3.353599,2.897746
-35.0465,3.35076,2.8981662
-35.126545,3.3379946,2.8814492
-35.195965,3.3313344,2.875464
-35.23506,3.3407516,2.897448
-35.291557,3.3413527,2.9042315
-35.38338,3.3243842,2.8807492
-35.4148,3.3382285,2.9106097
-35.478806,3.335963,2.9127436
-35.54802,3.331494,2.9111967
-35.610977,3.3304334,2.915629
-35.640713,3.3455474,2.9479294
-35.69868,3.3472965,2.9573588
-35.780968,3.3379555,2.9479103
-35.842205,3.338838,2.9560857
-35.908012,3.3379207,2.9613
-36.01055,3.320752,2.93895
-36.049854,3.3325036,2.9659958
-36.14711,3.3187308,2.9497552
-36.232704,3.3106742,2.9434042
-36.25306,3.331284,2.9857411
-36.37883,3.3067641,2.951836
-36.457573,3.3029737,2.9531693
-36.507908,3.3114665,2.9753408
-36.62432,3.292831,2.9520035
-36.663143,3.3066366,2.9833455
-36.74107,3.304699,2.9883828
-36.842873,3.2936254,2.9783082
-36.876884,3.3099263,3.014121
-36.961662,3.3064086,3.0169854
-37.062687,3.2970648,3.0103483
-37.132725,3.300134,3.024517
-37.225468,3.2949436,3.0251641
-37.284412,3.3028698,3.0476732
-37.42156,3.2821448,3.0230923
-37.493877,3.2859387,3.0391474
-37.57367,3.2873547,3.0514555
-37.674225,3.281739,3.052433
-37.757668,3.2826996,3.0643797
-37.867054,3.275013,3.0624313
-37.924984,3.2856677,3.0905433
-38.08517,3.261661,3.0626059
-38.15429,3.2693257,3.0862699
-38.301178,3.2513614,3.0687723
-38.36464,3.2617326,3.097207
-38.50214,3.2482328,3.08751
-38.56916,3.2581863,3.1156678
-38.69191,3.2506723,3.1161284
-38.750412,3.264004,3.1500454
-38.845955,3.2660172,3.1661534
-38.972855,3.258861,3.1680179
-39.09661,3.2533345,3.1727886
-39.216305,3.2496743,3.1808238
-39.35817,3.2400646,3.1798744
-39.463505,3.2419076,3.1971788
-39.564568,3.2454884,3.2174683
-39.698483,3.2401628,3.2242403
-39.757236,3.2567277,3.2651672
-39.927128,3.242508,3.2589178
-40.02069,3.2502213,3.2867594
-40.218212,3.2300937,3.2723994
-40.36064,3.2258587,3.2827897
-40.506054,3.2215624,3.2935152
-40.62192,3.225742,3.3174524
-40.793182,3.216153,3.3210878
-40.91848,3.2191942,3.344123
-41.0594,3.2189012,3.3625884
-41.2124,3.2163014,3.3780913
-41.440796,3.1959755,3.3679976
-41.62387,3.1878726,3.3765779
-41.746513,3.1951637,3.4082003
-41.91168,3.1929922,3.4265094
-42.07986,3.1909485,3.4455638
-42.30861,3.1758485,3.4464889
-42.4839,3.1740663,3.467207
-42.715378,3.1606162,3.4720225
-42.875355,3.1641297,3.501562
-43.1104,3.1521182,3.509965
-43.282036,3.1549094,3.539816
-43.526268,3.143217,3.5503206
-43.712456,3.1448689,3.580051
-43.94889,3.1371357,3.5977316
-44.19893,3.1278672,3.614274
-44.41044,3.1275542,3.643815
-44.691547,3.114646,3.6574774
-44.858784,3.1251898,3.7031984
-45.133846,3.1160069,3.7238412
-45.41405,3.1072712,3.7462363
-45.624683,3.1127977,3.7881255
17.381887,1.0864117,3.6527004
17.491995,0.9490714,3.3755975
17.254526,0.84838533,3.1285477
17.196638,0.72880054,2.8664355
17.097464,0.6138973,2.6088085
17.08352,0.48932552,2.342681
16.952303,0.37841678,2.0896082
17.041288,0.24116445,1.8112807
12.578135,0.20415068,1.1229801
9.880728,0.3488183,1.0611095
9.840712,0.2444737,0.8364296
9.2098675,0.2261436,0.7127161
7.7703648,0.33109474,0.7387643
6.4062138,0.4322579,0.7672205
3.3221378,0.71214724,0.93934536
3.580782,0.57682085,0.69110584
3.363264,0.51709676,0.53739834
3.5853634,0.38551402,0.2924614
-11.428289,2.5465949,2.8051386
-11.866806,2.5734048,2.803369
-13.798418,2.6902363,2.7942877
-14.091297,2.700768,2.7783222
-14.489007,2.7344503,2.7966914
-14.810649,2.7543674,2.796545
-15.138144,2.7772412,2.801817
-15.425642,2.7932544,2.7981615
-15.760983,2.8212473,2.8131166
-16.01921,2.8339765,2.8065896
-16.715595,2.9465456,2.9495535
-16.942951,2.9563396,2.9410515
-17.143997,2.961247,2.925919
-17.350204,2.9683955,2.9147959
-17.488064,2.9603903,2.881297
-17.585556,2.943315,2.8343625
-17.643,2.9168584,2.7733188
-17.676191,2.884536,2.70338
-17.659908,2.8397942,2.6143017
-17.667927,2.8008518,2.5341163
-16.743668,2.5222194,2.0805182
-16.827686,2.4995325,2.024249
-17.568245,2.650143,2.2402053
-17.585419,2.6123626,2.1615481
-17.602299,2.5743341,2.0824943
-17.615334,2.5350764,2.0014834
-17.582886,2.4830065,1.9000573
-17.592916,2.4423277,1.8166738
-17.529598,2.3805714,1.6994839
-17.542961,2.3401093,1.6162868
-17.752184,2.3564408,1.6246495
-17.761848,2.3151217,1.5403023
-17.762638,2.270893,1.4512038
-17.756386,2.224206,1.3580499
-17.74318,2.175003,1.2607155
-17.75923,2.134399,1.1773515
-17.82909,2.1103923,1.1211934
-17.76944,2.0455287,0.99797535
-17.7272,1.9854224,0.88238144
-17.736095,1.9411933,0.79285765
-17.743214,1.8960588,0.70179605
-17.75364,1.8516774,0.61194134
-17.767342,1.8080707,0.5233412
-17.753424,1.7547727,0.41854477
-28.947334,3.1246686,2.1522245
-28.966831,3.079377,2.0669107
-29.05401,3.201866,2.2942553
-29.138157,3.3251677,2.5232196
-29.170322,3.3170238,2.5072613
-29.205164,3.3159482,2.5045052
-29.257626,3.366281,2.597633
-29.295189,3.3757036,2.6145244
-29.317673,3.3385022,2.5444846
-29.009592,2.2097616,0.4383049
-29.029621,2.1081371,0.2478447
-29.380112,3.1886868,2.2631316
-29.415894,3.1858175,2.2571936
-29.409113,2.8504262,1.6301212
-29.279467,2.0920622,0.21398354
-29.329433,2.0884807,0.20664167
-29.663994,3.517428,2.8738022
-29.69254,3.4988172,2.8386903
-29.725288,3.5019178,2.8441386
-29.757267,3.5008678,2.8418617
-29.78926,3.4998994,2.8397622
-29.821646,3.5018399,2.8431206
-29.8538,3.5024514,2.8440208
-29.885826,3.5022023,2.84334
-29.917984,3.5034509,2.8454795
-29.949602,3.4986515,2.8363476
-29.985943,2.0885289,0.20178938
-30.040937,2.2467282,0.49721432
-30.106836,3.3177748,2.4979858
-30.141348,3.3573503,2.571898
-30.175226,3.3554838,2.5684175
-30.208908,3.3645582,2.5854025
-30.242857,3.3595626,2.5761285
-30.276777,3.3579574,2.573214
-30.310858,3.354553,2.566965
-30.344643,3.3564243,2.5705986
-30.37822,3.3602693,2.5779438
-30.41175,3.3637285,2.5845938
-30.445517,3.3644445,2.5861459
-30.479275,3.3652472,2.5878863
-30.51315,3.3651943,2.5880551
-30.547323,3.363346,2.584898
-30.581633,3.3611155,2.5810533
-30.6166,3.355682,2.5712547
-30.65136,3.3522222,2.5651693
-30.685356,3.3530846,2.5671802
-30.716991,3.3648381,2.589548
-30.749964,3.3696244,2.5989351
-30.786722,3.358542,2.5787296
-30.81245,3.3916364,2.6409965
-30.852156,3.3699536,2.6010647
-30.88594,3.371333,2.604197
-30.918877,3.3756068,2.6127553
-30.955053,3.369211,2.6014366
-30.989458,3.3689873,2.6016603
-31.028286,3.3557854,2.5777092
-31.06145,3.3599515,2.586175
-31.095036,3.362803,2.5922155
-31.12875,3.3652747,2.5975752
-31.160978,3.371553,2.6100554
-31.19719,3.367691,2.6036644
-31.22677,3.38017,2.627747
-31.26303,3.376491,2.6217518
-31.294283,3.3844874,2.6375327
-31.325151,3.3930206,2.654335
-31.35388,3.405784,2.6790342
-31.389671,3.4033842,2.67553
-31.417543,3.4172099,2.7022505
-31.448149,3.425112,2.717967
-31.883886,2.6600852,1.2960196
-31.890072,2.73252,1.4321132
-31.930592,2.7393367,1.4461851
-31.973831,2.7412202,1.451119
-32.017864,2.7418482,1.453754
-32.03407,2.7895923,1.543961
-32.059875,2.8195443,1.6011133
-32.050232,2.90547,1.7622099
-32.042465,2.984882,1.9111657
-32.050636,3.036493,2.008482
-32.080627,3.0531943,2.0410113
-32.052456,3.1553497,2.2320576
-32.05224,3.213058,2.3406115
-32.05852,3.2594147,2.4280925
-32.08467,3.276498,2.4613094
-32.10254,3.3043919,2.5145664
-32.11439,3.3394513,2.5810938
-32.13629,3.360183,2.621087
-32.15771,3.3809395,2.6611347
-32.18781,3.3901474,2.6798248
-32.223446,3.3923182,2.685522
-32.271446,3.3795161,2.6635714
-32.310604,3.377934,2.662406
-32.349487,3.3769088,2.6623082
-32.38161,3.3839252,2.6770954
-32.413616,3.3910208,2.6920547
-32.455296,3.3872356,2.686964
-32.512238,3.3669603,2.6514988
-32.549618,3.36871,2.6567092
-32.58048,3.3775313,2.6749854
-32.618637,3.3786094,2.6790218
-32.66649,3.369835,2.6649532
-32.71974,3.356036,2.6416912
-32.759197,3.3566492,2.6450028
-32.79173,3.3642569,2.6612144
-32.827232,3.368945,2.6720867
-32.857773,3.3784335,2.6918097
-32.89946,3.377332,2.6921124
-32.94309,3.3746593,2.6895733
-32.990105,3.3691564,2.6818914
-33.049072,3.3532386,2.6551666
-33.093338,3.351033,2.6536417
-33.114704,3.369151,2.6893854
-33.147823,3.3768122,2.7059965
-33.20536,3.363661,2.6845608
-33.25885,3.354471,2.6704416
-33.310154,3.3475482,2.6605291
-33.3369,3.3610954,2.6880617
-33.3726,3.3672645,2.7021441
-33.423744,3.3611865,2.693922
-33.477745,3.3532357,2.6823483
-33.52043,3.3544717,2.6875777
-33.546135,3.3688798,2.716834
-33.587696,3.3711529,2.724028
-33.64667,3.3606052,2.7079558
-33.70272,3.3526962,2.696755
-33.73085,3.3654852,2.7232099
-33.767128,3.372327,2.7388945
-33.802204,3.380069,2.7562456
-33.86333,3.36962,2.7406707
-33.923676,3.3601937,2.7270298
-33.94676,3.3766415,2.7602844
-33.982365,3.3844755,2.7779775
-34.046707,3.37322,2.76122
-34.13102,3.3493402,2.7217646
-34.155014,3.3654408,2.7545495
-34.21249,3.3599088,2.7483602
-34.25136,3.3665361,2.7641463
-34.325726,3.351015,2.7401228
-34.35426,3.3644643,2.768291
-34.411205,3.3604636,2.76514
-34.452053,3.3665283,2.7801294
-34.529522,3.350825,2.756137
-34.55783,3.364753,2.7853432
-34.605793,3.3671412,2.7939205
-34.666092,3.3626144,2.790194
-34.73573,3.353122,2.7776847
-34.776234,3.3605182,2.7954197
-34.823273,3.3643637,2.8068724
-34.908886,3.3471503,2.7808795
-34.9636,3.3474066,2.786108
-35.013042,3.3507597,2.7969189
-35.089657,3.3398576,2.782485
-35.162575,3.3314202,2.7725453
-35.178795,3.3529143,2.8157506
-35.251324,3.3452692,2.8073874
-35.336006,3.3319027,2.7890272
-35.39874,3.3301458,2.791306
-35.456715,3.3310773,2.7984238
-35.500626,3.3391862,2.8182707
-35.586555,3.327004,2.8024778
-35.61193,3.344462,2.8389134
-35.676716,3.3431208,2.8423781
-35.748207,3.338963,2.8410106
-35.81264,3.3384798,2.8461933
-35.85373,3.349029,2.8707652
-35.97446,3.3235126,2.8324332
-36.02244,3.3315244,2.852778
-36.063652,3.3426816,2.8786674
-36.194084,3.3147702,2.8367014
-36.232502,3.3277245,2.8659205
-36.293518,3.331027,2.8784633
-36.423256,3.3054419,2.8411145
-36.458694,3.3203182,2.8739357
-36.55712,3.3090851,2.8617587
-36.645134,3.3027227,2.8581595
-36.656403,3.3279781,2.9090939
-36.761856,3.3152585,2.894827
-36.85599,3.307674,2.8895679
-36.92283,3.3113267,2.9037185
-37.038937,3.2961721,2.8858714
-37.08064,3.3102512,2.918096
-37.151802,3.3132336,2.9315004
-37.26167,3.3020327,2.920951
-37.34935,3.2996962,2.9256563
-37.464043,3.28792,2.914567
-37.502552,3.304396,2.9514217
-37.64646,3.2831838,2.924831
-37.69156,3.2978344,2.9588614
-37.8207,3.2831745,2.9437852
-37.913887,3.281712,2.9510932
-38.02477,3.2746718,2.9492807
-38.118443,3.274051,2.9584126
-38.263504,3.256733,2.939982
-38.31985,3.2695596,2.971898
-38.45558,3.2566555,2.9613366
-38.529823,3.2643518,2.985105
-38.66117,3.2541533,2.9795604
-38.735634,3.2625978,3.004949
-38.82554,3.2665336,3.0231123
-38.94484,3.2618423,3.0273843
-39.10335,3.24586,3.013548
-39.168713,3.2587488,3.0470152
-39.32714,3.2442558,3.0362659
-39.413574,3.251749,3.0614328
-39.551758,3.2446318,3.0632772
-39.640167,3.252483,3.0895038
-39.77007,3.2489913,3.0977945
-39.859528,3.2574513,3.1254826
-40.014717,3.2481816,3.125208
-40.149826,3.2452064,3.135325
-40.352226,3.2248354,3.1183453
-40.439663,3.236109,3.151709
-40.59538,3.2298508,3.157824
-40.801933,3.2112541,3.145115
-40.868042,3.229662,3.1905499
-41.013756,3.228215,3.2053967
-41.214275,3.2138646,3.2007623
-41.4135,3.2009149,3.198882
-41.624195,3.1862526,3.1949873
-41.70615,3.2035034,3.2403193
-41.87711,3.2000628,3.2545242
-42.087986,3.1882,3.2565594
-42.280857,3.181586,3.2671409
-42.472237,3.1763062,3.2803326
-42.686234,3.1669562,3.2880974
-42.89878,3.1590388,3.2986856
-43.088398,3.1572015,3.3189154
-43.283882,3.1550603,3.3393373
-43.495564,3.1504853,3.3568897
-43.704742,3.1475086,3.3774815
-43.909496,3.1464953,3.4016228
-44.15883,3.1375043,3.4151225
-44.40384,3.1306596,3.4325676
-44.642582,3.1262987,3.4544072
-44.83227,3.132617,3.4920373
-45.13618,3.1181426,3.5015783
-45.41678,3.1096144,3.5204706
-45.614697,3.117755,3.5631847
17.125925,1.2437367,3.2855282
17.23334,1.1075666,3.008769
17.181387,0.98730516,2.7462368
17.135584,0.86636186,2.4832468
17.003134,0.6289072,1.9622865
12.924952,0.5102036,1.2071924
12.944654,0.27315116,0.70889854
9.683195,0.5950575,0.98891306
9.126448,0.56239676,0.8520746
7.738001,0.64914775,0.86554813
5.4091854,0.8777528,1.0633345
4.0819187,0.97282577,1.1021156
3.3488712,0.98661613,1.0422845
3.325964,0.89662457,0.8506093
3.6312008,0.75581455,0.59208584
3.418375,0.69429016,0.43753242
-11.517195,2.6671915,2.7771215
-13.2061405,2.7680235,2.788113
-13.600391,2.7934804,2.7948751
-13.846403,2.792187,2.7635198
-14.311801,2.8354812,2.7991414
-14.6611805,2.8580515,2.8053784
-14.914962,2.8630216,2.7863297
-15.228277,2.8815958,2.788619
-15.550232,2.9036515,2.7971816
-15.83505,2.9195366,2.7973375
-16.071793,2.9265587,2.7847776
-16.640234,3.0074358,2.8867168
-17.066376,3.0190456,2.8623075
-17.248903,3.0195298,2.842709
-17.458704,3.027245,2.8349648
-17.567299,3.0123029,2.7921166
-17.630287,2.9869657,2.7331018
-17.660793,2.9539566,2.6620436
-17.69633,2.9221282,2.592906
-17.699718,2.8823166,2.5110483
-17.681168,2.8367665,2.4199352
-17.680515,2.7953806,2.3354301
-16.812096,2.530221,1.8889956
-17.581882,2.6863933,2.1237264
-17.603241,2.6496625,2.0465088
-17.594028,2.604606,1.9557018
-17.590023,2.5606058,1.8665471
-17.485077,2.4885669,1.7312574
-17.542835,2.4607284,1.6684766
-17.64928,2.446683,1.6285915
-17.757517,2.4335775,1.5904894
-17.7724,2.3939786,1.5085845
-17.764458,2.347491,1.4151835
-17.755592,2.3003416,1.3206034
-17.751877,2.254329,1.2278509
-17.856525,2.240774,1.189539
-17.813744,2.1824226,1.076024
-17.731062,2.1110127,0.94031286
-17.850634,2.102145,0.9101248
-17.833628,2.0503867,0.80746317
-17.745789,1.9753306,0.665123
-17.757885,1.9317417,0.5760946
-17.769056,1.8875396,0.4859929
-28.93583,3.1282012,2.0813498
-28.983885,3.1512935,2.1241527
-29.057844,3.2407048,2.2923932
-29.134062,3.3423584,2.4838614
-29.167608,3.3374894,2.4739428
-29.202747,3.3368526,2.4720516
-29.2579,3.3939676,2.579445
-29.297808,3.4101853,2.60951
-29.325413,3.3895555,2.5698786
-28.977705,2.1453576,0.21459627
-29.029058,2.1465752,0.21608925
-29.374304,3.196017,2.2018747
-29.410902,3.1949975,2.199409
-29.453743,3.2186525,2.2436867
-29.23278,2.1486135,0.21706724
-29.333021,2.1441562,0.20740318
-29.383188,2.1421216,0.20299149
-29.69579,3.5387578,2.8478723
-29.726112,3.5287902,2.828683
-29.758183,3.5282078,2.827292
-29.790325,3.5281732,2.8269634
-29.822582,3.5291536,2.828579
-29.854578,3.5283535,2.8268437
-29.886684,3.5285676,2.827053
-29.91744,3.5148764,2.8009367
-29.838219,2.1594663,0.23244047
-29.887714,2.1517315,0.21758223
-29.937613,2.147856,0.21007061
-29.987724,2.1469078,0.20814371
-30.03798,2.1502888,0.21445417
-30.108242,3.3685741,2.5231137
-30.142372,3.3764448,2.538011
-30.176376,3.3760023,2.537179
-30.210573,3.3677135,2.521502
-30.244349,3.377246,2.5396204
-30.278473,3.3747325,2.534936
-30.312666,3.372307,2.5304422
-30.346716,3.3727686,2.5314436
-30.380632,3.374717,2.535285
-30.4146,3.37582,2.5375485
-30.448599,3.3765435,2.5391173
-30.482586,3.3773546,2.540876
-30.516693,3.3773215,2.5410585
-30.551456,3.3731856,2.5334945
-30.58556,3.3737955,2.5349436
-30.620163,3.3717024,2.5312977
-30.655466,3.3664446,2.5216818
-30.69121,3.3598866,2.5096297
-30.721712,3.3780427,2.5444078
-30.753166,3.390233,2.567906
-30.790276,3.3783722,2.545887
-30.824696,3.3782067,2.5460372
-30.857746,3.383227,2.5560312
-30.891481,3.3855524,2.5609446
-30.925455,3.3870387,2.5642953
-30.965353,3.3696601,2.5319676
-30.999842,3.3704135,2.5339837
-31.032606,3.376333,2.5457988
-31.065567,3.3814113,2.556044
-31.099266,3.384268,2.562111
-31.13362,3.385371,2.5648842
-31.168152,3.3861027,2.5669813
-31.20307,3.386007,2.5675383
-31.237053,3.3882976,2.5726323
-31.269814,3.3934267,2.583115
-31.300417,3.403214,2.6024232
-31.331432,3.4117005,2.6192946
-31.361824,3.4211729,2.6380477
-31.403833,3.4065413,2.6112952
-31.432053,3.4202836,2.6381593
-31.465357,3.4236212,2.6453958
-31.873018,2.7214794,1.3209734
-31.886795,2.7785907,1.4300156
-31.92847,2.7831075,1.4398088
-31.97241,2.78366,1.442153
-32.01718,2.782976,1.4422002
-32.036037,2.8257146,1.5241585
-32.070152,2.8418727,1.5560055
-32.025936,2.9821932,1.8218794
-32.046738,3.0153437,1.8857265
-32.07732,3.032367,1.9191937
-32.0367,3.155027,2.1516209
-32.05381,3.1885045,2.2160482
-32.043915,3.259421,2.3509445
-32.069378,3.2781284,2.3875532
-32.088913,3.3044255,2.4384527
-32.106503,3.3325062,2.4927077
-32.12576,3.3574893,2.5411406
-32.147827,3.3780665,2.5812936
-32.172882,3.3942623,2.6132216
-32.205322,3.400823,2.6270647
-32.256977,3.3837633,2.5965772
-32.29641,3.3822136,2.5952554
-32.335945,3.3807797,2.5941868
-32.362453,3.3947265,2.622003
-32.39285,3.4039357,2.6409516
-32.433502,3.4014935,2.6380787
-32.494667,3.376653,2.5932684
-32.53428,3.3762398,2.5942845
-32.563484,3.3871522,2.6165428
-32.59861,3.3916771,2.626864
-32.6428,3.386859,2.619731
-32.704826,3.36421,2.5792913
-32.752197,3.3571603,2.5680852
-32.789047,3.3609114,2.5771093
-32.81496,3.3753796,2.6061854
-32.84588,3.3848126,2.6258726
-32.88245,3.3888266,2.6354685
-32.92443,3.387889,2.6358576
-32.97293,3.3812015,2.6255636
-33.041172,3.3570871,2.582839
-33.081017,3.359131,2.5889268
-33.1076,3.372953,2.6169834
-33.143513,3.3785205,2.6296926
-33.191505,3.3738382,2.623364
-33.255898,3.3556974,2.592062
-33.29753,3.3571398,2.597228
-33.323166,3.3718338,2.627048
-33.35966,3.3775785,2.6402683
-33.417603,3.366308,2.6219497
-33.47231,3.3580933,2.6093645
-33.51112,3.3626254,2.6204658
-33.54252,3.3729205,2.6422768
-33.580147,3.378464,2.6553159
-33.63871,3.3684847,2.6396694
-33.69274,3.3623157,2.6311374
-33.726192,3.3714633,2.650971
-33.752865,3.3854551,2.6797786
-33.799946,3.3848774,2.6817122
-33.86687,3.3706775,2.6585712
-33.917206,3.368504,2.657683
-33.934998,3.3887794,2.6982021
-33.998093,3.3783042,2.6821184
-34.072067,3.3610885,2.6537137
-34.123047,3.3596218,2.6543565
-34.147465,3.3756464,2.687189
-34.2027,3.371781,2.6835246
-34.269615,3.360862,2.6669884
-34.331448,3.3536246,2.6572866
-34.350048,3.373499,2.6973186
-34.39792,3.3752868,2.7042542
-34.461426,3.3678505,2.6943765
-34.530262,3.357666,2.6795588
-34.55585,3.3734314,2.7122116
-34.618107,3.3677504,2.7057576
-34.676136,3.3648875,2.7045207
-34.756985,3.3493845,2.6803398
-34.777153,3.3685782,2.7194061
-34.83827,3.3648632,2.7168317
-34.93724,3.3407316,2.677256
-34.962486,3.357403,2.711873
-35.019573,3.3568954,2.7153616
-35.0977,3.3455276,2.6992536
-35.162674,3.3415842,2.6966944
-35.210125,3.347083,2.7112937
-35.27957,3.3414824,2.7059054
-35.364517,3.3284526,2.687214
-35.39771,3.3418958,2.7163606
-35.476948,3.3325562,2.7045236
-35.520603,3.3411183,2.724999
-35.587597,3.338505,2.7254515
-35.62269,3.3514977,2.7540035
-35.69062,3.348984,2.754799
-35.77176,3.340663,2.745297
-35.82202,3.3471003,2.7623143
-35.894188,3.3437047,2.7618332
-36.00406,3.3236773,2.7317939
-36.037743,3.3384335,2.763915
-36.140305,3.3227813,2.74196
-36.227726,3.314419,2.7331328
-36.260685,3.33008,2.767089
-36.371185,3.312644,2.7424135
-36.43142,3.3171463,2.756764
-36.491703,3.3218741,2.7716026
-36.602654,3.3059525,2.7500825
-36.648636,3.317234,2.7767086
-36.695282,3.3283546,2.8031144
-36.83058,3.3042538,2.7676845
-36.87197,3.3180726,2.7990475
-37.005177,3.2961812,2.767899
-37.068783,3.3019738,2.7854285
-37.11972,3.3128445,2.8119292
-37.24074,3.2974756,2.7927547
-37.296623,3.307093,2.8173037
-37.412,3.2950044,2.8042212
-37.481773,3.3001835,2.8213139
-37.584892,3.2936695,2.8182793
-37.707108,3.280936,2.8046904
-37.777397,3.2871628,2.8240542
-37.879803,3.282527,2.8248377
-37.976723,3.2803197,2.8299932
-38.11204,3.2655838,2.8138475
-38.19211,3.27017,2.831057
-38.26975,3.2759154,2.8503966
-38.413765,3.260255,2.833395
-38.534756,3.252891,2.830811
-38.58928,3.2674444,2.8656793
-38.72689,3.255887,2.8564262
-38.7712,3.2742426,2.8980079
-38.93079,3.2570946,2.8798194
-39.02057,3.2621574,2.8993359
-39.156113,3.2538373,2.8965917
-39.31888,3.2381525,2.8818297
-39.366768,3.257163,2.9253426
-39.526787,3.2437038,2.914897
-39.59469,3.2575629,2.950171
-39.758068,3.2446048,2.941194
-39.809338,3.2639203,2.985878
-39.95836,3.2563388,2.9863925
-40.11929,3.2463012,2.9832377
-40.265564,3.2410793,2.988358
-40.416637,3.2353432,2.993
-40.60293,3.221145,2.9842658
-40.731487,3.2229362,3.0019155
-40.82875,3.2333646,3.0338302
-41.030636,3.2177765,3.0241222
-41.201443,3.2110412,3.0291462
-41.37626,3.20421,3.034474
-41.56147,3.195767,3.0377083
-41.64676,3.2122376,3.0809393
-41.876434,3.1949034,3.071014
-42.023277,3.1981316,3.0940738
-42.265915,3.1800382,3.084159
-42.456646,3.1750336,3.0953584
-42.656967,3.1688614,3.1053014
-42.850258,3.1652744,3.1198292
-43.061516,3.158764,3.1304393
-43.250816,3.15805,3.1505594
-43.496372,3.1463966,3.1546087
-43.688175,3.1472259,3.178329
-43.89333,3.1462684,3.1999598
-44.15043,3.1358366,3.2080598
-44.371277,3.1339633,3.229745
-44.645264,3.1227787,3.238378
-44.83462,3.1293697,3.2740817
-45.163395,3.1103525,3.2729979
-45.426346,3.1053972,3.2934823
-45.591652,3.119785,3.3427753
17.425478,1.2438889,2.5922327
17.399252,1.1202672,2.3257685
17.346506,0.99926376,2.0621796
17.072786,0.90193534,1.8250456
12.255335,0.8486688,1.18781
12.92277,0.6513705,0.841836
9.236109,0.78412056,0.7252407
6.303602,1.0699596,1.0143056
6.442667,0.9505496,0.77703047
3.9053173,1.2043023,1.0410128
3.3502293,1.1890845,0.9496341
3.4807262,1.0769453,0.7272277
3.3748417,0.99877167,0.5513487
3.5775738,0.8742528,0.31084108
-11.460264,2.8263307,2.8241906
-11.657011,2.8061292,2.7613397
-12.150717,2.8384445,2.777504
-12.46711,2.842063,2.752181
-12.950428,2.8772776,2.775641
-13.247574,2.8811064,2.752902
-14.34005,2.940208,2.7637186
-14.704512,2.9638367,2.7756166
-14.940412,2.96404,2.751966
-15.303399,2.9909053,2.7708817
-15.578524,3.001861,2.7657242
-15.87826,3.0193424,2.7716904
-16.215424,3.0462697,2.793542
-16.477413,3.059053,2.7936916
-16.708252,3.0665042,2.7859793
-16.939537,3.0752566,2.7809758
-17.156506,3.0820436,2.7733908
-17.353725,3.085515,2.760971
-17.513916,3.0815444,2.7368975
-17.615427,3.0647705,2.6922364
-17.644136,3.0313187,2.6203804
-17.676981,2.998793,2.5500822
-17.706682,2.9654727,2.4785118
-17.734169,2.9315531,2.4059763
-17.6982,2.8818357,2.307145
-17.712532,2.844245,2.2284427
-16.818363,2.575381,1.7620411
-17.561737,2.722289,1.992372
-17.570429,2.6820867,1.9090166
-17.572685,2.6399517,1.8223672
-17.642876,2.6157393,1.7660613
-14.720921,1.7797501,0.33000946
-17.749813,2.5586693,1.6390729
-17.749989,2.5153985,1.5505219
-17.774479,2.4786656,1.4731202
-17.74997,2.4278016,1.3714657
-17.754997,2.3849688,1.2835288
-17.757305,2.3410416,1.1936655
-17.736275,2.289877,1.0912476
-17.847395,2.2778327,1.0565057
-17.738909,2.1995947,0.9070425
-17.929111,2.211958,0.9149108
-17.745567,2.1091454,0.7223635
-17.756847,2.065896,0.6334095
-17.770561,2.0231192,0.5452566
-17.765732,1.9740751,0.44609213
-28.924253,3.1428807,2.0232825
-28.985352,3.1959887,2.1245341
-29.033571,3.2211778,2.1722007
-29.087864,3.2637813,2.253366
-29.148397,3.32612,2.3725038
-29.183634,3.3240466,2.3678951
-29.222738,3.332997,2.3845005
-29.292871,3.4346185,2.5792832
-29.329914,3.4429548,2.5947819
-29.315716,3.2874317,2.2952323
-29.34397,3.2606514,2.243218
-29.365505,3.2078521,2.141179
-29.402412,3.2067986,2.138671
-29.184078,2.21277,0.22616482
-29.232515,2.2043927,0.20945883
-29.283363,2.2057683,0.21154451
-29.384487,2.2070813,0.21304607
-29.435158,2.2088528,0.2159915
-29.485922,2.2116764,0.22099161
-29.728968,3.3935394,2.4950366
-29.783503,3.5281947,2.7539344
-29.815914,3.5272949,2.7519832
-29.685598,2.204956,0.20664501
-29.73581,2.2056684,0.20774221
-29.785898,2.205589,0.20734596
-29.83609,2.2070212,0.20989037
-29.88662,2.2141116,0.22335911
-29.93643,2.2121165,0.21936893
-29.986225,2.2088666,0.21299505
-30.036182,2.20851,0.21222162
-30.10584,3.390188,2.4869852
-30.140018,3.368914,2.4460135
-30.174555,3.3684716,2.445167
-30.20894,3.3750327,2.4578228
-30.243626,3.3687756,2.4458256
-30.278225,3.3676775,2.4437814
-30.313118,3.3625221,2.433948
-30.348083,3.3583786,2.426085
-30.382956,3.3566291,2.4228525
-30.417643,3.3572724,2.4242463
-30.451248,3.3672123,2.4435573
-30.48591,3.3671103,2.4435596
-30.520718,3.3661776,2.4419851
-30.5552,3.3676345,2.4450326
-30.5902,3.3659623,2.442079
-30.62551,3.3630023,2.4366703
-30.660099,3.3642688,2.4394164
-30.69149,3.3807724,2.4715
-30.726454,3.379455,2.469317
-30.759623,3.3860238,2.482327
-30.79447,3.3853438,2.481412
-30.83056,3.3801754,2.4718866
-30.863892,3.385629,2.4828143
-30.905071,3.3637302,2.441162
-30.9381,3.3707414,2.4551306
-30.973286,3.3705282,2.4552288
-31.007595,3.3731441,2.4607882
-31.042488,3.374025,2.4630346
-31.07869,3.3713539,2.4584756
-31.112452,3.3756042,2.4672432
-31.150686,3.3681233,2.4534883
-31.18407,3.3734632,2.464394
-31.217344,3.3788867,2.47548
-31.250505,3.384392,2.4867444
-31.283354,3.3904314,2.4990554
-31.318335,3.3915803,2.5019932
-31.352474,3.3946261,2.5085979
-31.376135,3.419406,2.5569458
-31.414139,3.4140432,2.5474467
-31.448652,3.4159858,2.5519953
-31.896729,2.6283135,1.0415215
-31.936373,2.6413827,1.067729
-31.887987,2.8135698,1.3991494
-31.921392,2.8328514,1.4372578
-31.961077,2.8405836,1.453238
-32.000874,2.8479667,1.468574
-32.038635,2.8585653,1.4900966
-32.063442,2.889703,1.5509973
-32.046787,2.9847803,1.7343936
-32.05652,3.03535,1.8324947
-32.083813,3.0575533,1.8762646
-32.05594,3.160174,2.073999
-32.061214,3.2109683,2.1724758
-32.068325,3.2572925,2.2623816
-32.08634,3.2868664,2.3202276
-32.104603,3.3151248,2.375558
-32.128105,3.3355083,2.4158306
-32.15213,3.3546124,2.4536653
-32.17503,3.3746212,2.493238
-32.208553,3.3807392,2.506279
-32.253952,3.3721828,2.4913125
-32.304653,3.357707,2.4650817
-32.337975,3.3645854,2.4796581
-32.367115,3.3762906,2.5034685
-32.40352,3.3794503,2.5109916
-32.449806,3.371545,2.497438
-32.498684,3.36122,2.4793096
-32.54242,3.3570426,2.4729419
-32.57599,3.3640873,2.4879923
-32.602993,3.3780224,2.5161881
-32.65056,3.370368,2.5032902
-32.705864,3.3552523,2.4762325
-32.7566,3.3454,2.4592404
-32.7949,3.348353,2.4666514
-32.82673,3.357714,2.4862761
