x,y,z
-28.197021,2.1832852,3.0816216
-28.234873,2.1857705,3.07944
-28.276066,2.195211,3.0853992
-28.312819,2.196049,3.0815372
-28.350435,2.1988602,3.0800633
-28.389153,2.204277,3.081715
-28.427183,2.208554,3.0821552
-28.463432,2.2091808,3.0784678
-28.501034,2.2130415,3.0786376
-28.537199,2.2138693,3.0753856
-28.574656,2.217938,3.0760064
-28.610989,2.2195947,3.0739217
-28.643993,2.2131648,3.0625033
-28.67636,2.2049255,3.0490556
-28.701864,2.1784658,3.0143962
-28.7203,2.131838,2.9561963
-28.741638,2.0909073,2.9046717
-28.769533,2.0664508,2.8724642
-28.807026,2.0686495,2.871553
-28.845102,2.0728507,2.8730922
-28.88247,2.0752535,2.8726234
-28.920183,2.079027,2.873866
-28.957424,2.0816314,2.873835
-28.994984,2.085608,2.8755183
-29.03191,2.0877774,2.8751745
-29.068075,2.087497,2.872044
-29.104233,2.0873122,2.8691196
-29.140385,2.0872216,2.8663988
-29.181816,2.1082876,2.8887324
-29.231033,2.1633232,2.9512825
-29.267054,2.1661186,2.9522977
-29.302443,2.166452,2.9504962
-29.337816,2.1668775,2.948896
-29.37003,2.1520329,2.9293275
-29.262491,1.4206088,2.062008
-29.299654,1.3940332,2.0283594
-29.337862,1.3707464,1.9986882
-29.326178,1.0474029,1.613677
-29.371124,1.0440607,1.6076922
-29.416027,1.0401914,1.6011963
-29.462164,1.0447843,1.604846
-29.508121,1.0488555,1.607995
-29.554234,1.0549746,1.6136913
-29.599144,1.0515733,1.6082106
-29.644375,1.0508587,1.6060295
-29.689009,1.0438302,1.596467
-29.734312,1.0433464,1.5947886
-29.779669,1.0436227,1.5941262
-29.825354,1.049164,1.5998325
-29.870935,1.0548239,1.6057949
-29.916069,1.0535212,1.603601
-29.961075,1.0484715,1.5970693
-30.03959,2.17852,2.9394412
-30.073887,2.15124,2.9067912
-30.10879,2.1337059,2.8858056
-30.144072,2.1484537,2.9032736
-30.179178,2.1504157,2.905634
-30.214024,2.1659877,2.9242568
-30.249842,2.1327195,2.8849287
-30.285124,2.1323774,2.884819
-30.320272,2.135345,2.8887286
-30.355537,2.1351843,2.8890114
-30.390808,2.1351142,2.8894897
-30.426218,2.1332045,2.8878741
-30.461563,2.1326733,2.8879838
-30.496801,2.1335194,2.8898177
-30.532349,2.131241,2.8880324
-30.567171,2.1361256,2.8948379
-30.602589,2.1353152,2.8949728
-30.638351,2.1320267,2.8922586
-30.673477,2.133969,2.8958392
-30.7082,2.1385689,2.9026594
-30.743437,2.139407,2.9051065
-30.77919,2.1371284,2.9039512
-30.814768,2.1362262,2.9045177
-30.850718,2.1334934,2.9030085
-30.886845,2.1302142,2.900947
-30.923426,2.1251106,2.8968196
-30.957685,2.1316228,2.9065237
-30.98664,2.1618836,2.9443774
-31.017828,2.1800585,2.9680128
-31.05264,2.1816947,2.9721904
-31.087116,2.1846972,2.9780698
-31.119417,2.1960816,2.9939213
-24.069454,1.2566159,2.776082
-24.207722,1.3193376,2.8201747
-24.29625,1.3441839,2.8271718
-24.388983,1.3730898,2.8386526
-24.458172,1.3838027,2.8322759
-24.536314,1.4022272,2.833983
-24.590088,1.4011986,2.8163338
-24.666437,1.4190977,2.8181362
-24.814249,1.4974699,2.8819761
-24.841078,1.4751823,2.8435216
-24.896688,1.4772639,2.8301482
-24.973574,1.4979696,2.8361855
-25.038872,1.5091858,2.8327484
-25.106428,1.5228226,2.8320966
-25.181095,1.5432744,2.8388166
-25.240158,1.5503008,2.8318467
-25.30633,1.5641363,2.8322392
-25.36684,1.5732508,2.8279467
-25.436695,1.5914323,2.833445
-25.50385,1.6076574,2.8371701
-25.557812,1.6118958,2.828473
-25.619228,1.6235669,2.8278732
-25.717892,1.6718066,2.8664718
-25.818565,1.7232616,2.908957
-25.849726,1.7071171,2.8795042
-25.883944,1.6938591,2.8532243
-25.95013,1.7128904,2.8617992
-26.022593,1.738965,2.878243
-26.090199,1.7607739,2.8903737
-26.132975,1.7572188,2.8752651
-26.203215,1.7828948,2.892078
-26.261791,1.7968247,2.8963752
-26.30479,1.7943332,2.8829565
-26.342052,1.7856479,2.8628912
-26.389278,1.7880068,2.8550544
-26.431818,1.7853181,2.841823
-26.499775,1.8116918,2.8607655
-26.54914,1.8174388,2.8571897
-26.597881,1.8227646,2.8533177
-26.64995,1.8323257,2.854312
-26.699387,1.8391416,2.8524375
-26.749157,1.8467033,2.851564
-26.800201,1.8561864,2.853005
-26.850582,1.8652515,2.8541565
-26.900307,1.8738933,2.8550057
-26.951702,1.8850567,2.8588576
-27.006983,1.9017115,2.8690634
-27.058783,1.9144111,2.875012
-27.108103,1.9243171,2.877986
-27.291233,2.1151392,3.0857224
-27.319813,2.1000926,3.0611157
-27.37058,2.1155427,3.0711775
-27.423174,2.1341553,3.085012
-27.460726,2.1319835,3.0753694
-27.49995,2.132318,3.0686922
-27.550186,2.148996,3.0808005
-27.594856,2.158016,3.0843205
-27.632574,2.1569226,3.0763984
-27.688354,2.1837294,3.1005988
-27.726202,2.1834993,3.093933
-27.767853,2.189439,3.0944753
-27.808998,2.1948981,3.0945916
-27.850765,2.2016969,3.0963812
-27.891659,2.2074044,3.0970387
-27.93279,2.2138457,3.0986676
-27.971657,2.2167447,3.0963187
-28.009754,2.2185326,3.0927935
-28.049171,2.2228801,3.092351
-28.087816,2.226115,3.0907316
-28.131035,2.2380648,3.099372
-28.167484,2.237843,3.093955
-28.204882,2.2395694,3.0909138
-28.24349,2.2438688,3.0909853
-28.282005,2.2482796,3.0912967
-28.32042,2.2528014,3.0918498
-28.359333,2.258672,3.0940928
-28.397242,2.2627952,3.094398
-28.434196,2.265164,3.092749
-28.471937,2.2695,3.0935159
-28.509583,2.2739434,3.0945153
-28.54605,2.2760012,3.0928087
-28.580608,2.273794,3.0861726
-28.615454,2.2723014,3.08047
-28.649296,2.2684011,3.0720139
-28.681463,2.2602086,3.058568
-28.70482,2.2289212,3.0178704
-28.718824,2.1713376,2.9460607
-28.74308,2.138839,2.9039683
-28.77533,2.1271036,2.8865423
-28.811718,2.1267595,2.8827128
-28.84895,2.129028,2.8820806
-28.88799,2.1370661,2.8884068
-28.924656,2.1382804,2.8867211
-28.962069,2.1421154,2.8882523
-28.999588,2.146683,2.8907547
-29.03554,2.1462994,2.8874555
-29.071487,2.1460092,2.8843598
-29.108461,2.1496103,2.8859982
-29.145359,2.15331,2.8878531
-29.181856,2.1558416,2.8884077
-29.22712,2.194605,2.9323645
-29.2657,2.2081363,2.9462838
-29.299297,2.2008312,2.9353776
-29.134077,1.2727585,1.8224034
-29.21702,1.4614632,2.0459013
-29.255816,1.4444973,2.0233011
-29.291445,1.4091783,1.978795
-29.329084,1.381572,1.9436107
-29.311598,1.0255427,1.5146003
-29.356745,1.0196257,1.5054717
-29.40324,1.0221059,1.5065322
-29.450224,1.0285323,1.5124478
-29.495815,1.0255175,1.5071445
-29.542004,1.0270844,1.5074582
-29.589314,1.038979,1.5202966
-29.633205,1.0203652,1.4965906
-29.681435,1.0439928,1.5237651
-29.72665,1.0377393,1.5151405
-29.77222,1.0347941,1.5106049
-29.818056,1.0351598,1.5101638
-29.863804,1.0343657,1.5084419
-29.909595,1.0343277,1.5077438
-29.956486,1.062525,1.5411267
-30.036472,2.2150073,2.927258
-30.07104,2.2026167,2.9121122
-30.105478,2.158996,2.8594747
-30.140892,2.1953595,2.9031615
-30.175774,2.2119997,2.9232035
-30.210712,2.2063584,2.916523
-30.24597,2.192499,2.900042
-30.281061,2.1908734,2.8983684
-30.316011,2.193172,2.9015017
-30.350988,2.1942825,2.9032922
-30.386066,2.1935666,2.9029737
-30.421114,2.1935794,2.9036188
-30.456112,2.194321,2.9052267
-30.491096,2.1951525,2.9070296
-30.525877,2.1979892,2.9113283
-30.560957,2.1977236,2.9119873
-30.595894,2.198825,2.9143744
-30.63106,2.198102,2.9146585
-30.666067,2.1987457,2.9166703
-30.701347,2.1975675,2.9165835
-30.73705,2.193933,2.9136372
-30.77251,2.1923027,2.9131866
-30.807562,2.1933107,2.915989
-30.843184,2.1912289,2.915175
-30.878729,2.1898751,2.9153247
-30.915205,2.184166,2.910347
-30.951256,2.181096,2.9086246
-30.99032,2.1647885,2.8911529
-31.016525,2.2056978,2.9422293
-31.051569,2.2067015,2.9456377
-31.085812,2.2109637,2.9530296
-24.136005,1.3496099,2.8038564
-24.23367,1.3806047,2.8172417
-24.304077,1.3910801,2.8103247
-24.390877,1.4149401,2.8173113
-24.493732,1.4523118,2.8384757
-24.570402,1.4695151,2.8394942
-24.653263,1.4923146,2.8466005
-24.716976,1.5000293,2.8385348
-24.837,1.5548956,2.8794913
-24.850302,1.5215008,2.8294587
-24.917915,1.533679,2.8268385
-24.98341,1.5444946,2.8230786
-25.073017,1.5765994,2.8418922
-25.129856,1.5809207,2.831912
-25.190895,1.5892391,2.8263664
-25.245052,1.5917869,2.8149595
-25.32396,1.6169038,2.8276935
-25.408413,1.6478062,2.8469253
-25.54536,1.7279155,2.9190292
-25.588657,1.7227359,2.9005437
-25.628492,1.7143736,2.8787837
-25.662039,1.700033,2.8507147
-25.721777,1.7107515,2.8497667
-25.801907,1.74172,2.8709564
-25.85309,1.7451026,2.8625689
-25.921635,1.7659993,2.8734097
-25.979742,1.7770574,2.8738031
-26.026016,1.7765098,2.861731
-26.066238,1.7699051,2.8431783
-26.127735,1.7854569,2.8490815
-26.238464,1.8533566,2.9128537
-26.2989,1.869477,2.9199905
-26.319391,1.8431153,2.8803701
-26.349735,1.8270407,2.8521676
-26.400038,1.8327656,2.8482552
-26.451752,1.8403761,2.8466144
-26.50025,1.8447106,2.8415008
-26.55066,1.8515048,2.839301
-26.605402,1.8636596,2.8432822
-26.657932,1.8736889,2.8450718
-26.710255,1.883894,2.8472443
-26.764301,1.8965993,2.8524175
-26.815704,1.9065776,2.8547025
-26.86454,1.9138093,2.8540554
-26.915558,1.9241226,2.857067
-26.963593,1.9310901,2.8564525
-27.011017,1.9376249,2.8555036
-27.05649,1.9419572,2.8521981
-27.128653,1.9817944,2.889594
-27.296267,2.150646,3.074892
-27.321323,2.1309311,3.044846
-27.372547,2.1468244,3.0557222
-27.437073,2.181896,3.088832
-27.479944,2.187462,3.0882015
-27.519373,2.188393,3.0823584
-27.557945,2.1882446,3.075385
-27.598515,2.191197,3.0721116
-27.64618,2.2050557,3.0816011
-27.696323,2.2232723,3.0963058
-27.734486,2.2236238,3.0904164
-27.773766,2.2258904,3.0868654
-27.815243,2.2318902,3.08778
-27.855103,2.2356,3.0861487
-27.894144,2.2382169,3.0833569
-27.936357,2.2464008,3.087194
-27.977692,2.253501,3.089889
-28.01748,2.258295,3.090004
-28.05716,2.2632062,3.0903735
-28.095377,2.2657955,3.0881271
-28.13386,2.2691052,3.0868373
-28.171936,2.2719145,3.0850668
-28.210583,2.2760563,3.0849776
-28.250713,2.2833748,3.0887504
-28.290071,2.2895849,3.0913305
-28.32747,2.292223,3.089795
-28.366,2.297428,3.0914044
-28.402653,2.299047,3.088869
-28.44041,2.3032353,3.0894852
-28.476946,2.305061,3.0873966
-28.513155,2.3063695,3.0847907
-28.550135,2.309634,3.0846124
-28.58545,2.3092837,3.0802255
-28.620754,2.3090284,3.0760446
-28.653515,2.3026583,3.06465
-28.683405,2.2889097,3.044516
-28.70797,2.260916,3.0074039
-28.724537,2.2105389,2.9435277
-28.745245,2.168888,2.8901067
-28.778166,2.1590824,2.8748932
-28.814756,2.1593497,2.8718462
-28.853245,2.165342,2.8757677
-28.890985,2.1695633,2.8776646
-28.928635,2.1738887,2.879786
-28.965603,2.1764355,2.8798666
-29.002514,2.1790826,2.8801632
-29.038992,2.1805727,2.8791623
-29.075611,2.182789,2.8791285
-29.112003,2.1844738,2.8785486
-29.14802,2.1849966,2.8766594
-29.18466,2.1881328,2.8780165
-29.242126,2.2764046,2.9823318
-29.272472,2.2570977,2.9567966
-29.305029,2.2460577,2.9413252
-29.166025,1.4450326,1.9700933
-29.222876,1.513274,2.0503273
-29.253237,1.4547219,1.9771929
-29.292328,1.4366705,1.9531713
-29.328676,1.4016397,1.9086618
-29.307703,1.0263414,1.4517121
-29.355032,1.0318305,1.456358
-29.400331,1.0247817,1.4459119
-29.447283,1.028615,1.448781
-29.494324,1.033838,1.4534535
-29.541101,1.0379164,1.4568553
-29.587147,1.0364108,1.4535904
-29.633144,1.0343895,1.4498124
-29.678995,1.0305834,1.4439783
-29.72649,1.0452943,1.4607573
-29.773802,1.0613999,1.4793501
-29.900372,2.261422,2.9371486
-29.935127,2.2627292,2.9381685
-29.97004,2.267936,2.944015
-30.004778,2.271328,2.9477425
-30.004732,1.1101136,1.5353866
-30.051199,1.1612425,1.5972629
-30.100447,1.5491071,2.06876
-30.142963,2.230532,2.8973846
-30.177948,2.2248428,2.8904915
-30.21276,2.2357566,2.9038749
-30.248068,2.220086,2.8850145
-30.282991,2.223558,2.8895197
-30.31802,2.2233098,2.8895855
-30.352987,2.2244213,2.8913913
-30.387732,2.228797,2.8972502
-30.422674,2.2294526,2.8986716
-30.457815,2.22766,2.897204
-30.492933,2.2265928,2.8967037
-30.527563,2.23069,2.9025636
-30.562328,2.2329736,2.9063058
-30.597282,2.2334435,2.90793
-30.632559,2.2314699,2.9066734
-30.667788,2.2302208,2.9063845
-30.703138,2.2284298,2.9055247
-30.73853,2.2267315,2.9048653
-30.77385,2.225758,2.9051733
-30.808748,2.2274063,2.9087467
-30.844091,2.2266152,2.9094505
-30.87958,2.2252848,2.9095893
-30.915485,2.222152,2.9076352
-30.953886,2.207754,2.892139
-30.984394,2.230051,2.9211326
-31.019335,2.2316096,2.925116
-31.063562,2.1948237,2.8828492
-31.111967,2.1443253,2.8241525
-24.090008,1.4052949,2.8124356
-24.183897,1.4325311,2.8223376
-24.258451,1.4456785,2.818274
-24.360188,1.480377,2.836658
-24.444035,1.5019722,2.8420267
-24.534756,1.5296438,2.8540583
-24.605959,1.5424964,2.851132
-24.716013,1.5871468,2.881617
-24.765743,1.5837717,2.8624563
-24.825783,1.5890179,2.8525128
-24.885704,1.5944779,2.8430328
-24.953106,1.6065354,2.8407507
-25.023418,1.6215119,2.8418374
-25.0847,1.6292613,2.8355446
-25.142714,1.6345458,2.826868
-25.20307,1.6421869,2.8209333
-25.326202,1.7056687,2.8750753
-25.364529,1.6949444,2.8500462
-25.443327,1.7207148,2.8644695
-25.528814,1.7533324,2.88663
-25.574017,1.7496965,2.869866
-25.622776,1.7494864,2.8569741
-25.678503,1.7560241,2.8516083
-25.734663,1.7633059,2.8472614
-25.786077,1.7663639,2.8384957
-25.840818,1.7729144,2.8337488
-25.113956,1.0102158,1.9818912
-25.143814,0.9839711,1.9392014
-25.181295,0.965024,1.904633
-25.230057,0.9573462,1.8826575
-25.291435,0.96270657,1.87533
-26.23729,1.8903377,2.8964777
-26.321817,1.931618,2.9320927
-26.325638,1.8879273,2.8728938
-26.366913,1.8838089,2.8580418
-26.4181,1.8905957,2.855585
-26.470167,1.8986914,2.8547797
-26.520023,1.9046798,2.8517742
-26.572767,1.9142613,2.8530078
-26.62681,1.9257398,2.856577
-26.679136,1.9356802,2.8585882
-26.727833,1.9417686,2.856392
-26.78026,1.9526286,2.8598046
-26.831509,1.9625096,2.862277
-26.878763,1.9679275,2.8598118
-26.928232,1.9763978,2.8610053
-26.978912,1.9867749,2.8645544
-27.026628,1.9938235,2.86444
-27.071022,1.9969375,2.859941
-27.242395,2.1663513,3.0478306
-27.292194,2.179441,3.0554848
-27.330372,2.1774273,3.0457892
-27.395313,2.2120073,3.0787196
-27.433605,2.2108672,3.0703268
-27.428968,2.1495898,2.9919457
-27.515162,2.2160165,3.062541
-27.511541,2.154752,2.984189
-27.555147,2.1610806,2.9848843
-27.658909,2.2573707,3.0912113
-27.704563,2.2688897,3.0984197
-27.743383,2.2704084,3.0940142
-27.784449,2.2756274,3.0940785
-27.824265,2.2791731,3.0922923
-27.863247,2.2816377,3.089345
-27.902163,2.2842152,3.0866432
-27.942814,2.2899148,3.08775
-27.983694,2.296339,3.0898352
-28.023384,2.3010752,3.0900373
-28.062622,2.3053246,3.0897756
-28.101084,2.3084784,3.088323
-28.140465,2.3135612,3.0892768
-28.180061,2.3193665,3.0912042
-28.21824,2.3228579,3.0904832
-28.255703,2.3252404,3.0885444
-28.293102,2.32773,3.086834
-28.331352,2.3321552,3.0875478
-28.369202,2.33608,3.0877662
-28.40696,2.3401122,3.0882182
-28.443184,2.3411891,3.0852242
-28.480783,2.3454323,3.0861335
-28.51524,2.3430278,3.0791435
-28.55081,2.3431737,3.075314
-28.58689,2.3446455,3.073176
-28.621628,2.3431363,3.0675354
-28.654852,2.338019,3.0576239
-28.682198,2.3181674,3.0299788
-28.706745,2.2903364,2.9927306
-28.725876,2.2470782,2.9368396
-28.742794,2.195781,2.8712168
-28.781826,2.2027473,2.8762527
-28.818958,2.2048604,2.8755045
-28.857103,2.2101784,2.8787446
-28.894304,2.2131157,2.8791914
-28.931032,2.21491,2.878344
-28.968695,2.2199154,2.8814998
-29.005869,2.2237782,2.88336
-29.04222,2.2252476,2.8824005
-29.079245,2.2293096,2.8846946
-29.115664,2.2315984,2.8849196
-29.151861,2.2333596,2.8845916
-29.188173,2.2358418,2.8852372
-29.240425,2.3028681,2.9648294
-29.27572,2.304331,2.9644485
-29.086031,1.3242126,1.7637687
-29.180437,1.5528345,2.040947
-29.23588,1.6168768,2.1170316
-29.271225,1.5869699,2.0782437
-29.287802,1.4560606,1.9158058
-29.252748,1.0274041,1.3884921
-29.296286,1.0081913,1.3628235
-29.344673,1.0167446,1.3713021
-29.392506,1.0229111,1.3769732
-29.440664,1.0323489,1.3867784
-29.486523,1.02618,1.3775473
-29.53422,1.0339794,1.3855743
-29.58169,1.0412734,1.3930993
-29.629347,1.0518427,1.4047637
-29.681726,1.1135786,1.4794002
-29.72723,1.1099124,1.4738207
-29.773088,1.110146,1.4731426
-29.819927,1.1249998,1.4905438
-29.867743,1.1614182,1.5345674
-29.912563,1.1512902,1.5214906
-29.958403,1.1620932,1.5342526
-30.006172,1.2430408,1.6333709
-30.057446,1.5625992,2.0259953
-30.098866,1.5542123,2.0155096
-30.142166,2.311901,2.9471073
-30.176989,2.2608185,2.8843174
-30.211737,2.2722895,2.8985295
-30.246794,2.2636602,2.888111
-30.281767,2.2620614,2.8864202
-30.316687,2.2624447,2.8872519
-30.351564,2.2635484,2.8890538
-30.386505,2.263481,2.8894982
-30.42154,2.262242,2.888589
-30.456547,2.261724,2.88865
-30.491451,2.2625563,2.8904552
-30.526344,2.2634788,2.892455
-30.56129,2.263861,2.8938756
-30.596235,2.2643332,2.8954916
-30.631092,2.2655246,2.8980746
-30.665668,2.2686937,2.9031692
-30.700563,2.2694342,2.9053679
-30.735548,2.2696362,2.9069896
-30.770432,2.2705579,2.9095793
-30.805412,2.27094,2.911593
-30.840628,2.270157,2.9122634
-30.875988,2.2688382,2.9123654
-30.911636,2.2663572,2.9111314
-30.94707,2.2652237,2.9116359
-30.985064,2.2529047,2.8985443
-31.02022,2.2538426,2.901763
-31.06055,2.2335918,2.8791733
-31.108713,2.184061,2.8209333
-24.018368,1.4468637,2.7949038
-24.118832,1.4779265,2.8091102
-24.22689,1.5155292,2.830567
-24.327541,1.5484719,2.8476949
-24.409515,1.5679679,2.851264
-24.489134,1.5862439,2.8539205
-24.580976,1.6146562,2.867581
-24.660479,1.6341085,2.8722105
-24.733091,1.6486707,2.872014
-24.844316,1.6948354,2.9056802
-24.837555,1.6461575,2.838838
-24.903194,1.6561949,2.834608
-24.966722,1.6648927,2.829207
-25.038261,1.6806955,2.8317003
-25.104488,1.6925292,2.8302073
-25.16551,1.7003522,2.8246436
-25.278774,1.7537379,2.8687663
-25.328045,1.7525022,2.8539562
-25.388844,1.761621,2.8506227
-25.45005,1.7714965,2.8483515
-25.520622,1.7902274,2.8560386
-25.567694,1.78812,2.8410716
-25.679516,1.8458619,2.8923292
-25.75935,1.8752382,2.9127002
-24.840244,0.9640713,1.8896451
-24.897364,0.9630687,1.8741865
-24.934528,0.9430425,1.837698
-25.064049,1.0127692,1.9016547
-25.158709,1.0499506,1.9297061
-25.220484,1.0554295,1.922524
-25.25792,1.0367186,1.888308
-26.237667,1.9786084,2.9386973
-26.27418,1.9697142,2.9182577
-26.318312,1.9687374,2.906899
-26.330614,1.9342964,2.8576398
-26.370811,1.9290185,2.8415751
-26.431885,1.9463627,2.8514543
-26.478703,1.948698,2.844389
-26.526466,1.9523132,2.8389401
-26.578176,1.9606137,2.8390303
-26.633705,1.9736309,2.8447275
-26.686493,1.9839942,2.847558
-26.736614,1.9916842,2.8474789
-26.789959,2.003541,2.8523917
-26.84114,2.0132878,2.85504
-26.887373,2.0174627,2.851385
-26.93303,2.0212085,2.8473754
-26.982765,2.0302856,2.8497272
-27.030928,2.0377932,2.850409
-27.075752,2.041403,2.846683
-27.26118,2.2273128,3.056839
-27.310352,2.2396965,3.0640488
-27.35577,2.2475848,3.066135
-27.364716,2.2066038,3.0107827
-27.43798,2.2526913,3.058144
-27.496887,2.280323,3.0839748
-27.530294,2.272962,3.0685916
-27.55108,2.2474616,3.031787
-27.610003,2.27675,3.0600543
-27.67276,2.312742,3.0965009
-27.705244,2.3046463,3.0806804
-27.746023,2.309062,3.0798588
-27.786312,2.3130083,3.0785952
-27.825747,2.3158865,3.0761704
-27.865479,2.3194752,3.0747094
-27.904387,2.3219898,3.0720754
-27.945755,2.328795,3.0746994
-27.986975,2.3357258,3.0775957
-28.02699,2.3409855,3.0786023
-28.066198,2.3451653,3.078423
-28.104628,2.3482592,3.077044
-28.142977,2.351464,3.0759058
-28.181902,2.3559828,3.0764623
-28.221367,2.361822,3.078724
-28.2588,2.3641536,3.076848
-28.295237,2.3647776,3.0730033
-28.334085,2.3703458,3.0752559
-28.371912,2.3742085,3.0755439
-28.408468,2.3757517,3.073113
-28.445267,2.3780036,3.0716414
-28.482851,2.382183,3.072618
-28.518122,2.3815966,3.0678806
-28.553387,2.3811052,3.0633483
-28.588375,2.3800979,3.0582767
-28.623106,2.3785732,3.05266
-28.655813,2.3722448,3.0412498
-28.68564,2.3586485,3.0210128
-28.704777,2.3175287,2.9670935
-28.725618,2.278875,2.9162107
-28.74833,2.243314,2.8691444
-28.785225,2.2446768,2.8674774
-28.8223,2.246754,2.8667831
-28.860392,2.252012,2.8700967
-28.896704,2.2524424,2.8675642
-28.9336,2.2548206,2.8675222
-28.971025,2.2591515,2.8699803
-29.008356,2.2635846,2.8726597
-29.044481,2.2644074,2.8709788
-29.080578,2.2653258,2.869504
-29.117165,2.2681985,2.870534
-29.153349,2.2699294,2.870243
-29.196428,2.2984328,2.9031625
-29.243622,2.3456917,2.9594173
-29.277939,2.3434064,2.954463
-29.105019,1.4448969,1.8392816
-29.179598,1.5853121,2.010871
-29.241608,1.679326,2.125177
-29.280773,1.6695726,2.110961
-29.29248,1.5166411,1.9191661
-29.247562,1.0389652,1.324213
-29.291965,1.0229886,1.3022814
-29.341166,1.0345676,1.3146782
-29.388401,1.0350449,1.3134041
-29.437338,1.0475068,1.3271365
-29.485014,1.0526049,1.3318377
-29.530851,1.0440841,1.3197155
-29.5783,1.0481775,1.3233924
-29.63181,1.1099029,1.3988843
-29.683287,1.1630282,1.4638138
-29.728912,1.1612618,1.4605627
-29.774666,1.1608641,1.4591217
-29.824251,1.2162678,1.5272603
-29.868809,1.2048504,1.5123258
-29.912271,1.1672611,1.4649053
-29.958107,1.1710906,1.4691639
-30.003656,1.1681519,1.4651031
-30.057936,1.574122,1.9704351
-30.099297,1.537003,1.9240346
-30.14322,2.3414125,2.92588
-30.17769,2.345196,2.930616
-30.21231,2.3359208,2.9191704
-30.247667,2.3054514,2.881411
-30.282682,2.3007393,2.8758154
-30.317646,2.2992477,2.8743138
-30.3524,2.3022263,2.8784623
-30.387299,2.3021655,2.8789072
-30.42234,2.3003178,2.8772116
-30.457314,2.2998116,2.8772702
-30.492126,2.3012712,2.879858
-30.526978,2.3021953,2.8818607
-30.561884,2.3025844,2.8832812
-30.596712,2.3036873,2.885673
-30.631521,2.3048801,2.8882594
-30.666315,2.306162,2.891039
-30.701088,2.3075337,2.894013
-30.736338,2.3058748,2.8933043
-30.771204,2.3068025,2.895893
-30.806057,2.3078206,2.8986788
-30.841368,2.3064358,2.8985639
-30.87671,2.3051434,2.8986497
-30.912346,2.3026984,2.8973927
-30.948168,2.2997253,2.8955674
-30.983774,2.2980907,2.8954883
-31.01986,2.2946851,2.8933034
-31.05953,2.277094,2.8736467
-31.100021,2.2577553,2.8519344
-24.036274,1.511241,2.785778
-24.11551,1.5262911,2.784038
-24.250853,1.5835869,2.827127
-24.35278,1.6171458,2.8457942
-24.453432,1.6506238,2.8648515
-24.53148,1.6676786,2.8668942
-24.60788,1.6840155,2.8685074
-24.670147,1.6898599,2.8592043
-24.716595,1.6835577,2.8370872
-24.822178,1.7244649,2.866054
-24.867075,1.7175653,2.8437686
-24.94214,1.7352672,2.848341
-25.000973,1.7402058,2.8393283
-25.067255,1.7516382,2.8376327
-25.125786,1.7570124,2.8295627
-25.203466,1.77893,2.8398952
-25.375189,1.8820264,2.9400263
-25.356955,1.8231463,2.8619504
-25.393232,1.8108752,2.8353453
-24.659468,0.9040687,1.7538757
-24.701395,0.8873124,1.7203622
-24.876978,0.9964893,1.8291688
-24.922853,0.98462653,1.8017583
-24.96211,0.96634316,1.7671876
-25.186617,1.1285782,1.9380689
-26.149382,2.0231416,2.945098
-26.160986,1.9892724,2.8958921
-26.280138,2.063374,2.9703474
-26.29949,2.037454,2.9304886
-26.313381,2.0054517,2.8836412
-26.352234,1.9989691,2.8662052
-26.396431,1.9981604,2.8554358
-26.442692,1.999718,2.8475432
-26.500755,2.0142825,2.8548932
-26.55086,2.0206454,2.8529115
-26.60132,2.0277355,2.8519435
-26.656126,2.0400605,2.8572555
-26.70671,2.0480604,2.857695
-26.757118,2.0562277,2.8584995
-26.804916,2.0617275,2.856337
-26.854023,2.0690858,2.856515
-26.903913,2.0777435,2.8583813
-26.951267,2.0837126,2.8572369
-26.998014,2.0892615,2.8557448
-27.04968,2.101262,2.862043
-27.104725,2.1180296,2.8741684
-27.284134,2.2949297,3.0768466
-27.303335,2.268585,3.0383205
-27.352776,2.2815294,3.0466642
-27.429638,2.3316784,3.0996137
-27.462389,2.3235712,3.0831614
-27.494843,2.3149652,3.0661926
-27.533674,2.3151686,3.059874
-27.560143,2.2979941,3.0327773
-27.579193,2.2697701,2.992432
-27.680004,2.360342,3.0952716
-27.715136,2.3563821,3.0844326
-27.757324,2.3630862,3.0865712
-27.798979,2.369332,3.0882807
-27.8386,2.37276,3.0866985
-27.878506,2.3768952,3.0860844
-27.917574,2.379967,3.084292
-27.957647,2.384929,3.0849094
-27.998316,2.3911967,3.0872293
-28.039896,2.3993685,3.0919867
-28.0813,2.4076679,3.097022
-28.11879,2.4095418,3.0943232
-28.15455,2.40854,3.0882068
-28.192608,2.4118178,3.0874252
-28.231228,2.4164014,3.0883465
-28.269104,2.419899,3.0880423
-28.307207,2.4241054,3.0887108
-28.345821,2.4296224,3.091094
-28.382809,2.4322453,3.0900187
-28.41796,2.4313598,3.0847173
-28.453974,2.4323778,3.0818534
-28.4908,2.435305,3.08144
-28.526718,2.4365234,3.0790095
-28.56178,2.4360254,3.0745492
-28.597631,2.4374382,3.0725412
-28.631876,2.4353108,3.0662389
-28.662579,2.424775,3.0495925
-28.686,2.3960793,3.0104775
-28.704845,2.3546433,2.9555721
-28.730156,2.3278325,2.9188538
-28.75434,2.2967975,2.8769193
-28.791958,2.3005776,2.8783545
-28.83015,2.3062935,2.8822951
-28.866718,2.3078368,2.8811336
-28.902409,2.3070312,2.8771334
-28.939112,2.3093808,2.8771572
-28.976542,2.314281,2.880457
-29.013483,2.3180573,2.8824468
-29.049599,2.3194785,2.8815823
-29.086033,2.3222241,2.8824644
-29.12292,2.326912,2.8858666
-29.158867,2.328624,2.885634
-29.196224,2.3359714,2.8925495
-29.243538,2.3834639,2.9498806
-29.02956,1.3585205,1.6624193
-29.112743,1.5234694,1.8667932
-29.169462,1.5844276,1.9409232
-29.244396,1.73634,2.1294298
-29.282131,1.7204723,2.1074214
-29.305265,1.6280422,1.9892831
-29.245195,1.0754919,1.2927446
-29.284052,1.0274386,1.2302551
-29.332106,1.0296073,1.2310119
-29.378084,1.0188966,1.2156773
-29.424892,1.0126374,1.2060513
-29.472654,1.0126944,1.204484
-29.521349,1.0203137,1.2125521
-29.57018,1.0305421,1.2240233
-29.634686,1.1885362,1.4217706
-29.684912,1.231946,1.4753208
-29.731611,1.2450838,1.4908452
-29.779911,1.281934,1.5363717
-29.825825,1.2947001,1.5516543
-29.871008,1.2995136,1.5570207
-29.915537,1.2932644,1.5485415
-29.959606,1.2728429,1.5222955
-30.006752,1.3401232,1.6067529
-30.052393,1.3975878,1.6789441
-30.098635,1.6036563,1.9386649
-30.141998,2.3820474,2.9203258
-30.176437,2.3802073,2.9180264
-30.211168,2.3635452,2.8971143
-30.24597,2.3562925,2.8881502
-30.280548,2.3590682,2.8919153
-30.315302,2.356964,2.889606
-30.34975,2.3611593,2.8953218
-30.384405,2.3610961,2.8957486
-30.419294,2.3580182,2.892456
-30.453932,2.3587549,2.894053
-30.488615,2.3589594,2.8950615
-30.523104,2.3611157,2.8986073
-30.557697,2.3621187,2.900782
-30.592274,2.3632107,2.90315
-30.626999,2.3631516,2.9041505
-30.66217,2.3600845,2.9014444
-30.69703,2.3595872,2.9020567
-30.731703,2.3604183,2.9044218
-30.766472,2.3607197,2.9062023
-30.80169,2.3586373,2.905068
-30.836601,2.3585017,2.906464
-30.871645,2.3578384,2.9072795
-30.907616,2.3529432,2.902865
-30.943419,2.3493793,2.9002075
-30.978872,2.3477607,2.9000793
-31.014366,2.346236,2.9001532
-31.053576,2.3300152,2.8818903
-31.098036,2.2948189,2.8399491
-23.994732,1.5661108,2.7977772
-24.07063,1.5782053,2.7931032
-24.226389,1.6490159,2.8511863
-24.297894,1.6593964,2.8455558
-24.375946,1.6750777,2.845901
-24.464441,1.6991391,2.855587
-24.555822,1.7260904,2.868782
-24.617525,1.7310653,2.8586025
-24.690302,1.7449281,2.8583155
-24.811222,1.7969131,2.899857
-24.828518,1.7683613,2.853951
-24.892744,1.7768662,2.8486676
-24.959349,1.7876725,2.8461657
-25.018087,1.792511,2.8373475
-25.08871,1.8074307,2.8399029
-25.13896,1.8059387,2.8245296
-25.19916,1.8129771,2.8188257
-25.358734,1.9046707,2.9078417
-25.379204,1.8792527,2.8665237
-25.791084,1.9834869,2.911007
-25.853376,1.9970238,2.9149785
-25.914814,2.0102508,2.9188294
-25.973692,2.021542,2.9206905
-24.960604,1.0085213,1.746067
-25.188179,1.1721518,1.9209857
-26.151104,2.0588562,2.9315271
-26.17755,2.0398972,2.8992462
-26.280819,2.0975542,2.9558444
-26.315308,2.0871072,2.9337463
-26.319899,2.0459642,2.875988
-26.361885,2.04278,2.862464
-26.39389,2.029224,2.836934
-26.462095,2.0539527,2.8563442
-26.508121,2.055624,2.8489342
-26.559196,2.063005,2.848384
-26.617697,2.078922,2.858069
-26.668854,2.0872214,2.8589592
-26.717344,2.0928893,2.8569045
-26.76668,2.0998392,2.856524
-26.813423,2.104136,2.8531508
-26.865824,2.1153507,2.8581576
-26.914656,2.122786,2.8588295
-26.960026,2.1264148,2.8551111
-27.012737,2.139269,2.8625689
-27.051384,2.1352353,2.8499599
-27.130981,2.1826189,2.89918
-27.291428,2.3342915,3.0741029
-27.328724,2.3315678,3.0637836
-27.34762,2.3048596,3.0246344
-27.415508,2.3425272,3.0632696
-27.465979,2.3579986,3.0752983
-27.515709,2.3730662,3.0870008
-27.546774,2.3628712,3.0682077
-27.556591,2.3226416,3.0129828
-27.652466,2.4041915,3.1059365
-27.68344,2.3943298,3.087864
-27.7209,2.3938553,3.0813189
-27.759123,2.394654,3.076429
-27.799612,2.399067,3.0760665
-27.841509,2.4059427,3.078837
-27.882502,2.411775,3.0804472
-27.923729,2.4183187,3.0830493
-27.961182,2.4191084,3.078693
-28.001095,2.4241266,3.0796418
-28.039133,2.4263146,3.0772142
-28.078487,2.4309754,3.07794
-28.119091,2.4381182,3.0818405
-28.158533,2.4436057,3.083809
-28.195215,2.4444644,3.0801525
-28.231213,2.444237,3.0752454
-28.268463,2.446488,3.0735064
-28.308771,2.4548032,3.0793972
-28.34522,2.4560802,3.0766487
-28.382227,2.4586532,3.0756063
-28.419458,2.4619293,3.0755367
-28.456898,2.4659085,3.0764408
-28.492254,2.4657981,3.0723386
-28.528427,2.467584,3.070694
-28.564003,2.4682677,3.0677633
-28.598213,2.4660401,3.0612788
-28.632448,2.4639025,3.0549889
-28.663645,2.454618,3.0398235
-28.687775,2.4279006,3.0028605
-28.709234,2.3933647,2.956118
-28.726345,2.3461485,2.8934693
-28.757328,2.3328457,2.8734531
-28.792618,2.3305233,2.8673153
-28.82992,2.3337543,2.8682513
-28.868858,2.3419447,2.8755274
-28.905954,2.3453836,2.876915
-28.941954,2.3458812,2.8746839
-28.97793,2.3464751,2.8726597
-29.014454,2.348992,2.8731518
-29.052027,2.355266,2.8784804
-29.088568,2.3585927,2.880175
-29.12451,2.360185,2.879766
-29.159739,2.359428,2.8764682
-29.201115,2.3820052,2.9028
-29.241577,2.402869,2.9270706
-29.274279,2.3938417,2.913567
-29.106632,1.5318494,1.818677
-29.19913,1.7499683,2.0929785
-29.2443,1.7684371,2.114264
-29.282915,1.7569532,2.0976415
-29.305008,1.6601942,1.9728141
-29.486568,2.4095864,2.9228764
-29.28226,1.0560515,1.2014046
-29.330404,1.0581884,1.2021747
-29.376274,1.046298,1.1852221
-29.421907,1.0314445,1.1646032
-29.469175,1.026556,1.1567626
-29.516212,1.0193243,1.1460485
-29.565786,1.0325444,1.1614714
-29.635906,1.2375808,1.4211988
-29.685963,1.2800901,1.4741969
-29.73277,1.2956059,1.4929409
-29.780155,1.3223472,1.526093
-29.825768,1.3313255,1.5367317
-29.8725,1.3620174,1.57514
-29.917389,1.3681495,1.5823665
-29.965302,1.4515448,1.6881475
-30.00695,1.3856997,1.6038666
-30.054756,1.5477316,1.8100777
-30.097446,1.5419865,1.802587
-30.140848,1.822165,2.159583
-30.176403,2.4234488,2.9258986
-30.210827,2.4155362,2.915915
-30.245821,2.3922808,2.8864594
-30.280678,2.3851652,2.8776512
-30.315186,2.3886316,2.8824086
-30.349663,2.3915684,2.88657
-30.384491,2.3884244,2.883062
-30.41924,2.3872209,2.8821082
-30.453861,2.3879573,2.8837051
-30.488468,2.3887827,2.8854947
-30.523129,2.3890805,2.8866916
-30.557926,2.3882353,2.8865147
-30.592896,2.3862474,2.8849635
-30.627499,2.3874297,2.8875275
-30.661995,2.3893168,2.891068
-30.696836,2.3888311,2.8916688
-30.731493,2.3896654,2.89403
-30.766352,2.3893597,2.895022
-30.80111,2.389759,2.8969908
-30.836103,2.3890195,2.897594
-30.871367,2.387143,2.8968358
-30.905895,2.3890412,2.9009519
-30.941751,2.3848948,2.8974786
-30.977695,2.380844,2.8942122
-31.012842,2.380565,2.8958144
-31.051836,2.3650723,2.8782234
-31.093206,2.341738,2.850803
-24.016506,1.6307769,2.792047
-24.150284,1.6840396,2.83222
-24.247448,1.7121809,2.8458986
-24.332502,1.7322907,2.8513079
-24.417168,1.7527428,2.8574595
-24.50615,1.7770338,2.8681688
-24.593332,1.8006842,2.8785653
-24.65217,1.8035579,2.8665056
-24.718174,1.8121934,2.861023
-24.833138,1.8590639,2.8980956
-24.850904,1.8312173,2.8527808
-24.91114,1.8365111,2.844356
-24.969315,1.8404863,2.8346858
-25.04969,1.8626287,2.8455772
-25.113811,1.8722191,2.8427029
-25.175209,1.8799808,2.8380136
-25.278221,1.9226716,2.8730187
-25.349476,1.9398174,2.879531
-25.430832,1.9660964,2.8967028
-24.605963,1.2163632,2.0301585
-25.570827,2.0012763,2.9121938
-25.638792,2.0179527,2.919304
-25.695097,2.0248659,2.915464
-25.755966,2.0362082,2.9169254
-24.570082,0.9199872,1.6172576
-24.644123,0.9317734,1.6164527
-24.725977,0.9512906,1.6248808
-24.782265,0.94757366,1.6066017
-24.936102,1.0362904,1.6962118
-26.112558,2.1056445,2.93192
-26.15885,2.1060998,2.9221487
-26.227743,2.128872,2.9387088
-26.27976,2.1356435,2.9367151
-26.309917,2.1208508,2.909484
-26.32687,2.0925002,2.8663049
-26.371998,2.0925546,2.8567395
-26.42447,2.1004162,2.8565717
-26.468925,2.100221,2.847004
-26.531975,2.1199749,2.8613238
-26.58079,2.125066,2.858376
-26.629475,2.1303163,2.855774
-26.679533,2.1373887,2.8555088
-26.727438,2.1424046,2.8529353
-26.774723,2.1470184,2.850029
-26.824806,2.1551325,2.8514848
-26.875185,2.1639717,2.8539743
-26.923937,2.1712976,2.854794
-26.974873,2.1815908,2.8593607
-27.02139,2.1869879,2.8581538
-27.065012,2.1891487,2.8531556
-27.17776,2.277374,2.9529972
-27.29512,2.3740177,3.063559
-27.325264,2.3621833,3.0422034
-27.3411,2.3316472,2.9980502
-27.429958,2.396282,3.0704112
-27.468275,2.395616,3.0630512
-27.509539,2.3990662,3.0608487
-27.537754,2.3848722,3.0370665
-27.609516,2.4310343,3.087665
-27.646593,2.4297268,3.079989
-27.68447,2.429676,3.0739622
-27.725489,2.4343536,3.0738835
-27.766392,2.4391556,3.0740733
-27.802553,2.4371288,3.0659137
-27.84784,2.4491308,3.0752606
-27.88913,2.4554653,3.0776992
-27.929535,2.460762,3.0789633
-27.967999,2.463264,3.0768561
-28.007103,2.4670458,3.0764494
-28.046463,2.4715283,3.0770226
-28.08606,2.4767127,3.0785828
-28.124851,2.4808412,3.0789256
-28.161863,2.4821446,3.0758357
-28.199156,2.4841416,3.0737095
-28.23736,2.4880123,3.0740333
-28.27483,2.4908128,3.073113
-28.310972,2.4913561,3.0694494
-28.348003,2.4937751,3.0682397
-28.386171,2.4986691,3.0702438
-28.423338,2.501893,3.0702415
-28.459839,2.5040348,3.0689664
-28.49685,2.5074677,3.0694165
-28.530987,2.5050488,3.0625587
-28.567333,2.5074906,3.061936
-28.60388,2.5106301,3.0622878
-28.637213,2.5066996,3.0537658
-28.666004,2.492085,3.0317607
-28.688566,2.4619582,2.99011
-28.705593,2.4168713,2.92947
-28.723475,2.3717856,2.8688335
-28.759401,2.3711684,2.8648057
-28.79804,2.3778641,2.8701782
-28.834105,2.3780468,2.8673468
-28.870363,2.3789282,2.8654919
-28.907633,2.3829217,2.8676949
-28.943998,2.3846028,2.8670373
-28.979721,2.3845687,2.864274
-29.016773,2.3888626,2.8671284
-29.053352,2.3920462,2.8686528
-29.089857,2.3953288,2.8703904
-29.125416,2.39568,2.8684607
-29.162128,2.4003692,2.8721738
-29.200035,2.4100142,2.8823276
-29.247269,2.456813,2.9402237
-29.28306,2.4612222,2.9438667
-29.318321,2.463903,2.945376
-29.348812,2.4459894,2.9205208
-29.386665,2.460413,2.9372697
-29.419794,2.4536214,2.926849
-29.4551,2.4572742,2.9299278
-29.490322,2.4610207,2.933209
-29.525246,2.46364,2.9351225
-29.560831,2.4706235,2.9427323
-29.596077,2.4764802,2.9489765
-29.631657,2.4854853,2.9593558
-29.664673,2.4774745,2.9479046
-29.6976,2.467713,2.9342709
-29.731443,2.4641488,2.9286942
-29.76582,2.464952,2.9288225
-29.800419,2.468291,2.9322968
-29.834837,2.4704964,2.9343882
-29.869307,2.474015,2.9382524
-29.827345,1.3970399,1.5488491
-29.875341,1.4519899,1.6190405
-29.921917,1.5003345,1.6808267
-29.96785,1.5561533,1.7523618
-30.009108,1.4987738,1.6779804
-30.053743,1.5450246,1.7373781
-30.097239,1.5717878,1.7717366
-30.142256,2.4759502,2.9381456
-30.176176,2.4980292,2.9666505
-30.210644,2.4632213,2.9218426
-30.245527,2.4383056,2.889876
-30.280043,2.4367573,2.888133
-30.314617,2.4346864,2.8857942
-30.349129,2.4345412,2.8860173
-30.383728,2.4332604,2.8848538
-30.418306,2.4326813,2.8846736
-30.452795,2.433415,2.8862648
-30.487272,2.4342375,2.8880486
-30.521671,2.4357603,2.890812
-30.556326,2.434925,2.8906145
-30.591154,2.4329565,2.8890357
-30.625614,2.4341345,2.89159
-30.66023,2.4341793,2.8927631
-30.695042,2.433092,2.8925571
-30.72938,2.4351468,2.8964753
-30.764109,2.4348497,2.8974442
-30.798513,2.4364722,2.900961
-30.833246,2.4363534,2.902319
-30.868486,2.4338887,2.9007392
-30.904428,2.428471,2.8954487
-30.940622,2.4225416,2.8895855
-30.976372,2.419143,2.8870573
-31.010134,2.4243507,2.8956594
-31.047333,2.415669,2.886519
-31.091238,2.382198,2.845686
-24.00144,1.7095122,2.8189192
-24.126545,1.7554889,2.8520408
-24.201761,1.7673757,2.8484645
-24.280848,1.7824924,2.8487449
-24.37532,1.8092227,2.862152
-24.457079,1.8274684,2.8665972
-24.549929,1.8544528,2.8810787
-24.61013,1.8579848,2.8698692
-24.71146,1.892628,2.893618
-24.765228,1.8921976,2.8785348
-24.816998,1.8904462,2.8621588
-24.8681,1.8883653,2.8455925
-24.928259,1.8935251,2.837387
-25.003067,1.9105544,2.8428626
-25.06604,1.9187243,2.8385644
-25.130726,1.9286549,2.8365111
-25.2191,1.9582658,2.8572116
-25.364365,2.0354524,2.932847
-25.44682,2.062325,2.9512796
-24.597094,1.3077011,2.0687914
-24.5463,1.2147534,1.946929
-25.602524,2.069076,2.9229393
-24.368437,0.9574144,1.6190572
-25.71446,2.0819464,2.914681
-24.505707,0.96881723,1.6028991
-24.586433,0.98591065,1.6085153
-24.697077,1.030715,1.6469584
-25.959482,2.131183,2.928144
-24.781742,0.9976194,1.5804424
-24.81764,0.9748454,1.5399742
-24.871916,0.96919656,1.5198655
-25.16172,1.1892681,1.7679839
-26.273167,2.2108457,2.9714112
-26.311108,2.2041516,2.953753
-26.314915,2.1636226,2.8957524
-26.338268,2.1419287,2.860248
-26.382782,2.1413848,2.8501577
-26.438358,2.152378,2.8540778
-26.493689,2.163566,2.8584194
-26.542042,2.1678543,2.8546143
-26.589249,2.1712067,2.8498278
-26.640926,2.1796436,2.8513498
-26.689392,2.1849585,2.849246
-26.735733,2.188228,2.8448048
-26.78493,2.1949573,2.8447194
-26.833475,2.2012942,2.8443084
-26.886206,2.2127807,2.850346
-26.93487,2.2200007,2.8513255
-26.98289,2.2268233,2.8519664
-27.027948,2.230452,2.8488278
-27.069214,2.2297468,2.840485
-27.244019,2.3934145,3.034968
-27.320633,2.4393563,3.084787
-27.343807,2.4191818,3.0531
-27.388006,2.42555,3.0543294
-27.413801,2.4083228,3.0264106
-27.470795,2.431913,3.0492573
-27.542562,2.4761343,3.0979671
-27.58501,2.481982,3.0991158
-27.611622,2.466321,3.073545
-27.647877,2.4638345,3.064485
-27.687769,2.4665933,3.0620818
-27.72837,2.4706163,3.0613704
-27.76887,2.474762,3.0609245
-27.81003,2.480179,3.0621872
-27.8503,2.4845698,3.062274
-27.891954,2.491388,3.0655265
-27.933083,2.4977565,3.0683289
-27.970789,2.499045,3.0648313
-28.009876,2.502758,3.0644975
-28.048515,2.5060062,3.0636783
-28.086716,2.5087864,3.0623684
-28.125181,2.5122585,3.062035
-28.161541,2.5123446,3.0575051
-28.198862,2.5142837,3.0554204
-28.23807,2.519837,3.0580258
-28.27619,2.523749,3.0586467
-28.312645,2.5248399,3.0557704
-28.349977,2.5277936,3.0553617
-28.388136,2.5326176,3.057434
-28.425587,2.536374,3.0582418
-28.46149,2.5372896,3.055511
-28.499632,2.5430262,3.0590386
-28.535688,2.5447364,3.0575066
-28.571146,2.545364,3.0546727
-28.605234,2.5431263,3.0482488
-28.639345,2.5409782,3.042019
-28.666828,2.523485,3.0161457
-28.688133,2.4905968,2.970519
-28.704933,2.4452388,2.908863
-28.725698,2.407623,2.85718
-28.761599,2.4069884,2.8531833
-28.799307,2.411223,2.8555508
-28.836695,2.4149642,2.8573732
-28.873346,2.4170144,2.857102
-28.90994,2.419164,2.8570457
-28.94668,2.4220114,2.8579779
-28.98315,2.4243586,2.8583508
-29.019749,2.4274042,2.8597136
-29.056274,2.430549,2.8612895
-29.092903,2.434393,2.8638592
-29.129618,2.438937,2.867422
-29.164713,2.438165,2.8641758
-29.205816,2.4597669,2.890048
-29.242416,2.4658217,2.8958392
-29.27738,2.4659457,2.8940115
-29.312908,2.4685745,2.8955183
-29.347126,2.465864,2.8901653
-29.383377,2.4723027,2.8967881
-29.418856,2.4758172,2.8996902
-29.454134,2.4788208,2.9020095
-29.48877,2.4788916,2.9005914
-29.522522,2.4742095,2.8930607
-29.557594,2.4768806,2.8951826
-29.592024,2.4760084,2.8927674
-29.626188,2.4734063,2.888174
-29.661505,2.4787745,2.8940482
-29.696785,2.4848425,2.9009147
-29.731794,2.4897897,2.9064002
-29.766228,2.4905798,2.9065404
-29.800274,2.4878159,2.902121
-29.83553,2.4978921,2.9145336
-29.870089,2.5019875,2.9192204
-29.903828,2.4958441,2.9106174
-29.939957,2.5268521,2.950595
-29.97419,2.5330408,2.9582481
-30.008018,2.5326324,2.9573622
-30.041504,2.52137,2.942377
-30.075235,2.511408,2.9291644
-30.10928,2.5112596,2.9288425
-30.143324,2.510591,2.927917
-30.177574,2.484477,2.8938327
-30.212093,2.4724336,2.8782039
-30.246569,2.4708138,2.876264
-30.281033,2.4704986,2.8761039
-30.315388,2.4727027,2.8793116
-30.349909,2.4713488,2.8779478
-30.384457,2.4700842,2.8767786
-30.41894,2.4701233,2.8773875
-30.453478,2.4696443,2.8773966
-30.487911,2.4704683,2.8791833
-30.522266,2.471988,2.8819537
-30.556807,2.471775,2.8825412
-30.591661,2.469225,2.880156
-30.62649,2.467372,2.878759
-30.66136,2.465609,2.8775573
-30.695892,2.4663615,2.879713
-30.730316,2.4678085,2.8828502
-30.76493,2.4681332,2.884602
-30.79932,2.4697576,2.888124
-30.833805,2.4708655,2.8910503
-30.868525,2.470853,2.8925962
-30.903511,2.4697218,2.8927646
-30.938665,2.4680789,2.8923464
-30.974426,2.464114,2.8889909
-31.009834,2.462054,2.8881936
-31.047901,2.44984,2.87429
-31.090368,2.4220703,2.8402858
-24.000532,1.7617729,2.7970486
-24.11809,1.8018022,2.8247423
-24.20446,1.8211012,2.829904
-24.290443,1.8407507,2.8358254
-24.389015,1.8699849,2.85285
-24.486347,1.8991439,2.8702207
-24.570972,1.9198945,2.8785295
-24.64714,1.9350896,2.8809085
-24.709007,1.9402273,2.8721786
-24.82895,1.9891386,2.9135246
-24.83824,1.9556475,2.8612895
-24.895073,1.9579868,2.8500576
-24.968023,1.9730237,2.8536215
-25.032934,1.9823239,2.8508592
-25.09699,1.9913611,2.8480382
-25.154495,1.9955871,2.8398786
-25.208096,1.9969769,2.828628
-25.404226,2.1143944,2.952787
-25.444214,2.1063213,2.9312077
-24.58714,1.3539362,2.0376062
-24.600487,1.3155901,1.9784102
-25.619404,2.1290941,2.922504
-24.588787,1.2042141,1.8189507
-25.729893,2.1406631,2.9134536
-25.79884,2.158935,2.9240313
-24.696384,1.1405025,1.7017016
-24.7234,1.110883,1.6527648
-24.723154,1.0561569,1.5738478
-24.759417,1.0338688,1.5336733
-26.074104,2.195245,2.9146209
-24.83696,0.99319863,1.4582314
-26.169985,2.1988285,2.8989553
-26.22501,2.2077563,2.8999705
-26.317154,2.2530684,2.9452329
-26.31105,2.2032392,2.8754034
-26.350569,2.1976993,2.8593163
-26.394955,2.1971002,2.8493562
-26.452003,2.2095454,2.855451
-26.501968,2.215183,2.8534098
-26.552826,2.2220683,2.8530545
-26.602488,2.22804,2.851738
-26.65352,2.235806,2.8527822
-26.703867,2.2431986,2.8535266
-26.751043,2.247485,2.8505936
-26.80106,2.255205,2.8520474
-26.847963,2.2598016,2.8497877
-26.89619,2.2661972,2.8498993
-26.946646,2.2755044,2.8537755
-26.996416,2.2844274,2.857329
-27.043644,2.2907505,2.8577929
-27.088406,2.294454,2.855124
-27.250824,2.4416237,3.0320725
-27.315205,2.472072,3.0634456
-27.370497,2.4921641,3.0820465
-27.411278,2.494567,3.0785952
-27.453285,2.498774,3.0775275
-27.499907,2.5092843,3.0845227
-27.539503,2.5109518,3.0804958
-27.576942,2.5099201,3.073164
-27.616438,2.511817,3.0696359
-27.656273,2.5143976,3.0670795
-27.698042,2.5199301,3.0683756
-27.74166,2.5284293,3.0735579
-27.781166,2.5313807,3.071805
-27.819813,2.5333104,3.0688562
-27.859917,2.5376353,3.0690641
-27.898783,2.5403666,3.0673437
-27.940155,2.5472193,3.070994
-27.980274,2.552479,3.0727177
-28.017754,2.553839,3.069552
-28.056591,2.5576065,3.06957
-28.094633,2.5603364,3.068356
-28.132256,2.5625992,3.0666404
-28.170143,2.5655484,3.0659013
-28.208609,2.5697637,3.0668898
-28.247616,2.575251,3.0696177
-28.285534,2.5791123,3.0703473
-28.322412,2.581339,3.0690613
-28.359531,2.5842528,3.0687551
-28.396269,2.5866888,3.067924
-28.432636,2.5886443,3.0665593
-28.469236,2.5912862,3.0661745
-28.50519,2.5928612,3.0644946
-28.540533,2.593364,3.0615082
-28.57776,2.5980692,3.0640683
-28.610859,2.5940711,3.0554
-28.640871,2.5831032,3.037733
-28.668007,2.5651407,3.0110135
-28.681961,2.5154114,2.9429312
-28.706654,2.4892662,2.9056034
-28.733274,2.4667041,2.8729873
-28.768936,2.4660637,2.8690505
-28.8055,2.467884,2.8684134
-28.842009,2.4698043,2.8679914
-28.879108,2.4736016,2.8701105
-28.914858,2.4739404,2.8677888
-28.950993,2.4755616,2.867229
-28.988857,2.4826307,2.8738947
-29.025415,2.4862359,2.8761067
-29.060955,2.4869626,2.8746257
-29.097366,2.4907627,2.877262
-29.133514,2.4940662,2.8793283
-29.168741,2.4944816,2.8776827
-29.203133,2.4920044,2.8723116
-29.239439,2.4967866,2.8765678
-29.27624,2.5040598,2.8841853
-29.31129,2.5048509,2.8833518
-29.34576,2.5033383,2.8795633
-29.38078,2.5043116,2.879125
-29.415642,2.5047765,2.8780966
-29.450968,2.5077322,2.8804283
-29.486109,2.51018,2.8821707
-29.521193,2.5127206,2.8841128
-29.555597,2.5117493,2.8814979
-29.59011,2.5114677,2.8798676
-29.625168,2.514882,2.8831954
-29.659979,2.517186,2.8851337
-29.694817,2.5201817,2.888063
-29.729294,2.5208611,2.8880076
-29.763683,2.521028,2.887351
-29.798065,2.5212839,2.8868852
-29.833042,2.5282526,2.8953729
-29.867138,2.526277,2.8921084
-29.901312,2.5249918,2.8898306
-29.935543,2.5243967,2.8885407
-29.96994,2.5269036,2.891428
-30.004105,2.5252788,2.888925
-30.03832,2.5243454,2.8874102
-30.072565,2.5241022,2.8868828
-30.10679,2.5221386,2.8841534
-30.14106,2.5232768,2.885604
-30.175274,2.528725,2.89283
-30.209463,2.5294366,2.8938632
-30.24377,2.5254128,2.8887062
-30.277956,2.5269036,2.8909192
-30.312027,2.5302904,2.8957148
-30.346205,2.5307505,2.8967123
-30.380295,2.5325036,2.8994951
-30.41435,2.5343444,2.9024668
-30.448689,2.532658,2.9008484
-30.483006,2.5316632,2.9002194
-30.517408,2.5301545,2.8989868
-30.55206,2.5269296,2.8955603
-30.58647,2.5262017,2.8955107
-30.620655,2.5273674,2.8980389
-30.65491,2.5280197,2.899962
-30.68944,2.5269568,2.8996954
-30.7244,2.523581,2.896452
-30.758371,2.5263019,2.9013329
-30.791958,2.5309107,2.9087772
-30.826525,2.5302043,2.9092836
-30.861736,2.5265903,2.9060326
-30.897547,2.520672,2.8998246
-30.934029,2.5124557,2.8906698
-30.968836,2.5121198,2.8919802
-31.003218,2.5136702,2.8958511
-31.04358,2.4919934,2.8692307
-31.085178,2.4674504,2.838943
-24.038929,1.8306196,2.8068933
-24.180048,1.8864431,2.853342
-24.238398,1.8864546,2.8374543
-24.322857,1.9049165,2.8426757
-24.429514,1.93962,2.8667035
-24.50899,1.9559171,2.8702154
-24.591503,1.9749565,2.8771868
-24.652822,1.9792275,2.8675513
-24.724018,1.9910529,2.866838
-24.827408,2.0271876,2.8944654
-24.838646,1.9953432,2.8438196
-24.926216,2.0207584,2.859641
-24.983421,2.0237343,2.8496842
-25.051483,2.0353642,2.850038
-25.114164,2.043261,2.8462763
-25.172842,2.0483844,2.8394842
-25.33736,2.1380785,2.9325185
-25.359283,2.115177,2.8933063
-25.443743,2.1428347,2.913992
-24.574413,1.387583,2.0054293
-24.584755,1.3468649,1.9430027
-24.572098,1.2861984,1.8567147
-24.573769,1.2366147,1.7835193
-24.57331,1.1843634,1.7070255
-24.733986,1.2709775,1.7973614
-24.739365,1.2235584,1.7268691
-24.74849,1.1786451,1.6593227
-25.995714,2.2433162,2.934946
-26.050587,2.250911,2.9340086
-26.099012,2.2529538,2.9265046
-24.823294,1.0266416,1.4222388
-26.190578,2.2527912,2.9067597
-26.260422,2.2758327,2.9253917
-26.3177,2.2875288,2.9303622
-26.324062,2.250198,2.8752794
-26.361847,2.2430644,2.8573275
-26.407207,2.2434855,2.848792
-26.456755,2.248317,2.8458424
-26.51194,2.2591956,2.8505354
-26.560123,2.2632964,2.8469944
-26.615904,2.2756176,2.8538194
-26.665297,2.2816682,2.853016
-26.711006,2.284101,2.8478484
-26.76062,2.2910109,2.8484087
-26.801668,2.2888577,2.8377752
-26.857864,2.3036895,2.8485508
-26.906488,2.31054,2.8494816
-26.956852,2.3197365,2.85351
-27.002274,2.3236246,2.8510013
-27.047583,2.327656,2.8488026
-27.09185,2.33073,2.8455215
-27.272228,2.498218,3.0505424
-27.315622,2.503019,3.0500126
-27.35844,2.5074036,3.049076
-27.403347,2.5146952,3.0519586
-27.447641,2.5215762,3.0544457
-27.489187,2.5252566,3.0529785
-27.528929,2.5268326,3.0489368
-27.57406,2.5357962,3.054449
-27.611532,2.5348213,3.0473623
-27.65471,2.5418117,3.0505857
-27.69611,2.5466883,3.0512142
-27.737381,2.5516922,3.0521178
-27.77735,2.555129,3.051117
-27.817606,2.5592508,3.0511036
-27.857752,2.563494,3.0513535
-27.90004,2.571262,3.0562615
-27.939924,2.5757518,3.0570455
-27.977505,2.5769455,3.053667
-28.01683,2.5810983,3.0542178
-28.056398,2.5859377,3.0557609
-28.094799,2.58918,3.0553312
-28.131742,2.5902426,3.052166
-28.16931,2.5925567,3.0507202
-28.205812,2.5932555,3.0472622
-28.243578,2.596358,3.047028
-28.280617,2.5984168,3.0455236
-28.317589,2.60058,3.0442476
-28.35542,2.604582,3.0454664
-28.392843,2.6081142,3.0461626
-28.431065,2.6134915,3.0493684
-28.468283,2.6172392,3.0505333
-28.503693,2.6176076,3.0473533
-28.537952,2.6157458,3.0413284
-28.572775,2.61514,3.0370317
-28.60598,2.6111293,3.0283356
-28.636097,2.6001995,3.010604
-28.66769,2.5922606,2.9968734
-28.68488,2.5504658,2.9385748
-28.699696,2.50106,2.8702393
-28.735794,2.5014813,2.8676724
-28.770466,2.498479,2.8606644
-28.806086,2.497915,2.8569565
-28.84325,2.501563,2.8588986
-28.879677,2.503547,2.858725
-28.917723,2.510343,2.8650074
-28.953375,2.510759,2.862925
-28.989395,2.5124505,2.8626142
-29.024982,2.5130563,2.8609447
-29.059793,2.5113919,2.8563423
-29.096249,2.5151432,2.859007
