x,y,z
-32.43982,3.3820698,3.6096935
-32.466892,3.3889904,3.624011
-32.502495,3.3865037,3.624452
-32.545094,3.376668,3.6141028
-32.586086,3.3689647,3.6070051
-32.617867,3.3713007,3.6148148
-32.64155,3.382123,3.6351914
-32.66889,3.3890543,3.6498775
-32.70294,3.389176,3.6546001
-32.746876,3.3795996,3.6451564
-32.78907,3.3721335,3.638917
-32.82293,3.3731012,3.645131
-32.845642,3.3848681,3.6672134
-32.873787,3.391346,3.681602
-32.901844,3.3978972,3.6961489
-32.942368,3.3929486,3.693995
-32.995193,3.3770761,3.6760468
-33.032402,3.3757923,3.6794367
-33.05568,3.3870606,3.7011242
-33.08366,3.394086,3.7166996
-33.119225,3.3945296,3.7228074
-33.17089,3.381342,3.7093067
-33.211708,3.3778,3.7098598
-33.245316,3.3805218,3.719534
-33.27551,3.3861632,3.7334805
-33.30047,3.396103,3.7536607
-33.332214,3.4005005,3.7659397
-33.39369,3.381268,3.7444787
-33.437958,3.3761926,3.7434216
-33.46459,3.3851395,3.7624764
-33.48869,3.3959951,3.7842987
-33.524075,3.3981824,3.793844
-33.55886,3.4009404,3.804282
-33.60528,3.395145,3.8026938
-33.642002,3.3967893,3.8117468
-33.67563,3.400817,3.8242526
-33.714245,3.4013395,3.8319035
-33.757324,3.3988447,3.8354135
-33.816418,3.3853052,3.8235521
-33.866875,3.3782492,3.8209455
-33.891068,3.389614,3.844214
-33.920284,3.3974903,3.8626633
-33.961838,3.397064,3.8696282
-34.004112,3.3963437,3.8762987
-34.051105,3.3927069,3.879048
-34.116272,3.3774672,3.865901
-34.14683,3.385087,3.884481
-34.18745,3.3863053,3.894325
-34.21379,3.3967147,3.916895
-34.218033,3.420927,3.9584138
-34.319164,3.3848214,3.9175203
-34.370384,3.3802447,3.9199467
-34.376328,3.403417,3.9602401
-34.41702,3.4054475,3.9718459
-34.4641,3.403838,3.9786475
-34.509846,3.4032412,3.9869583
-34.57643,3.3907313,3.9793873
-34.62532,3.388867,3.9863217
-34.668518,3.390491,3.9980755
-34.71101,3.392682,4.0107155
-34.749863,3.397071,4.0264053
-34.824776,3.3816366,4.0159245
-47.452255,0.4850042,2.052843
-47.500645,0.52808857,2.147972
-47.3638,0.62855744,2.298574
-47.34971,0.69007874,2.4110374
-47.340977,0.8059075,2.6285577
-47.079414,0.939621,2.8069887
-47.11135,0.9850869,2.9031649
-47.15194,1.0279119,2.997046
-47.14709,1.083719,3.1026092
-47.170418,1.1311669,3.2006817
-47.171494,1.1846969,3.3040528
-47.21781,1.2253532,3.3963184
-47.277645,1.2622783,3.48564
-47.382202,1.2871296,3.5652485
-47.589382,1.2847788,3.6232681
-47.816444,1.2781312,3.6791754
-48.188683,1.2344971,3.7073731
-48.525375,1.2020547,3.7468004
-48.80916,1.1849203,3.8002076
-50.538567,0.8030696,3.5828753
-50.549095,0.861485,3.7009544
-50.57504,0.91584325,3.8160686
-50.59923,0.9704821,3.9314466
-50.596718,1.031414,4.0512094
-51.246902,0.9364047,4.066121
-52.039654,0.811332,4.066274
-52.985157,0.65505004,4.052616
-53.986458,0.4911294,4.041606
-19.70496,2.5561128,3.856408
-19.330227,2.3960505,3.6569405
-20.095734,2.6134906,3.858931
-19.39161,2.3405974,3.5367093
-21.315971,2.9579465,4.1772065
-21.367912,2.944171,4.137786
-21.51505,2.963653,4.1352262
-21.649387,2.9794657,4.129324
-21.79044,2.9984088,4.127572
-21.967163,3.0309548,4.1418085
-22.09062,3.04526,4.1362596
-22.203262,3.056289,4.12756
-22.31041,3.0658944,4.117751
-22.447708,3.0873487,4.122104
-22.605322,3.117289,4.1369486
-22.67952,3.1163685,4.116506
-22.79578,3.1320014,4.1158133
-22.899694,3.1434946,4.110756
-23.051968,3.1745958,4.1294355
-23.12537,3.1753159,4.1125503
-23.274082,3.206623,4.132665
-23.328459,3.2006261,4.1084623
-23.464434,3.228261,4.125227
-23.531137,3.2281003,4.108737
-23.617796,3.2365875,4.103092
-23.705883,3.2461562,4.0991335
-23.806133,3.2614074,4.1025534
-23.894482,3.2721343,4.1007752
-23.994867,3.2886086,4.1065187
-24.06625,3.292952,4.0974894
-24.140736,3.2990427,4.09093
-24.226381,3.310541,4.0914836
-24.293976,3.3143673,4.0826507
-24.385532,3.3295083,4.0884666
-24.463123,3.3387666,4.0871286
-24.519756,3.338688,4.074112
-24.576317,3.3388352,4.0615835
-24.621758,3.3339438,4.0427427
-24.692356,3.3413148,4.0399475
-24.753359,3.3444226,4.0318623
-24.818895,3.350069,4.0273046
-24.836248,3.332178,3.9921384
-24.879309,3.3270478,3.9737678
-24.985256,3.3538833,3.9976928
-25.020432,3.3453233,3.9751804
-25.045082,3.3313904,3.9456308
-25.097116,3.3316956,3.935092
-25.164093,3.340115,3.9355586
-25.242033,3.3547754,3.9446158
-25.251997,3.3334055,3.9055293
-25.300747,3.3328972,3.8945446
-25.376629,3.3474967,3.9041283
-25.438988,3.355122,3.9045205
-25.458977,3.3393857,3.8733654
-25.514622,3.3437252,3.8695974
-25.582317,3.3552656,3.8758438
-25.61686,3.3481011,3.8566866
-25.660707,3.3464355,3.8451686
-25.69817,3.3411784,3.828829
-25.74339,3.3406446,3.819107
-25.804583,3.3499327,3.8231037
-25.85582,3.353561,3.8194413
-25.882818,3.3425605,3.7955904
-25.931181,3.3448124,3.7902622
-25.990307,3.354076,3.7948647
-26.037695,3.3562841,3.7897701
-26.072899,3.3509169,3.7741804
-26.097486,3.3387456,3.7491078
-26.148733,3.343988,3.7486148
-26.20572,3.3533432,3.754075
-26.248089,3.3532999,3.7464056
-26.278728,3.3455029,3.7278523
-26.318476,3.3439617,3.7182522
-26.360748,3.3443232,3.7114596
-26.42324,3.3590357,3.7252417
-26.459553,3.3557312,3.7134657
-26.485876,3.345389,3.6916995
-26.518557,3.3395987,3.6765103
-26.583908,3.3577719,3.6958194
-26.640877,3.370335,3.7072468
-26.669655,3.3622599,3.6890788
-26.696743,3.3528962,3.669107
-26.737679,3.354102,3.664474
-26.770844,3.3494916,3.6515126
-26.836296,3.370258,3.6754556
-26.871593,3.367772,3.665784
-26.908041,3.3663216,3.6576977
-26.934174,3.3566341,3.6376815
-26.961025,3.3474746,3.6184812
-27.019463,3.3645325,3.6376772
-27.058554,3.3658915,3.6340356
-27.090944,3.3617413,3.6224027
-27.114079,3.3496752,3.5992055
-27.146622,3.3456907,3.5879312
-27.195286,3.3560224,3.5978136
-27.23783,3.3613005,3.6003652
-27.278101,3.3648186,3.6004162
-27.30939,3.360343,3.588735
-27.329895,3.3458881,3.5623355
-27.37159,3.3511772,3.5652385
-27.406046,3.349858,3.558426
-27.45048,3.3583105,3.5662107
-27.49369,3.3659487,3.5728884
-27.517595,3.3547854,3.55165
-27.544115,3.3461084,3.534155
-27.572691,3.3394482,3.5197144
-27.64067,3.3734996,3.5662022
-27.674614,3.3729773,3.5611167
-27.707134,3.3710802,3.554039
-27.730042,3.3589203,3.5316281
-27.767185,3.362131,3.5323305
-27.807785,3.3694236,3.539247
-27.846415,3.374864,3.5434666
-27.890547,3.3869011,3.5577068
-27.924475,3.387617,3.554976
-27.947298,3.375434,3.5328436
-27.982088,3.3773263,3.5320053
-28.004795,3.3647614,3.5093741
-28.05264,3.382936,3.5332975
-28.083937,3.3811133,3.527039
-28.120792,3.3864512,3.531695
-28.146526,3.377729,3.51509
-28.169327,3.3650079,3.4924488
-28.19465,3.3553796,3.4745393
-28.240013,3.372799,3.4978132
-28.277939,3.3806827,3.5066705
-28.30693,3.3764198,3.497098
-28.336336,3.3727443,3.4884706
-28.360153,3.360939,3.4674864
-28.391472,3.3599734,3.4630861
-28.420393,3.3554916,3.4533691
-28.45943,3.3665528,3.4674697
-28.4972,3.3761904,3.4794712
-28.530516,3.3792229,3.4814348
-28.55515,3.3683615,3.4621682
-28.586548,3.368452,3.4597292
-28.615461,3.3644712,3.451098
-28.644432,3.3605652,3.4426289
-28.687609,3.3817556,3.4727616
-28.722193,3.3884754,3.4807434
-28.748104,3.3796153,3.4648275
-28.774738,3.371862,3.4506516
-28.80722,3.3751793,3.4535623
-28.838005,3.3754404,3.4518223
-28.870577,3.3794641,3.455934
-28.907349,3.3925261,3.4740438
-28.941818,3.4014883,3.4858985
-28.969769,3.3968377,3.4768038
-28.991892,3.3790538,3.4474692
-29.02176,3.3782299,3.4443645
-29.050503,3.3748388,3.4373407
-29.088255,3.3932452,3.4640732
-29.11877,3.3947973,3.4648027
-29.14634,3.3889983,3.4542065
-29.176023,3.388582,3.4519863
-29.203554,3.382392,3.4408717
-29.231203,3.3762698,3.4299035
-29.260616,3.375012,3.426517
-29.292162,3.3802319,3.4332223
-29.325449,3.3914118,3.4492273
-29.354843,3.3909326,3.4472003
-29.382643,3.385183,3.4370403
-29.410095,3.3778975,3.4245381
-29.439312,3.3765683,3.4213276
-29.468122,3.3737082,3.415784
-29.498058,3.3752103,3.4170651
-29.530008,3.385377,3.431861
-29.56049,3.390264,3.4385037
-29.589212,3.387712,3.4336286
-29.616102,3.3760953,3.4147015
-29.643763,3.3672323,3.4000955
-29.6724,3.3627403,3.3923335
-29.703072,3.369625,3.4023194
-29.735826,3.3905926,3.4342752
-29.763918,3.3836398,3.4228234
-29.793348,3.3853793,3.4249482
-29.82157,3.378031,3.412969
-29.85026,3.3734498,3.4053411
-29.879272,3.3710985,3.4012313
-29.909332,3.379613,3.4140925
-29.939503,3.3919842,3.4330096
-29.96882,3.3963385,3.4394865
-29.99775,3.3959098,3.4385576
-30.026169,3.384757,3.4209628
-30.05511,3.3812358,3.4153056
-30.084238,3.3821096,3.416541
-30.113428,3.388999,3.4271965
-30.142475,3.4013648,3.4464307
-30.171354,3.4008422,3.4456277
-30.20018,3.4036345,3.4500346
-30.229345,3.39354,3.4344063
-30.258623,3.3862214,3.4231505
-30.288183,3.3768194,3.4086947
-30.317574,3.373433,3.4036584
-30.344662,3.4014277,3.4475555
-30.374184,3.3944106,3.436952
-30.403019,3.3961024,3.4399624
-30.4333,3.3843846,3.422133
-30.46411,3.3705926,3.401122
-30.494379,3.363352,3.3903651
-30.52234,3.3734343,3.4066253
-30.549664,3.3862782,3.4272265
-30.578138,3.3905728,3.4345617
-30.607862,3.3874052,3.4303284
-30.638277,3.3810883,3.421245
-30.669056,3.3737783,3.4106655
-30.699442,3.3692389,3.4044461
-30.727903,3.3739104,3.4125986
-30.753252,3.391535,3.44093
-30.781906,3.394195,3.4460392
-30.811064,3.3947845,3.4479752
-30.842524,3.3868778,3.436761
-30.873123,3.3828063,3.4315572
-30.905699,3.3723984,3.4165678
-30.9348,3.374378,3.4208593
-30.956987,3.39833,3.4592857
-30.988564,3.3919024,3.4506202
-31.016884,3.3956938,3.4578524
-31.046434,3.3958273,3.4594598
-31.077726,3.3912492,3.453816
-31.111511,3.3803768,3.438478
-31.13965,3.3850098,3.447205
-31.165607,3.39502,3.4642968
-31.19481,3.3966064,3.4683962
-31.223112,3.4003878,3.4759355
-31.254986,3.3957763,3.4705486
-31.29375,3.3759303,3.4416838
-31.326284,3.3709898,3.4359136
-31.352821,3.3793216,3.450684
-31.378693,3.3887687,3.4672136
-31.40823,3.3903856,3.4717083
-31.43907,3.389454,3.4723234
-31.47076,3.3870335,3.4706988
-31.505548,3.3789396,3.4603977
-31.542784,3.3667665,3.4438853
-31.573736,3.366726,3.446104
-31.58983,3.3933752,3.4893904
-31.621733,3.3913822,3.4886923
-31.65401,3.3889594,3.4873924
-31.684517,3.3897452,3.4910727
-31.729523,3.3667607,3.4583673
-31.755823,3.374999,3.4735942
-31.785563,3.3776124,3.4802475
-31.806637,3.3937216,3.5075989
-31.835497,3.3975003,3.516121
-31.86877,3.3946676,3.5145922
-31.906683,3.3852587,3.5030856
-31.940931,3.3816094,3.5004435
-31.977457,3.3749933,3.4933462
-32.00207,3.3853436,3.512164
-32.030212,3.3906498,3.5233388
-32.059784,3.393992,3.5315738
-32.097366,3.3867495,3.5237765
-32.130863,3.385202,3.524704
-32.165615,3.3822367,3.5235453
-32.199272,3.380891,3.52491
-32.222046,3.3932457,3.5470862
-32.25116,3.397602,3.5571885
-32.28022,3.4020343,3.567459
-32.32104,3.3925295,3.5567317
-32.366814,3.3776677,3.538015
-32.396065,3.3824043,3.5489435
-32.424812,3.3877153,3.5607886
-32.455704,3.3906212,3.569065
-32.48927,3.3906431,3.5730662
-32.526066,3.387309,3.5720959
-32.569874,3.3767033,3.5603008
-32.598133,3.3829582,3.5738626
-32.629593,3.3858542,3.5824475
-32.651512,3.3986197,3.6058426
-32.68042,3.4041083,3.618402
-32.72045,3.3984842,3.6144433
-32.770496,3.3832893,3.5963216
-32.80301,3.3857043,3.6045208
-32.833508,3.3901443,3.6157951
-32.854305,3.4038157,3.6408257
-32.886654,3.4064803,3.6495676
-32.928844,3.4001431,3.6450515
-32.98483,3.3815393,3.6225033
-33.02118,3.3812432,3.6271315
-33.05011,3.3877077,3.641807
-33.07033,3.4018233,3.6678
-33.10499,3.4032283,3.6751285
-33.15174,3.3943892,3.6674924
-33.194305,3.3894725,3.6657262
-33.243736,3.379091,3.6560655
-33.262978,3.3940709,3.6836033
-33.29163,3.4011765,3.6996675
-33.325348,3.4041889,3.7098227
-33.40074,3.3740518,3.6718216
-33.426617,3.383822,3.6920176
-33.45587,3.3909016,3.7083545
-33.48325,3.3994322,3.7268505
-33.515892,3.4039311,3.7395692
-33.569008,3.3930836,3.730215
-33.620583,3.383798,3.723258
-33.661377,3.3828273,3.7284007
-33.688663,3.391886,3.7480416
-33.71519,3.4014626,3.768476
-33.74973,3.4053032,3.7807558
-33.81015,3.3910189,3.7672434
-33.84929,3.3920407,3.7757182
-33.884617,3.3958433,3.788246
-33.903133,3.411193,3.8172429
-33.9344,3.4178052,3.8338854
-33.99113,3.4074879,3.8266692
-34.032307,3.4078288,3.834655
-34.110058,3.3844948,3.8094273
-34.152252,3.3847847,3.8176334
-34.181717,3.3933856,3.8375986
-34.213097,3.400786,3.8559492
-34.259388,3.3989036,3.8614209
-34.294113,3.404405,3.877303
-34.36263,3.3893094,3.8646672
-34.391907,3.398486,3.8858802
-34.439236,3.3968494,3.8922153
-34.455,3.414165,3.9248166
-34.524982,3.3995056,3.9134555
-34.584644,3.3913429,3.9112391
-34.60156,3.4081256,3.9433458
-34.644135,3.4101706,3.9553561
-34.686733,3.4123678,3.9676964
-34.73955,3.4090304,3.972649
-34.77638,3.4147935,3.990085
-47.41641,0.53529763,1.9030128
-47.50756,0.5652118,1.9846721
-47.322342,0.6804371,2.1521482
-47.059196,1.0395274,2.7637053
-47.105995,1.0806189,2.855764
-47.120506,1.130882,2.9565077
-47.12493,1.1837537,3.0596137
-47.153847,1.2295101,3.1561866
-47.159584,1.2815223,3.2584162
-47.19839,1.3242552,3.3523865
-47.252586,1.362786,3.4428458
-47.347736,1.3904557,3.5242496
-47.45383,1.4155424,3.6040053
-47.678917,1.4100547,3.658979
-48.040737,1.3705249,3.6875753
-48.40879,1.3313229,3.7188616
-48.744972,1.3020558,3.7604866
-48.97561,1.3006868,3.826036
-50.576782,0.9647703,3.6386027
-50.573128,1.0263405,3.7592506
-50.564747,1.0887203,3.8803358
-50.601566,1.1400907,3.993363
-50.865585,1.1384292,4.0694776
-51.68342,1.0105464,4.061335
-52.52301,0.8821857,4.059072
-53.562107,0.7136221,4.037173
-54.71727,0.5250344,4.010728
-20.090256,2.777314,4.0270047
-19.446636,2.5364058,3.7386808
-19.294125,2.449913,3.6148548
-20.117027,2.681523,3.8391829
-19.428339,2.4183183,3.5208063
-21.335464,3.0183685,4.1601696
-21.44888,3.0252895,4.144268
-21.57988,3.0388,4.136348
-21.702589,3.0501626,4.126607
-21.843575,3.0685613,4.1255016
-22.035233,3.1056278,4.1465783
-22.130463,3.1095173,4.1300974
-22.259674,3.126117,4.128873
-22.343159,3.126814,4.1095705
-22.48566,3.1496005,4.1167164
-22.65192,3.1820617,4.1360073
-22.732906,3.1835601,4.1190724
-22.857662,3.2020445,4.1228814
-22.944279,3.2066536,4.110483
-23.072586,3.2278404,4.118575
-23.18425,3.2432969,4.1202345
-23.276043,3.2515569,4.1135445
-23.380278,3.2652786,4.113967
-23.474073,3.2753983,4.1103635
-23.561733,3.283544,4.1046867
-23.665028,3.2986028,4.108007
-23.73801,3.3016787,4.0966997
-23.839855,3.3172398,4.101425
-23.925646,3.326608,4.098715
-24.012001,3.3367033,4.0972652
-24.074352,3.336903,4.083507
-24.169218,3.3516111,4.0885906
-24.201244,3.3391416,4.0590315
-24.25202,3.3350635,4.040412
-24.352667,3.35366,4.051403
-24.404026,3.3504634,4.0343804
-24.42189,3.3320627,3.9976394
-24.524948,3.3531446,4.0127563
-24.577751,3.3513288,3.998096
-24.62737,3.3482263,3.9819086
-24.664455,3.339315,3.9581726
-24.74369,3.3508754,3.9617927
-24.803247,3.3533049,3.953499
-24.841856,3.3456912,3.9319453
-24.87901,3.3374434,3.9096465
-24.963585,3.3531723,3.9197822
-25.018904,3.3545728,3.9108343
-25.044651,3.3410325,3.8817918
-25.082624,3.3338056,3.861392
-25.170763,3.353004,3.8771565
-25.238356,3.361936,3.8791783
-25.25096,3.3418179,3.8415499
-25.294796,3.3384218,3.8269339
-25.389095,3.36279,3.850754
-25.425362,3.355816,3.8315327
-25.450127,3.3424973,3.8036017
-25.502415,3.3446538,3.7972403
-25.588182,3.3661642,3.818018
-25.622978,3.358979,3.7989697
-25.65432,3.3498473,3.777279
-25.68578,3.3408077,3.7557864
-25.763409,3.3592367,3.7730374
-25.809376,3.3592472,3.7645445
-25.867674,3.366954,3.7670636
-25.882607,3.348422,3.7325583
-25.950918,3.3628044,3.7448196
-26.01007,3.3719594,3.7498474
-26.042109,3.3643334,3.7311049
-26.08224,3.3619268,3.719895
-26.09652,3.3429327,3.68502
-26.1756,3.3661299,3.7107162
-26.21558,3.364163,3.7004595
-26.247099,3.3566906,3.6823664
-26.282576,3.3519225,3.668244
-26.300821,3.3354626,3.6372857
-26.377752,3.359394,3.6648903
-26.43205,3.3682334,3.6708102
-26.462332,3.3604825,3.6527433
-26.493334,3.35326,3.6355066
-26.5312,3.3510227,3.6256099
-26.57394,3.3524823,3.6212053
-26.625679,3.3608146,3.6269717
-26.672365,3.3657413,3.6278772
-26.703964,3.3595488,3.6125593
-26.73386,3.3520885,3.5954366
-26.776768,3.3547082,3.593233
-26.840508,3.373892,3.6155887
-26.873764,3.3695402,3.6033154
-26.915066,3.3717134,3.6007733
-26.94265,3.3629756,3.5821443
-26.977673,3.3603125,3.5725846
-27.02272,3.366096,3.575664
-27.065376,3.3701794,3.5763173
-27.10187,3.3692808,3.5696387
-27.126404,3.3582113,3.5478454
-27.157028,3.3523533,3.533883
-27.201548,3.358808,3.5384169
-27.250608,3.3696632,3.5496526
-27.2853,3.3679247,3.5420995
-27.312231,3.3591766,3.5240784
-27.3393,3.3504937,3.506198
-27.38775,3.3619099,3.5186515
-27.418877,3.3572395,3.506948
-27.45996,3.3622465,3.5099196
-27.503332,3.369795,3.5168252
-27.529036,3.360138,3.497779
-27.559696,3.3553727,3.486186
-27.593256,3.353598,3.479185
-27.655865,3.382039,3.5181422
-27.688143,3.3795614,3.5102477
-27.721342,3.3781528,3.5040402
-27.74457,3.366077,3.4816413
-27.779196,3.3663087,3.478044
-27.817745,3.371068,3.4814248
-27.858324,3.378415,3.48884
-27.903864,3.3918223,3.5056095
-27.935877,3.3900461,3.499236
-27.96201,3.3814173,3.482419
-27.988289,3.3728487,3.465733
-28.015125,3.3648396,3.449945
-28.072336,3.3943346,3.491819
-28.100616,3.3885317,3.4795527
-28.128593,3.3822997,3.466671
-28.153963,3.372622,3.4485264
-28.183317,3.368033,3.438261
-28.214235,3.365537,3.431273
-28.25367,3.3747444,3.4424062
-28.289585,3.3795247,3.4467769
-28.323206,3.3813717,3.446683
-28.352516,3.377222,3.4373703
-28.377373,3.366534,3.4179816
-28.408916,3.3655841,3.4137144
-28.443129,3.3688064,3.4159708
-28.482841,3.3808239,3.4319348
-28.515766,3.3827245,3.4322705
-28.544798,3.378562,3.4232454
-28.572952,3.3729324,3.4119859
-28.60304,3.3704615,3.405682
-28.63586,3.3727093,3.4067712
-28.673912,3.3843434,3.422535
-28.709354,3.391962,3.4321156
-28.740627,3.392439,3.4306269
-28.76825,3.3862622,3.4188108
-28.79408,3.3765182,3.4014692
-28.824358,3.3751512,3.3972435
-28.861921,3.3884392,3.4159622
-28.894835,3.3929844,3.4210863
-28.928116,3.3986676,3.4280477
-28.95785,3.3971324,3.4237723
-28.9857,3.3914905,3.413117
-29.01227,3.3827753,3.3976898
-29.044182,3.3861804,3.401288
-29.077085,3.3922987,3.4091926
-29.11153,3.4027143,3.42389
-29.143444,3.407446,3.4297342
-29.168797,3.3954196,3.409337
-29.19557,3.3866122,3.3940244
-29.223091,3.3794498,3.3813338
-29.2535,3.3802729,3.3812265
-29.287233,3.3912172,3.397071
-29.319504,3.3985567,3.4073076
-29.34961,3.3996358,3.407755
-29.377445,3.3933787,3.3967113
-29.402805,3.3781781,3.3716383
-29.430845,3.3715212,3.360043
-29.460432,3.3702416,3.3569546
-29.494352,3.3860378,3.3807955
-29.525965,3.393959,3.3922925
-29.55677,3.3993073,3.3997889
-29.585218,3.394627,3.3915334
-29.613096,3.3868232,3.3783984
-29.641348,3.3801537,3.3670907
-29.669245,3.3708887,3.3517332
-29.700312,3.378757,3.363432
-29.732313,3.3936439,3.3862486
-29.761791,3.3942094,3.386528
-29.790802,3.3916473,3.3819199
-29.819588,3.3870232,3.3741012
-29.84847,3.3824718,3.3664412
-29.878351,3.3865445,3.3724322
-29.908031,3.3896263,3.3769069
-29.938255,3.40027,3.393362
-29.968004,3.407785,3.4049244
-29.997223,3.4094944,3.4073691
-30.026012,3.4032545,3.3973098
-30.05446,3.3842487,3.3671389
-30.08374,3.3808305,3.36162
-30.113178,3.3833728,3.3655562
-30.14261,3.4031143,3.3966894
-30.171677,3.4127645,3.4119363
-30.200808,3.408042,3.4045353
-30.230312,3.394834,3.3837833
-30.259935,3.3859832,3.369954
-30.289244,3.3868387,3.3714929
-30.318605,3.386699,3.3715062
-30.346498,3.405886,3.4020681
-30.375603,3.4064283,3.403244
-30.40502,3.4038386,3.3995218
-30.436214,3.385829,3.371512
-30.466713,3.3769865,3.358017
-30.496565,3.3746343,3.3548088
-30.525547,3.3787656,3.3618736
-30.553274,3.390441,3.3808804
-30.580923,3.4011164,3.3983498
-30.611012,3.3969297,3.3924255
-30.641205,3.3928223,3.3866744
-30.672792,3.3824046,3.371025
-30.702808,3.3805914,3.3689861
-30.730719,3.388435,3.3822064
-30.75708,3.4021945,3.4047875
-30.78525,3.4075117,3.4141078
-30.815792,3.4033399,3.4085321
-30.84716,3.396597,3.3989582
-30.881544,3.3798645,3.3737178
-30.90946,3.3865519,3.3853784
-30.938375,3.3896003,3.391357
-30.962536,3.4075365,3.420785
-30.992043,3.408076,3.4229002
-31.022093,3.407108,3.4226937
-31.054226,3.4004152,3.4135432
-31.089214,3.3864312,3.393001
-31.118208,3.3894093,3.3991423
-31.14797,3.390356,3.4021416
-31.174793,3.3987408,3.4168515
-31.201664,3.4066632,3.4308753
-31.231697,3.4067802,3.4327054
-31.267664,3.3933527,3.4133692
-31.303957,3.3800359,3.3942728
-31.335785,3.3772883,3.3917842
-31.362797,3.3850727,3.4058242
-31.384886,3.4028304,3.4354954
-31.416363,3.400832,3.4343157
-31.448961,3.39684,3.4300766
-31.479794,3.3965788,3.431717
-31.519993,3.3787608,3.4060144
-31.551928,3.3771367,3.4056482
-31.579348,3.383882,3.4183793
-31.60489,3.3937922,3.4360828
-31.63173,3.4011798,3.4498925
-31.66663,3.3947215,3.4421978
-31.706034,3.3811684,3.4235344
-31.741676,3.3744202,3.4155254
-31.768515,3.3821368,3.4300494
-31.794886,3.3904285,3.4455042
-31.822432,3.396737,3.4579206
-31.854942,3.3954601,3.458621
-31.888887,3.3922386,3.4563675
-31.933077,3.3743734,3.431509
-31.96349,3.376963,3.438385
-31.992077,3.3821673,3.4493537
-32.01435,3.3960397,3.473755
-32.04491,3.3983445,3.480328
-32.077724,3.3977098,3.482421
-32.115574,3.3906338,3.4746485
-32.155174,3.3816724,3.4640489
-32.186726,3.3833568,3.4699087
-32.211475,3.3936257,3.4890194
-32.236034,3.4039469,3.5082445
-32.271507,3.4008842,3.5069647
-32.308342,3.3964405,3.5036383
-32.354607,3.3812122,3.4838653
-32.38628,3.3834534,3.4909325
-32.40971,3.3951566,3.5125237
-32.439064,3.400016,3.5236902
-32.473244,3.3995516,3.5267816
-32.51332,3.3928206,3.5203872
-32.55905,3.3803575,3.50535
-32.593132,3.380734,3.509951
-32.622593,3.3860765,3.5221648
-32.648678,3.394893,3.5397043
-32.679386,3.398931,3.550036
-32.718723,3.3943644,3.547388
-32.766003,3.382224,3.5333643
-32.792423,3.390904,3.5509229
-32.83662,3.3824043,3.5425863
-32.84232,3.4108403,3.5900478
-32.883533,3.4054093,3.586473
-32.925426,3.399643,3.5824862
-32.976833,3.3854935,3.565999
-33.017597,3.3814569,3.564815
-33.042637,3.3916888,3.5851078
-33.072308,3.3977492,3.599194
-33.10945,3.3973339,3.6036549
-33.141212,3.4017067,3.6153436
-33.191612,3.3903437,3.6036377
-33.232887,3.3870587,3.6040826
-33.258625,3.3968678,3.6240892
-33.288155,3.4035082,3.6394339
-33.321583,3.407011,3.6501818
-33.397495,3.3767014,3.6109562
-33.423717,3.386453,3.6311536
-33.448616,3.3971782,3.652831
-33.46863,3.41159,3.6799788
-33.503838,3.4142742,3.689898
-33.570187,3.39363,3.665637
-33.6147,3.3898773,3.6663313
-33.649006,3.3938928,3.678505
-33.673473,3.40515,3.7013369
-33.712597,3.4057949,3.708727
-33.745537,3.410999,3.7228484
-33.812313,3.3924732,3.7025495
-33.85868,3.38873,3.703895
-33.886086,3.398296,3.7246356
-33.90885,3.4109864,3.7499433
-33.950806,3.4106822,3.756537
-33.99087,3.4118228,3.765318
-34.0277,3.415257,3.7774942
-34.100155,3.395607,3.756651
-34.14186,3.3963776,3.7652583
-34.194317,3.3904712,3.7644377
-34.205208,3.411089,3.8015707
-34.2442,3.413934,3.813416
-34.30299,3.4046984,3.808215
-34.366844,3.3927627,3.799365
-34.384712,3.409062,3.830605
-34.42108,3.4141579,3.846069
-34.474907,3.4090226,3.8472347
-34.54932,3.3921432,3.8320825
-34.585903,3.397738,3.8486288
-34.611034,3.4099886,3.8745594
-34.64315,3.4182334,3.8949583
-34.681656,3.4229317,3.9105062
-34.719406,3.4281626,3.9268942
-34.767326,3.427905,3.9357967
-47.230736,0.6946068,1.9141488
-46.996178,1.1557467,2.7342172
-47.056812,1.1927798,2.8220801
-47.09079,1.237318,2.917385
-47.113834,1.2847714,3.015542
-47.134304,1.3327584,3.1142244
-47.18598,1.3721468,3.2049856
-47.18065,1.4267564,3.3098288
-47.21786,1.4698217,3.404148
-47.256332,1.512497,3.498252
-47.398273,1.5284929,3.569202
-47.58265,1.5342836,3.6322165
-47.808723,1.530437,3.688212
-47.918755,1.5564878,3.7705555
-48.61178,1.4399514,3.736752
-48.793648,1.4511185,3.8104773
-50.538265,1.0891697,3.5905404
-50.5604,1.1443245,3.7063408
-50.576927,1.200625,3.823049
-50.5984,1.2555964,3.938768
-50.61618,1.3112519,4.055023
-51.268456,1.224226,4.06975
-52.015404,1.1197126,4.0771523
-53.07779,0.9502027,4.0461264
-54.084084,0.7986212,4.0350513
-19.799559,2.7471883,3.8956714
-19.340908,2.567512,3.6679907
-19.24725,2.500465,3.5638452
-20.16175,2.756516,3.8235164
-21.290562,3.0883193,4.17401
-21.396885,3.0920317,4.1549764
-21.515553,3.10037,4.141761
-21.63399,3.109251,4.1297226
-21.779676,3.1279964,4.129742
-21.9603,3.1595423,4.145481
-22.125286,3.1867604,4.1569505
-22.159687,3.1692462,4.1159678
-22.307281,3.1918042,4.1230507
-22.402885,3.1966445,4.109473
-22.567028,3.226736,4.126872
-22.649046,3.227854,4.1097364
-22.796612,3.2535496,4.1230206
-22.873024,3.2536204,4.105421
-23.02484,3.2824538,4.123704
-23.115337,3.2889018,4.1148148
-23.205631,3.2957492,4.1067924
-23.30759,3.3076105,4.105428
-23.41262,3.3212576,4.1067314
-23.517307,3.3353782,4.109062
-23.591436,3.3378668,4.0970044
-23.652905,3.3355951,4.0791407
-23.746792,3.3468533,4.0788765
-23.795616,3.3400252,4.0556464
-23.823849,3.3247628,4.021652
-23.936989,3.3453097,4.0343046
-24.011978,3.3503168,4.0271063
-24.032156,3.3321185,3.9897556
-24.141918,3.352809,4.0036225
-24.193792,3.3487713,3.9852393
-24.20784,3.3281384,3.9450176
-24.30074,3.342733,3.951685
-24.385286,3.3541222,3.9544127
-24.413147,3.3400686,3.9233398
-24.472824,3.3407125,3.9120984
-24.568592,3.3585038,3.9241924
-24.620071,3.3560214,3.9091809
-24.6349,3.3362703,3.8708713
-24.736118,3.3579965,3.889091
-24.793602,3.3591418,3.8795364
-24.834858,3.3525841,3.859602
-24.878462,3.347309,3.8415449
-24.92361,3.3429523,3.8248768
-24.995987,3.352562,3.8276577
-25.04778,3.352069,3.8166585
-25.063591,3.333182,3.780223
-25.17496,3.3641276,3.813315
-25.225658,3.3638933,3.8031774
-25.256414,3.3532383,3.7785716
-25.279263,3.3383281,3.7480488
-25.368568,3.359573,3.7685342
-25.429855,3.366057,3.7684498
-25.46431,3.357967,3.7479
-25.485981,3.342742,3.7172966
-25.574732,3.3655508,3.7408724
-25.623344,3.3660083,3.7328367
-25.675386,3.3686833,3.7281065
-25.681215,3.3445225,3.685048
-25.751312,3.358169,3.6962814
-25.80174,3.3605356,3.6914825
-25.871223,3.3747082,3.7038555
-25.891325,3.3591638,3.6734633
-25.93941,3.3608088,3.6680026
-26.002834,3.372293,3.6769543
-26.053263,3.3760157,3.6747947
-26.082994,3.366794,3.6538978
-26.097713,3.3478723,3.6188903
-26.151985,3.3545742,3.6213846
-26.21902,3.3700557,3.6368961
-26.257944,3.3673048,3.6258168
-26.288538,3.3590667,3.606752
-26.317333,3.3496132,3.5859537
-26.374006,3.3593857,3.5936012
-26.437279,3.3741817,3.608831
-26.481533,3.3760767,3.6051154
-26.50719,3.3649254,3.5821414
-26.537304,3.356925,3.5638924
-26.576626,3.3556547,3.5557222
-26.644192,3.3754158,3.579008
-26.693354,3.3820624,3.5828876
-26.707964,3.3629165,3.5482965
-26.745241,3.3608472,3.5392966
-26.794727,3.3683639,3.5447612
-26.850914,3.3814888,3.558775
-26.889578,3.3812156,3.5527654
-26.914568,3.3701415,3.530561
-26.954924,3.3714547,3.5270886
-26.990173,3.368778,3.5176744
-27.031496,3.371265,3.5161457
-27.079271,3.3794217,3.5232987
-27.119217,3.381277,3.5210028
-27.136505,3.3637862,3.4893985
-27.165825,3.356544,3.4733953
-27.211576,3.3638406,3.4795861
-27.265455,3.3787825,3.4975405
-27.302418,3.3789136,3.49301
-27.326033,3.366928,3.4700313
-27.348845,3.3540459,3.445712
-27.38641,3.3549275,3.4425087
-27.44025,3.371582,3.463573
-27.489254,3.3841572,3.4785008
-27.523376,3.3826027,3.4718199
-27.535421,3.359155,3.4315124
-27.566906,3.3548698,3.4207182
-27.612503,3.3650892,3.432344
-27.657356,3.3749864,3.443571
-27.706059,3.3893855,3.461852
-27.73764,3.386047,3.452808
-27.759853,3.3726048,3.4281774
-27.797344,3.3757424,3.4292626
-27.839079,3.383873,3.4381652
-27.891356,3.40436,3.4663348
-27.920153,3.3985927,3.4538298
-27.943155,3.3860278,3.4308
-27.976757,3.3858051,3.4270067
-28.008272,3.3832154,3.4195867
-28.05311,3.397016,3.4377742
-28.088844,3.4000812,3.4393034
-28.120546,3.3982935,3.433322
-28.149925,3.3936129,3.4228716
-28.174036,3.3820353,3.401682
-28.196865,3.3685112,3.3774748
-28.238073,3.3795297,3.3917356
-28.280085,3.3921869,3.408646
-28.311737,3.3909316,3.4038186
-28.34232,3.3882565,3.3968153
-28.370844,3.3826413,3.3852415
-28.39536,3.3710427,3.3643074
-28.430843,3.3756692,3.3689218
-28.466845,3.3814147,3.3753605
-28.507862,3.3953838,3.3948154
-28.540571,3.3967886,3.3945513
-28.567589,3.3891287,3.3800502
-28.592905,3.378476,3.3608642
-28.625956,3.3806362,3.3619375
-28.66217,3.3885128,3.3720942
-28.7002,3.4000828,3.3881526
-28.735664,3.4076715,3.3979864
-28.763987,3.4025345,3.387751
-28.789404,3.3918138,3.3687196
-28.819027,3.3888698,3.3620353
-28.850248,3.389095,3.3604174
-28.884233,3.3950813,3.36798
-28.921034,3.4073672,3.385591
-28.951223,3.4063158,3.3821082
-28.981174,3.4048266,3.377976
-29.008598,3.3977122,3.3649583
-29.038181,3.3953357,3.3595042
-29.07042,3.3992722,3.364128
-29.107225,3.4147444,3.3871427
-29.13683,3.4131434,3.3830705
-29.166245,3.4110985,3.3783355
-29.191982,3.3992155,3.357987
-29.219107,3.3905237,3.342752
-29.248968,3.3892148,3.3393126
-29.280788,3.3937395,3.3452115
-29.315392,3.4072542,3.365487
-29.34719,3.4130096,3.3734512
-29.374708,3.405214,3.359859
-29.402386,3.397485,3.3464112
-29.430372,3.3903482,3.3339462
-29.459068,3.3853827,3.3249855
-29.488132,3.3815408,3.3178596
-29.523329,3.4025128,3.3503923
-29.554712,3.4093678,3.3604403
-29.583704,3.4062946,3.35468
-29.610872,3.394331,3.3347583
-29.639978,3.390873,3.3284645
-29.669052,3.3869607,3.321487
-29.698391,3.384179,3.3163571
-29.73211,3.4078877,3.3536205
-29.761732,3.4084377,3.353909
-29.790588,3.4037757,3.3459086
-29.818726,3.3928409,3.3279157
-29.847727,3.3872652,3.3185363
-29.877636,3.3891726,3.3211675
-29.906895,3.3848057,3.3138041
-29.938402,3.4064584,3.348113
-29.968422,3.4144263,3.3605738
-29.99768,3.4129374,3.3579488
-30.02635,3.3988094,3.3351402
-30.055735,3.3953507,3.3294473
-30.085346,3.3977957,3.3332434
-30.114807,3.3939579,3.3270297
-30.144426,3.4161627,3.3625336
-30.173664,3.4236045,3.374457
-30.202934,3.4210532,3.37043
-30.232838,3.4005623,3.337738
-30.26257,3.3949852,3.3289552
-30.292198,3.3937237,3.3271217
-30.321754,3.394127,3.3279963
-30.350397,3.4062567,3.3476753
-30.379143,3.4142213,3.3607326
-30.409418,3.4053202,3.34685
-30.440197,3.3938541,3.3289094
-30.470264,3.3904054,3.3238397
-30.500273,3.3880935,3.320633
-30.52941,3.3922033,3.3277383
-30.557955,3.3995576,3.3400726
-30.5867,3.40487,3.349183
-30.617441,3.398638,3.3398843
-30.648232,3.3930175,3.3316083
-30.678513,3.3906434,3.3285675
-30.71034,3.3814962,3.314753
-30.738667,3.3887699,3.3272133
-30.765957,3.399798,3.3457093
-30.794592,3.4045758,3.3542633
-30.822578,3.411529,3.3663297
-30.85503,3.4017339,3.3517122
-30.88592,3.398332,3.3473458
-30.915184,3.4007862,3.3523645
-30.944082,3.4043627,3.3592176
-30.969887,3.4174438,3.381259
-30.997324,3.4248228,3.3942494
-31.029655,3.4176235,3.384056
-31.062914,3.4084258,3.3707342
-31.097363,3.396714,3.3534656
-31.12754,3.3971,3.3555064
-31.15773,3.397566,3.357719
-31.184149,3.4074807,3.3750033
-31.210793,3.4164152,3.3907642
-31.243025,3.4119065,3.385203
-31.27994,3.3971138,3.36336
-31.315811,3.3855453,3.346702
-31.347895,3.382885,3.3442445
-31.376627,3.3875523,3.3534613
-31.397984,3.4072657,3.3865738
-31.429468,3.405869,3.3862543
-31.467592,3.3916838,3.3657284
-31.500414,3.3884208,3.3625655
-31.531412,3.388847,3.3652954
-31.56327,3.3878183,3.3657727
-31.590881,3.3945613,3.3785872
-31.615738,3.4059734,3.3988175
-31.646328,3.4072237,3.4030333
-31.688475,3.3891802,3.3768501
-31.719599,3.3901162,3.3806853
-31.752625,3.3880877,3.379898
-31.782837,3.3907213,3.3865113
-31.806154,3.4040751,3.4100475
-31.833195,3.4114037,3.4241319
-31.868229,3.4066768,3.4193
-31.908571,3.3944948,3.4028163
-31.944672,3.388987,3.396894
-31.973108,3.3946414,3.4085512
-31.998564,3.4043775,3.426652
-32.028606,3.4076636,3.4346795
-32.058983,3.4105308,3.4420996
-32.098038,3.4020138,3.431757
-32.132328,3.4000912,3.4318018
-32.16904,3.395292,3.4274144
-32.197605,3.4010131,3.439518
-32.222874,3.4107628,3.4579492
-32.258526,3.4077377,3.4565058
-32.29429,3.4048223,3.4552999
-32.337254,3.3936632,3.4413357
-32.372475,3.3919673,3.442172
-32.40007,3.3991833,3.456915
-32.42234,3.4123235,3.4808922
-32.45227,3.416739,3.4913683
-32.491932,3.4105468,3.4854646
-32.54123,3.3943067,3.464096
-32.58,3.3898516,3.4610562
-32.604626,3.4004745,3.48138
-32.631397,3.4087439,3.4981055
-32.662277,3.4127574,3.5083132
-32.694546,3.4154205,3.5164938
-32.742725,3.4024196,3.5006428
-32.78539,3.3953078,3.4939504
-32.8184,3.3978426,3.5021534
-32.845924,3.4056842,3.5185537
-32.87786,3.4093418,3.5285902
-32.909256,3.4135618,3.5395455
-32.95398,3.4056554,3.5320325
-32.997368,3.3993123,3.5270047
-33.02889,3.403863,3.5386777
-33.05666,3.4117637,3.5555058
-33.090725,3.4141612,3.5640144
-33.13613,3.4069376,3.5579815
-33.18284,3.3989522,3.5508986
-33.216026,3.4026403,3.561603
-33.243088,3.4114733,3.580153
-33.27561,3.4157994,3.59194
-33.313187,3.4161167,3.5977435
-33.393566,3.3824701,3.5524755
-33.414936,3.396278,3.578802
-33.443604,3.404253,3.5963945
-33.472157,3.412303,3.6141481
-33.48998,3.4285007,3.644153
-33.556274,3.4080653,3.6194053
-33.623074,3.3879004,3.5952425
-33.63779,3.4066277,3.6292267
-33.666786,3.4147415,3.6474214
-33.707947,3.4141176,3.652688
-33.75661,3.408364,3.650444
-33.822918,3.3905373,3.6304488
-33.85575,3.396524,3.6458368
-33.875862,3.411295,3.6742525
-33.904007,3.4204724,3.6944509
-33.935234,3.4275684,3.7116418
-33.97478,3.4291718,3.7208357
-34.035862,3.4167924,3.709642
-34.11105,3.3957093,3.6858969
-34.158348,3.393192,3.6894665
-34.18781,3.40226,3.71003
-34.215134,3.412672,3.7326045
-34.24433,3.4218957,3.7535057
-34.341938,3.3890314,3.7135453
-34.365177,3.4023337,3.7405815
-34.38202,3.4194112,3.7730944
-34.44008,3.4117713,3.7700706
-34.506023,3.3998458,3.761065
-34.569492,3.3898258,3.7549863
-34.57545,3.4134228,3.7971225
-34.608635,3.4211853,3.81666
-34.64173,3.4290483,3.8364177
-34.684063,3.4317956,3.8489943
-34.72352,3.4362907,3.864156
-34.786182,3.4281952,3.8616486
-47.139156,0.6565709,1.5709114
-47.076157,0.7340114,1.7027068
-47.091213,0.7867634,1.8071527
-47.131054,0.83173823,1.903161
-47.302406,0.8942499,2.066381
-48.119522,0.8293798,2.1505084
-48.137775,0.8824289,2.2577047
-47.119926,1.224829,2.657052
-47.04576,1.2996294,2.7828226
-47.077812,1.3446274,2.87858
-47.090492,1.3947432,2.9794168
-47.116493,1.4410765,3.0765643
-47.14463,1.4867053,3.173089
-47.150436,1.5380287,3.2750397
-47.193226,1.5795753,3.3678274
-47.237297,1.6207719,3.4604583
-47.334747,1.6485386,3.541123
-47.49443,1.6611705,3.6088328
-47.67485,1.6694095,3.6736379
-47.89324,1.6692636,3.7322993
-48.56768,1.5610421,3.7004685
-48.74192,1.5747662,3.7750607
-48.982964,1.5736678,3.8385773
-50.554955,1.2671139,3.6574736
-50.55414,1.3272388,3.7773037
-50.577454,1.381659,3.8925877
-50.599014,1.4363294,4.008114
-50.933357,1.4224496,4.0728064
-51.67169,1.3230429,4.07784
-52.617348,1.1834667,4.059875
-53.600548,1.0411432,4.0470862
-54.839622,0.85111666,4.0097055
-8.260029,0.7665639,2.7346606
-9.864601,1.0868108,2.9589033
-10.119783,1.0876617,2.8953447
-10.186457,1.0432434,2.7904706
-10.225422,0.99199057,2.6793451
-10.2425,0.93511605,2.5628872
-10.251005,0.8758197,2.4440322
-10.186188,0.797245,2.3059425
-20.110651,2.945129,4.041173
-19.597153,2.7548268,3.7985
-19.3406,2.6399019,3.6392903
-20.151897,2.8553903,3.8594565
-21.237526,3.16257,4.1901736
-21.298065,3.150846,4.153615
-21.43396,3.1635704,4.146074
-21.5615,3.1743128,4.1368055
-21.696772,3.1882782,4.131956
-21.842346,3.2064123,4.132717
-21.97157,3.2198768,4.1284947
-22.13926,3.2471192,4.141578
-22.20525,3.240449,4.1139774
-22.352774,3.2623298,4.1217203
-22.48495,3.279695,4.124527
-22.567085,3.280086,4.1068096
-22.719398,3.3060062,4.1213117
-22.812336,3.3113582,4.1106386
-22.9137,3.3202748,4.104837
-23.030254,3.33536,4.1072707
-23.113068,3.3385124,4.094969
-23.165897,3.33076,4.0690217
-23.22813,3.3267777,4.0481067
-23.358038,3.3491457,4.061474
-23.365204,3.3244998,4.0143223
-23.447495,3.3292437,4.0054703
-23.573925,3.351975,4.020483
-23.593187,3.3324304,3.9803915
-23.660042,3.3321252,3.9657357
-23.783833,3.355494,3.9827023
-23.790205,3.3309784,3.936402
-23.852709,3.3297749,3.9212263
-23.979618,3.3561134,3.9432034
-24.002707,3.3389,3.9070246
-24.089972,3.3493571,3.908276
-24.155993,3.3510501,3.8979523
-24.205849,3.3459392,3.8785887
-24.219795,3.3250048,3.8377695
-24.3517,3.3570356,3.8695173
-24.391888,3.3482876,3.8456943
-24.402246,3.3259244,3.803205
-24.522686,3.3544967,3.8311667
-24.590977,3.3594642,3.8268015
-24.617943,3.345213,3.7959027
-24.65207,3.3343613,3.7698026
-24.757797,3.3582022,3.7923622
-24.83236,3.3675604,3.7949448
-24.85111,3.349795,3.7595687
-24.894363,3.3441467,3.7413235
-24.949692,3.3447256,3.7320118
-25.022896,3.354678,3.7361684
-25.045158,3.3388526,3.703856
-25.097298,3.3384907,3.693646
-25.188404,3.358857,3.7132406
-25.250423,3.3644376,3.711917
-25.256153,3.340147,3.6678195
-25.325327,3.350008,3.6729202
-25.375484,3.3498864,3.6638026
-25.455631,3.366613,3.6792192
-25.475555,3.3502007,3.6467767
-25.524048,3.3498347,3.6377006
-25.581608,3.3548744,3.636632
-25.622204,3.3504424,3.6218815
-25.676708,3.3542624,3.6193109
-25.717245,3.3501387,3.6052294
-25.784534,3.3621154,3.6149168
-25.829002,3.3607988,3.605207
-25.893726,3.3720229,3.6141214
-25.898289,3.3466117,3.5690212
-25.94874,3.3494594,3.5657706
-25.99839,3.3520746,3.562302
-26.054491,3.3590696,3.5654721
-26.084196,3.349424,3.5439878
-26.12508,3.3470502,3.5334144
-26.181421,3.355006,3.5383835
-26.23111,3.3589149,3.5374327
-26.289537,3.3689969,3.5458694
-26.290878,3.3406382,3.4966636
-26.334734,3.341108,3.490828
-26.417664,3.368999,3.5264525
-26.444395,3.358141,3.5037665
-26.50067,3.3682756,3.5128894
-26.519005,3.3514957,3.4813623
-26.561735,3.3523018,3.476541
-26.610353,3.3576603,3.4787345
-26.654043,3.3596566,3.4759226
-26.712315,3.3728967,3.4903483
-26.718933,3.3471801,3.4454436
-26.758995,3.346888,3.4393845
-26.820196,3.3633108,3.4589977
-26.857681,3.361536,3.4508653
-26.910337,3.3720598,3.4616876
-26.92643,3.3533626,3.4277177
-26.967756,3.355104,3.42521
-27.006239,3.3547053,3.4194903
-27.053894,3.3621955,3.4260197
-27.095942,3.365273,3.4258375
-27.127743,3.3597603,3.412457
-27.166462,3.3603277,3.4085464
-27.198318,3.3550096,3.3955874
-27.241608,3.3599796,3.3986516
-27.28012,3.3609118,3.395533
-27.315514,3.3591692,3.3883276
-27.344873,3.351923,3.3726168
-27.37136,3.3419392,3.352683
-27.422062,3.3550508,3.3688297
-27.467072,3.3631613,3.377276
-27.496479,3.3563044,3.3624086
-27.537855,3.3613687,3.366249
-27.561226,3.3485184,3.3420997
-27.597826,3.3490472,3.338962
-27.643991,3.3597133,3.3518066
-27.688047,3.3686259,3.361991
-27.72021,3.3652155,3.3528833
-27.750628,3.359971,3.340941
-27.78592,3.3601089,3.3375278
-27.833237,3.3738804,3.3556757
-27.874655,3.3815231,3.3642497
-27.912067,3.3849344,3.36622
-27.934835,3.371439,3.3415294
-27.969324,3.3716338,3.3385243
-27.99932,3.3665562,3.3272295
-28.038145,3.3723264,3.3331718
-28.077972,3.3796918,3.3417149
-28.112555,3.3807948,3.340394
-28.13906,3.3716567,3.3228655
-28.164227,3.3606048,3.3023305
-28.197006,3.359496,3.2976413
-28.230133,3.3589742,3.293939
-28.281168,3.3833628,3.3299675
-28.307947,3.3746197,3.3132963
-28.339056,3.3719172,3.3062935
-28.369503,3.3682995,3.2978787
-28.399323,3.3637624,3.288041
-28.434162,3.3668132,3.290372
-28.472786,3.3759851,3.302548
-28.507019,3.3787475,3.3045378
-28.537712,3.3760731,3.297883
-28.566895,3.37096,3.2873683
-28.59134,3.3578434,3.264069
-28.62403,3.3584266,3.262764
-28.662756,3.369734,3.2787118
-28.701189,3.381163,3.2949233
-28.732376,3.3800168,3.29101
-28.762197,3.3764122,3.2831945
-28.791004,3.3708472,3.2722716
-28.821995,3.369433,3.2680616
-28.854769,3.3716745,3.269781
-28.892435,3.3842309,3.2881522
-28.92954,3.3963919,3.3059506
-28.957338,3.3891945,3.2926297
-28.985506,3.3825762,3.2802806
-29.014927,3.3785949,3.2722192
-29.043755,3.3731456,3.2618313
-29.0778,3.3801217,3.2715306
-29.111658,3.3871946,3.2814398
-29.143116,3.3886914,3.2823997
-29.173542,3.3876908,3.2793741
-29.199993,3.3759172,3.2589874
-29.231644,3.37817,3.261302
-29.261803,3.3763666,3.2571058
-29.296267,3.387596,3.2740264
-29.328135,3.3916636,3.279419
-29.35989,3.3958187,3.2850003
-29.386475,3.382918,3.2630277
-29.414665,3.3747563,3.2487588
-29.442041,3.3630214,3.2287426
-29.474401,3.3695695,3.2383704
-29.510984,3.3939173,3.2768798
-29.539356,3.3860588,3.2632685
-29.56942,3.3850493,3.2607946
-29.598715,3.380465,3.2525682
-29.626425,3.3676004,3.230959
-29.656002,3.3631597,3.223044
-29.687712,3.3702908,3.2339358
-29.722282,3.3958063,3.274692
-29.751328,3.389515,3.263908
-29.781332,3.389052,3.2626185
-29.810514,3.3823855,3.2513056
-29.84028,3.3794572,3.2460995
-29.87005,3.376081,3.2402077
-29.900295,3.3769722,3.2412825
-29.93166,3.3915658,3.2646408
-29.96173,3.3931394,3.2669106
-29.99166,3.3932185,3.266796
-30.020962,3.380791,3.2464209
-30.050867,3.3768277,3.2398267
-30.080969,3.377136,3.2402096
-30.111177,3.385388,3.253532
-30.141212,3.4000108,3.2772393
-30.171055,3.3974047,3.2730165
-30.200851,3.400119,3.277474
-30.231136,3.385605,3.2540026
-30.26087,3.39162,3.2639017
-30.290756,3.3924677,3.2654538
-30.321009,3.387626,3.2578125
-30.350225,3.3975375,3.2741613
-30.380064,3.3980901,3.27536
-30.409843,3.3992436,3.2775755
-30.440784,3.3899996,3.262959
-30.472078,3.379791,3.2468228
-30.502542,3.3775177,3.243607
-30.532602,3.378462,3.245654
-30.560053,3.3956952,3.274166
-30.588457,3.4051514,3.2900982
-30.619812,3.3974335,3.2782207
-30.652782,3.3824902,3.254674
-30.685028,3.3728592,3.239791
-30.715345,3.3732293,3.2411647
-30.744104,3.380456,3.2536917
-30.77044,3.3971324,3.2815657
-30.798779,3.4044933,3.2943835
-30.828892,3.4046378,3.2955537
-30.866514,3.377819,3.2531147
-30.897112,3.3776205,3.2538257
-30.926325,3.3821752,3.2622733
-30.955936,3.385246,3.2683616
-30.982464,3.3977242,3.2897038
-31.013597,3.3957577,3.287724
-31.044796,3.393875,3.2859278
-31.076986,3.389491,3.2801352
-31.11295,3.3753815,3.2586823
-31.143513,3.3763463,3.2616315
-31.170605,3.386156,3.2789016
-31.195599,3.4006627,3.3037848
-31.22633,3.4008152,3.3055449
-31.263073,3.3871741,3.2851086
-31.30061,3.3726196,3.2632623
-31.331726,3.3730514,3.265626
-31.35902,3.3817604,3.2813663
-31.38835,3.3859286,3.289832
-31.41962,3.3860838,3.2918835
-31.447311,3.3934665,3.305605
-31.48671,3.3779857,3.282607
-31.525145,3.365176,3.2639718
-31.557302,3.3646824,3.2651882
-31.578264,3.3845758,3.2991815
-31.60855,3.3872712,3.3055959
-31.634705,3.3971288,3.323542
-31.674988,3.382795,3.3027453
-31.714718,3.370106,3.2846584
-31.746405,3.3711433,3.2886214
-31.776836,3.374278,3.2959895
-31.804659,3.3815095,3.3099546
-31.83333,3.387303,3.32166
-31.86357,3.3906665,3.329523
-31.904947,3.377626,3.3112454
-31.943903,3.3687122,3.2996297
-31.975746,3.370374,3.3049464
-32.002605,3.3790784,3.3215346
-32.031837,3.3843734,3.3327289
-32.059147,3.392217,3.3480215
-32.09527,3.3882694,3.344603
-32.140606,3.372599,3.3226228
-32.17635,3.36988,3.3212967
-32.203236,3.3785625,3.3381233
-32.2272,3.3907375,3.3605223
-32.260548,3.391223,3.3644314
-32.291897,3.3942447,3.3724103
-32.333935,3.3846917,3.3605514
-32.37164,3.380625,3.3574457
-32.41075,3.3752217,3.3523002
-32.43503,3.3868735,3.374136
-32.465607,3.3913355,3.3846674
-32.505795,3.3852875,3.378694
-32.548836,3.376489,3.3684711
-32.59168,3.3683157,3.3593192
-32.613327,3.3827548,3.385769
-32.644844,3.3867383,3.3958344
-32.680992,3.3860528,3.398632
-32.71579,3.386901,3.4038992
-32.75682,3.381702,3.399766
-32.795612,3.3789988,3.3996177
-32.827682,3.3830104,3.4100294
-32.850834,3.3955626,3.4338179
-32.88373,3.3987951,3.443111
-32.93273,3.3871813,3.4293547
-32.978485,3.3790047,3.421051
-33.019848,3.3751678,3.4195862
-33.05044,3.3811913,3.4335032
-33.077812,3.390067,3.4518905
-33.112457,3.3925653,3.4604487
-33.153526,3.3896606,3.46072
-33.199036,3.3832335,3.455638
-33.246384,3.3755975,3.448793
-33.2659,3.391322,3.4780307
-33.288456,3.4043527,3.5031419
-33.327034,3.4043207,3.508214
-33.39677,3.3796422,3.4755554
-33.43118,3.3835335,3.4868484
-33.47132,3.3830526,3.4915175
-33.490643,3.3987603,3.521006
-33.528408,3.40027,3.5288482
-33.598076,3.3779788,3.5005097
-33.636166,3.3798132,3.509057
-33.65448,3.3962877,3.5399203
-33.69306,3.3978772,3.5482225
-33.742645,3.3917303,3.5448904
-33.781986,3.3931646,3.553142
-33.826935,3.3908257,3.555781
-33.875122,3.3864846,3.5555096
-33.882614,3.4102995,3.5977187
-33.933983,3.4040604,3.5947595
-33.971523,3.4074125,3.6063113
-34.014843,3.4070559,3.612392
-34.069893,3.39922,3.6073985
-34.140175,3.3818843,3.588376
-34.171516,3.3900719,3.6075563
-34.200768,3.3996048,3.6287956
-34.24253,3.40129,3.6384482
-34.278297,3.406858,3.6539469
-34.35787,3.3856473,3.62995
-34.389076,3.3944361,3.650434
-34.420853,3.4029047,3.6705089
-34.458023,3.4081972,3.6859822
-34.526306,3.3953092,3.6748896
-34.573345,3.3952537,3.682767
-34.608543,3.4022224,3.7010174
-34.650723,3.4052882,3.7136621
-34.68156,3.4148922,3.7359133
-34.741535,3.4082806,3.734716
-34.77588,3.4161568,3.7546492
-47.084076,0.72368693,1.4235802
-47.059128,0.7892046,1.5430708
-47.06771,0.84400845,1.6501846
-47.017097,0.9162111,1.7767429
-47.265366,0.9561696,1.9133615
-47.32069,0.996752,2.0050635
-48.035797,0.9649775,2.117816
-48.106766,1.0030444,2.209206
-48.135334,1.0528014,2.3130884
-47.005398,1.4152207,2.7401562
-47.057007,1.4548452,2.8303528
-47.093998,1.4983411,2.9246593
-47.115334,1.5458434,3.0230818
-47.13597,1.5933607,3.121539
-47.17852,1.63514,3.214408
-47.178917,1.6874857,3.3176203
-47.207863,1.7324648,3.413714
-47.25605,1.7726245,3.5053587
-47.376774,1.7952416,3.5809565
-47.585663,1.7972379,3.6384077
-47.78405,1.8027012,3.7002344
-47.93368,1.8204556,3.7741442
-48.55076,1.7312472,3.7558012
-48.81562,1.7254591,3.8129387
-50.548805,1.3916636,3.5958781
-50.55856,1.4492333,3.7138448
-50.58191,1.5036142,3.8291807
-50.567825,1.5659277,3.9508638
-50.60885,1.616179,4.062959
-51.28347,1.5334969,4.07419
-52.03274,1.4389808,4.0814667
-53.084755,1.2867038,4.052333
-54.033794,1.1608605,4.0496655
-5.9530563,0.6377826,2.7484326
-6.537466,0.69708943,2.7225528
-7.3800755,0.8179002,2.7563276
-8.0594425,0.9059737,2.7650805
-8.7326145,0.9963286,2.78014
-9.422371,1.0942891,2.8065224
-9.911129,1.1482208,2.7945518
-10.174376,1.1504116,2.734851
-10.242693,1.106286,2.6307473
-10.27389,1.0530782,2.5178323
-10.260656,0.9886124,2.393561
-10.1826,0.90730286,2.2518044
-10.30261,0.81388664,2.0391994
-20.254707,3.0449662,4.0624433
-19.455997,2.773077,3.7198696
-20.135046,2.9419484,3.891025
-20.149254,2.9121056,3.830399
-21.234692,3.2130604,4.163925
-21.361778,3.2219079,4.152379
-21.44649,3.2180386,4.1260414
-21.599087,3.236227,4.1268597
-21.74234,3.2522564,4.1257176
-21.887861,3.269826,4.127097
-22.048893,3.2933364,4.136464
-22.132599,3.291987,4.11559
-22.24967,3.3022795,4.1096234
-22.38311,3.318789,4.111969
-22.509144,3.3335075,4.1126075
-22.577309,3.3287764,4.089024
-22.684536,3.3380885,4.083651
-22.742174,3.330331,4.0567703
-22.80504,3.3246655,4.032792
-22.951258,3.3495598,4.0486946
-22.954788,3.3229136,3.9979916
-23.08754,3.3440566,4.00984
-23.161991,3.3441234,3.994483
-23.1483,3.3111033,3.935672
-23.317347,3.3477893,3.969253
-23.369617,3.340355,3.9447036
-23.400185,3.3246021,3.90919
-23.529335,3.3478565,3.9261596
-23.579044,3.3401706,3.9018812
-23.59822,3.320312,3.8612711
-23.714874,3.3401542,3.874651
-23.771164,3.3358302,3.855486
-23.837244,3.335812,3.8423924
-23.94551,3.3538742,3.8543591
-23.991783,3.3462338,3.8312676
-24.050205,3.3439627,3.8157368
-24.126236,3.3495948,3.811359
-24.190868,3.3506365,3.8008356
-24.197334,3.326183,3.754888
-24.290495,3.340376,3.7630882
-24.390354,3.3581882,3.776689
-24.399572,3.3351665,3.7330294
-24.480974,3.3453288,3.7362986
-24.573719,3.3612819,3.748044
-24.617348,3.3546505,3.7279549
-24.629498,3.33313,3.6867328
-24.756004,3.3665638,3.7241426
-24.817013,3.3690543,3.717577
-24.85213,3.359113,3.6933022
-24.87833,3.3447843,3.6627793
-24.963188,3.3598986,3.674882
-25.040926,3.3719707,3.6828346
-25.023441,3.3356667,3.6207108
-25.100996,3.3481483,3.6295533
-25.178196,3.3609562,3.639102
-25.22806,3.3597999,3.628437
-25.245972,3.3417552,3.5931191
-25.311745,3.349463,3.5956903
-25.382992,3.3605695,3.603454
-25.440382,3.3644915,3.6008077
-25.44876,3.3413534,3.5582561
-25.534945,3.3618793,3.58046
-25.578644,3.358834,3.567874
-25.630663,3.3607502,3.5627813
-25.645267,3.3411212,3.5256615
-25.700699,3.3453507,3.5242267
-25.766178,3.3558836,3.5323777
-25.81577,3.3572974,3.5270133
