x,y,z
-32.25063,2.7972925,3.9976106
-32.28541,2.7916222,3.9973502
-32.322403,2.7829819,3.9939933
-32.3553,2.7806082,3.9975376
-32.3917,2.773425,3.9960027
-32.430855,2.7626836,3.9907637
-32.466232,2.757576,3.9917235
-32.499928,2.7550201,3.9955416
-32.537743,2.7470856,3.9937139
-32.574795,2.740491,3.993456
-32.600426,2.7491846,4.0096307
-32.643204,2.7355347,4.0020967
-32.68056,2.729286,4.002588
-19.921206,0.8436191,4.155143
-20.08052,0.8818619,4.140118
-20.25991,0.9312818,4.1335497
-20.47193,0.99859214,4.1401367
-20.618671,1.0335171,4.1264644
-20.794615,1.0845697,4.1247506
-20.982592,1.1431012,4.1293936
-21.188335,1.212327,4.142763
-21.330446,1.2489264,4.134692
-21.435417,1.2663684,4.1140056
-21.606686,1.3204567,4.1201906
-21.785557,1.37989,4.131389
-21.881153,1.3945038,4.1111465
-22.035776,1.4425578,4.1160784
-22.204523,1.4996219,4.1287136
-22.287668,1.5093315,4.10704
-22.469866,1.5761211,4.128931
-22.562113,1.5923891,4.1135883
-22.679157,1.6235979,4.1102624
-22.82069,1.669939,4.11937
-22.889599,1.6743336,4.096688
-23.062027,1.7408011,4.123139
-23.122473,1.7412424,4.09846
-23.261925,1.7898607,4.112504
-23.322823,1.7914557,4.0896683
-23.485527,1.856138,4.1181655
-23.522552,1.8439035,4.0850663
-23.670773,1.9014939,4.10936
-23.728523,1.9029909,4.088284
-23.848572,1.9445171,4.1007557
-23.94122,1.9693147,4.0999627
-24.020554,1.9860919,4.092954
-24.139847,2.0295606,4.1089797
-24.20264,2.03662,4.0947056
-24.359987,2.1070817,4.1350756
-24.4064,2.1043146,4.1132994
-24.503433,2.1360567,4.1216474
-24.58445,2.157577,4.1216364
-24.65557,2.1728249,4.1165724
-24.735977,2.195005,4.117992
-24.79856,2.2052221,4.1092496
-24.882,2.2306075,4.114333
-24.97082,2.2604797,4.123884
-25.019741,2.2622337,4.1086264
-25.067915,2.2636473,4.0932856
-25.175623,2.3090725,4.118154
-25.223396,2.3109884,4.103902
-25.291464,2.328317,4.104006
-25.36274,2.348559,4.1071396
-25.428146,2.3648624,4.1069927
-25.485023,2.3750591,4.1014934
-25.5431,2.386542,4.097468
-25.630253,2.421229,4.1154866
-25.668148,2.4176912,4.0979567
-25.70743,2.415353,4.081712
-25.806187,2.461166,4.111366
-25.849781,2.4630294,4.0996294
-25.89729,2.4683032,4.0913444
-25.949287,2.477563,4.0871005
-26.013489,2.4973986,4.093297
-26.065079,2.5070808,4.0899677
-26.097235,2.500466,4.071025
-26.147339,2.5093827,4.0673513
-26.230844,2.5477912,4.092782
-26.27536,2.5527287,4.085739
-26.311666,2.5505934,4.071906
-26.360388,2.559729,4.0693655
-26.418789,2.5779939,4.0761013
-26.477488,2.5970483,4.0838895
-26.51222,2.594396,4.070251
-26.558409,2.6025684,4.0675936
-26.616985,2.6227844,4.0772448
-26.68706,2.6545734,4.09884
-26.713108,2.644572,4.0784698
-26.75796,2.6528792,4.0767612
-26.807283,2.665919,4.080055
-26.86211,2.6848736,4.0896
-26.908075,2.69542,4.090775
-26.945951,2.6980686,4.0840282
-26.989359,2.7066164,4.083499
-27.04148,2.72458,4.092867
-27.096031,2.745643,4.105668
-27.122974,2.7378294,4.088727
-27.15921,2.739998,4.0822554
-27.201813,2.7492979,4.083357
-27.247953,2.7628484,4.0890713
-27.292274,2.7748036,4.093301
-27.32805,2.7775004,4.087973
-27.357067,2.7726426,4.074811
-27.397375,2.780872,4.075564
-27.437527,2.7892385,4.076613
-27.479021,2.7995236,4.07985
-27.522799,2.8129277,4.086564
-27.552608,2.809789,4.0758142
-27.585365,2.8103201,4.069078
-27.620016,2.813346,4.065121
-27.65982,2.8230813,4.0684814
-27.704609,2.8395662,4.079244
-27.736094,2.8393412,4.0721836
-27.76297,2.8331723,4.0588083
-27.797657,2.8373556,4.0567036
-27.834053,2.8440719,4.0574613
-27.868097,2.8478694,4.0551786
-27.915215,2.870022,4.0729713
-27.942005,2.8643134,4.060594
-27.967594,2.856842,4.046367
-27.999638,2.8586078,4.042308
-28.03873,2.8708847,4.0498643
-28.073061,2.8765416,4.0502977
-28.11704,2.8970609,4.0671797
-28.149008,2.8998775,4.0647397
-28.174574,2.8929188,4.0516253
-28.203764,2.8915842,4.0447865
-28.236813,2.8965192,4.0449705
-28.27242,2.9058948,4.0501785
-28.311218,2.920971,4.0618315
-28.346786,2.931203,4.06824
-28.374891,2.9290943,4.06104
-28.401588,2.9245667,4.0512238
-28.42835,2.9201083,4.0415564
-28.459343,2.923224,4.0404234
-28.492996,2.931441,4.0450926
-28.531534,2.9491704,4.060527
-28.558178,2.9450452,4.0515833
-28.589432,2.949794,4.0526767
-28.617075,2.9477074,4.04618
-28.64694,2.950108,4.0448112
-28.675209,2.9494364,4.040069
-28.704386,2.9507382,4.037633
-28.737982,2.9616153,4.046097
-28.774578,2.979566,4.062669
-28.801414,2.9766998,4.0557976
-28.827728,2.9726334,4.047637
-28.854929,2.9705412,4.041786
-28.884575,2.9742494,4.042596
-28.915195,2.9805903,4.046485
-28.948267,2.9933996,4.057823
-28.979086,3.0012012,4.0635643
-29.005571,2.9982262,4.0571136
-29.030657,2.9914799,4.046431
-29.058435,2.99184,4.0439243
-29.086885,2.9941974,4.043778
-29.118408,3.0056152,4.0540724
-29.148628,3.0139155,4.0608935
-29.1806,3.0280876,4.0745306
-29.204685,3.0185542,4.0610905
-29.229933,3.0122957,4.051466
-29.255482,3.0067441,4.042715
-29.282629,3.006414,4.0400276
-29.31124,3.0113173,4.043428
-29.33621,3.003384,4.0321436
-29.368511,3.0226512,4.0522265
-29.395824,3.0239103,4.051669
-29.423906,3.0284762,4.0549965
-29.448977,3.0208175,4.0443068
-29.475067,3.0171065,4.0382323
-29.50207,3.0173507,4.03679
-29.530151,3.022854,4.0414915
-29.554214,3.0089664,4.0238695
-29.587498,3.0418782,4.0603905
-29.613173,3.0365694,4.0528235
-29.638937,3.0313249,4.0453963
-29.664364,3.0235443,4.0351
-29.690432,3.0190787,4.028704
-29.717432,3.0205345,4.029231
-29.744045,3.0194569,4.026895
-29.771093,3.0217032,4.028479
-29.799572,3.0363953,4.044558
-29.826704,3.0413923,4.0494766
-29.8515,3.0243032,4.028858
-29.878103,3.0235703,4.0272694
-29.904661,3.0222538,4.025071
-29.93134,3.0223098,4.024536
-29.95814,3.024391,4.0264187
-29.984388,3.017409,4.0178537
-30.012506,3.0476818,4.0525956
-30.038963,3.048667,4.053417
-30.064405,3.0151353,4.014239
-30.091263,3.022781,4.0229273
-30.117962,3.0285378,4.0294933
-30.14455,3.0304475,4.0316625
-30.171116,3.030468,4.0317063
-30.197767,3.0253353,4.025837
-30.223963,3.0418062,4.0451155
-30.25047,3.0407252,4.0440865
-30.277533,3.027316,4.028817
-30.304462,3.0211544,4.022031
-30.331305,3.0183244,4.0191813
-30.357967,3.018824,4.020265
-30.385038,3.0141768,4.015447
-30.41075,3.025897,4.0296845
-30.43625,3.037681,4.044059
-30.462862,3.037148,4.044217
-30.490543,3.0275636,4.0339546
-30.518562,3.0167513,4.0223446
-30.545908,3.0125253,4.0184393
-30.572027,3.0174813,4.025241
-30.598951,3.0166488,4.025408
-30.623796,3.0288901,4.0407753
-30.649532,3.0346913,4.048752
-30.677498,3.027564,4.0418434
-30.706944,3.0133688,4.026842
-30.736006,3.002503,4.015772
-30.763527,3.0001516,4.014617
-30.790674,2.9998174,4.0158644
-30.81725,3.0021458,4.0202565
-30.841665,3.0136087,4.0352497
-30.867926,3.016715,4.0406694
-30.896585,3.0101857,4.035059
-30.926214,3.000504,4.025899
-30.955322,2.9934902,4.0198956
-30.983662,2.9897852,4.0177774
-31.010206,2.9926069,4.023238
-31.036516,2.996141,4.0295854
-31.061382,3.0042493,4.04125
-31.091003,2.9969733,4.0353346
-31.12139,2.9878526,4.0273914
-31.151299,2.9807472,4.021846
-31.179798,2.9782202,4.0216246
-31.210163,2.9706407,4.015709
-31.23788,2.9708366,4.0187635
-31.261555,2.981988,4.034395
-31.289185,2.9823208,4.0377464
-31.321562,2.9705899,4.0274296
-31.354666,2.9576802,4.0158744
-31.385921,2.9499733,4.010338
-31.415724,2.9461792,4.0093417
-31.445059,2.9437408,4.0099716
-31.466383,2.9598122,4.03167
-31.502466,2.942284,4.0153584
-31.530193,2.9438925,4.020817
-31.55967,2.9417748,4.022142
-31.5925,2.9327826,4.015793
-31.62305,2.9289443,4.0153575
-31.653994,2.9245634,4.0144033
-31.684706,2.9209018,4.0143538
-31.718401,2.911666,4.0081325
-31.749971,2.9069333,4.0070744
-31.78364,2.8985286,4.001998
-31.794046,2.9334695,4.045547
-31.827652,2.9252126,4.0407906
-31.867374,2.9064364,4.024401
-31.901384,2.8984036,4.020132
-31.939163,2.8842463,4.009156
-31.975002,2.8739471,4.002602
-32.00731,2.869975,4.003192
-32.037434,2.8698208,4.008117
-32.07447,2.858605,4.0008893
-32.108997,2.8518386,3.9987073
-32.142864,2.846414,3.9981213
-32.17405,2.845408,4.0025134
-32.20931,2.8383398,4.000335
-32.24388,2.8326118,3.9997478
-32.276497,2.8300576,4.002755
-32.31169,2.8239288,4.001955
-32.34828,2.8160782,3.9993954
-32.38287,2.8113947,4.0004153
-32.419296,2.8043847,3.99902
-32.457626,2.795061,3.9952393
-32.492558,2.790717,3.996994
-32.53074,2.7822447,3.9944005
-32.55948,2.7865853,4.0057845
-32.589546,2.7891946,4.015386
-32.61865,2.7930925,4.0264654
-32.663776,2.7766504,4.0157948
-19.578491,0.81879663,4.1558104
-19.768208,0.8692689,4.147152
-20.013294,0.9483402,4.1585574
-20.13134,0.96560526,4.130816
-20.325335,1.0217249,4.1298847
-20.55106,1.0952082,4.1420803
-20.755499,1.1593289,4.149463
-20.937141,1.2130516,4.15108
-21.006714,1.2096276,4.1139727
-21.204231,1.2735994,4.1249037
-21.413525,1.3451614,4.1426134
-21.557583,1.3833876,4.1377325
-21.657043,1.39853,4.117005
-21.824348,1.4510181,4.1243324
-21.982716,1.4997637,4.1299996
-22.064693,1.5074406,4.105991
-22.251595,1.573894,4.1268206
-22.403288,1.621968,4.134903
-22.489216,1.6338873,4.1162195
-22.646355,1.6868975,4.1298423
-22.708277,1.6862471,4.10262
-22.879631,1.7493439,4.1258516
-22.95557,1.7579007,4.106977
-23.111195,1.813878,4.1263876
-23.153208,1.8033969,4.093338
-23.323559,1.8700306,4.122947
-23.386604,1.8730439,4.1017323
-23.521,1.9199133,4.116883
-23.575064,1.9183137,4.092765
-23.71857,1.9724866,4.1153617
-23.75293,1.9593925,4.0824547
-23.8915,2.0121715,4.105256
-23.948002,2.0137355,4.0854154
-24.070896,2.0582438,4.102545
-24.153624,2.0776672,4.0988426
-24.264038,2.115759,4.1117377
-24.370123,2.1518579,4.123541
-24.434484,2.1609888,4.112364
-24.556818,2.2094407,4.136108
-24.602066,2.2066665,4.1152506
-24.681274,2.2272651,4.115387
-24.78291,2.2639,4.130287
-24.826324,2.26082,4.110058
-24.911156,2.2869768,4.116436
-25.003525,2.31913,4.1287184
-25.032911,2.3069687,4.10106
-25.0939,2.3175824,4.094388
-25.206562,2.3662262,4.1230655
-25.245012,2.3613505,4.102814
-25.305998,2.3732817,4.0983543
-25.40728,2.4157934,4.1227694
-25.43917,2.4067907,4.099378
-25.50845,2.4263191,4.103002
-25.593866,2.4588146,4.1192517
-25.64672,2.4667578,4.112598
-25.683855,2.4626675,4.094696
-25.741909,2.4752407,4.092918
-25.823837,2.5073142,4.1101894
-25.850061,2.4951582,4.0851226
-25.905527,2.5067735,4.083204
-25.974571,2.529952,4.0928063
-26.03997,2.5507038,4.1003714
-26.071346,2.54344,4.080751
-26.108616,2.5411763,4.0661626
-26.191889,2.578428,4.09079
-26.249172,2.5940847,4.094407
-26.278473,2.585747,4.074393
-26.335407,2.601778,4.078822
-26.380268,2.6075115,4.073186
-26.433643,2.6211786,4.0757146
-26.487392,2.6356053,4.0792465
-26.522062,2.6329284,4.065699
-26.576042,2.6482763,4.0705833
-26.638123,2.6716917,4.0839233
-26.692085,2.6880357,4.0903225
-26.73222,2.691604,4.0838604
-26.776949,2.699836,4.0823507
-26.829632,2.716173,4.0893784
-26.8849,2.7355556,4.0997825
-26.908487,2.7237763,4.078117
-26.959938,2.7400732,4.085703
-27.006058,2.7514048,4.088331
-27.048634,2.7594543,4.0877147
-27.11253,2.7901254,4.1109805
-27.14315,2.7863972,4.0983796
-27.180304,2.7897062,4.0932937
-27.21899,2.794878,4.09031
-27.269257,2.8129783,4.1011615
-27.301308,2.8114412,4.091376
-27.336496,2.8135068,4.0855284
-27.370083,2.8139265,4.0780506
-27.404156,2.8150368,4.071424
-27.444263,2.8233147,4.072593
-27.48772,2.835857,4.078492
-27.530449,2.8479624,4.0840893
-27.559206,2.8436341,4.0721235
-27.589478,2.8411653,4.062255
-27.626984,2.8477054,4.062237
-27.668165,2.859136,4.0676622
-27.710073,2.871904,4.074695
-27.744764,2.8758416,4.0722623
-27.771547,2.8696952,4.058935
-27.803879,2.8708267,4.053645
-27.839771,2.8768706,4.0538445
-27.890211,2.9029331,4.0761504
-27.923927,2.906828,4.0742707
-27.954956,2.907195,4.0686135
-27.977816,2.8961303,4.0504303
-28.011436,2.9003038,4.0491548
-28.043716,2.9027548,4.0460796
-28.082952,2.915668,4.05472
-28.12154,2.9281027,4.0629663
-28.156273,2.9351602,4.065362
-28.181347,2.92762,4.051594
-28.210451,2.926278,4.044812
-28.243423,2.9311652,4.045085
-28.279716,2.9416962,4.0517845
-28.31806,2.9560452,4.062891
-28.353548,2.9661975,4.069416
-28.376827,2.9560466,4.0532155
-28.40565,2.9552422,4.047599
-28.438004,2.9607224,4.0491557
-28.466768,2.9600854,4.043904
-28.497927,2.9638848,4.0437517
-28.539776,2.9877176,4.0663867
-28.571255,2.9929745,4.0681057
-28.596767,2.987077,4.0572543
-28.623331,2.9831195,4.0486736
-28.654041,2.9873753,4.049513
-28.68219,2.9867017,4.0448256
-28.71428,2.9942703,4.0496206
-28.752174,3.0145135,4.0689898
-28.779182,3.0122151,4.0627146
-28.805935,3.009356,4.055871
-28.832165,3.0053053,4.0477333
-28.859282,3.0032163,4.041914
-28.887232,3.003096,4.0384274
-28.9186,3.0112834,4.0445633
-28.953423,3.028438,4.0611076
-28.981365,3.0292044,4.0588975
-29.007559,3.0256004,4.051728
-29.033083,3.0201552,4.0425034
-29.060577,3.0198646,4.0392914
-29.089214,3.0228324,4.039919
-29.120693,3.0341682,4.0502996
-29.154575,3.0532553,4.069744
-29.182161,3.0545633,4.0687084
-29.206621,3.0463567,4.0567226
-29.232222,3.0414069,4.0485716
-29.258293,3.0378017,4.0420456
-29.285933,3.0393891,4.0416155
-29.313354,3.040409,4.040601
-29.340038,3.038935,4.036759
-29.37412,3.065144,4.0651913
-29.402084,3.06961,4.068422
-29.4266,3.0606482,4.0560894
-29.45127,3.0517454,4.0438843
-29.47728,3.048052,4.037812
-29.504776,3.0508666,4.039399
-29.53249,3.0550437,4.0426474
-29.55842,3.0509114,4.0362687
-29.588917,3.0700731,4.057164
-29.614773,3.0660825,4.051094
-29.640244,3.0595746,4.042145
-29.666258,3.0557132,4.036356
-29.69203,3.0499797,4.028441
-29.718956,3.0514235,4.02899
-29.746029,3.0542312,4.031205
-29.774473,3.0681105,4.0464573
-29.802425,3.0801263,4.0596027
-29.828066,3.0734394,4.050912
-29.854223,3.0707026,4.0469146
-29.879942,3.06285,4.0369873
-29.906456,3.062838,4.036316
-29.932674,3.0590057,4.031232
-29.959345,3.0610738,4.0331364
-29.986633,3.074882,4.0488772
-30.013054,3.075793,4.0495625
-30.039433,3.0761232,4.049633
-30.065365,3.061604,4.0323505
-30.091719,3.054935,4.024342
-30.118279,3.0561166,4.025614
-30.144815,3.0580149,4.027794
-30.171318,3.0599816,4.0301228
-30.19767,3.0691516,4.04097
-30.223984,3.0731993,4.0458746
-30.250315,3.0747204,4.047882
-30.277327,3.0600967,4.0310183
-30.304262,3.0520296,4.0219145
-30.331104,3.0479217,4.0175257
-30.357517,3.0510142,4.0216494
-30.383564,3.0580616,4.030477
-30.40954,3.0645275,4.0386887
-30.435274,3.0723538,4.048559
-30.46233,3.0666451,4.042634
-30.489264,3.0629497,4.039139
-30.51822,3.043792,4.0176063
-30.54526,3.0415378,4.0159445
-30.571785,3.043234,4.018978
-30.597786,3.0482311,4.025941
-30.622337,3.0616956,4.042872
-30.64842,3.0648813,4.047843
-30.676548,3.05651,4.0393734
-30.705566,3.0443444,4.0265474
-30.734167,3.0354857,4.0176644
-30.762398,3.0292845,4.0119634
-30.789764,3.0276706,4.011691
-30.814396,3.038365,4.0258436
-30.838078,3.0523353,4.0438724
-30.863405,3.05864,4.0530252
-30.892216,3.0508652,4.045847
-30.923374,3.0348198,4.0291276
-30.951855,3.0297804,4.025299
-30.98025,3.02546,4.0223856
-31.006493,3.0289104,4.028575
-31.034218,3.0273023,4.02896
-31.05861,3.0366488,4.0421267
-31.085289,3.0383782,4.046522
-31.118656,3.0197296,4.0273833
-31.148056,3.0139537,4.0232496
-31.176462,3.0114503,4.022983
-31.205376,3.0077493,4.021412
-31.233202,3.0073123,4.0236917
-31.257467,3.016491,4.0371394
-31.280355,3.028903,4.054372
-31.317022,3.0058136,4.0307674
-31.348747,2.9961636,4.02275
-31.380915,2.9859738,4.0142097
-31.410873,2.9815779,4.0124207
-31.439829,2.9797955,4.0137186
-31.465488,2.9856703,4.0238748
-31.495028,2.9827778,4.0240564
-31.526077,2.9768188,4.0208163
-31.554586,2.976614,4.0242443
-31.58281,2.977116,4.0285587
-31.611954,2.975811,4.0308914
-31.64207,2.9727063,4.0312586
-31.675428,2.9634275,4.0246925
-31.706055,2.9598792,4.024741
-31.735113,2.959541,4.028526
-31.766195,2.9555426,4.0282454
-31.788864,2.9672027,4.045783
-31.822044,2.9596338,4.0416336
-31.851162,2.9596186,4.046118
-31.879936,2.9603043,4.0514765
-31.915222,2.9499261,4.0444613
-31.963194,2.918644,4.0140634
-32.000175,2.9066734,4.005533
-32.034355,2.899754,4.0027914
-32.06752,2.894787,4.0023475
-32.10779,2.8788643,3.9897642
-32.14283,2.8716657,3.987061
-32.170815,2.875597,3.9968767
-32.204014,2.8716571,3.998013
-32.23606,2.8696487,4.0014024
-32.269825,2.8652985,4.002295
-32.30494,2.8592286,4.001395
-32.34231,2.8502352,3.997383
-32.377262,2.8449993,3.9976463
-32.411007,2.8416867,4.0001445
-32.44925,2.8324425,3.9962335
-32.48498,2.82694,3.9965634
-32.52128,2.82095,3.996482
-32.552197,2.8222775,4.0045238
-32.576626,2.8320794,4.021904
-32.613075,2.826396,4.022486
-32.647747,2.823216,4.0259166
-19.303715,0.8442631,4.1754317
-19.466648,0.87900615,4.155503
-19.662169,0.9303372,4.1475673
-19.89515,1.0010211,4.1538353
-20.04454,1.0323966,4.135437
-20.233116,1.0839305,4.1317263
-20.462198,1.1567764,4.143944
-20.627201,1.1990688,4.1365976
-20.776379,1.2343912,4.1254954
-20.9947,1.3058305,4.1409707
-21.168999,1.3561645,4.1428604
-21.302221,1.3863671,4.131381
-21.407364,1.4027021,4.110653
-21.605204,1.468421,4.126974
-21.742983,1.5036333,4.1219406
-21.85954,1.5283492,4.1099215
-22.03622,1.5862288,4.1237545
-22.165115,1.619329,4.1198196
-22.287,1.6494033,4.114372
-22.456787,1.7067835,4.130907
-22.572788,1.7353446,4.1259623
-22.670532,1.7543564,4.1141925
-22.784203,1.78299,4.1106663
-22.888618,1.8070505,4.104166
-23.028017,1.8519843,4.1151633
-23.107635,1.8630757,4.0994687
-23.28819,1.9339405,4.1332545
-23.336954,1.9280952,4.104811
-23.478142,1.977662,4.1226997
-23.519606,1.9681394,4.0919595
-23.655874,2.0163686,4.1101027
-23.740812,2.0341425,4.1032195
-23.793697,2.0325937,4.080304
-23.94154,2.0905437,4.1088
-24.01016,2.0997996,4.0960646
-24.13752,2.1467617,4.1165075
-24.187307,2.1450129,4.095051
-24.342398,2.211554,4.1339736
-24.377392,2.2010937,4.1056137
-24.50554,2.2519784,4.13204
-24.576195,2.265769,4.1259823
-24.62064,2.2624307,4.1048656
-24.724968,2.2997165,4.12073
-24.785355,2.307877,4.1106653
-24.860228,2.3263426,4.1103287
-24.952988,2.3577526,4.1222844
-25.00402,2.3606606,4.1084023
-25.081615,2.382591,4.1124234
-25.153847,2.401272,4.113815
-25.208702,2.4079494,4.1043205
-25.27688,2.4246118,4.1044884
-25.359554,2.452394,4.11552
-25.422895,2.4665413,4.11402
-25.46236,2.463267,4.0961967
-25.535728,2.4856858,4.1031685
-25.617655,2.5152137,4.117354
-25.643787,2.5025516,4.0911613
-25.69793,2.5115576,4.086085
-25.785635,2.547204,4.107228
-25.845272,2.561483,4.107907
-25.881355,2.5573735,4.0907946
-25.927414,2.5613863,4.0818324
-26.007568,2.5934122,4.100802
-26.047358,2.593009,4.0879416
-26.083893,2.5900455,4.072684
-26.130764,2.5958474,4.0663385
-26.21463,2.633267,4.091955
-26.257837,2.636784,4.0838118
-26.292768,2.6333628,4.068822
-26.347782,2.6475568,4.0718403
-26.398811,2.65867,4.0719643
-26.463219,2.6820817,4.0848727
-26.486776,2.669331,4.0610127
-26.543978,2.6870694,4.0685616
-26.601469,2.7055864,4.0771675
-26.670012,2.7349021,4.0972004
-26.69466,2.7237613,4.0755687
-26.74601,2.7378588,4.080271
-26.794765,2.7499065,4.08305
-26.851421,2.7700105,4.0944653
-26.894482,2.7773619,4.09274
-26.936258,2.7837343,4.090155
-26.979607,2.7919528,4.08968
-27.019989,2.797483,4.08653
-27.079176,2.8225272,4.104241
-27.111443,2.8203826,4.0932837
-27.141542,2.816045,4.0800924
-27.17549,2.8158116,4.0713863
-27.237335,2.8456101,4.0949893
-27.275782,2.8508506,4.0924726
-27.314644,2.8567982,4.0908575
-27.338247,2.8460681,4.07138
-27.378044,2.8533998,4.071505
-27.416672,2.8597026,4.0706606
-27.461761,2.8737204,4.0783434
-27.508598,2.8902402,4.0889277
-27.536747,2.8852453,4.0762043
-27.565945,2.8815005,4.064932
-27.599085,2.882547,4.058999
-27.63363,2.8854647,4.0552316
-27.691454,2.9174562,4.0835896
-27.721367,2.915318,4.074539
-27.750366,2.912079,4.064361
-27.778482,2.9077315,4.0530415
-27.810757,2.9088225,4.0478373
-27.849302,2.9183695,4.052135
-27.897903,2.9418051,4.072036
-27.930233,2.9438438,4.0682554
-27.956425,2.937573,4.0552893
-27.98228,2.930767,4.041795
-28.0146,2.9330654,4.038578
-28.05189,2.9427073,4.0437117
-28.096018,2.9627542,4.060681
-28.129166,2.9672043,4.060236
-28.157785,2.9650803,4.052477
-28.182455,2.956955,4.0380135
-28.21901,2.9671578,4.044364
-28.249569,2.96833,4.040597
-28.284666,2.976922,4.0453477
-28.330486,3.0033724,4.0705237
-28.359901,3.0036342,4.066044
-28.386013,2.9984536,4.055443
-28.411844,2.9927254,4.0442843
-28.443775,2.997528,4.045235
-28.47491,3.0011935,4.044982
-28.511448,3.0148306,4.056254
-28.546713,3.0267315,4.0656548
-28.576115,3.0282183,4.0632014
-28.603844,3.0266876,4.0573597
-28.627743,3.0177808,4.0430956
-28.659658,3.0244725,4.046879
-28.685875,3.0200543,4.03793
-28.722786,3.0375185,4.054347
-28.755493,3.0469904,4.061636
-28.78363,3.0471897,4.058283
-28.81003,3.0437121,4.050743
-28.835638,3.0384235,4.041169
-28.862707,3.0363343,4.0353775
-28.894657,3.0456147,4.042882
-28.926426,3.054991,4.050595
-28.957499,3.0632045,4.057047
-28.98462,3.0620627,4.05268
-29.01101,3.0591018,4.04626
-29.036236,3.0530536,4.0363007
-29.0658,3.0584366,4.039771
-29.094337,3.0613742,4.0404625
-29.124155,3.0681882,4.0457735
-29.157986,3.0871205,4.065373
-29.184237,3.0846047,4.0599184
-29.210112,3.0808873,4.0531216
-29.234838,3.0734262,4.0419903
-29.260864,3.0698376,4.035471
-29.289028,3.0733104,4.037323
-29.316387,3.074314,4.036345
-29.343363,3.0741165,4.0340247
-29.376522,3.0969362,4.058898
-29.403778,3.0988088,4.0591736
-29.429388,3.0943723,4.052077
-29.453527,3.0836132,4.0375814
-29.480383,3.083774,4.036038
-29.507656,3.0859237,4.036914
-29.53543,3.0907047,4.040971
-29.563374,3.0968404,4.046705
-29.5922,3.1081753,4.0586643
-29.618425,3.1067758,4.0556293
-29.643085,3.0964684,4.0421133
-29.669003,3.0926347,4.0363235
-29.695189,3.090149,4.032197
-29.721703,3.089656,4.030497
-29.74876,3.0930839,4.0335135
-29.776842,3.1049337,4.046588
-29.8047,3.1168585,4.059827
-29.829958,3.1076503,4.0480614
-29.855444,3.0991464,4.0371943
-29.881327,3.093279,4.029519
-29.908672,3.103557,4.0410795
-29.934422,3.0952501,4.0306396
-29.961214,3.1005216,4.0363913
-29.988129,3.1097238,4.0468807
-30.014502,3.1112728,4.0483456
-30.040869,3.1135325,4.050723
-30.066624,3.0965478,4.0302987
-30.093172,3.1034493,4.0383234
-30.119436,3.0962548,4.029664
-30.145872,3.1103754,4.0464
-30.172188,3.1052477,4.04033
-30.198503,3.1059828,4.0412917
-30.224705,3.1106477,4.0469904
-30.251112,3.1070104,4.0428905
-30.27793,3.0957181,4.0297613
-30.303923,3.103804,4.0397224
-30.330656,3.0977983,4.0330095
-30.35713,3.0970097,4.0325613
-30.38388,3.093073,4.028442
-30.409082,3.1072135,4.0458536
-30.435368,3.1079133,4.047371
-30.461641,3.1086802,4.049033
-30.488508,3.104374,4.0447435
-30.51554,3.099496,4.0398455
-30.542925,3.0927625,4.0328164
-30.569223,3.0944486,4.0358405
-30.597578,3.0827258,4.02304
-30.621948,3.096739,4.0408063
-30.648396,3.097344,4.04275
-30.675419,3.0948138,4.041048
-30.703844,3.085308,4.0311623
-30.729618,3.0899665,4.038109
-30.755178,3.0953295,4.0459514
-30.784012,3.0854063,4.0357914
-30.813034,3.075564,4.0258074
-30.837984,3.0836902,4.037117
-30.86358,3.0886843,4.044791
-30.891874,3.0828958,4.039811
-30.92113,3.0739975,4.0312424
-30.950377,3.0658193,4.023604
-30.977968,3.06409,4.0236397
-31.005037,3.064343,4.026081
-31.031725,3.0659387,4.0301714
-31.057,3.07205,4.039637
-31.083807,3.0731454,4.043274
-31.113333,3.0660665,4.0373883
-31.14386,3.056538,4.028714
-31.17479,3.0464654,4.019492
-31.204775,3.0396457,4.014169
-31.231628,3.0417585,4.019381
-31.254868,3.0534105,4.0358124
-31.281576,3.0556529,4.0413055
-31.31251,3.047255,4.0344515
-31.346676,3.0313954,4.0189915
-31.37643,3.0269604,4.016946
-31.404936,3.0257506,4.0187383
-31.433748,3.0239913,4.0199704
-31.456747,3.0354705,4.036659
-31.494343,3.014453,4.0156918
-31.522755,3.014191,4.0189085
-31.552069,3.0121336,4.020126
-31.581432,3.010158,4.0215206
-31.610537,3.0088882,4.0238137
-31.640614,3.0058331,4.0241294
-31.672348,2.9997582,4.0210514
-31.704203,2.9937782,4.018179
-31.732227,2.9953284,4.024063
-31.76191,2.9938605,4.026558
-31.784142,3.006069,4.0448275
-31.818624,2.9961126,4.0377483
-31.843456,3.0035148,4.050645
-31.879593,2.9912915,4.041175
-31.912336,2.985328,4.03897
-31.947409,2.9757855,4.032789
-31.991627,2.9516582,4.010127
-32.01734,2.9582596,4.0225477
-32.04872,2.955768,4.024715
-32.07977,2.9539785,4.0277743
-32.114025,2.9474125,4.025524
-32.148815,2.9403467,4.022821
-32.195107,2.9164133,4.0012107
-32.2295,2.9108083,4.000413
-32.263176,2.9065197,4.001208
-32.29863,2.8999221,3.9995193
-32.334213,2.8934374,3.9980764
-32.370792,2.8858638,3.9955359
-32.40621,2.8802085,3.9952602
-32.439526,2.8776598,3.9985657
-32.47604,2.8710299,3.997438
-32.510876,2.8669038,3.999216
-32.546257,2.8622916,4.0005717
-32.577557,2.8631382,4.0080843
-32.60464,2.8694115,4.021686
-32.62546,2.883445,4.0439124
-19.18626,0.9059317,4.1812067
-19.320778,0.9258292,4.15157
-19.533525,0.9831736,4.1476145
-19.720413,1.0295951,4.137863
-20.013302,1.1277885,4.1644998
-20.146103,1.1508646,4.141754
-20.273487,1.1720338,4.1185746
-20.524212,1.2543166,4.139086
-20.711462,1.3069568,4.140351
-20.887825,1.355382,4.1398773
-20.970957,1.3580918,4.107514
-21.185366,1.4276729,4.1245384
-21.386211,1.4918056,4.1390023
-21.507992,1.5165751,4.1254787
-21.652933,1.5540915,4.122324
-21.817436,1.6027825,4.1285954
-21.951328,1.6364026,4.1243935
-22.02092,1.6365919,4.0951996
-22.238424,1.7165787,4.1286173
-22.381573,1.7578803,4.133053
-22.498735,1.7859391,4.1278954
-22.612247,1.8127215,4.1224365
-22.692028,1.8214529,4.1031284
-22.847073,1.8728092,4.11888
-22.936,1.887884,4.105923
-23.068941,1.9285791,4.114594
-23.146852,1.9385374,4.0985627
-23.296383,1.9904913,4.1180763
-23.365765,1.9966332,4.0999374
-23.500675,2.0418253,4.115275
-23.5688,2.0482302,4.0983233
-23.683853,2.0831785,4.106253
-23.734406,2.0798464,4.081759
-23.891418,2.1417947,4.1143064
-23.955494,2.1476955,4.0987306
-24.02948,2.1600819,4.0891957
-24.153831,2.2045255,4.108461
-24.224138,2.2157207,4.0988116
-24.338276,2.255334,4.115006
-24.41858,2.2740345,4.1129956
-24.521126,2.3077419,4.125018
-24.575302,2.310491,4.1093926
-24.66513,2.3370974,4.1158886
-24.756758,2.3655772,4.1245947
-24.803022,2.3641663,4.1061163
-24.899097,2.3968139,4.119544
-24.972069,2.414374,4.119377
-25.030258,2.4221945,4.110429
-25.096241,2.4357862,4.107209
-25.176329,2.4597628,4.114171
-25.232504,2.467325,4.105897
-25.308388,2.4893718,4.1117578
-25.375448,2.5056002,4.112405
-25.418417,2.5046554,4.0967865
-25.496208,2.5296078,4.1064806
-25.561811,2.546104,4.108325
-25.622316,2.5592365,4.107194
-25.674383,2.5663657,4.100448
-25.729038,2.5757806,4.09619
-25.797709,2.596404,4.1032825
-25.841858,2.598392,4.0921736
-25.90063,2.6121354,4.092983
-25.947895,2.6171176,4.085283
-26.022715,2.6445591,4.100373
-26.057163,2.6398427,4.083364
-26.105963,2.6469817,4.0784883
-26.154627,2.6543007,4.074003
-26.226223,2.6811419,4.089643
-26.268715,2.684028,4.081098
-26.305447,2.682197,4.067878
-26.352232,2.6891608,4.063855
-26.431276,2.7245708,4.089439
-26.475075,2.729775,4.08407
-26.505875,2.7236476,4.067084
-26.551989,2.7313228,4.064605
-26.61549,2.7551174,4.079191
-26.68097,2.781375,4.096648
-26.713236,2.7774734,4.0826383
-26.75323,2.7808802,4.076456
-26.803692,2.7944348,4.081173
-26.851578,2.8059483,4.083933
-26.904438,2.8226705,4.092436
-26.935263,2.8182898,4.0786195
-26.974646,2.82243,4.074027
-27.045984,2.8588295,4.1042237
-27.075432,2.8537118,4.090044
-27.112682,2.856608,4.0846047
-27.149862,2.859627,4.0794315
-27.192396,2.8684604,4.0806985
-27.235296,2.8780146,4.0829105
-27.286003,2.896301,4.094803
-27.317368,2.894136,4.084558
-27.34875,2.8920634,4.074514
-27.38688,2.897573,4.0728908
-27.427973,2.9066744,4.075355
-27.469902,2.9170756,4.079403
-27.507105,2.9224033,4.078002
-27.539715,2.9226213,4.071074
-27.577719,2.9293475,4.071471
-27.60681,2.9256904,4.060459
-27.646076,2.9344015,4.06331
-27.693285,2.9532137,4.0775766
-27.727394,2.956335,4.074477
-27.75209,2.9477882,4.0584135
-27.78477,2.9493303,4.0537376
-27.819683,2.9539263,4.052601
-27.85585,2.9604106,4.053708
-27.89724,2.974133,4.063107
-27.931751,2.9790804,4.0627327
-27.963545,2.980563,4.058545
-27.992712,2.978559,4.0504994
-28.02572,2.9820182,4.048748
-28.061588,2.9897714,4.0519905
-28.102684,3.0054424,4.0643797
-28.134077,3.0074286,4.0612855
-28.162188,3.0046906,4.0528827
-28.186749,2.9966004,4.0384245
-28.219685,3.001257,4.0386524
-28.254456,3.0090406,4.042577
-28.28907,3.016934,4.0467396
-28.328796,3.0334377,4.060936
-28.359306,3.0354812,4.058582
-28.383917,3.0278683,4.045159
-28.413687,3.0288537,4.041745
-28.445549,3.0335903,4.0427628
-28.4808,3.044541,4.0510864
-28.515495,3.0549908,4.058942
-28.545256,3.0569606,4.057045
-28.576628,3.062088,4.0589104
-28.602009,3.056233,4.048065
-28.631016,3.0572176,4.0452666
-28.658098,3.054582,4.0383186
-28.691101,3.0637555,4.045256
-28.727879,3.0810719,4.0618315
-28.75537,3.0799284,4.056885
-28.7814,3.0757582,4.04846
-28.80692,3.0704126,4.0387197
-28.83534,3.0713463,4.0364265
-28.863733,3.0723577,4.0343027
-28.893446,3.076562,4.0360174
-28.927038,3.0902066,4.0489483
-28.958815,3.1002095,4.0576835
-28.984066,3.0946822,4.0481668
-29.008417,3.0867145,4.0358253
-29.035563,3.0856934,4.031761
-29.064604,3.0897593,4.0337925
-29.093328,3.0932794,4.0352564
-29.1231,3.1000185,4.0406175
-29.155144,3.1137588,4.054373
-29.182667,3.1150117,4.053388
-29.20829,3.11067,4.045826
-29.233784,3.1057625,4.037652
-29.261314,3.1072266,4.0371256
-29.287859,3.1056082,4.033
-29.31516,3.1065855,4.032035
-29.345999,3.1202798,4.0463066
-29.374334,3.1258392,4.0509605
-29.401562,3.1276784,4.0512476
-29.425856,3.1181865,4.0380683
-29.452173,3.1163592,4.0341063
-29.478966,3.1165028,4.032567
-29.507034,3.1224287,4.0380144
-29.533615,3.1220803,4.036025
-29.561247,3.1268842,4.0402737
-29.590162,3.138756,4.0530615
-29.615385,3.1322622,4.043916
-29.641518,3.1302857,4.0402474
-29.666819,3.1232831,4.0306153
-29.692753,3.1195273,4.0249395
-29.719809,3.1228461,4.0278177
-29.746708,3.1255991,4.030086
-29.773382,3.1271472,4.0309753
-29.801043,3.1370564,4.0419755
-29.828081,3.1432118,4.0485363
-29.854269,3.1424184,4.046816
-29.879196,3.128286,4.029127
-29.905912,3.132094,4.0330653
-29.93241,3.1340544,4.03485
-29.958181,3.1258636,4.0244923
-29.9858,3.1471272,4.049624
-30.011938,3.1460996,4.048013
-30.037918,3.140666,4.0411673
-30.064016,3.1359382,4.0352325
-30.090227,3.132555,4.030982
-30.1165,3.1292396,4.026877
-30.142826,3.122796,4.0190735
-30.169147,3.133677,4.0321813
-30.19535,3.1395125,4.039282
-30.221296,3.1511664,4.0534487
-30.248034,3.1341286,4.0331607
-30.27486,3.1222734,4.0191746
-30.30102,3.1271005,4.025323
-30.32793,3.1185791,4.0154824
-30.354034,3.1235414,4.021924
-30.380777,3.1196294,4.0177593
-30.405565,3.138133,4.0406084
-30.43129,3.1439295,4.048243
-30.458023,3.1395814,4.043749
-30.48575,3.127648,4.0302105
-30.51223,3.1272693,4.0306225
-30.540997,3.1103835,4.011281
-30.564383,3.1324522,4.0387774
-30.594212,3.110618,4.0136404
-30.618351,3.1258023,4.0329933
-30.644434,3.1283126,4.037204
-30.670824,3.1289809,4.0392685
-30.700647,3.1119123,4.0201473
-30.726543,3.1159034,4.026334
-30.757618,3.0951862,4.003002
-30.779531,3.1177325,4.0315332
-30.808203,3.1092324,4.02297
-30.832624,3.119201,4.036567
-30.86003,3.116553,4.0351434
-30.887487,3.1139786,4.0338783
-30.91602,3.1076803,4.02824
-30.944849,3.1008286,4.0220194
-30.973267,3.0959535,4.018234
-30.99804,3.1037865,4.0296664
-31.02885,3.0914865,4.0171833
-31.052938,3.101345,4.0311575
-31.079922,3.1018093,4.034014
-31.10985,3.093532,4.026553
-31.139507,3.086599,4.0207725
-31.164862,3.0923176,4.030088
-31.20082,3.068593,4.004553
-31.227888,3.0700736,4.008996
-31.25087,3.0822763,4.026202
-31.277313,3.0851393,4.0324097
-31.305468,3.083693,4.0335913
-31.337505,3.072954,4.023875
-31.368961,3.0641832,4.0165787
-31.400322,3.05613,4.01022
-31.4302,3.0519066,4.008463
-31.458492,3.051499,4.0112805
-31.483953,3.0573807,4.0215654
-31.512806,3.055879,4.023244
-31.542585,3.0525987,4.0229163
-31.571833,3.0506413,4.024223
-31.603893,3.0432026,4.019197
-31.635164,3.037713,4.0165453
-31.664,3.0372481,4.0198545
-31.69253,3.037479,4.024056
-31.72206,3.035943,4.026277
-31.756996,3.0246668,4.0172477
-31.787035,3.0226994,4.019149
-31.816431,3.0220428,4.0226593
-31.840223,3.0312502,4.037689
-31.871727,3.0270815,4.037285
-31.900778,3.0272732,4.0420184
-31.93721,3.0153751,4.032873
-31.980228,2.9932659,4.012075
-32.00962,2.9937572,4.017457
-32.04402,2.9864566,4.0139647
-32.075447,2.984102,4.0162597
-32.115635,2.9685597,4.0035315
-32.146088,2.9682217,4.00835
-32.17616,2.9685726,4.014045
-32.211594,2.9612026,4.011017
-32.245922,2.9557438,4.010284
-32.279945,2.9509916,4.0104647
-32.31449,2.9457479,4.010197
-32.34699,2.9435935,4.0135446
-32.389183,2.9284458,4.002288
-32.43255,2.9122581,3.9900107
-32.46859,2.906302,3.9894328
-32.50384,2.9016457,3.990438
-32.538734,2.897691,3.9923487
-32.56907,2.89974,4.001108
-32.593277,2.9095192,4.018612
-32.623505,2.9117248,4.0277104
-32.67724,2.8853192,4.0049977
-19.26113,0.9995363,4.172105
-19.411335,1.026371,4.1480513
-19.590923,1.0676682,4.134794
-19.840496,1.1427951,4.1459074
-20.016302,1.184726,4.135839
-20.18383,1.2237751,4.1249647
-20.395712,1.2851295,4.1310086
-20.554417,1.3221076,4.1210856
-20.775194,1.3903618,4.134834
-20.95839,1.4415872,4.1376615
-21.153694,1.5000162,4.1470366
-21.222729,1.4964819,4.111559
-21.39495,1.5453317,4.1158867
-21.581692,1.6027148,4.1278324
-21.687094,1.6195619,4.109939
-21.821556,1.6520495,4.1047926
-22.00392,1.7104228,4.1206994
-22.105776,1.7276208,4.105379
-22.246286,1.7659454,4.1074467
-22.423359,1.8248105,4.1268387
-22.514217,1.8383094,4.1107554
-22.658058,1.8812108,4.1191177
-22.743448,1.8929372,4.1028194
-22.883045,1.935212,4.1122417
-22.975967,1.9523299,4.101587
-23.105673,1.9907659,4.109338
-23.174694,1.9955372,4.0894485
-23.311506,2.0395865,4.1033225
-23.40792,2.0612211,4.0988336
-23.523012,2.0943868,4.1048307
-23.597414,2.1043582,4.091379
-23.733654,2.1515255,4.110805
-23.773876,2.1421077,4.081315
-23.917667,2.195459,4.107498
-23.97549,2.197451,4.0888386
-24.095694,2.2381368,4.105095
-24.17002,2.2512288,4.097199
-24.26093,2.2751648,4.099513
-24.362858,2.3067071,4.1092486
-24.449928,2.3295274,4.111562
-24.552431,2.3629017,4.124059
-24.599766,2.361205,4.10466
-24.682116,2.3826427,4.1069984
-24.777456,2.4132597,4.118355
-24.817757,2.4078586,4.096365
-24.907257,2.4357092,4.105957
-24.98828,2.45849,4.1112075
-25.04136,2.4626908,4.0991516
-25.110231,2.4780903,4.098074
-25.203957,2.5113318,4.1145163
-25.245047,2.5082242,4.096289
-25.317387,2.5274942,4.099975
-25.39787,2.5531502,4.1102505
-25.422508,2.5389373,4.0818534
-25.499655,2.5630908,4.0912905
-25.57154,2.5839813,4.097885
-25.629978,2.5953975,4.0954256
-25.683416,2.6034298,4.089863
-25.740107,2.614256,4.0873346
-25.80066,2.6284199,4.088416
-25.84214,2.6282265,4.0752983
-25.914326,2.652238,4.086846
-25.96685,2.6613302,4.083582
-26.020525,2.6716752,4.081824
-26.058289,2.669549,4.0675383
-26.108427,2.6776142,4.0638623
-26.159702,2.6869297,4.0616865
-26.244167,2.7241638,4.0885987
-26.276375,2.7184396,4.0713506
-26.316881,2.7197857,4.061571
-26.371792,2.7336457,4.0650153
-26.425827,2.747178,4.0683546
-26.475277,2.7571282,4.0681605
-26.51716,2.7607489,4.0614977
-26.575432,2.779214,4.070696
-26.634577,2.7990007,4.0815487
-26.68015,2.8069758,4.0800943
-26.71543,2.8057806,4.069037
-26.772589,2.8250704,4.080022
-26.827637,2.842928,4.089716
-26.8777,2.8565695,4.095106
-26.90904,2.8526354,4.0817385
-26.947866,2.8560297,4.0764003
-26.986042,2.8589964,4.070738
-27.033152,2.8710427,4.0750875
-27.089516,2.892798,4.0902095
-27.11838,2.8872166,4.0756893
-27.154446,2.889045,4.069373
-27.19589,2.896642,4.069518
-27.246334,2.9140143,4.0805798
-27.28632,2.920786,4.080144
-27.328804,2.930541,4.0831537
-27.355394,2.9233253,4.0675097
-27.38831,2.9230418,4.059639
-27.427372,2.9297397,4.0596485
-27.47443,2.9457636,4.070204
-27.515648,2.9556248,4.074049
-27.54521,2.9523525,4.063326
-27.576288,2.9508994,4.0547333
-27.612251,2.955336,4.052863
-27.651014,2.9633744,4.055175
-27.704426,2.9895935,4.0781603
-27.732775,2.9856763,4.0672493
-27.759771,2.9800835,4.0545177
-27.79147,2.9804199,4.0485954
-27.824055,2.9820251,4.044215
-27.8584,2.986082,4.0427322
-27.911854,3.0155914,4.070431
-27.94093,3.0134163,4.062089
-27.967413,3.0077734,4.0498533
-27.997852,3.0075338,4.0438914
-28.033808,3.0151024,4.046999
-28.069187,3.0221925,4.049673
-28.110226,3.0377407,4.06222
-28.14278,3.041489,4.061277
-28.166767,3.0327754,4.046013
-28.19169,3.0253162,4.032259
-28.22931,3.0371232,4.040927
-28.262432,3.0424418,4.042178
-28.300793,3.056292,4.0534644
-28.33474,3.0636373,4.057296
-28.366308,3.0674639,4.057127
-28.391575,3.0610986,4.0451403
-28.421982,3.0632794,4.043217
-28.45198,3.064942,4.0407753
-28.483677,3.0697303,4.0420856
-28.523174,3.0886123,4.060048
-28.55386,3.09239,4.060378
-28.579803,3.0877118,4.0508385
-28.606146,3.0837104,4.042163
-28.63608,3.0865097,4.041582
-28.665318,3.08817,4.0397387
-28.6973,3.0954359,4.044608
-28.73066,3.1058712,4.0533257
-28.760822,3.1102562,4.0549736
-28.787373,3.1073358,4.048037
-28.810513,3.0970833,4.0324583
-28.838902,3.0979981,4.0302086
-28.86809,3.1008449,4.0303354
-28.898294,3.1062503,4.0335894
-28.933947,3.1247554,4.0525475
-28.96251,3.1272473,4.0525084
-28.991013,3.129818,4.05264
-29.016237,3.1243868,4.0432835
-29.044697,3.1271076,4.0437393
-29.068369,3.1174493,4.0294504
-29.099352,3.127173,4.0384393
-29.127674,3.1301234,4.039394
-29.16337,3.154389,4.066005
-29.189232,3.1512618,4.0598297
-29.211203,3.136312,4.0395093
-29.236061,3.1295493,4.0290794
-29.263187,3.1297412,4.0270767
-29.292767,3.1381598,4.0350494
-29.31979,3.1385014,4.033372
-29.347153,3.140171,4.033364
-29.380165,3.1626592,4.0585394
-29.40559,3.1581974,4.0512853
-29.428198,3.142469,4.030486
-29.455734,3.1456876,4.032626
-29.481565,3.1420465,4.0265455
-29.509172,3.146038,4.029759
-29.5367,3.1501048,4.0331335
-29.566244,3.1643472,4.0488963
-29.593384,3.167934,4.051836
-29.618061,3.158953,4.0396194
-29.643581,3.1538255,4.0321302
-29.669405,3.1500273,4.0263143
-29.695704,3.1488264,4.0237103
-29.72269,3.1521244,4.0266285
-29.75087,3.1643612,4.0404615
-29.777807,3.1690712,4.045232
-29.803793,3.166881,4.041692
-29.830103,3.1672926,4.041375
-29.85627,3.1665044,4.039666
-29.881298,3.1537306,4.0234594
-29.908144,3.1594186,4.0297456
-29.934393,3.1588311,4.028471
-29.960096,3.150059,4.017313
-29.98791,3.1749988,4.047199
-30.014082,3.1758854,4.047912
-30.04021,3.1762044,4.0479994
-30.066048,3.1670651,4.036649
-30.092197,3.1649783,4.0339375
-30.1184,3.1642277,4.032916
-30.144619,3.1660857,4.0351305
-30.17091,3.1540384,4.0204973
-30.196907,3.172544,4.043086
-30.22291,3.1777787,4.049598
-30.249132,3.1741898,4.0454445
-30.275993,3.1579688,4.025996
-30.301777,3.1672144,4.0375776
-30.329048,3.150499,4.017663
-30.354221,3.16686,4.038018
-30.38186,3.1496513,4.0176373
-30.406391,3.1699471,4.042898
-30.432594,3.1700053,4.0436287
-30.45915,3.1669607,4.040656
-30.487362,3.1506743,4.0216694
-30.512194,3.162981,4.037469
-30.540049,3.1519098,4.024954
-30.565865,3.1561122,4.031041
-30.592701,3.1534164,4.028825
-30.619379,3.1520572,4.028296
-30.642635,3.1703732,4.0516815
-30.669777,3.1659832,4.047606
-30.701317,3.1395519,4.016904
-30.727158,3.1435285,4.023108
-30.758598,3.1210608,3.997372
-30.77962,3.1472611,4.030596
-30.808226,3.138826,4.021981
-30.832115,3.150632,4.037904
-30.8607,3.1429734,4.0303698
-30.888943,3.1372828,4.025287
-30.917809,3.1297832,4.0180974
-30.94418,3.13179,4.0224485
-30.974157,3.1213067,4.0118117
-30.997396,3.134125,4.0293255
-31.028528,3.1206627,4.0152535
-31.054539,3.1242073,4.0217295
-31.079468,3.130947,4.0321097
-31.10934,3.122738,4.0245905
-31.138939,3.1158643,4.018758
-31.163338,3.1240582,4.031081
-31.199688,3.0992532,4.0039053
-31.225042,3.1051004,4.0135603
-31.251019,3.1091423,4.021114
-31.273493,3.1219556,4.03922
-31.307798,3.1049967,4.021801
-31.337805,3.0993176,4.0179534
-31.367924,3.0937252,4.0142937
-31.398964,3.0863626,4.008609
-31.427135,3.085895,4.011224
-31.455328,3.085504,4.0140047
-31.484394,3.0833387,4.0147514
-31.512932,3.0824876,4.0171385
-31.54298,3.0786366,4.0160456
-31.570995,3.0791764,4.020239
-31.601786,3.0742655,4.018057
-31.634247,3.066379,4.0124464
-31.665588,3.0610409,4.009942
-31.695091,3.0594654,4.0119686
-31.722656,3.0616376,4.018493
-31.758257,3.0492458,4.0079503
-31.78522,3.0528038,4.0162706
-31.803452,3.0716362,4.0425897
-31.837578,3.0625596,4.036213
-31.870092,3.056622,4.03362
-31.897276,3.059866,4.0418615
-31.936228,3.043838,4.027669
-31.975487,3.0279424,4.0137653
-32.008587,3.0224252,4.012081
-32.03795,3.0230246,4.017614
-32.069656,3.0201032,4.0191407
-32.11452,2.997491,3.9979286
-32.142124,3.0013766,4.0075626
-32.175785,2.9963737,4.0069947
-32.205013,2.9980352,4.0142255
-32.239246,2.9926338,4.013398
-32.27359,2.9873402,4.012806
-32.311905,2.9768152,4.006313
-32.347824,2.9699717,4.0041733
-32.381245,2.9667902,4.006345
-32.416965,2.9607615,4.005368
-32.45326,2.9542599,4.003969
-32.488777,2.949051,4.0041637
-32.522106,2.9468868,4.007937
-32.557354,2.9424844,4.0092764
-32.5814,2.9522095,4.026734
-32.61719,2.9474201,4.027838
-32.656933,2.9380944,4.023945
-19.249084,1.0585716,4.1421747
-19.488003,1.124959,4.145769
-19.673693,1.1684699,4.135292
-19.980843,1.2692237,4.1660247
-20.05828,1.264993,4.124875
-20.25272,1.3160412,4.1236343
-20.481918,1.3847911,4.136496
-20.705078,1.4521699,4.1499376
-20.791832,1.4552441,4.1175194
-20.984604,1.5102644,4.1242995
-21.180914,1.5682874,4.1346292
-21.362873,1.6205158,4.1418705
-21.476418,1.639801,4.1250587
-21.609121,1.6693602,4.1169033
-21.797756,1.7281237,4.1323905
-21.869148,1.7281477,4.1028337
-22.028198,1.7737331,4.1098847
-22.214895,1.8347917,4.1303487
-22.307936,1.847965,4.1133137
-22.459408,1.8926071,4.122463
-22.575708,1.9194857,4.1179695
-22.660498,1.930099,4.1007137
-22.81042,1.9765837,4.1138587
-22.877577,1.97872,4.0906587
-23.051565,2.0402703,4.1181097
-23.113384,2.0405211,4.0943747
-23.277979,2.098897,4.120866
-23.345755,2.1035318,4.1018996
-23.481138,2.1472285,4.1172895
-23.532616,2.1434188,4.091857
-23.65756,2.1826172,4.1046
-23.737896,2.196488,4.09559
-23.844616,2.226489,4.1014204
-23.929842,2.2443714,4.096963
-24.006256,2.2574656,4.0886383
-24.141891,2.3071012,4.1139455
-24.187641,2.3025625,4.0904846
-24.328257,2.3570077,4.121482
-24.365294,2.3477988,4.094409
-24.477427,2.3860574,4.1116285
-24.576893,2.417136,4.122755
-24.630125,2.4192424,4.107189
-24.718369,2.4443026,4.1135583
-24.778744,2.4517632,4.1036773
-24.84932,2.4662929,4.100834
-24.941685,2.4958065,4.112714
-25.0058,2.5070405,4.107462
-25.075533,2.5224812,4.1065936
-25.148613,2.5406857,4.108758
-25.208447,2.5502443,4.1028347
-25.27883,2.5675263,4.104774
-25.351757,2.587102,4.1093187
-25.416573,2.6014519,4.1090455
-25.472706,2.610009,4.1033206
-25.526585,2.617266,4.096552
-25.603237,2.6414976,4.107046
-25.6353,2.6334176,4.0853815
-25.710007,2.657157,4.095993
-25.776121,2.6750484,4.1010303
-25.83582,2.6885724,4.101928
-25.866993,2.680622,4.081138
-25.91166,2.6831355,4.0711904
-26.008772,2.7269173,4.103939
-26.04768,2.725707,4.0906553
-26.081993,2.7209606,4.073851
-26.137869,2.7336614,4.0753326
-26.196743,2.7492142,4.080037
-26.250834,2.761298,4.081365
-26.291294,2.762451,4.0714297
-26.346922,2.7765117,4.075268
-26.4004,2.7891874,4.07788
-26.448019,2.7972507,4.07582
-26.484312,2.7958252,4.0638466
-26.539692,2.8112092,4.0699615
-26.59295,2.825188,4.074807
-26.647768,2.8409958,4.0818415
-26.691458,2.847239,4.0787964
-26.717102,2.8372955,4.058422
-26.789106,2.8700223,4.0843735
-26.838776,2.8827815,4.0889435
-26.88237,2.8902354,4.0879307
-26.911936,2.884626,4.072808
-26.966234,2.9028463,4.083888
-27.003132,2.904665,4.0771723
-27.060274,2.9265904,4.0927334
-27.099123,2.9309294,4.089113
-27.126791,2.924239,4.0734234
-27.162241,2.925455,4.0665855
-27.208534,2.9380019,4.07247
-27.263214,2.9597132,4.088751
-27.297714,2.9607832,4.082188
-27.324232,2.9534874,4.066369
-27.36659,2.9632497,4.069771
-27.40408,2.9680524,4.067747
-27.442488,2.9741168,4.0672774
-27.489937,2.9905767,4.0786853
-27.525976,2.9946356,4.0762343
-27.553934,2.989645,4.0636373
-27.588383,2.9921947,4.059691
-27.625208,2.9977303,4.059257
-27.67498,3.018958,4.076858
-27.71238,3.0259242,4.078342
-27.740164,3.0214312,4.0668244
-27.769413,3.0187547,4.0574675
-27.802395,3.020813,4.05364
-27.83944,3.0282173,4.056074
-27.882215,3.043335,4.0675335
-27.921566,3.0545087,4.074587
-27.947872,3.0488157,4.0622435
-27.97601,3.0455396,4.0527725
-28.008503,3.0482259,4.050305
-28.045187,3.0569062,4.0549135
-28.081696,3.0657072,4.059783
-28.12135,3.079361,4.0704374
-28.149252,3.0765524,4.0619802
-28.176783,3.073227,4.052992
-28.206352,3.0729487,4.047652
-28.239452,3.0781178,4.048793
-28.27011,3.0798078,4.045943
-28.312973,3.1007204,4.0658207
-28.342978,3.1020217,4.0627213
-28.370337,3.0992115,4.0548515
-28.397364,3.0958729,4.046429
-28.427322,3.0974205,4.0438614
-28.45688,3.0984507,4.0407667
-28.488153,3.1025834,4.041436
-28.53311,3.130986,4.071041
-28.562616,3.1329174,4.0693064
-28.585741,3.1234164,4.0540357
-28.611973,3.11943,4.045393
-28.640194,3.1191587,4.041251
-28.672205,3.1262686,4.046008
-28.702204,3.1298182,4.046599
-28.741583,3.1523738,4.070039
-28.767649,3.148788,4.0622644
-28.792885,3.1434336,4.052431
-28.817917,3.1375294,4.041999
-28.845589,3.137206,4.038337
-28.87602,3.1430984,4.0422297
-28.905787,3.1478496,4.044833
-28.939434,3.1619172,4.058754
-28.966574,3.1613045,4.0550556
-28.993204,3.1595302,4.050025
-29.020351,3.1590605,4.0466375
-29.047253,3.158045,4.0426598
-29.075344,3.1601944,4.0425816
-29.101074,3.1562276,4.035166
-29.137451,3.1814582,4.0632224
-29.16479,3.182612,4.062171
-29.190386,3.1788716,4.0552454
-29.215002,3.1720884,4.044684
-29.240746,3.1684752,4.038034
-29.268312,3.1705303,4.038344
-29.29583,3.1726594,4.0388155
-29.322376,3.1717443,4.0356474
-29.355185,3.192739,4.0592566
-29.382925,3.1969743,4.0625176
-29.408237,3.1925364,4.0552645
-29.432013,3.18191,4.040515
-29.457376,3.17697,4.0327644
-29.48462,3.1796064,4.0343356
-29.511087,3.179183,4.0322328
-29.537004,3.176321,4.027212
-29.568241,3.1986117,4.0530405
-29.595778,3.2046804,4.059092
-29.621872,3.203917,4.0568457
-29.644554,3.1843781,4.0316534
-29.671059,3.1849983,4.0312214
-29.697136,3.1831722,4.027855
-29.724207,3.1877024,4.0323477
-29.75146,3.194192,4.039312
-29.77833,3.1988661,4.044116
-29.805109,3.203611,4.049074
-29.830849,3.2002387,4.044132
-29.85638,3.194412,4.0362363
-29.882322,3.191801,4.032351
-29.908585,3.192407,4.0324807
-29.934883,3.1937115,4.033533
-29.960936,3.1919308,4.030857
-29.987986,3.2066145,4.048481
-30.014227,3.2106466,4.053078
-30.040314,3.2128544,4.055496
-30.065895,3.1999884,4.0394444
-30.09205,3.2029607,4.042927
-30.118044,3.197167,4.035695
-30.144165,3.1990113,4.037917
-30.17025,3.2009225,4.040284
-30.196287,3.2035317,4.0435734
-30.222193,3.2093623,4.050885
-30.248281,3.2070575,4.048258
-30.274921,3.193467,4.0318174
-30.300688,3.200759,4.041115
-30.327564,3.1885676,4.0265245
-30.353243,3.1959927,4.0361104
-30.380293,3.1852021,4.0233736
-30.404936,3.2028437,4.045635
-30.430914,3.2041626,4.047902
-30.457077,3.203658,4.0479927
-30.485298,3.1862192,4.027355
-30.51091,3.1915207,4.034705
-30.538265,3.1836722,4.025978
-30.562965,3.1947684,4.0405617
-30.590544,3.186431,4.0313673
-30.61586,3.192625,4.04006
-30.641174,3.1982539,4.048118
-30.66756,3.1976657,4.0486193
-30.698145,3.1758056,4.023134
-30.723988,3.1791298,4.0285654
-30.752337,3.1706066,4.01956
-30.774237,3.1916144,4.046751
-30.805277,3.171959,4.0242677
-30.828764,3.1849422,4.0417595
-30.854073,3.1898475,4.0494347
-30.88143,3.1866899,4.047325
-30.912426,3.1704884,4.0293713
-30.940918,3.1643667,4.023796
-30.97044,3.1552057,4.014592
-30.995827,3.1604645,4.023032
-31.020544,3.167654,4.0338836
-31.04633,3.171169,4.0403214
-31.073084,3.1716413,4.043121
-31.100683,3.1696982,4.043053
-31.132875,3.1547964,4.0273247
-31.16024,3.1542552,4.0291123
-31.188082,3.1525483,4.029557
-31.217134,3.1478224,4.026417
-31.246046,3.1437972,4.0242023
-31.26964,3.1534424,4.0386014
-31.297338,3.1526513,4.0404387
-31.333286,3.1322098,4.018621
-31.363846,3.1254325,4.0134015
-31.393198,3.12182,4.0120835
-31.421808,3.1201344,4.0131655
-31.451582,3.116073,4.011465
-31.477446,3.1206772,4.0202646
-31.504108,3.1235104,4.0269985
-31.53875,3.109904,4.014079
-31.566393,3.1110644,4.018964
-31.594337,3.1116886,4.023278
-31.623539,3.109953,4.024844
-31.652784,3.1082993,4.0265884
-31.682726,3.105513,4.0270615
-31.712072,3.1040263,4.029168
-31.74852,3.089903,4.0163107
