x,y,z
-35.004936,3.3783846,3.8965473
-35.086437,3.3617728,3.8838677
-35.13237,3.3643107,3.8975697
-35.1512,3.381045,3.9306993
-35.199295,3.3826861,3.9434032
-35.26875,3.3737054,3.9419074
-35.330803,3.368853,3.9462097
-35.3738,3.3737993,3.9638724
-35.41831,3.3781397,3.980852
-35.46669,3.3807533,3.995664
-35.569717,3.3572361,3.9758968
-35.63957,3.3502598,3.9784315
-35.688354,3.3536167,3.994855
-35.741894,3.3549385,4.0087595
-35.854324,3.3292522,3.9874434
-35.91461,3.3282185,3.9987617
-36.023136,3.305606,3.9822178
-36.093487,3.3008432,3.989237
-36.164005,3.2963758,3.9968956
-36.26232,3.28005,3.989567
-36.325108,3.2798,4.0032163
-36.455196,3.2508378,3.980474
-36.474777,3.2698843,4.0192466
-49.226036,0.45713115,1.9918432
-49.243294,0.51390195,2.1057863
-49.31834,0.5540881,2.203639
-49.21804,0.7039187,2.466054
-48.836327,0.9269726,2.7941952
-48.906826,0.9665158,2.8906536
-48.92962,1.0187407,2.9988408
-48.954475,1.0702467,3.1064143
-48.997505,1.1169131,3.2098036
-49.00572,1.1723864,3.3209333
-49.036865,1.2218423,3.4269009
-49.131042,1.2555404,3.5198317
-49.30384,1.2702308,3.5977278
-49.527008,1.2734623,3.6674938
-49.91845,1.2374754,3.7077322
-50.408062,1.1803229,3.7342482
-50.659454,1.1813662,3.808414
-52.361122,0.8494117,3.6364803
-52.37775,0.91047645,3.7632027
-52.392525,0.971755,3.8900728
-52.38613,1.037518,4.0200434
-52.89023,0.99124646,4.0739346
-53.89821,0.8387644,4.0615377
-11.03816,0.89527106,2.5759325
-20.343483,2.6053717,3.4943051
-21.82832,3.083888,4.035311
-21.869816,3.0677648,3.995238
-21.829227,3.0226676,3.92063
-21.806847,2.9835348,3.8529344
-21.811203,2.9536448,3.7962523
-21.312408,2.7398252,3.5156074
-22.938284,3.3058186,4.1870003
-22.922092,3.271913,4.127931
-23.067728,3.2986107,4.143689
-23.175167,3.3116758,4.1431293
-23.249916,3.3127809,4.1280727
-23.382256,3.3366256,4.1418576
-23.465876,3.342167,4.133109
-23.550148,3.348406,4.125574
-23.701328,3.3819113,4.153083
-23.76571,3.381275,4.13756
-23.840843,3.3853316,4.1283016
-23.915817,3.3897095,4.1197386
-24.010439,3.4026823,4.1225896
-24.065258,3.3994253,4.104695
-24.15609,3.4117413,4.1073256
-24.19849,3.4037435,4.0836654
-24.236095,3.3937793,4.057548
-24.266546,3.3807461,4.0274844
-24.388924,3.4085417,4.051641
-24.444963,3.407427,4.0377893
-24.450693,3.3837624,3.994003
-24.549717,3.4025927,4.007146
-24.60086,3.399931,3.9917474
-24.659843,3.4011424,3.9817348
-24.674095,3.3815227,3.94371
-24.787619,3.409103,3.9698076
-24.842346,3.409179,3.9588385
-24.863045,3.3929439,3.925744
-24.914703,3.3918505,3.9134436
-24.98082,3.3981657,3.911489
-25.043686,3.403227,3.908019
-25.07008,3.3901386,3.879641
-25.107946,3.3828988,3.8594303
-25.196754,3.4021215,3.8761332
-25.248625,3.4026601,3.8670702
-25.264141,3.3842316,3.8316276
-25.321918,3.388217,3.8276303
-25.399292,3.4030929,3.839121
-25.460268,3.4095674,3.8390162
-25.489193,3.398746,3.8146505
-25.532658,3.3960145,3.8018074
-25.602566,3.408324,3.810442
-25.662186,3.4152646,3.8116488
-25.686245,3.4021416,3.7844
-25.730179,3.4004927,3.773603
-25.801996,3.4153845,3.7866333
-25.842201,3.4120622,3.7737122
-25.895506,3.416727,3.7723923
-25.898626,3.3913057,3.727806
-25.9485,3.3941665,3.7240782
-26.01041,3.404745,3.7316685
-26.063292,3.4101086,3.731863
-26.091297,3.4000635,3.7097826
-26.112156,3.3854327,3.6810694
-26.189861,3.4074144,3.7058606
-26.24088,3.4126441,3.7063665
-26.281979,3.4116354,3.6978607
-26.315296,3.4056032,3.6820736
-26.336521,3.3914647,3.6544275
-26.394184,3.4020796,3.6633
-26.452808,3.4137902,3.673946
-26.507984,3.4235458,3.6818576
-26.529968,3.410276,3.6557946
-26.557106,3.4005685,3.635048
-26.59478,3.398437,3.6256127
-26.645782,3.4061775,3.6309605
-26.683311,3.4043238,3.6221266
-26.733948,3.4124093,3.6282225
-26.753555,3.3973975,3.5998874
-26.784584,3.3909516,3.5844073
-26.848879,3.4102902,3.6076808
-26.8844,3.407723,3.5982022
-26.935368,3.4175186,3.6074042
-26.94861,3.3974566,3.5717301
-26.98023,3.3920064,3.5581074
-27.025288,3.3976412,3.561297
-27.084518,3.4153836,3.5829148
-27.11922,3.4130735,3.574295
-27.144156,3.402547,3.5532775
-27.167654,3.3906848,3.5302668
-27.204124,3.3900342,3.5243425
-27.277424,3.422153,3.5684047
-27.308748,3.4176145,3.5567589
-27.339085,3.4122257,3.5438714
-27.362839,3.4008045,3.5218153
-27.392864,3.3950934,3.5085316
-27.432978,3.3989265,3.509921
-27.48187,3.4114306,3.524695
-27.520136,3.4141233,3.5245152
-27.550047,3.4088326,3.5121408
-27.576185,3.3997967,3.4940548
-27.612907,3.4013686,3.4923472
-27.652826,3.4064193,3.496076
-27.692583,3.4116015,3.5000906
-27.734005,3.4188461,3.5073724
-27.762087,3.41219,3.4932413
-27.786692,3.4017224,3.4732537
-27.82076,3.4015234,3.4692116
-27.855225,3.401913,3.466144
-27.903852,3.418532,3.4883351
-27.940998,3.4225917,3.4911194
-27.970451,3.4179337,3.4804187
-27.986702,3.3976114,3.4453835
-28.01563,3.3920891,3.4334106
-28.05674,3.4014626,3.444706
-28.099585,3.4134479,3.4601607
-28.13231,3.413176,3.4565625
-28.163067,3.4105134,3.449284
-28.190035,3.402954,3.4343996
-28.219007,3.3979545,3.4235597
-28.247684,3.3925295,3.412098
-28.291004,3.4072149,3.4322023
-28.329294,3.415523,3.4423928
-28.361715,3.4159093,3.4402208
-28.390966,3.4118543,3.4311285
-28.412424,3.3962708,3.4039602
-28.444601,3.3963919,3.401515
-28.481356,3.4036915,3.4104204
-28.521797,3.41719,3.4291563
-28.557123,3.423202,3.4361734
-28.58759,3.42169,3.4313898
-28.61223,3.4105783,3.41151
-28.6404,3.4051325,3.4006057
-28.672205,3.4058905,3.3995414
-28.701935,3.403154,3.3930063
-28.739634,3.4148479,3.4093328
-28.769817,3.413314,3.4048038
-28.7962,3.4046645,3.389059
-28.821686,3.3940172,3.3701863
-28.849728,3.3880641,3.3587842
-28.881691,3.389921,3.3598003
-28.918053,3.401167,3.3757586
-28.950981,3.4057984,3.381287
-28.982594,3.4079342,3.3829088
-29.007906,3.3961565,3.3624878
-29.035486,3.389106,3.3496084
-29.066263,3.389398,3.3484364
-29.098713,3.3939345,3.3540592
-29.133312,3.4042904,3.3689904
-29.164236,3.4058857,3.3700414
-29.194906,3.4070427,3.3704433
-29.220806,3.3952246,3.350236
-29.249334,3.3902605,3.3409777
-29.280256,3.39217,3.3427105
-29.3118,3.3962567,3.3479614
-29.345707,3.4082918,3.3659315
-29.376934,3.4125574,3.3715687
-29.406364,3.4111338,3.3681798
-29.433752,3.4024305,3.3532228
-29.461323,3.393794,3.3384085
-29.492315,3.3978486,3.3438892
-29.521137,3.3935645,3.3361053
-29.558397,3.4251695,3.3856735
-29.588493,3.4279027,3.389193
-29.617628,3.4264972,3.386145
-29.643642,3.4093385,3.3579693
-29.673195,3.4091315,3.3569174
-29.701353,3.4010777,3.343369
-29.730377,3.3973215,3.3367276
-29.76479,3.4285228,3.3860226
-29.794085,3.428627,3.3856478
-29.822142,3.4192872,3.3702116
-29.849594,3.4031386,3.343924
-29.878424,3.3965826,3.3330202
-29.907896,3.3953934,3.330742
-29.936554,3.384219,3.3125324
-29.96884,3.4202518,3.369895
-29.997871,3.4161158,3.3630342
-30.027071,3.4136436,3.3588772
-30.055754,3.3958812,3.330295
-30.08529,3.3956766,3.3298516
-30.114733,3.388659,3.3185496
-30.144352,3.3886063,3.3184352
-30.173742,3.4145958,3.3600402
-30.203085,3.4136353,3.3585577
-30.23245,3.412749,3.3572397
-30.262363,3.399754,3.336586
-30.291908,3.3990207,3.335598
-30.321262,3.401542,3.3398614
-30.350973,3.3988423,3.3358145
-30.379616,3.408927,3.3522625
-30.40819,3.4174945,3.366325
-30.438177,3.4118454,3.357688
-30.46843,3.4052176,3.34753
-30.498983,3.3976123,3.3358555
-30.528166,3.4006617,3.3412633
-30.558207,3.3979728,3.3375382
-30.584187,3.4196599,3.3728251
-30.613129,3.4223976,3.3778567
-30.643341,3.4183483,3.372086
-30.675058,3.4075215,3.3555336
-30.704412,3.4089088,3.3585415
-30.733866,3.4098442,3.3608713
-30.764193,3.40717,3.3574796
-30.7901,3.4224677,3.3828244
-30.819538,3.423098,3.3847933
-30.84811,3.4269583,3.3919597
-30.881264,3.4146113,3.373313
-30.913776,3.4055088,3.3598962
-30.942621,3.4090824,3.3667412
-30.971737,3.411681,3.3720741
-30.99802,3.4227285,3.390913
-31.026953,3.4254684,3.396552
-31.059006,3.4193988,3.3882074
-31.09275,3.409243,3.3734088
-31.125164,3.4033585,3.3654647
-31.15671,3.400171,3.361864
-31.186039,3.402796,3.3675551
-31.215328,3.4054961,3.3734088
-31.242582,3.4129457,3.3868532
-31.272648,3.4137158,3.3897257
-31.306929,3.4052377,3.377964
-31.342623,3.3942723,3.3623137
-31.371962,3.397375,3.3690414
-31.398739,3.4057164,3.3841176
-31.42844,3.4079318,3.3895226
-31.458641,3.4091945,3.393464
-31.493149,3.402308,3.3845515
-31.525913,3.3991199,3.3815508
-31.557375,3.3985896,3.3828082
-31.586582,3.402244,3.3907318
-31.613106,3.4105763,3.4060898
-31.63947,3.41897,3.4215803
-31.671448,3.417736,3.4219131
-31.709682,3.4064085,3.4063811
-31.745365,3.3997793,3.3983264
-31.775124,3.4029016,3.4056978
-31.80321,3.4086351,3.4172268
-31.829866,3.416462,3.4320898
-31.86078,3.4177861,3.4367666
-31.891356,3.4196992,3.442419
-31.934523,3.40358,3.419807
-31.97062,3.3981571,3.4140677
-32.00037,3.4018707,3.4227204
-32.024937,3.4126682,3.442521
-32.057495,3.4125288,3.4452276
-32.0935,3.4079957,3.4411163
-32.135403,3.396111,3.42558
-32.172157,3.3913198,3.4212093
-32.20748,3.3886247,3.4201813
-32.22728,3.4053235,3.4494658
-32.257305,3.409218,3.4588127
-32.293877,3.4053144,3.4560661
-32.337254,3.3936632,3.4413357
-32.376705,3.387064,3.4345508
-32.41121,3.386464,3.4371614
-32.432755,3.4006095,3.462716
-32.45842,3.4099216,3.4808002
-32.494156,3.4081173,3.4817028
-32.53853,3.397215,3.4685955
-32.578632,3.3913023,3.4632983
-32.612465,3.3922749,3.4687176
-32.635593,3.4044137,3.4914255
-32.667465,3.4074783,3.500177
-32.697407,3.4125483,3.5120716
-32.740795,3.4043295,3.50358
-32.78685,3.3938792,3.4917555
-32.819878,3.3964176,3.499967
-32.846924,3.4047365,3.5171013
-32.87887,3.4083972,3.527144
-32.918415,3.4050817,3.526576
-32.96837,3.3925014,3.5119371
-33.01554,3.3829155,3.501986
-33.04672,3.3879805,3.514473
-33.075195,3.395461,3.5306926
-33.106766,3.4002285,3.5428343
-33.146385,3.3981395,3.5446239
-33.204086,3.3809485,3.5235991
-33.242428,3.3805494,3.52815
-33.266956,3.3917446,3.5503168
-33.297455,3.3979616,3.565
-33.335224,3.3983355,3.5709262
-33.395847,3.3806522,3.5497375
-33.43794,3.378158,3.5515518
-33.461002,3.3907075,3.5760522
-33.492043,3.3970022,3.5912056
-33.526546,3.400693,3.6025176
-33.583035,3.387951,3.589334
-33.64046,3.3749824,3.5759606
-33.66499,3.386652,3.5994568
-33.69237,3.3961635,3.6197782
-33.730663,3.397809,3.6284623
-33.78198,3.390357,3.6237397
-33.82666,3.3879118,3.626562
-33.87083,3.3860602,3.6303716
-33.889786,3.4017391,3.660153
-33.94609,3.3919122,3.652388
-33.994965,3.3874774,3.6527019
-34.067287,3.367763,3.630721
-34.08733,3.382999,3.6601439
-34.10908,3.3969874,3.6877651
-34.156364,3.3944654,3.6913238
-34.22306,3.3798578,3.6774058
-34.276073,3.3743634,3.676928
-34.288826,3.3942256,3.7133722
-34.33719,3.3919542,3.7177758
-34.378838,3.3940187,3.728571
-34.452137,3.3771834,3.7122302
-34.494038,3.3796177,3.723827
-34.519947,3.3916373,3.7492852
-34.568092,3.3906426,3.756157
-34.633945,3.3796554,3.7488837
-34.698685,3.3697472,3.7433481
-34.720192,3.384697,3.773355
-34.762268,3.3880482,3.7869403
-34.811565,3.3875506,3.7951894
-34.903046,3.3641737,3.771286
-34.925735,3.378798,3.801188
-34.958473,3.3879542,3.8234472
-35.014717,3.3846655,3.8283534
-35.09634,3.3683333,3.81521
-35.12315,3.3810794,3.842846
-35.162525,3.3873272,3.8615072
-35.20713,3.3910189,3.8767326
-35.282818,3.379193,3.8706517
-35.319195,3.3874717,3.8925133
-35.380756,3.38338,3.8974836
-35.439396,3.381043,3.9050546
-35.522915,3.3669553,3.8967772
-35.559372,3.375954,3.9201999
-35.614475,3.3761795,3.9318225
-35.677498,3.3729365,3.9389324
-35.782463,3.3505259,3.920433
-35.80951,3.3646696,3.9514005
-35.833168,3.3803344,3.984462
-35.88298,3.3841615,4.001787
-35.969738,3.371696,3.997629
-36.05843,3.3588986,3.9933522
-36.12639,3.355699,4.0020623
-36.239243,3.3334188,3.9859529
-36.310116,3.3298516,3.9947684
-36.361443,3.3349314,4.015111
-36.424286,3.3353677,4.029598
-49.20038,0.5820153,1.9511976
-49.10228,0.67077136,2.0975962
-48.83023,1.0422473,2.7492561
-48.908245,1.079998,2.8437452
-48.90741,1.1382117,2.9576244
-48.926506,1.1910324,3.0664315
-48.942936,1.2443306,3.1756716
-48.94055,1.3020957,3.2888808
-49.01052,1.3418019,3.3861036
-49.078957,1.3820083,3.4841113
-49.21358,1.4064984,3.569106
-49.432903,1.4114957,3.638618
-49.64926,1.418205,3.7109394
-50.19249,1.3506155,3.7247772
-50.528206,1.3331363,3.7819672
-50.798706,1.3319864,3.8540993
-52.345703,1.0492666,3.7144418
-52.36906,1.1084588,3.8397703
-52.402184,1.165391,3.9635115
-52.500267,1.2083983,4.077522
-53.415478,1.0800235,4.0739117
-54.4331,0.9353647,4.066289
-8.16766,0.74461675,2.7147799
-8.934996,0.86313677,2.7532625
-9.426254,0.9186938,2.737771
-10.509357,1.122895,2.865777
-10.938009,1.1699443,2.8498325
-11.036669,1.1358819,2.7577004
-11.076504,1.0870543,2.6515484
-11.086054,1.0303044,2.5376444
-11.062704,0.964658,2.414733
-11.116045,0.85875225,2.1942506
-20.255142,2.6431658,3.4321623
-21.798817,3.1314955,4.00113
-21.004313,2.8281808,3.6102476
-20.940153,2.7721808,3.5193906
-20.978271,2.7513094,3.4715657
-21.5625,2.924017,3.664381
-21.335613,2.8103042,3.5020862
-21.411686,2.8042812,3.4738903
-23.04897,3.3697658,4.167302
-23.112675,3.3658342,4.1459255
-23.196049,3.3695176,4.13449
-23.311651,3.385794,4.139506
-23.35976,3.377001,4.11273
-23.481562,3.396771,4.1230354
-23.52366,3.3862338,4.094477
-23.547407,3.3685765,4.0567646
-23.655888,3.3845782,4.0631833
-23.693985,3.3729448,4.033676
-23.816858,3.395812,4.04984
-23.859858,3.3866906,4.0240664
-23.944921,3.3951263,4.0217934
-24.02973,3.4039328,4.020323
-24.086525,3.4013643,4.0039005
-24.161163,3.4066663,3.9982605
-24.228325,3.4091392,3.9890559
-24.22849,3.382701,3.9408731
-24.318926,3.395817,3.946462
-24.378668,3.3958092,3.9344494
-24.439915,3.3967566,3.923937
-24.46862,3.3831964,3.8936787
-24.570742,3.403374,3.910009
-24.642582,3.4101777,3.9081962
-24.656487,3.3902035,3.8694577
-24.71806,3.3926775,3.8619702
-24.763277,3.387631,3.844173
-24.86,3.4076657,3.8616223
-24.862942,3.3825154,3.8159454
-24.929459,3.388507,3.8140843
-24.986685,3.390237,3.8064115
-25.068632,3.4047232,3.8169706
-25.070818,3.3791041,3.7708497
-25.15315,3.3944712,3.7830334
-25.204704,3.3943858,3.7734232
-25.27975,3.406892,3.7819738
-25.293646,3.3874044,3.7448626
-25.353035,3.3921695,3.742628
-25.407171,3.3944187,3.736937
-25.471981,3.4027991,3.7402554
-25.482836,3.381688,3.7010522
-25.56238,3.3988237,3.7173557
-25.62238,3.4054866,3.7186642
-25.68637,3.4148004,3.7240062
-25.697676,3.3940728,3.6856346
-25.733654,3.387536,3.6680346
-25.809027,3.404344,3.68477
-25.845562,3.398545,3.6684842
-25.90667,3.4076617,3.6742554
-25.91674,3.386059,3.6348438
-25.966198,3.3884823,3.6309576
-26.015528,3.3910875,3.6274672
-26.067379,3.3955464,3.6268525
-26.102585,3.389707,3.6110501
-26.15551,3.3953543,3.6124415
-26.19849,3.3948555,3.6047907
-26.238829,3.392806,3.5949216
-26.312439,3.4130633,3.6185641
-26.32323,3.3916812,3.5799155
-26.368496,3.3934832,3.5761118
-26.431187,3.4075208,3.5908384
-26.471119,3.4062245,3.582602
-26.527664,3.4167914,3.5923738
-26.544737,3.3996701,3.5603929
-26.57487,3.3917542,3.5423737
-26.631613,3.4032428,3.5538597
-26.668316,3.400407,3.5437126
-26.713902,3.4043205,3.5439153
-26.742878,3.3959708,3.5255256
-26.775469,3.390368,3.5113792
-26.819098,3.3933477,3.5104141
-26.864313,3.3978229,3.5118341
-26.905956,3.399758,3.5094614
-26.946365,3.4009318,3.5060086
-26.961578,3.3818743,3.4715424
-27.00535,3.3859758,3.4727235
-27.067043,3.4052558,3.4973907
-27.111963,3.4110746,3.5014377
-27.142712,3.4051366,3.4874206
-27.162886,3.3900924,3.4593716
-27.199154,3.3889055,3.4528012
-27.242178,3.3938417,3.4557915
-27.281929,3.396142,3.454781
-27.319523,3.3967125,3.4511633
-27.35958,3.3997335,3.451429
-27.368933,3.3743656,3.407566
-27.406576,3.375226,3.4045768
-27.47555,3.4062905,3.4487963
-27.508816,3.4036975,3.4406028
-27.541126,3.4002552,3.43114
-27.560167,3.383638,3.4011087
-27.596428,3.3841453,3.397925
-27.634481,3.3866692,3.3979697
-27.696272,3.4141383,3.4372501
-27.729288,3.412177,3.4304276
-27.75782,3.4055138,3.416266
-27.782917,3.3950756,3.3962045
-27.795967,3.3711956,3.3549962
-27.841864,3.383543,3.370914
-27.889135,3.397987,3.3902364
-27.922577,3.3970675,3.3853865
-27.953503,3.3933263,3.376133
-27.981602,3.3862574,3.3616624
-28.004164,3.372418,3.3365116
-28.040932,3.3757534,3.338602
-28.08543,3.389012,3.3564963
-28.124165,3.3955414,3.3637986
-28.154694,3.3918505,3.3549395
-28.181887,3.3838003,3.3391976
-28.208479,3.374824,3.322022
-28.242159,3.3753228,3.319961
-28.282602,3.385348,3.3331294
-28.322071,3.39451,3.344997
-28.353992,3.3933377,3.3404555
-28.386244,3.3927524,3.3369021
-28.413431,3.3847582,3.3215694
-28.441095,3.3773293,3.3071747
-28.477327,3.3830082,3.313775
-28.52136,3.4013567,3.3407063
-28.553356,3.4012356,3.3381586
-28.582249,3.396162,3.3277302
-28.610321,3.389647,3.315032
-28.642054,3.3892677,3.3122106
-28.67521,3.3915067,3.3136377
-28.708569,3.394347,3.3160825
-28.739048,3.392204,3.3105798
-28.769272,3.389633,3.3044348
-28.796864,3.3820493,3.2902765
-28.822777,3.3709624,3.270522
-28.853497,3.3691213,3.265674
-28.88995,3.379119,3.2799244
-28.925415,3.387691,3.2919412
-28.95639,3.3871443,3.2893286
-28.990356,3.3933501,3.2976418
-29.012451,3.3729455,3.2631116
-29.042004,3.3690321,3.2551985
-29.073751,3.3703415,3.2557516
-29.107101,3.3758583,3.263144
-29.141508,3.3845649,3.2757378
-29.175299,3.3923378,3.286879
-29.205103,3.3898716,3.2815313
-29.230545,3.375066,3.2562866
-29.26003,3.3711889,3.2487354
-29.290785,3.3710132,3.2472124
-29.328796,3.3937378,3.2827744
-29.359732,3.3952994,3.284161
-29.389845,3.3943453,3.2815218
-29.417315,3.3841133,3.2639055
-29.445711,3.3765466,3.2506413
-29.474941,3.371652,3.2417426
-29.508272,3.382978,3.2591596
-29.542927,3.401174,3.2877588
-29.57375,3.404346,3.292066
-29.60282,3.3997726,3.2838626
-29.632824,3.3994486,3.28259
-29.661142,3.3903222,3.2670865
-29.69096,3.3885825,3.263599
-29.722282,3.3958063,3.274692
-29.753426,3.4031146,3.2859678
-29.782673,3.3984706,3.2778993
-29.812365,3.3965182,3.2742367
-29.84209,3.3946416,3.2707396
-29.869938,3.3750339,3.2385073
-29.899994,3.373829,3.2361803
-29.930733,3.380561,3.2467785
-29.961803,3.3941875,3.2686124
-29.992075,3.400033,3.2778587
-30.021635,3.3944225,3.2685509
-30.051064,3.382071,3.2483392
-30.080984,3.3776608,3.2410612
-30.111055,3.3769975,3.2399092
-30.141163,3.3832288,3.2499928
-30.17111,3.3911111,3.2627988
-30.200905,3.397497,3.2732162
-30.23082,3.3955681,3.2701774
-30.261168,3.384804,3.2528362
-30.291594,3.3772643,3.2407727
-30.321533,3.3797634,3.2450495
-30.351212,3.3849595,3.253745
-30.379215,3.407521,3.290667
-30.409576,3.4018626,3.281826
-30.44031,3.394189,3.2697577
-30.471489,3.3845026,3.2544684
-30.500898,3.3895547,3.2631364
-30.530197,3.3946795,3.271964
-30.56139,3.387328,3.260594
-30.588457,3.4051514,3.2900982
-30.61828,3.4057937,3.2917767
-30.648607,3.4039016,3.2893887
-30.67985,3.397914,3.280404
-30.710901,3.393575,3.2741385
-30.741823,3.3903623,3.2697434
-30.771574,3.392443,3.2739687
-30.798382,3.4060555,3.2969136
-30.827374,3.4103615,3.3048224
-30.857721,3.4095404,3.30447
-30.892307,3.3942487,3.2807398
-30.926168,3.3826945,3.263114
-30.957233,3.3810956,3.2616463
-30.983137,3.3956506,3.2863498
-31.012728,3.3983476,3.2919116
-31.041191,3.4042253,3.3026571
-31.073076,3.4003496,3.29768
-31.110643,3.38158,3.2686949
-31.143513,3.3763463,3.2616315
-31.173054,3.3799694,3.2689152
-31.1998,3.390362,3.2871642
-31.226545,3.4003007,3.3047147
-31.255749,3.4041333,3.3124528
-31.295368,3.3844266,3.282292
-31.328686,3.379717,3.2763643
-31.363335,3.3725421,3.2665205
-31.391542,3.3792787,3.279128
-31.4161,3.393236,3.3033915
-31.441906,3.4041808,3.3228378
-31.474596,3.4014244,3.3202891
-31.513838,3.3865478,3.298315
-31.549326,3.3794193,3.2888575
-31.582478,3.3769646,3.286962
-31.61027,3.3842309,3.3007178
-31.634998,3.3966234,3.322731
-31.666931,3.3964355,3.3246093
-31.701336,3.3923013,3.3202143
-31.733696,3.391793,3.321683
-31.76989,3.3853407,3.3136916
-31.8008,3.3875337,3.3195887
-31.827112,3.3968263,3.3368797
-31.856243,3.401674,3.347106
-31.890041,3.3996031,3.3463287
-31.930468,3.3881576,3.3306522
-31.968391,3.3808262,3.321611
-31.995844,3.3885174,3.3365736
-32.02786,3.3898282,3.3414145
-32.059517,3.391722,3.3472338
-32.096016,3.3872812,3.343032
-32.134926,3.3799944,3.3343735
-32.17443,3.3723397,3.3252034
-32.21025,3.3697236,3.3240995
-32.235107,3.3809364,3.344984
-32.264557,3.386333,3.3566847
-32.300842,3.3835092,3.3554173
-32.33476,3.383718,3.3590117
-32.37373,3.3781953,3.3536062
-32.411175,3.3747368,3.3515344
-32.437176,3.384455,3.3703203
-32.46083,3.3966436,3.393035
-32.496124,3.3958793,3.3953757
-32.542606,3.3832133,3.3790526
-32.58222,3.3783784,3.3751388
-32.61515,3.3808427,3.3827658
-32.644386,3.3872151,3.3965826
-32.674927,3.3922358,3.4083252
-32.712013,3.3906968,3.4098434
-32.749184,3.3892732,3.411612
-32.798508,3.3761668,3.3951912
-32.833538,3.3773623,3.4012098
-32.864155,3.3828874,3.4140458
-32.897194,3.3861542,3.4234138
-32.938274,3.3820457,3.4213605
-32.986122,3.3720207,3.4101925
-33.02499,3.370525,3.4123755
-33.05044,3.3811913,3.4335032
-33.096703,3.373449,3.4261413
-33.127293,3.3796778,3.4405031
-33.173855,3.3722224,3.4337635
-33.22172,3.3640175,3.4259706
-33.260017,3.3641946,3.4312096
-33.28626,3.374498,3.4521198
-33.30678,3.389394,3.4801335
-33.344967,3.3898616,3.486003
-33.399033,3.37784,3.4727907
-33.448864,3.3696156,3.465526
-33.473045,3.3817098,3.4894638
-33.518497,3.3773525,3.488299
-33.563526,3.3736,3.4881597
-33.6028,3.3744354,3.4951115
-33.65699,3.3643622,3.4855518
-33.67608,3.38045,3.5158644
-33.725113,3.3746433,3.5129843
-33.759106,3.3799357,3.52703
-33.81701,3.3683553,3.5156307
-33.862846,3.365673,3.5178123
-33.89322,3.3739545,3.536625
-33.932274,3.3762934,3.5465503
-33.978317,3.374042,3.5496664
-34.029583,3.3685374,3.5480123
-34.08361,3.3615212,3.5442257
-34.091255,3.3852315,3.586494
-34.15256,3.373862,3.5764084
-34.19581,3.3745117,3.5843859
-34.260925,3.3614893,3.5721445
-34.30177,3.3641639,3.5833702
-34.333916,3.372377,3.6028905
-34.374733,3.3753047,3.6146655
-34.4142,3.3791938,3.6279535
-34.466644,3.3754203,3.6300535
-34.508926,3.3779716,3.641583
-34.565765,3.3721285,3.6409092
-34.6033,3.3778439,3.657299
-34.654808,3.3756175,3.6621842
-34.71631,3.3679676,3.659307
-34.758186,3.3717484,3.6732168
-34.802917,3.3740826,3.6851315
-34.851982,3.3742015,3.6939564
-34.911957,3.3685923,3.6946473
-34.946705,3.376944,3.7156115
-35.008385,3.3709655,3.7160726
-35.05778,3.3718357,3.7265272
-35.122013,3.3651605,3.7263346
-35.149326,3.3779726,3.7541142
-35.214535,3.371341,3.754301
-35.262695,3.3737311,3.7674809
-35.329758,3.3668299,3.7676544
-35.350006,3.3835673,3.801374
-35.42718,3.3722234,3.795628
-35.48321,3.371649,3.8052356
-35.562443,3.3601656,3.7997591
-35.58471,3.3763232,3.833077
-35.63317,3.3800488,3.8491528
-35.691025,3.3795762,3.8595512
-35.787453,3.3615484,3.8458836
-35.836197,3.3659644,3.863455
-35.880966,3.3723574,3.8838842
-35.917725,3.3824797,3.9095447
-36.02877,3.359728,3.8904898
-36.067223,3.3695784,3.9161317
-36.09587,3.383767,3.9477508
-36.16729,3.3795598,3.9546232
-36.252724,3.3697631,3.954232
-36.30081,3.3761811,3.9758587
-36.35543,3.3800411,3.9942236
-36.412525,3.3830948,4.011697
-36.5127,3.3687978,4.006403
-48.928207,0.7154248,1.852068
-48.88961,1.1418715,2.6752872
-48.86793,1.2054179,2.794788
-48.900063,1.254992,2.9005594
-48.931465,1.3046331,3.006476
-48.947918,1.357825,3.115808
-48.994926,1.4034197,3.218092
-48.9899,1.4614482,3.3319116
-49.032616,1.5078824,3.4351597
-49.098526,1.548882,3.5337648
-49.277653,1.5639362,3.6101036
-49.493927,1.5713375,3.680986
-49.885696,1.5403819,3.720971
-50.393234,1.4858267,3.744062
-50.636787,1.4916279,3.8194733
-52.383347,1.1746304,3.6402597
-52.37975,1.2396116,3.770297
-52.38875,1.3016481,3.8979487
-52.396843,1.363647,4.025518
-52.945118,1.3151965,4.072983
-53.77746,1.2124383,4.086096
-5.832157,0.61115456,2.7249632
-6.5058556,0.6900337,2.7162294
-7.2997494,0.7997346,2.7397842
-7.999302,0.8921945,2.7523375
-8.677349,0.9835012,2.7681007
-9.357693,1.0790837,2.792047
-9.852266,1.1342056,2.7810254
-10.470959,1.2219288,2.8047924
-10.994024,1.2311246,2.6963706
-11.086702,1.1953857,2.6033812
-11.110321,1.1423974,2.4931169
-11.1094,1.0829341,2.3761559
-11.095335,1.0197179,2.2551365
-11.137325,0.9708042,2.1490836
-11.118534,0.9056437,2.025753
-11.131418,0.84853506,1.9109063
-20.272907,2.7071364,3.4110107
-20.502525,2.748055,3.4385405
-22.030617,3.2283866,4.0171256
-21.43607,2.9958508,3.7054882
-21.711174,3.0584514,3.7645273
-21.240181,2.8628907,3.4963446
-21.85893,3.0473263,3.711852
-21.468653,2.876999,3.4741745
-23.047306,3.411829,4.14536
-23.076687,3.3951707,4.1078815
-23.13969,3.3908682,4.086588
-23.218037,3.3925273,4.073324
-23.286058,3.3906956,4.055755
-23.364183,3.3930016,4.043895
-23.469156,3.4059904,4.046493
-23.473797,3.3807168,3.9984949
-23.526554,3.3740785,3.9753993
-23.682714,3.4085402,4.0076942
-23.713545,3.3939455,3.9744182
-23.785097,3.395812,3.9635086
-23.79393,3.372429,3.9185207
-23.95076,3.4099193,3.9565663
-23.993217,3.40083,3.93142
-24.026012,3.3877816,3.9009538
-24.106747,3.3951654,3.8987422
-24.196909,3.4070554,3.903038
-24.219322,3.3900473,3.8675213
-24.256376,3.3794012,3.8409026
-24.372288,3.403807,3.8633618
-24.418728,3.3978653,3.8436801
-24.445507,3.3831716,3.811821
-24.561106,3.409105,3.837319
-24.59491,3.398025,3.8108485
-24.635845,3.390317,3.7892408
-24.69308,3.390413,3.7788439
-24.77098,3.400641,3.7830698
-24.819504,3.3971808,3.7679534
-24.853548,3.3868546,3.7431173
-24.91801,3.3915455,3.7399626
-24.975502,3.3931246,3.7325082
-25.041862,3.3994484,3.7320776
-25.050613,3.3768923,3.6899705
-25.128693,3.3896966,3.6992402
-25.201246,3.4001539,3.7053242
-25.260296,3.4039953,3.7019606
-25.273981,3.384128,3.664052
-25.359758,3.402675,3.682509
-25.414785,3.4052167,3.6776848
-25.45821,3.401701,3.6640797
-25.481686,3.3873181,3.6345272
-25.540781,3.3927546,3.6343484
-25.61304,3.4059691,3.6458673
-25.672344,3.412301,3.647358
-25.677917,3.3880043,3.6033812
-25.750229,3.402313,3.6169996
-25.813225,3.4116638,3.623404
-25.83776,3.3985243,3.5962758
-25.875368,3.3931885,3.5808997
-25.916378,3.390022,3.5688667
-25.970741,3.3952196,3.5695305
-26.02823,3.4026887,3.5737586
-26.068995,3.4000125,3.562789
-26.09861,3.3903935,3.5413904
-26.156961,3.3992507,3.5480843
-26.215685,3.408754,3.5559082
-26.247208,3.4007869,3.5372734
-26.290916,3.4009466,3.531094
-26.31434,3.3876688,3.5044804
-26.370575,3.3966055,3.511891
-26.442703,3.416882,3.536817
-26.479744,3.4134037,3.5254693
-26.515564,3.4091814,3.51305
-26.547762,3.402474,3.4968758
-26.574009,3.3915167,3.4742064
-26.651249,3.4176583,3.5088587
-26.682173,3.410453,3.492148
-26.713774,3.4037716,3.4763021
-26.736124,3.3901348,3.4497266
-26.773746,3.388026,3.4410748
-26.844597,3.4117446,3.4726481
-26.87393,3.4037313,3.4550028
-26.914076,3.404273,3.4507384
-26.93963,3.3933086,3.428597
-26.972004,3.3877902,3.4150004
-27.011562,3.3882196,3.4107642
-27.071136,3.4054961,3.4329934
-27.120037,3.414391,3.4422183
-27.139366,3.3984585,3.412568
-27.161106,3.384375,3.385841
-27.216019,3.3991416,3.404531
-27.26536,3.4095278,3.4164443
-27.296482,3.4039917,3.4033527
-27.336792,3.4068446,3.4035563
-27.347385,3.3825366,3.3609138
-27.386763,3.38465,3.3600569
-27.42947,3.3901455,3.3646302
-27.479763,3.4032478,3.3813443
-27.517212,3.4043734,3.3791614
-27.541277,3.3924873,3.3563814
-27.5773,3.3924026,3.3523903
-27.610947,3.3900707,3.3448868
-27.656525,3.40012,3.3571577
-27.699095,3.4074862,3.3652415
-27.732037,3.4050238,3.3577275
-27.754803,3.3917081,3.3329363
-27.779133,3.3798666,3.310525
-27.807568,3.3723772,3.2951026
-27.871069,3.4042604,3.3427467
-27.912752,3.412373,3.3524504
-27.943825,3.4085877,3.343155
-27.973297,3.4029558,3.330944
-27.993963,3.3867614,3.3018146
-28.026508,3.3846512,3.2953358
-28.068092,3.3938007,3.3070154
-28.110191,3.4040606,3.3205585
-28.145905,3.4066582,3.3218393
-28.173616,3.3991032,3.306818
-28.198868,3.3881881,3.2864156
-28.23089,3.386155,3.280377
-28.26974,3.393547,3.2896047
-28.306606,3.3985999,3.2951207
-28.343664,3.4042585,3.3016787
-28.373371,3.3996546,3.291697
-28.400455,3.3911676,3.2754707
-28.428028,3.3832388,3.2601843
-28.467434,3.3932562,3.2740164
-28.51103,3.4103632,3.2994142
-28.546366,3.4151597,3.3049178
-28.57633,3.4115753,3.296875
-28.596695,3.3920727,3.2630205
-28.63374,3.4001355,3.273975
-28.662447,3.3942716,3.2623491
-28.697504,3.3995264,3.2688465
-28.732685,3.4053867,3.2763863
-28.76361,3.403797,3.271852
-28.792412,3.3982553,3.2609243
-28.818184,3.3867261,3.2402778
-28.84776,3.382331,3.2312918
-28.879148,3.3815541,3.228249
-28.919027,3.3986027,3.2543344
-28.951372,3.4005532,3.255844
-28.98087,3.3964949,3.2475896
-29.008184,3.3874252,3.2311869
-29.036343,3.3799458,3.2174187
-29.065077,3.3735538,3.2054634
-29.101809,3.386626,3.2253761
-29.136198,3.3946998,3.2371707
-29.168228,3.3972476,3.239974
-29.198092,3.3942509,3.2337499
-29.22617,3.3862076,3.2193012
-29.255655,3.381821,3.210878
-29.286766,3.3821278,3.2101836
-29.322145,3.3958735,3.2315564
-29.354956,3.402525,3.2413554
-29.385138,3.401035,3.237852
-29.41401,3.394989,3.2269187
-29.44216,3.3859217,3.2110672
-29.472128,3.3831108,3.2055154
-29.503565,3.3860512,3.209444
-29.53935,3.4076626,3.2440643
-29.571104,3.4138815,3.253468
-29.599255,3.4041615,3.2367449
-29.63035,3.4079566,3.2422533
-29.658377,3.3963108,3.2224426
-29.688984,3.3976748,3.2240396
-29.719635,3.399636,3.2266612
-29.75144,3.40945,3.2422285
-29.781216,3.4069095,3.237535
-29.810835,3.4028888,3.2304502
-29.840977,3.4025745,3.2294965
-29.869934,3.3914425,3.2107987
-29.89985,3.3876476,3.2042027
-29.930115,3.3870435,3.2028928
-29.96111,3.3963826,3.2179747
-29.991943,3.406841,3.234939
-30.021673,3.4002411,3.2238932
-30.051596,3.3947558,3.2147193
-30.08171,3.3919442,3.2099833
-30.111881,3.3886907,3.2045608
-30.14212,3.383436,3.1958866
-30.172298,3.3990405,3.2215614
-30.202291,3.4058895,3.2328763
-30.232595,3.3982706,3.2204366
-30.262825,3.3964438,3.217564
-30.29374,3.3832698,3.1960711
-30.324121,3.38264,3.1952486
-30.353493,3.3950667,3.2159376
-30.38234,3.410162,3.2410522
-30.412544,3.4087222,3.2390175
-30.443975,3.3969846,3.220096
-30.475689,3.385332,3.2013583
-30.505606,3.3888001,3.2075176
-30.535292,3.3933804,3.2155447
-30.564209,3.40218,3.230544
-30.592928,3.4110503,3.245698
-30.6226,3.4137797,3.2507992
-30.653135,3.411929,3.2484179
-30.685776,3.4003341,3.2300773
-30.715961,3.4012327,3.232298
-30.746618,3.4001439,3.2312956
-30.775421,3.4068766,3.243175
-30.80355,3.415744,3.2585936
-30.833282,3.4179773,3.263164
-30.863556,3.4182258,3.2645192
-30.898647,3.402083,3.239036
-30.931162,3.3958158,3.2297993
-30.963352,3.3911815,3.2232862
-30.989777,3.404607,3.2464118
-31.019218,3.4083426,3.253696
-31.04859,3.4121528,3.2611413
-31.081806,3.4052823,3.2511396
-31.116549,3.394924,3.2354803
-31.148777,3.3918238,3.2317505
-31.178444,3.3954504,3.239069
-31.205946,3.4042532,3.2548914
-31.236942,3.4044573,3.2566943
-31.270176,3.3996546,3.2503595
-31.304688,3.3924034,3.2400775
-31.34103,3.3816981,3.2242093
-31.369732,3.3878412,3.2358966
-31.39807,3.3945603,3.2485614
-31.427032,3.39983,3.2588987
-31.457445,3.4021397,3.26445
-31.49126,3.3979685,3.2594857
-31.5252,3.393895,3.254733
-31.557062,3.3939452,3.2567449
-31.591764,3.3890564,3.2507691
-31.615993,3.402836,3.275206
-31.646376,3.40564,3.2818289
-31.67762,3.4070218,3.2861853
-31.712822,3.4019945,3.2801805
-31.750036,3.3940797,3.269547
-31.779253,3.3992262,3.280161
-31.809029,3.4034512,3.2893214
-31.84005,3.405768,3.2954326
-31.86639,3.415103,3.312953
-31.905092,3.4061992,3.3009906
-31.946108,3.3944566,3.2845058
-31.98428,3.3872843,3.2754807
-32.019806,3.3841665,3.2730727
-32.04459,3.395883,3.2946687
-32.071346,3.40471,3.3116322
-32.111,3.3964815,3.3011322
-32.151646,3.3874044,3.2893386
-32.187927,3.3843055,3.2872434
-32.224327,3.3813171,3.285387
-32.25055,3.3910522,3.3040462
-32.277794,3.399393,3.320499
-32.31059,3.4010346,3.3262334
-32.362774,3.3801157,3.295835
-32.403362,3.373336,3.2882075
-32.431454,3.3810847,3.3039198
-32.44655,3.4032636,3.34276
-32.487247,3.396784,3.335783
-32.517143,3.4023516,3.3481264
-32.56923,3.384229,3.3227024
-32.603752,3.3852673,3.3279452
-32.637386,3.387354,3.334916
-32.668255,3.3923686,3.3466043
-32.692993,3.4035845,3.3682032
-32.731224,3.4012372,3.3682804
-32.7815,3.3873048,3.350039
-32.813316,3.3917701,3.3610802
-32.85778,3.3842132,3.353126
-32.875317,3.4023576,3.38594
-32.909466,3.4047663,3.3938818
-32.96076,3.3915696,3.3772345
-33.008327,3.382247,3.3668122
-33.05308,3.3758502,3.3611012
-33.074123,3.390677,3.388896
-33.11169,3.390922,3.3937788
-33.150375,3.3903751,3.3974886
-33.202515,3.378604,3.3836598
-33.24417,3.3760777,3.3844366
-33.28431,3.3750439,3.3876338
-33.30746,3.3880835,3.4129148
-33.34928,3.3859231,3.414486
-33.409157,3.3696032,3.3940587
-33.443436,3.3740072,3.4060555
-33.489094,3.3696332,3.4044576
-33.501522,3.391084,3.443081
-33.543736,3.3895903,3.4460979
-33.601276,3.3768125,3.4317179
-33.64027,3.378273,3.4395075
-33.69419,3.368947,3.4307084
-33.71416,3.3846169,3.4606042
-33.753826,3.3860116,3.468524
-33.797188,3.3849459,3.4727397
-33.84249,3.382738,3.4752955
-33.901543,3.3712587,3.4637322
-33.942192,3.3728223,3.472289
-33.967777,3.384732,3.4967513
-34.023594,3.3763542,3.490281
-34.083504,3.3656573,3.4804134
-34.10963,3.377485,3.5049706
-34.151123,3.3793187,3.5143857
-34.178947,3.3900552,3.5373917
-34.242085,3.3784213,3.5265799
-34.308865,3.3649697,3.5131884
-34.334717,3.3773427,3.538927
-34.36708,3.3856707,3.5586147
-34.418243,3.382648,3.5613074
-34.493332,3.3655725,3.5430489
-34.525097,3.3747444,3.5642958
-34.55399,3.3856206,3.5881486
-34.59935,3.3869324,3.5977912
-34.66149,3.378808,3.5935016
-34.72389,3.3709314,3.5897489
-34.754074,3.3815327,3.6135507
-34.79547,3.3859053,3.6281981
-34.868286,3.3731432,3.6176605
-34.93714,3.3630292,3.6112328
-34.94487,3.3862574,3.6539812
-34.989254,3.3897123,3.6677265
-35.099438,3.358656,3.6311212
-35.14788,3.3606772,3.6431193
-35.168278,3.3773713,3.6765943
-35.21962,3.378158,3.6870031
-35.27701,3.3761172,3.6934562
-35.35331,3.3649092,3.686831
-35.394436,3.3715892,3.7062087
-35.437782,3.3772936,3.724288
-35.515438,3.3665073,3.718851
-35.5842,3.3604658,3.7204366
-35.593052,3.3832474,3.7633052
-35.649544,3.3834412,3.7740588
-35.70067,3.3863893,3.788881
-35.791718,3.3711753,3.778195
-35.889454,3.353497,3.7643409
-35.89367,3.378602,3.8108854
-35.944267,3.3827813,3.828106
-36.061024,3.3579526,3.8050036
-36.0879,3.3731778,3.8380144
-36.14592,3.3749118,3.8523798
-36.271854,3.347845,3.8271432
-36.284023,3.3697953,3.8698397
-36.33332,3.3760324,3.8909771
-36.380943,3.3831332,3.9134443
-36.446594,3.3829925,3.9261928
-36.53214,3.3750787,3.9286146
-48.90519,0.70769644,1.5745344
-48.861412,0.7807994,1.706655
-48.8795,0.8363013,1.8191066
-49.00252,0.92332983,2.0181332
-49.921585,0.8646107,2.1208882
-49.948967,0.9193046,2.2351217
-49.99906,0.96810555,2.343379
-48.843452,1.3168035,2.7543144
-48.89347,1.3618741,2.8555694
-48.923897,1.4116969,2.9616904
-48.93937,1.4649892,3.0712547
-48.954994,1.5180418,3.1805716
-48.957466,1.5739732,3.292594
-49.02588,1.6144321,3.3901052
-49.078407,1.6586335,3.4913816
-49.19825,1.6877532,3.5792637
-49.44806,1.6884973,3.6426105
-49.68058,1.6942239,3.7118635
-50.259285,1.6263235,3.7193828
-50.55863,1.6210136,3.7834702
-50.871548,1.6143236,3.8483744
-52.383663,1.3607402,3.715457
-52.39167,1.4228601,3.8433466
-52.403618,1.4839623,3.9703865
-52.526268,1.522882,4.080607
-53.430485,1.4092267,4.0789356
-54.49762,1.2689831,4.0647597
-4.787319,0.6730156,2.7567062
-5.3930244,0.72756314,2.72335
-6.429924,0.8778188,2.7814636
-7.13085,0.960752,2.783349
-7.640936,1.0054221,2.7533293
-8.337475,1.0944338,2.76891
-9.094494,1.2009523,2.805687
-9.732632,1.2844098,2.8241801
-10.274317,1.348974,2.827498
-10.852774,1.4251497,2.8456755
-10.970877,1.3947828,2.757917
-11.130806,1.1398563,2.215764
-11.129719,1.0799892,2.0978236
-11.115555,1.0163722,1.9756212
-11.131203,0.960166,1.8614922
-11.091078,0.88884497,1.7303219
-11.092812,0.8281901,1.6109324
-20.405186,2.8106816,3.4381742
-20.587719,2.8354244,3.4474673
-21.259138,3.02309,3.6666322
-21.996967,3.2376227,3.9234197
-21.26369,2.9594867,3.5444584
-21.82159,3.1174207,3.730619
-22.040031,3.1618578,3.770494
-21.983017,3.111387,3.686336
-21.630966,2.9559643,3.4630713
-23.030617,3.4233809,4.065729
-23.036413,3.398003,4.016636
-23.062254,3.3797557,3.9770722
-23.191257,3.3995357,3.988758
-23.278248,3.404432,3.980807
-23.297512,3.3842611,3.939137
-23.424707,3.4051156,3.953408
-23.478512,3.3985054,3.9305663
-23.486467,3.3742542,3.883659
-23.638563,3.4064949,3.9146247
-23.696384,3.4022908,3.89571
-23.780561,3.4089065,3.892003
-23.798845,3.3892412,3.8519442
-23.847675,3.3820038,3.8292894
-23.944567,3.394847,3.8349586
-24.026505,3.4020095,3.8329544
-24.026718,3.375041,3.782991
-24.161514,3.405368,3.8141913
-24.215622,3.401762,3.7976055
-24.237875,3.3844602,3.76164
-24.318222,3.3927279,3.762289
-24.384892,3.3953602,3.7551022
-24.429434,3.3883615,3.734254
-24.48574,3.3868566,3.7214508
-24.574625,3.4005942,3.7308655
-24.638369,3.4032078,3.7244115
-24.657328,3.3851004,3.6879883
-24.7608,3.4070227,3.7099905
-24.80505,3.4012527,3.6918063
-24.847815,3.3949037,3.672884
-24.872528,3.3798351,3.641245
-24.979954,3.405682,3.6699514
-25.024824,3.401019,3.6539097
-25.04448,3.3837557,3.6193166
-25.106464,3.388022,3.6167045
-25.186605,3.402011,3.628726
-25.239357,3.402244,3.6204638
-25.254295,3.3827696,3.5828824
-25.318607,3.3894587,3.5844913
-25.391998,3.4014301,3.5942025
-25.456486,3.4090455,3.5975623
-25.471127,3.389606,3.5603147
-25.5192,3.3885949,3.550902
-25.597996,3.4050848,3.5680885
-25.672169,3.4195328,3.582395
-25.675442,3.393756,3.5357895
-25.727957,3.3962643,3.5322022
-25.79602,3.4081903,3.5431027
-25.844753,3.4091172,3.5373769
-25.876549,3.4001117,3.516563
-25.898428,3.3851054,3.4866042
-25.951778,3.3893056,3.4861712
-26.009571,3.396574,3.4905834
-26.074324,3.4085875,3.5024486
-26.083426,3.3857636,3.4606986
-26.12784,3.3852997,3.453504
-26.173466,3.3858225,3.4479322
-26.24892,3.406145,3.4731703
-26.285921,3.4016104,3.4599857
-26.306639,3.3862429,3.4300194
-26.37244,3.4013433,3.447546
-26.427322,3.4094937,3.4543872
-26.491138,3.4242406,3.471661
-26.508936,3.4071803,3.4393134
-26.557207,3.4115891,3.4406214
-26.58735,3.4032543,3.4220347
-26.63423,3.407099,3.4226346
-26.677414,3.4085085,3.4195008
-26.719326,3.409194,3.4153147
-26.740894,3.3947396,3.3873267
-26.781652,3.394778,3.3822532
-26.843386,3.4112144,3.4031916
-26.882122,3.4102516,3.396721
-26.905724,3.397467,3.3715792
-26.936747,3.3904989,3.3556986
-26.972797,3.387623,3.3463683
-27.020802,3.394684,3.3529105
-27.069654,3.4028118,3.36125
-27.111855,3.4057212,3.3613687
-27.134912,3.3925412,3.3358865
-27.16605,3.3861876,3.3213372
-27.206589,3.3880813,3.3200283
-27.256756,3.3987494,3.3328433
-27.29444,3.3986506,3.328504
-27.335075,3.4014144,3.3288236
-27.354225,3.384585,3.297749
-27.3796,3.3732986,3.275599
-27.433857,3.3892813,3.297358
-27.480951,3.3989894,3.3091245
-27.522057,3.4032984,3.3122783
-27.554073,3.3989077,3.3014693
-27.585669,3.3941393,3.2900987
-27.6288,3.4011405,3.297801
-27.673075,3.4096925,3.3080907
-27.711264,3.4122887,3.3088212
-27.747124,3.4126513,3.3059964
-27.774609,3.4041545,3.2888637
-27.784958,3.3768005,3.2411594
-27.816788,3.372658,3.2311463
-27.873081,3.3961668,3.26613
-27.937916,3.4303663,3.3186188
-27.942873,3.3960755,3.2597432
-27.970821,3.3880498,3.2436314
-28.001698,3.3834474,3.2331371
-28.035778,3.3827703,3.2290902
-28.076414,3.390376,3.2386189
-28.124466,3.407763,3.2641964
-28.155506,3.4040465,3.2553644
-28.18399,3.3970215,3.2411652
-28.208218,3.3842418,3.2175822
-28.245274,3.3885305,3.221981
-28.287136,3.3997524,3.2378025
-28.320343,3.3993967,3.2347107
-28.358307,3.4059806,3.243054
-28.384296,3.3955362,3.2235036
-28.411816,3.3871114,3.2073002
-28.44339,3.38465,3.2009315
-28.480091,3.390151,3.2077022
-28.52383,3.4071066,3.2333765
-28.556677,3.407412,3.231718
-28.586761,3.4033563,3.2229242
-28.61276,3.39244,3.2028656
-28.640722,3.3845577,3.187839
-28.67452,3.386683,3.189352
-28.712688,3.3968678,3.2042146
-28.74704,3.4006903,3.2086344
-28.778067,3.398621,3.2033744
-28.804153,3.3871365,3.1826
-28.83201,3.3787124,3.166913
-28.861528,3.3733594,3.1563387
-28.897463,3.3811274,3.1675076
-28.933897,3.3905084,3.1814003
-28.966843,3.3929548,3.1838684
-28.99542,3.385925,3.170689
-29.020845,3.3714006,3.1451292
-29.056406,3.3801475,3.158162
-29.084679,3.371818,3.1429396
-29.120579,3.382271,3.1588984
-29.154057,3.3872592,3.1658454
-29.185118,3.386259,3.1629043
-29.216179,3.3853407,3.160139
-29.244753,3.3773947,3.1457477
-29.274694,3.3730752,3.137413
-29.308193,3.3795118,3.146985
-29.343115,3.3911319,3.1652174
-29.376053,3.3972487,3.1743531
-29.405436,3.39173,3.1641932
-29.435638,3.3888352,3.1584325
-29.46413,3.3793802,3.1418004
-29.495935,3.3822553,3.1457129
-29.531479,3.401063,3.1761765
-29.563278,3.4056509,3.1830292
-29.59451,3.4082766,3.1866593
-29.624613,3.405864,3.1819444
-29.654066,3.3999414,3.171424
-29.683277,3.392042,3.157649
-29.713966,3.391907,3.1568418
-29.748528,3.416479,3.1972241
-29.777412,3.4062476,3.1796818
-29.80818,3.4084098,3.1828227
-29.836758,3.393189,3.157042
-29.865746,3.3785517,3.1322684
-29.896282,3.376319,3.128201
-29.927795,3.384959,3.142292
-29.959251,3.3957381,3.1599894
-29.990286,3.4040287,3.1735816
-30.020468,3.399543,3.1659188
-30.050652,3.3925624,3.1541362
-30.080805,3.3784578,3.1305175
-30.111523,3.3798628,3.1327896
-30.142214,3.3839185,3.1395211
-30.172709,3.3993707,3.165288
-30.203121,3.4010117,3.1680722
-30.233562,3.4006732,3.167595
-30.264559,3.3880687,3.1467133
-30.295221,3.3868597,3.1448655
-30.32602,3.3841867,3.1406178
-30.355406,3.4001012,3.167387
-30.3856,3.4032376,3.1728983
-30.415773,3.4059377,3.1777205
-30.446663,3.4020367,3.1715837
-30.478172,3.3941078,3.1587763
-30.509304,3.3903701,3.1529922
-30.539448,3.3938982,3.1593537
-30.567423,3.4103274,3.1872387
-30.59762,3.411952,3.1905026
-30.627308,3.4162161,3.1982007
-30.65762,3.4169693,3.2000923
-30.690516,3.4055128,3.1816993
-30.721415,3.4043827,3.1805372
-30.75307,3.4002647,3.1744456
-30.779795,3.4166746,3.202547
-30.807596,3.4275253,3.2214322
-30.844418,3.4042442,3.1835904
-30.87733,3.3968875,3.1722808
-30.910286,3.3901315,3.1620169
-30.942009,3.38805,3.1595674
-30.969254,3.4003022,3.180973
-30.999426,3.402955,3.1864672
-31.029902,3.4046688,3.1904407
-31.06216,3.401386,3.18616
-31.096008,3.394135,3.1753378
-31.130432,3.3859673,3.1630435
-31.162096,3.3854895,3.1635551
-31.19073,3.3926792,3.1768236
-31.220898,3.3958976,3.1835446
-31.247555,3.4072652,3.2038064
-31.282188,3.4000456,3.1933112
-31.320665,3.3848746,3.1697006
-31.352507,3.3849056,3.1713152
-31.382933,3.388035,3.1781
-31.405935,3.4062877,3.2099395
-31.437853,3.406048,3.2112246
-31.470577,3.4043941,3.2102175
-31.506006,3.3978362,3.2011547
-31.542967,3.3888881,3.1882014
-31.574112,3.3910124,3.1935806
-31.601582,3.399685,3.2098064
-31.63003,3.4064345,3.2228937
-31.662157,3.406805,3.2255015
-31.695206,3.4057775,3.225852
-31.73349,3.3964376,3.212564
-31.766132,3.3965967,3.2149715
-31.799438,3.3958602,3.2159534
-31.823143,3.4099782,3.241407
-31.852121,3.41579,3.253233
-31.887337,3.4123573,3.249917
-31.92267,3.4090288,3.2468257
-31.97502,3.3818643,3.2046905
-32.00736,3.383667,3.2101464
-32.026516,3.4035697,3.2453046
-32.057194,3.4074588,3.2542524
-32.093334,3.4041548,3.2514725
-32.142662,3.3840206,3.2212267
-32.178482,3.3819354,3.2205734
-32.212086,3.382848,3.224875
-32.2383,3.3929965,3.244299
-32.271053,3.395042,3.2505383
-32.310226,3.3895135,3.244484
-32.35039,3.3831549,3.237143
-32.388275,3.3797872,3.2347403
-32.419594,3.3841503,3.2449741
-32.444084,3.396193,3.267733
-32.473495,3.4026005,3.2813678
-32.50585,3.4057744,3.2897959
-32.569866,3.3750956,3.2433925
-32.593655,3.3879368,3.2676249
-32.632534,3.3848724,3.2661376
-32.657845,3.3959699,3.2876205
-32.68849,3.4015195,3.300169
-32.72514,3.401097,3.3031206
-32.77934,3.3836045,3.278603
-32.81201,3.387621,3.288859
-32.85383,3.382952,3.285182
-32.882133,3.3913205,3.3025527
-32.920673,3.39011,3.3045702
-32.97228,3.37711,3.2877297
-33.012135,3.3752644,3.2888842
-33.05362,3.3721795,3.288128
-33.078247,3.384222,3.3116598
-33.121384,3.38001,3.3092318
-33.156277,3.3831687,3.3186584
-33.209724,3.370673,3.3031693
-33.249058,3.370495,3.3074255
-33.274403,3.3820767,3.330474
-33.31483,3.3812225,3.3337793
-33.35369,3.3818345,3.3394895
-33.410393,3.3683875,3.32297
-33.453445,3.3662012,3.3244185
-33.4768,3.3795724,3.3505726
-33.513626,3.382454,3.3601727
-33.56025,3.3780138,3.3582816
-33.6175,3.3658912,3.3443751
-33.657513,3.3670206,3.3514652
-33.685165,3.3773708,3.3731327
-33.72338,3.380022,3.3827505
-33.768814,3.377637,3.3845406
-33.821644,3.3702705,3.3786263
-33.867382,3.3682218,3.3811464
-33.88741,3.3841896,3.4119
-33.934425,3.3815484,3.413651
-33.97908,3.3807616,3.4183912
-34.036415,3.3717227,3.410398
-34.090225,3.365417,3.4067826
-34.114227,3.378917,3.43399
-34.16696,3.37377,3.4323711
-34.20109,3.3808193,3.449719
-34.26974,3.3661275,3.4335942
-34.311848,3.3685431,3.4439888
-34.333458,3.383772,3.4741712
-34.371475,3.3888612,3.4888148
-34.442333,3.3742115,3.473297
-34.504143,3.365503,3.4670515
-34.52067,3.3839626,3.5024333
-34.569042,3.3836284,3.5091872
-34.61888,3.382673,3.5151095
-34.709717,3.3585038,3.4859147
-34.733513,3.3730218,3.5155873
-34.782337,3.3734412,3.523975
-34.830536,3.3744295,3.5333376
-34.9129,3.356904,3.5149379
-34.941414,3.3691807,3.5415554
-34.968315,3.3823018,3.5694885
-35.039845,3.3716912,3.5619545
-35.12624,3.3537378,3.5436578
-35.137047,3.3756843,3.5850525
-35.17615,3.3828633,3.6044855
-35.266968,3.3638303,3.5851378
-35.335224,3.3567991,3.583818
-35.355125,3.3742576,3.6188345
-35.417587,3.3706245,3.62282
-35.467373,3.3735075,3.6365485
-35.556694,3.3575082,3.622746
-35.580776,3.373262,3.655614
-35.616127,3.3836262,3.680664
-35.676033,3.3825564,3.6891756
-35.739933,3.379931,3.695601
-35.843704,3.359367,3.6762862
-35.881474,3.369422,3.7014399
-35.92699,3.3760731,3.7217913
-36.031727,3.3565824,3.7048035
-36.075836,3.3644104,3.7271905
-36.10233,3.3800206,3.760778
-36.188683,3.3698516,3.757813
-36.271317,3.3617702,3.7580838
-36.27904,3.385707,3.803794
-36.373234,3.373407,3.798528
-36.418037,3.3820357,3.8229103
-36.477497,3.3848104,3.8392408
-48.88595,0.7612431,1.4087825
-48.85604,0.8304765,1.5374899
-48.85187,0.8921573,1.657299
-48.837486,0.95618343,1.7796159
-48.92711,0.99220204,1.8703456
-48.936142,1.0495319,1.9851055
-49.022717,1.0865188,2.0774193
-49.92387,1.0388458,2.1873116
-49.97393,1.0876293,2.295403
-48.87037,1.4168,2.6963096
-48.882645,1.4710827,2.8070421
-48.90927,1.5217402,2.9140382
-48.93135,1.5733256,3.0220175
-48.940315,1.6277845,3.1328745
-48.998,1.6709061,3.2325573
-49.01498,1.7232509,3.3414083
-49.048393,1.7717738,3.4466143
-49.141434,1.8071663,3.5395956
-49.322224,1.8238778,3.6158
-49.52104,1.8375447,3.6903005
-49.72738,1.8505323,3.7653918
-50.46853,1.7535539,3.7451735
-50.70233,1.7643504,3.8227339
-52.374676,1.4861956,3.657504
-52.390415,1.5466228,3.7841368
-52.406242,1.6068571,3.9106092
-52.416332,1.6680284,4.0378237
-53.05458,1.6094935,4.072335
-53.926224,1.5105529,4.0808687
-4.731243,0.880707,2.8255906
-5.1628265,0.89505386,2.757648
-5.892454,0.97292733,2.7520003
-7.792925,1.2991405,2.9878945
-8.566824,1.397665,3.0146112
-8.638132,1.3496447,2.9017334
-8.643219,1.2873406,2.7749214
-9.167341,1.3392198,2.7635336
-9.91431,1.4437156,2.8090363
-10.261105,1.461736,2.7690153
-10.928181,1.5550394,2.8099637
-10.98539,1.3935595,2.4746919
-11.005762,1.2211871,2.1272426
-11.145647,1.0769601,1.8116136
-11.132383,1.0131824,1.6884208
-11.144194,0.9555745,1.5722785
-11.10697,0.88459396,1.4402828
-11.060726,0.81056666,1.3043575
-19.766674,2.7418892,3.2859626
-20.218966,2.8473482,3.3995051
-20.409286,2.872548,3.4103384
-20.62991,2.908581,3.4361415
-21.319221,3.0981643,3.6651545
-21.428604,3.102037,3.6511621
-21.751335,3.1773102,3.7325978
-22.038414,3.2427444,3.8021917
-21.832018,3.142551,3.6504192
-22.065899,3.1916795,3.6992626
-21.846283,3.0849683,3.5377383
-21.997774,3.1065183,3.5499058
-21.657534,2.9545908,3.3253899
-23.037832,3.4165668,3.9425206
-23.045317,3.3915393,3.893611
-23.101528,3.3841846,3.869147
-23.233791,3.4051962,3.8842833
-23.272125,3.3918653,3.8519726
-23.335766,3.388175,3.8332632
-23.451962,3.404852,3.8433826
-23.470428,3.38446,3.8016028
-23.547173,3.3867378,3.7919393
-23.647675,3.398782,3.7963948
