x,y,z
-25.659943,1.9937468,2.8797302
-25.7205,2.0044706,2.8803892
-25.780827,2.015413,2.8815207
-25.843826,2.0292332,2.8862038
-25.90192,2.039018,2.8864393
-25.961514,2.0506144,2.888989
-26.025396,2.0667162,2.8970046
-26.077703,2.0722978,2.8929696
-26.130428,2.0785959,2.8899493
-26.206753,2.108325,2.9146004
-26.26498,2.1210063,2.9195032
-26.270859,2.0817165,2.8633642
-26.299458,2.0647101,2.8334842
-26.302773,2.0215366,2.7726898
-26.265697,1.9355726,2.661077
-26.291815,1.9141092,2.625836
-26.278969,1.8508592,2.5408773
-26.014164,1.5149274,2.1304321
-26.186668,1.6475718,2.2787056
-26.208553,1.6174843,2.2328362
-26.230957,1.5874074,2.1869893
-26.24404,1.5462062,2.1277819
-26.216484,1.4575319,2.0113668
-26.179943,1.356307,1.8795753
-26.175251,1.2901044,1.7898288
-26.310236,1.3889296,1.8997431
-26.3553,1.3819323,1.8818803
-26.365038,1.203049,1.6365805
-26.383926,1.1604557,1.5754309
-26.345583,1.0427647,1.4224615
-36.178177,0.9379451,1.753017
-36.180744,0.9881456,1.8258185
-36.232937,0.99699783,1.852005
-36.1713,1.0980022,1.9817047
-36.214783,1.1130185,2.014801
-36.270283,1.1184456,2.0373259
-36.26994,1.1678224,2.1088805
-36.317772,1.1790378,2.138039
-36.381233,1.1782556,2.1540942
-36.469,1.2069805,2.2201395
-36.517605,1.2177663,2.249443
-36.130646,1.6783981,2.8183727
-36.177025,1.6869302,2.8444018
-36.143215,1.7519536,2.9310546
-36.203606,1.7503145,2.9463277
-36.227413,1.7741866,2.9889412
-36.243057,1.803417,3.0372577
-36.25468,1.8350513,3.0880938
-36.269386,1.8642495,3.1363382
-36.266335,1.9049304,3.1965704
-36.30468,1.9178283,3.2277632
-36.390953,1.8994651,3.2266784
-36.418198,1.9198079,3.265944
-36.44587,1.9397314,3.3048382
-36.47843,1.9564235,3.3404913
-36.521168,1.9666483,3.3696527
-36.573494,1.9709518,3.3929706
-36.616753,1.9810061,3.4223008
-36.67575,1.9814978,3.442194
-36.737045,1.980829,3.4611845
-36.810593,1.9730628,3.4733934
-36.88122,1.9674158,3.4880466
-36.95813,1.9584167,3.499734
-36.99571,1.9727888,3.5346603
-37.040085,1.9832199,3.5658846
-37.11949,1.9736307,3.5779066
-37.18651,1.9715066,3.5975065
-37.261463,1.965204,3.613428
-37.372986,1.9388711,3.610664
-37.60032,1.8492267,3.5486279
-37.694805,1.8342516,3.558117
-37.79115,1.8188088,3.567667
-37.688675,1.9109397,3.6775908
-37.659252,1.9627364,3.7495508
-37.700558,1.9764881,3.7863588
-37.745743,1.9882336,3.821509
-37.803047,1.993751,3.8512225
-37.86521,1.9969444,3.879126
-37.926506,2.0008016,3.907929
-37.986095,2.005735,3.9379907
-38.048943,2.0092297,3.9670854
-38.120094,2.008823,3.9930987
-38.18287,2.0128336,4.0233116
-38.28091,1.9998475,4.039265
-39.43504,1.4763811,3.6213493
-39.45416,1.506784,3.6786604
-39.454983,1.5456855,3.743103
-39.419422,1.6013858,3.8213744
-39.430122,1.6348388,3.8809958
-39.441193,1.6678684,3.940238
-39.45092,1.7012701,3.9997492
-39.4593,1.7350364,4.059512
-39.465458,1.7695501,4.119819
-39.590256,1.7507831,4.1383004
-39.839157,1.6777225,4.1154485
-39.97792,1.6546478,4.132659
-40.149437,1.6180837,4.1405244
-40.366306,1.5629663,4.135598
-40.699516,1.45946,4.0962234
-40.824276,1.4464796,4.1256375
-41.06812,1.3841112,4.1200504
-41.31096,1.3236616,4.117549
-41.545616,1.2680657,4.120191
-41.82121,1.1971335,4.1137877
-42.145218,1.1082699,4.0970163
-42.428917,1.0376136,4.094977
-42.719753,0.96582437,4.094247
-43.05934,0.87654877,4.0841126
-43.41446,0.7832699,4.0739064
-43.704327,0.717432,4.083928
-44.116024,0.6064987,4.067718
-44.455948,0.5253861,4.073131
-20.365559,0.9276047,2.7797875
-20.525349,0.9652269,2.783791
-20.663414,0.99249697,2.778976
-20.87138,1.0576062,2.8106055
-20.97522,1.0686417,2.79208
-21.176685,1.1328244,2.8248453
-21.300455,1.1562653,2.8195891
-21.45562,1.1976902,2.8323617
-21.558647,1.2113295,2.8189573
-21.709488,1.2522552,2.8327446
-21.82826,1.2761662,2.8306046
-21.944271,1.2992568,2.8282576
-22.039665,1.3112426,2.8154607
-22.612932,1.600652,3.0802684
-22.661705,1.5889833,3.0460591
-22.83324,1.6498299,3.0852175
-22.928246,1.6664994,3.0804796
-23.030529,1.6881273,3.0812511
-23.124111,1.7051504,3.0778031
-23.20911,1.7175016,3.069993
-23.338713,1.7579167,3.0915813
-23.420757,1.7696819,3.0840712
-23.502567,1.7817779,3.0772786
-23.589287,1.7974768,3.0746293
-23.680824,1.8168182,3.0762086
-23.76108,1.8294673,3.0711393
-23.8295,1.8348653,3.0587344
-23.872597,1.8238945,3.0291824
-23.899378,1.8020842,2.988183
-23.92151,1.776969,2.9436884
-23.932714,1.7441862,2.8909526
-23.975388,1.7325976,2.8611093
-24.052485,1.7448645,2.8573074
-24.120985,1.7516003,2.8478026
-24.215578,1.7771323,2.8591366
-24.309685,1.803056,2.8713188
-24.442871,1.8578684,2.915738
-24.494371,1.8545902,2.8965755
-24.565424,1.8658347,2.8937016
-23.737206,1.1626244,2.0786629
-23.811285,1.1701989,2.0699286
-23.830715,1.1364048,2.0150003
-23.854603,1.1056225,1.9634581
-23.848562,1.051117,1.8851128
-23.829298,0.9853227,1.7938223
-25.176357,1.9653738,2.8783875
-25.280132,2.0078912,2.913969
-25.326263,2.0041466,2.8969402
-25.43318,2.0509994,2.9382534
-25.476442,2.0456364,2.9198122
-25.503273,2.02642,2.8854856
-25.55465,2.0280323,2.8753538
-25.614975,2.0376334,2.8746824
-25.675085,2.047453,2.8744845
-25.740301,2.0622065,2.8802676
-25.79875,2.071421,2.879806
-25.860483,2.0840075,2.883511
-25.917326,2.0925903,2.8827286
-25.978552,2.105615,2.887383
-26.038933,2.118331,2.8918934
-26.091156,2.1238039,2.8880353
-26.142683,2.1289191,2.8839273
-26.20735,2.14707,2.8955035
-26.244783,2.1391327,2.8761988
-26.27472,2.123755,2.8480983
-26.307055,2.110601,2.822722
-26.28201,2.039039,2.727312
-26.258781,1.9678009,2.6320796
-26.27607,1.9371688,2.585579
-25.924515,1.5175428,2.069363
-26.07114,1.6188498,2.1815715
-26.196026,1.6994212,2.2692614
-26.218815,1.6706278,2.2246532
-26.236624,1.635792,2.1727085
-26.239286,1.5832791,2.0992074
-26.234608,1.52127,2.0140276
-26.169346,1.3881493,1.8417511
-26.21384,1.3796427,1.8217335
-26.287693,1.4057884,1.844357
-26.332558,1.3981516,1.8257003
-26.363335,1.3103611,1.6992979
-26.367743,1.2512522,1.6172605
-26.3848,1.2066896,1.5531363
-26.379787,1.132771,1.4526172
-26.342674,1.0151951,1.2977962
-36.158504,0.956162,1.6724181
-36.160484,1.0071237,1.7467489
-36.197968,1.0282631,1.7868156
-36.209858,1.0699089,1.8503828
-36.164436,1.1568122,1.9654303
-36.205296,1.1738462,2.0007896
-36.243965,1.192497,2.0380836
-36.264156,1.225353,2.0915003
-36.310635,1.2376022,2.1217275
-36.338505,1.264004,2.167966
-36.43888,1.2355413,2.1528997
-36.507595,1.2784863,2.2350054
-36.543144,1.2988281,2.274918
-36.312817,1.6404703,2.7195349
-36.158394,1.7897584,2.8990884
-36.200657,1.8008957,2.9279518
-36.223717,1.8251579,2.9711227
-36.25066,1.8465679,3.0112543
-36.266563,1.8751931,3.0591664
-36.262634,1.9166608,3.1207747
-36.26237,1.9551728,3.1791196
-36.302143,1.9671457,3.2092714
-36.386276,1.9505401,3.2094297
-36.412006,1.9717638,3.249682
-36.438892,1.9920993,3.2890549
-36.471405,2.0087683,3.3246722
-36.510384,2.0213528,3.356151
-36.556675,2.0294435,3.3831267
-36.610397,2.0330977,3.405726
-36.66182,2.0383153,3.430141
-36.723076,2.0377975,3.4489346
-36.773666,2.0438554,3.4746466
-36.851074,2.0342996,3.484851
-36.917084,2.031797,3.5024848
-36.973083,2.0353646,3.5264688
-37.012684,2.0484881,3.5601635
-37.110027,2.0289361,3.5617952
-37.181755,2.0243628,3.5786095
-37.253586,2.0200768,3.596046
-37.335022,2.0108337,3.609024
-37.525,1.9427574,3.5657206
-37.654453,1.9089215,3.5562997
-37.739452,1.8998046,3.5711226
-37.832684,1.8867531,3.5826573
-37.643303,2.0230584,3.7351103
-37.688618,2.0347092,3.769805
-37.7305,2.0482044,3.8064022
-37.778748,2.0584722,3.8401947
-37.835083,2.064726,3.8705254
-37.895473,2.0691109,3.899425
-37.952488,2.075386,3.9303255
-38.01941,2.0769336,3.9572659
-38.088825,2.0775194,3.9836931
-38.149006,2.0828724,4.0146914
-38.222588,2.0819707,4.040513
-39.438065,1.5363669,3.5933976
-39.413906,1.5871611,3.6684122
-39.40943,1.6281679,3.734786
-39.417168,1.6631157,3.7958841
-39.434677,1.6932857,3.8529115
-39.44573,1.7262123,3.9122467
-39.45371,1.7602861,3.972498
-39.43956,1.8040226,4.040598
-39.461243,1.8314054,4.095251
-39.465977,1.8661109,4.1558237
-39.665,1.8157314,4.1487923
-39.920776,1.7420416,4.1247654
-40.099342,1.70313,4.129496
-40.2035,1.6968989,4.1605353
-40.5446,1.5913558,4.1167083
-40.763004,1.5392942,4.115465
-40.94296,1.5044601,4.1285133
-41.175934,1.448914,4.1275754
-41.4382,1.3828692,4.120647
-41.718315,1.31124,4.1115685
-42.0101,1.2366722,4.1024075
-42.26406,1.1788452,4.107007
-42.58644,1.0957024,4.0960264
-42.873596,1.0282028,4.0979977
-43.25411,0.926476,4.079217
-43.53302,0.8658283,4.09028
-43.926586,0.7634618,4.0764027
-44.312187,0.666461,4.0689178
-44.719025,0.563884,4.0608716
-20.030737,0.96579385,2.8135853
-20.092718,0.95138025,2.7680693
-20.282448,1.0014021,2.7832937
-20.472187,1.0527151,2.800807
-20.627617,1.0877421,2.8039002
-20.771896,1.118,2.8032746
-20.926998,1.1548173,2.809739
-21.091158,1.1974297,2.8226538
-21.22088,1.2228589,2.8197093
-21.354956,1.2514296,2.82052
-21.492516,1.2827451,2.8247356
-21.616852,1.3077414,2.823401
-21.741537,1.333714,2.8236728
-21.859474,1.3567326,2.8216162
-21.98247,1.3833337,2.8237615
-22.508163,1.6389408,3.0585294
-22.665497,1.688909,3.086883
-22.637691,1.6332266,3.0079308
-22.882406,1.7355583,3.091229
-22.966547,1.7456627,3.0805311
-23.064917,1.7646761,3.0794702
-23.16822,1.7872741,3.0826163
-23.251545,1.798487,3.0743217
-23.363827,1.8278506,3.0855122
-23.444302,1.8384361,3.0773864
-23.528997,1.852108,3.0728955
-23.606052,1.8614998,3.06422
-23.707085,1.8865216,3.0726204
-23.78141,1.8951871,3.0638967
-23.844673,1.8971221,3.0482244
-23.892002,1.8889534,3.021852
-23.915064,1.8648956,2.978351
-23.927094,1.8332877,2.9266315
-23.952385,1.8102095,2.8842363
-24.003387,1.8043525,2.8608394
-24.083155,1.8183079,2.85951
-24.169594,1.837389,2.8641992
-24.236973,1.8437877,2.8551474
-24.298006,1.8460791,2.8417754
-24.426596,1.8967273,2.882811
-24.562391,1.9537964,2.9316568
-24.707924,2.0193057,2.9906497
-23.793375,1.26214,2.102477
-23.812862,1.229033,2.048018
-23.83683,1.1988988,1.9969463
-23.833874,1.1478536,1.9219322
-23.834373,1.0986834,1.8489485
-23.803518,1.024328,1.746829
-23.70492,0.895355,1.5813131
-23.878937,0.9808314,1.6637301
-25.29882,2.0699096,2.913396
-25.321669,2.0473268,2.8746204
-25.413794,2.0813463,2.9020205
-25.468285,2.0850704,2.8943014
-25.520828,2.0874448,2.8851848
-25.579351,2.0951421,2.882515
-25.634682,2.100469,2.877252
-25.697037,2.1121993,2.8797603
-25.758541,2.1236396,2.8821483
-25.815086,2.1311402,2.8800697
-25.876701,2.1435387,2.8840275
-25.938042,2.1561627,2.8884716
-25.995092,2.165336,2.889001
-26.049656,2.1726053,2.8874397
-26.105171,2.1811197,2.8875604
-26.159927,2.189299,2.8874645
-26.207289,2.1907697,2.8794441
-26.253485,2.1913278,2.8704653
-26.287119,2.179758,2.846909
-26.31446,2.1618512,2.8157248
-26.276428,2.0780132,2.704256
-26.288055,2.0428293,2.651916
-26.265728,1.9720285,2.5559764
-26.305386,1.9642565,2.537088
-26.163311,1.7647913,2.2829237
-26.187183,1.7377598,2.240109
-26.214039,1.7134728,2.200695
-26.227858,1.6744866,2.1431684
-26.232014,1.6239827,2.0713677
-26.223911,1.558594,1.9810491
-26.154734,1.4221747,1.802444
-26.254272,1.4769492,1.8610878
-26.341738,1.4593587,1.8209109
-26.358486,1.355566,1.6733084
-26.365126,1.2996733,1.5944095
-26.38438,1.2582071,1.5335426
-26.38192,1.1882174,1.4368153
-26.360308,1.0917759,1.3066797
-26.328041,0.978832,1.1555386
-36.180847,0.9393208,1.5441766
-36.175797,0.9967313,1.6268768
-36.19719,1.0316093,1.6831398
-36.16525,1.1090858,1.7889686
-36.199013,1.1326902,1.831994
-36.172516,1.2037263,1.9299722
-36.196766,1.2338252,1.9804568
-36.206314,1.2749524,2.0436459
-36.250305,1.2890732,2.07579
-36.295403,1.3023171,2.1070528
-36.340977,1.3151901,2.1380196
-36.39035,1.3252258,2.1658936
-36.459114,1.3673208,2.2469735
-36.319923,1.6857209,2.687683
-36.355225,1.7030647,2.7237587
-36.16336,1.8749249,2.9302979
-36.209522,1.8832793,2.9560537
-36.233543,1.9064889,2.9982238
-36.247192,1.9363475,3.047679
-36.253902,1.9704227,3.1016903
-36.28392,1.9889665,3.1388397
-36.273674,2.0332665,3.2038126
-36.339462,2.0285764,3.2160606
-36.39802,2.028772,3.233807
-36.4241,2.0494857,3.2736235
-36.454323,2.0674903,3.3106217
-36.49025,2.081903,3.3439097
-36.53422,2.0914035,3.372148
-36.58637,2.0960536,3.3954778
-36.63544,2.1026952,3.4210863
-36.692814,2.1045573,3.4419355
-36.74636,2.1088717,3.4655542
-36.81679,2.1035671,3.4795265
-36.901257,2.0905519,3.48595
-36.949463,2.0986612,3.5142317
-37.020195,2.0941772,3.529982
-37.094162,2.088224,3.5445852
-37.102898,2.118752,3.5960016
-37.234562,2.081554,3.580051
-37.308853,2.0764794,3.596559
-37.38405,2.071277,3.6132984
-37.633263,1.9735541,3.5399938
-37.717457,1.9651551,3.5548983
-37.81312,1.9511766,3.5648375
-37.66962,2.0619652,3.695002
-37.67433,2.0947518,3.7497873
-37.721096,2.10578,3.7838874
-37.767704,2.1169703,3.818338
-37.82323,2.1237776,3.8488917
-37.877834,2.1312046,3.8802776
-37.933174,2.138426,3.9117293
-38.00176,2.1393487,3.9376736
-38.072018,2.1397386,3.9634829
-38.14312,2.1400125,3.9895496
-38.209167,2.1429787,4.018397
-38.283646,2.1422286,4.0442815
-39.424114,1.6448977,3.6328664
-39.435833,1.6782217,3.6928911
-39.46502,1.7033005,3.745738
-39.48097,1.734287,3.8037524
-39.44308,1.7892771,3.8822231
-39.430305,1.8324437,3.9503431
-39.433365,1.868195,4.0120645
-39.448074,1.8985577,4.069235
-39.465828,1.9274065,4.1251616
-39.619617,1.8976176,4.133427
-39.818565,1.8494859,4.127905
-39.97857,1.8190198,4.1377583
-40.15045,1.7845027,4.145452
-40.375015,1.729146,4.1380196
-40.645584,1.6562726,4.1185904
-40.82811,1.6209533,4.129639
-41.01911,1.5832567,4.1401196
-41.340366,1.4945872,4.1139536
-41.579308,1.4405551,4.1155057
-41.82432,1.385556,4.1180186
-42.148495,1.3012147,4.1012373
-42.421265,1.2386792,4.1021852
-42.682095,1.1823156,4.1093817
-42.99266,1.1086452,4.106566
-43.399757,1.0006318,4.082781
-43.67391,0.9444947,4.0965834
-44.085064,0.8394971,4.0803556
-44.478165,0.74355817,4.0730715
-44.887066,0.6442454,4.0666227
-45.266663,0.55783606,4.071339
-19.852747,1.0290267,2.8549867
-19.967886,1.0397334,2.8324547
-20.03301,1.0265961,2.7880592
-20.220728,1.0740395,2.8014216
-20.40025,1.118659,2.8131366
-20.556055,1.1525652,2.8155465
-20.701479,1.1822038,2.8146687
-20.862677,1.2208142,2.8232994
-20.983494,1.2396591,2.8134394
-21.118504,1.2665927,2.8121672
-21.259472,1.2975006,2.8155355
-21.41431,1.3366754,2.8278751
-21.536587,1.3594861,2.824626
-21.671942,1.3901141,2.8298721
-21.797272,1.4161725,2.8311768
-21.907188,1.434557,2.8252926
-22.015976,1.4529757,2.8199773
-22.502367,1.6836338,3.0336742
-22.716496,1.7649164,3.0955439
-22.77946,1.7617214,3.070716
-22.920803,1.8039076,3.093563
-23.014751,1.819608,3.0893173
-23.094702,1.8276632,3.077445
-23.186583,1.8432148,3.0738707
-23.287195,1.8645535,3.0768757
-23.38665,1.8858657,3.0803232
-23.47153,1.8989677,3.0754147
-23.559853,1.9146962,3.0737157
-23.63163,1.920711,3.061894
-23.73554,1.9472437,3.072682
-23.795895,1.9469702,3.0546842
-23.869995,1.9557278,3.0468225
-23.897713,1.9349785,3.0068054
-23.913546,1.9063346,2.9581275
-23.93911,1.8837833,2.916194
-23.951546,1.8523219,2.8643885
-24.027254,1.8629239,2.8595304
-24.127964,1.8909123,2.8744683
-24.196075,1.8974037,2.8656702
-24.264027,1.9041524,2.8574286
-24.395138,1.9553268,2.899764
-24.528027,2.0090086,2.945548
-24.553858,1.9878359,2.9066029
-23.093939,0.898916,1.6465268
-24.764233,2.060084,2.9603205
-23.76855,1.290591,2.0606604
-23.806053,1.270812,2.021257
-23.844515,1.2516103,1.9826083
-23.82184,1.1860712,1.8902326
-23.809383,1.1272457,1.8054504
-23.767645,1.0448759,1.6929913
-23.895021,1.0928879,1.7329459
-24.001762,1.1259215,1.7558393
-25.296986,2.1059408,2.8946633
-25.37807,2.1302896,2.9111567
-25.42758,2.1296954,2.8984313
-25.4678,2.12166,2.8770323
-25.533226,2.134592,2.8807054
-25.588646,2.1396065,2.8751688
-25.652369,2.1519778,2.8786225
-25.713423,2.162533,2.8801255
-25.772455,2.171767,2.8802567
-25.830683,2.180696,2.8802242
-25.8922,2.1929405,2.884397
-25.953447,2.2054105,2.889058
-26.008099,2.2123766,2.8872552
-26.067133,2.22371,2.8909445
-26.119137,2.228973,2.8874378
-26.170998,2.234413,2.884315
-26.216059,2.2337098,2.8738413
-26.254496,2.2268133,2.855904
-26.288116,2.2152596,2.8323455
-26.310583,2.1926427,2.7952414
-26.270884,2.1077905,2.6813784
-26.281998,2.0722601,2.6282105
-26.295315,2.0382988,2.5769525
-25.66357,1.3378141,1.6986265
-26.165337,1.8047426,2.2684622
-26.182547,1.7708442,2.2168436
-26.208925,1.7461157,2.1766548
-26.22725,1.7122166,2.1250339
-26.238766,1.6701679,2.0632029
-26.20072,1.572046,1.9310098
-26.189156,1.5014312,1.8330994
-26.30896,1.5792873,1.9218483
-26.358175,1.5776856,1.9109173
-26.355936,1.515851,1.8240876
-26.376377,1.4177406,1.6824718
-26.372814,1.3500938,1.5880127
-26.380333,1.2944965,1.508739
-26.373882,1.2199643,1.4053164
-26.364471,1.1397257,1.2944956
-26.325151,1.0186644,1.1314626
-36.21624,0.84827185,1.3263855
-36.19505,0.9209647,1.4283061
-36.160908,1.0030727,1.541192
-36.181053,1.0393305,1.5994186
-36.144432,1.1209846,1.7113194
-36.163578,1.156564,1.7685728
-36.194794,1.1821003,1.8139954
-36.15545,1.2626507,1.9240012
-36.13717,1.3254533,2.0129304
-36.170197,1.3478434,2.054513
-36.214596,1.3613887,2.0858717
-36.277164,1.3612499,2.1014829
-36.33054,1.3682053,2.1255121
-36.37587,1.3812029,2.1566777
-36.36215,1.4372659,2.2374587
-36.373062,1.4746759,2.296691
-36.461967,1.4558375,2.2916474
-36.938805,1.3033609,2.1882906
-36.34735,1.7513058,2.7095094
-36.155216,1.9217479,2.9169574
-36.209118,1.9249535,2.9368362
-36.227436,1.9518545,2.9832282
-36.257492,1.9707966,3.0208168
-36.274307,1.9981997,3.0678
-36.310955,2.0125883,3.1004891
-36.314644,2.047902,3.1561728
-36.272396,2.111724,3.242835
-36.39683,2.07058,3.2152858
-36.423637,2.0907903,3.254631
-36.45311,2.1092315,3.2921271
-36.481564,2.1281912,3.3302536
-36.520245,2.140894,3.3617716
-36.57612,2.1433728,3.3825603
-36.627434,2.1487408,3.406631
-36.687847,2.1489425,3.4254665
-36.745224,2.1511464,3.4466534
-36.8026,2.153563,3.4683018
-36.89247,2.1377275,3.471261
-36.942986,2.1445923,3.4980779
-36.994984,2.150763,3.524386
-37.07202,2.143244,3.536924
-37.13424,2.1442404,3.558476
-37.24081,2.1214194,3.5562348
-37.30722,2.1208706,3.5769234
-37.351303,2.132496,3.610084
-37.558887,2.0578878,3.557714
-37.687943,2.0259838,3.548706
-37.773037,2.0177226,3.5636125
-37.824165,2.0273404,3.5963988
-37.664707,2.1442385,3.7334995
-37.70408,2.1590464,3.7710748
-37.75393,2.1686356,3.8038006
-37.807777,2.1763604,3.83497
-37.859867,2.1850982,3.8673396
-37.915165,2.1924086,3.8986044
-37.977882,2.1963062,3.9269452
-38.053127,2.1944475,3.9502625
-38.11075,2.20126,3.9819398
-38.175034,2.2051263,4.011207
-38.255367,2.2017686,4.034259
-39.448784,1.6862042,3.5976439
-39.454597,1.7222126,3.6603017
-39.457306,1.7593281,3.7238693
-39.413944,1.8167789,3.805173
-39.409378,1.8563185,3.870514
-39.42931,1.8847191,3.9261246
-39.442753,1.9157917,3.984048
-39.46183,1.9442239,4.039726
-39.456047,1.9831449,4.104224
-39.52851,1.9885169,4.1407337
-39.73263,1.9387871,4.132359
-39.937454,1.8900349,4.126104
-40.142944,1.8422623,4.1219716
-40.259598,1.8320885,4.1491413
-40.60208,1.7309358,4.1053495
-40.773064,1.7009163,4.1193237
-40.98107,1.6571188,4.123811
-41.20488,1.6083081,4.1258817
-41.444588,1.5546052,4.125798
-41.74263,1.4797385,4.111652
-42.004604,1.4205325,4.111075
-42.29447,1.3522742,4.1057863
-42.62059,1.2721,4.094054
-42.8931,1.2138922,4.100116
-43.269363,1.1189139,4.0826406
-43.62301,1.0344965,4.0751348
-43.960243,0.95813394,4.075645
-44.371826,0.8570216,4.062274
-44.690704,0.7913697,4.075068
-45.102547,0.69474435,4.0704308
-45.602364,0.569798,4.0511274
-19.54648,1.0406013,2.8353195
-19.644707,1.0413923,2.8027153
-19.756294,1.0489311,2.7770076
-20.060476,1.1490073,2.8402762
-20.187645,1.1660004,2.8254013
-20.313686,1.1831465,2.8113375
-20.475704,1.2186587,2.8158278
-20.622328,1.247577,2.814724
-20.754536,1.2701948,2.808175
-20.900196,1.3003852,2.8098278
-21.055061,1.3361852,2.8178425
-21.198793,1.3672829,2.8219457
-21.312197,1.3835738,2.811829
-21.484589,1.4313972,2.834313
-21.597103,1.4488091,2.8266277
-21.726763,1.4760227,2.8295612
-21.848013,1.4995496,2.8293328
-21.960163,1.5188973,2.8253608
-22.421495,1.7303939,3.022418
-22.57809,1.7775021,3.049633
-22.737726,1.8274906,3.0806766
-22.792915,1.8198161,3.0514708
-22.965092,1.8788719,3.0934725
-23.029062,1.877161,3.071395
-23.147854,1.90749,3.0839815
-23.236523,1.921037,3.0790353
-23.327927,1.9367318,3.0768113
-23.414509,1.9501219,3.0724921
-23.491861,1.9584749,3.0630484
-23.592773,1.9815776,3.070119
-23.679205,1.9964974,3.0686321
-23.75725,2.0067654,3.0623755
-23.828491,2.0132318,3.052227
-23.882862,2.0094209,3.0309134
-23.911966,1.9896743,2.9919667
-23.939934,1.9690626,2.9521108
-23.93322,1.9257476,2.8867154
-23.998236,1.9289346,2.8738065
-24.076557,1.9412568,2.871521
-24.148293,1.9496596,2.865087
-24.214943,1.9550369,2.8554778
-24.305714,1.9772353,2.8654218
-24.456675,2.0416298,2.9243174
-24.568073,2.0799932,2.9538407
-24.546711,2.0259557,2.8767977
-23.032597,0.91025925,1.5656681
-23.063034,0.8809359,1.5132074
-23.747356,1.3254571,2.0149007
-23.794304,1.3124571,1.9833317
-23.816402,1.2810702,1.9302635
-23.839012,1.2496884,1.8772063
-23.802372,1.1731646,1.7707443
-23.74514,1.079602,1.6437745
-23.938766,1.1778202,1.744587
-24.005215,1.1792648,1.7308002
-24.427092,1.4609296,2.0524416
-25.390942,2.1802177,2.900939
-25.462795,2.197565,2.9100323
-25.483635,2.174015,2.8700895
-25.547155,2.18524,2.872192
-25.600079,2.18811,2.8643966
-25.669195,2.2048466,2.8736157
-25.730165,2.2152374,2.875359
-25.789112,2.2243211,2.8757195
-25.844894,2.2310603,2.873413
-25.904009,2.2410727,2.8753037
-25.964046,2.2523277,2.8789215
-26.020952,2.2612207,2.8798342
-26.079353,2.2718678,2.883102
-26.131292,2.2770176,2.8797665
-26.18253,2.2818244,2.8761697
-26.23252,2.2857602,2.8716526
-26.265884,2.2741685,2.8479695
-26.291796,2.2553146,2.8153076
-26.271032,2.1907454,2.725583
-26.303896,2.1776597,2.70011
-26.274948,2.1027908,2.5972362
-26.28414,2.0647867,2.5404553
-26.322088,2.0554316,2.519689
-26.161457,1.8405397,2.2398648
-26.173107,1.8009675,2.1806512
-26.2107,1.7881222,2.1552172
-26.2405,1.7667813,2.1190972
-26.236565,1.7083733,2.0359626
-26.183832,1.5948458,1.8826227
-26.179207,1.5322855,1.7938685
-26.321228,1.6342623,1.9149137
-26.353783,1.6136193,1.8798227
-26.351553,1.430187,1.6189051
-26.379921,1.4013145,1.5732226
-26.368149,1.3225331,1.4633174
-26.377289,1.267777,1.3842325
-26.374802,1.1969714,1.2843685
-26.344368,1.0884879,1.1356807
-26.324942,0.99134946,1.001441
-36.186096,0.93118525,1.3355136
-36.16882,0.99971724,1.4333491
-36.161407,1.0589883,1.519805
-36.165363,1.1080766,1.5938516
-36.15035,1.1715562,1.685082
-36.17388,1.2034674,1.7383189
-36.177856,1.2502763,1.8093567
-36.18933,1.29056,1.8725309
-36.13773,1.3786213,1.9924064
-36.181732,1.3925884,2.02414
-36.207928,1.4198976,2.0717492
-36.241558,1.4413757,2.1125174
-36.26295,1.4716754,2.163711
-36.288506,1.4985847,2.2109375
-36.33239,1.5119965,2.2424335
-36.361893,1.5799425,2.353499
-36.415085,1.5864012,2.3771715
-37.1643,1.2061777,1.991683
-36.28625,1.8431628,2.7371402
-36.287052,1.8828905,2.798624
-36.208565,1.9743674,2.9186554
-36.224693,2.0025427,2.9666934
-36.24754,2.026076,3.009501
-36.28659,2.0390215,3.0404687
-36.225445,2.1155117,3.142507
-36.29491,2.1087353,3.1515017
-36.244366,2.177001,3.2439256
-36.362125,2.1404912,3.220354
-36.416862,2.1433868,3.2406492
-36.443295,2.163586,3.2800941
-36.474663,2.1806977,3.3162284
-36.51104,2.194761,3.3491378
-36.551754,2.206261,3.3793888
-36.605232,2.2103643,3.4018188
-36.657917,2.2150996,3.425137
-36.716698,2.2165153,3.4451246
-36.783207,2.2137854,3.4609575
-36.8498,2.2113154,3.477354
-36.9227,2.2056453,3.4906793
-36.9926,2.2019913,3.5064416
-37.05317,2.2037585,3.5281591
-37.146896,2.1878412,3.5318322
-37.231407,2.1774192,3.5416217
-37.32568,2.1622806,3.5469866
-37.355442,2.1816025,3.587912
-37.514267,2.1336377,3.560773
-37.649696,2.0989,3.5478106
-37.734684,2.0908747,3.5623126
-37.757187,2.1149402,3.6091738
-37.64373,2.2071075,3.7234507
-37.69203,2.2174292,3.7564645
-37.73361,2.2311685,3.7930202
-37.78987,2.2377765,3.822816
-37.838577,2.248211,3.8565583
-37.894646,2.2552254,3.8872337
-37.956474,2.2596712,3.9157243
-38.014896,2.2659392,3.9462328
-38.08756,2.2657528,3.970964
-38.161934,2.2650838,3.995616
-38.22106,2.2717195,4.0274043
-38.309902,2.265059,4.0472817
-39.41559,1.8015077,3.6517563
-39.411247,1.8414063,3.7179618
-39.41922,1.8755026,3.7788382
-39.43186,1.9072931,3.837614
-39.448368,1.9371917,3.8947058
-39.45227,1.9723213,3.9563713
-39.459145,2.0059094,4.0166287
-39.455032,2.0438814,4.0805893
-39.46615,2.0751598,4.13874
-39.592903,2.0583458,4.1564217
-39.877796,1.9773234,4.1214128
-40.05414,1.9422934,4.1261845
-40.18216,1.9277536,4.1487985
-40.458088,1.8548503,4.1251082
-40.70379,1.7956414,4.114193
-40.90109,1.756901,4.121072
-41.13299,1.7058687,4.1196666
-41.36287,1.6569917,4.1214848
-41.63217,1.5944467,4.1144543
-41.885105,1.539696,4.115138
-42.193127,1.4658327,4.103385
-42.449383,1.4130013,4.109198
-42.75457,1.343694,4.1049066
-43.058792,1.2765431,4.104324
-43.449875,1.179898,4.0852284
-43.77883,1.107765,4.085928
-44.17669,1.0132043,4.07377
-44.53419,0.9351232,4.0755906
-44.944317,0.8408725,4.0694222
-45.3944,0.7353046,4.059016
-45.83084,0.6370163,4.0566616
-19.307158,1.0447338,2.7747164
-19.45922,1.0687854,2.7639532
-19.769093,1.1666923,2.825056
-19.932304,1.198381,2.8238091
-20.069077,1.2186091,2.8122683
-20.237938,1.2548733,2.8171854
-20.407835,1.2927022,2.8245559
-20.542393,1.3145082,2.816904
-20.688068,1.3425367,2.8161716
-20.834883,1.3720238,2.8176622
-20.977901,1.4005423,2.818932
-21.11147,1.4252064,2.817008
-21.26886,1.4627731,2.8289747
-21.42477,1.5006385,2.8420582
-21.540688,1.518893,2.835627
-21.663443,1.5413971,2.8341856
-21.784973,1.5640178,2.8334637
-21.917953,1.593477,2.8405275
-22.016487,1.6053448,2.82964
-22.512592,1.8329885,3.0485587
-22.64705,1.8676095,3.0639992
-22.768429,1.8959696,3.0733747
-22.90397,1.9330478,3.0927334
-22.988005,1.942169,3.0824614
-23.08256,1.9577184,3.079555
-23.165358,1.967114,3.0703487
-23.26615,1.9873729,3.073429
-23.354462,2.0010107,3.069664
-23.450745,2.0198805,3.0720792
-23.54515,2.0382667,3.0743828
-23.625061,2.048567,3.0680776
-23.713612,2.0645688,3.0684996
-23.778296,2.0665302,3.053504
-23.861176,2.0800374,3.0518017
-23.89067,2.0607429,3.0132551
-23.913227,2.0369532,2.9696565
-23.93975,2.0154788,2.92873
-23.95159,1.9844012,2.876843
-24.00801,1.9818969,2.8577967
-24.101887,2.0041385,2.8675227
-24.171415,2.01096,2.8597775
-24.232386,2.012446,2.846098
-24.363386,2.0614774,2.8880858
-24.470673,2.0955675,2.9131722
-24.520378,2.0909324,2.893262
-22.944523,0.9558282,1.5425038
-23.711393,1.443891,2.1007028
-23.738792,1.4173741,2.0530682
-23.42115,1.1432154,1.7112312
-23.726494,1.3149257,1.8990183
-23.80178,1.3221145,1.8916006
-23.808107,1.2787428,1.823854
-23.798914,1.2231476,1.741343
-23.72739,1.1196194,1.6009145
-23.969425,1.2533448,1.7467213
-24.468708,1.5884426,2.1375852
-25.365639,2.24065,2.9159956
-25.450747,2.2679245,2.937571
-25.465523,2.2400312,2.8921185
-25.504885,2.231519,2.8703747
-25.565222,2.240079,2.8696861
-25.62839,2.251361,2.8725505
-25.685856,2.2583587,2.8703518
-25.74254,2.2650585,2.8679767
-25.802616,2.2749894,2.8697896
-25.863632,2.286151,2.8733325
-25.924389,2.2975364,2.8773603
-25.98256,2.3071053,2.8793278
-26.041647,2.3179047,2.8830247
-26.090782,2.3202047,2.876275
-26.14209,2.3247247,2.8724585
-26.197187,2.3330255,2.8735547
-26.237629,2.328081,2.8581395
-26.275917,2.3211815,2.8403625
-26.312109,2.31231,2.8201895
-26.263529,2.221722,2.6965494
-26.286293,2.1987183,2.658411
-26.30627,2.1725965,2.6163287
-25.79376,1.6139197,1.8956375
-26.27213,2.044033,2.4347649
-25.812332,1.5241773,1.7611551
-26.165743,1.8348427,2.1492815
-26.204933,1.8235941,2.1258316
-26.241295,1.8092532,2.098494
-26.229893,1.7432871,2.0047646
-26.193783,1.6488395,1.874166
-26.195797,1.5942726,1.7948232
-26.30279,1.656102,1.8659673
-26.359241,1.6624107,1.8655615
-26.356733,1.5415373,1.6917515
-26.357643,1.4814713,1.6051807
-26.383223,1.4495268,1.5551682
-26.3736,1.3740828,1.4484015
-26.371159,1.3055634,1.350544
-26.377005,1.2456567,1.2638488
-26.356821,1.1511798,1.1317768
-26.334625,1.0515449,0.99274826
-36.138153,0.9721985,1.2794003
-36.1652,1.0041819,1.3332534
-36.155617,1.0656519,1.4233375
-36.196724,1.0851276,1.4618087
-36.159893,1.1667349,1.5763049
-36.166645,1.2124143,1.6467066
-36.161263,1.2668874,1.7277241
-36.15937,1.3177776,1.8042598
-36.127815,1.3905871,1.9071927
-36.143913,1.4260192,1.964766
-36.17433,1.4502339,2.0088177
-36.206974,1.4725571,2.0506449
-36.226112,1.5046039,2.1041646
-36.26855,1.5193079,2.1369843
-36.304108,1.5389223,2.175757
-36.33668,1.5605264,2.2169647
-36.37567,1.6214802,2.3204832
-37.119274,1.2926512,2.0028353
-37.203533,1.2826734,2.0093713
-36.28891,1.9303625,2.7765756
-36.160633,2.0533874,2.9343944
-36.219967,2.0532305,2.9500165
-36.24563,2.0748336,2.9907522
-36.255077,2.1065228,3.0430279
-36.252403,2.1454458,3.103476
-36.29141,2.158002,3.133985
-36.265675,2.210355,3.209467
-36.327583,2.2086005,3.2239728
-36.40959,2.1950054,3.2254834
-36.43746,2.214251,3.2639246
-36.468037,2.2317812,3.3005238
-36.50362,2.2462938,3.3338675
-36.548088,2.2556322,3.3616261
-36.59852,2.2616148,3.385867
-36.64889,2.267775,3.4104896
-36.6992,2.2741106,3.435495
-36.768745,2.2698333,3.4492264
-36.841507,2.2641141,3.4617085
-36.911293,2.2603981,3.4766564
-36.98118,2.25696,3.492206
-37.04723,2.2559175,3.5106044
-37.128353,2.247124,3.5211163
-37.200134,2.243702,3.5376406
-37.296734,2.2276266,3.5412846
-37.392834,2.2123833,3.5462627
-37.49566,2.1942475,3.5487256
-37.600437,2.175737,3.5513158
-37.68284,2.1691434,3.566598
-37.577225,2.2569382,3.6780777
-37.623966,2.2679636,3.7113724
-37.672203,2.278345,3.7442102
-37.72277,2.2876945,3.7762175
-37.772392,2.2976258,3.8090177
-37.822712,2.3073378,3.8418136
-37.879574,2.3140776,3.8719192
-37.93384,2.3222115,3.9036388
-37.99557,2.3270373,3.9324136
-38.057243,2.3321068,3.9617138
-38.129017,2.3327894,3.9871373
-38.190605,2.3383708,4.0175495
-38.25894,2.3411443,4.0456285
-39.401703,1.867908,3.6313152
-39.41443,1.9000182,3.6906066
-39.428402,1.9313617,3.749177
-39.442772,1.9623244,3.8073888
-39.47056,1.987356,3.860252
-39.4284,2.0419016,3.9395485
-39.43777,2.0741985,3.9987764
-39.437923,2.110104,4.0611324
-39.458614,2.1372619,4.11579
-39.4974,2.1569104,4.164025
-39.731087,2.0978189,4.1452947
-39.992203,2.0292192,4.120035
-40.141487,2.0066352,4.1349187
-40.27683,1.9903452,4.1559377
-40.608047,1.8985249,4.1160135
-40.77034,1.873968,4.132724
-41.00303,1.8234079,4.1296744
-41.2364,1.7739707,4.12906
-41.446957,1.7344601,4.1377616
-41.759434,1.6583066,4.1195974
-42.05204,1.5913641,4.1106067
-42.328228,1.5321493,4.109451
-42.668114,1.4515669,4.09436
-42.89565,1.413182,4.112544
-43.261116,1.3272192,4.097996
-43.623062,1.2446699,4.0885
-44.026527,1.1498353,4.0730257
-44.35733,1.0823879,4.079372
-44.746254,0.9970317,4.0759974
-45.099106,0.92610073,4.0851192
-45.631065,0.79733825,4.058995
-46.09752,0.6933961,4.052882
-46.622025,0.57313824,4.0400324
-19.467865,1.1952589,2.8133311
-19.646542,1.23119,2.8158112
-19.75381,1.2357099,2.788353
-20.070034,1.3367612,2.8570557
-20.132782,1.322546,2.812604
-20.304054,1.3592772,2.8195462
-20.460564,1.3901212,2.8214464
-20.586748,1.4074726,2.810451
-20.743898,1.440444,2.8160563
-20.890608,1.4693415,2.8182797
-21.013092,1.4872732,2.8099065
-21.171026,1.523464,2.8211288
-21.389072,1.5907395,2.8656702
-21.476027,1.5935082,2.843503
-21.589394,1.6101282,2.8363743
-21.706427,1.6292915,2.8324866
-21.838211,1.6568115,2.8380857
-21.936958,1.6678874,2.826661
-22.12387,1.7261112,2.866571
-22.550158,1.9135051,3.0475097
-22.690805,1.9508967,3.067243
-22.742786,1.9410856,3.0359745
-22.95139,2.017366,3.0995865
-23.01827,2.0168579,3.0794015
-23.118872,2.0354927,3.0807304
-23.206873,2.0476556,3.0752954
-23.304483,2.065813,3.076951
-23.397182,2.0817719,3.0765681
-23.490295,2.0985556,3.0775175
-23.57632,2.1117773,3.074833
-23.647171,2.116534,3.0628834
-23.751198,2.1414936,3.0742898
-23.81422,2.1424391,3.058619
-23.875706,2.1427262,3.0424314
-23.904354,2.1230586,3.0034223
-23.923891,2.0975952,2.9577546
-23.940231,2.0698824,2.909482
-23.962029,2.0453422,2.8649082
-24.043308,2.0586638,2.8647122
-24.125702,2.073227,2.8663
-24.188776,2.0757132,2.8539705
-24.284616,2.1001153,2.8678036
-24.441124,2.165674,2.9308863
-24.522442,2.1821976,2.9362702
-22.95285,1.0771298,1.6021376
-22.964678,1.0357387,1.534657
-23.72359,1.5119767,2.0892358
-23.750858,1.4856048,2.0415978
-23.761822,1.4474254,1.9797187
-23.734213,1.381149,1.8837285
-23.72098,1.3241658,1.7988
-23.776955,1.3167963,1.774189
-23.788708,1.2769327,1.7100215
-23.992596,1.3797238,1.8206625
-24.091076,1.4055598,1.837605
-24.47022,1.6458573,2.1191616
-24.509209,1.629853,2.0858245
-25.447172,2.3127367,2.9180608
-25.462536,2.2854972,2.873086
-25.519852,2.2912035,2.869101
-25.586836,2.3050098,2.8754072
-25.641308,2.3091693,2.8698874
-25.701698,2.3184848,2.8710003
-25.76426,2.3300126,2.8750944
-25.819399,2.3357756,2.8721414
-25.878513,2.3452406,2.874035
-25.94325,2.359947,2.8827481
-25.99894,2.3673327,2.8824043
-26.056162,2.376432,2.8844137
-26.10916,2.382186,2.8823485
-26.154633,2.3815098,2.8722506
-26.204561,2.3850594,2.8676796
-26.246025,2.3811035,2.8536496
-26.279242,2.3695767,2.83002
-26.310995,2.3565886,2.8045855
-26.265514,2.2699206,2.6843748
-26.266205,2.2258532,2.6188169
-26.291624,2.2050304,2.583212
-25.82051,1.6934862,1.9125547
-26.236675,2.0566483,2.3737202
-26.198666,1.9693041,2.2515883
-26.224663,1.9455788,2.2119627
-26.174187,1.8420608,2.0683928
-26.203804,1.8203135,2.0312376
-26.22934,1.7938645,1.9879775
-26.192587,1.6997283,1.8561172
-26.23962,1.6949153,1.8411384
-26.291973,1.6960821,1.834127
-26.35564,1.7101953,1.8442793
-26.35067,1.5876272,1.6662221
-26.361631,1.5398395,1.5948706
-26.375303,1.4941478,1.5262451
-26.373707,1.4290218,1.43184
-26.372913,1.3632357,1.3364582
-26.3642,1.2859707,1.2257295
-26.356115,1.2074604,1.1132107
-26.349545,1.1287909,1.0003448
-26.32008,1.0184011,0.84505796
-36.279675,0.8552561,1.0156627
-36.131363,1.0336862,1.2539525
-36.17417,1.0525875,1.2917533
-36.189743,1.0933306,1.3569202
-36.136726,1.1882188,1.4895
-36.152233,1.2272294,1.5522738
-36.159554,1.2720759,1.6222463
-36.117496,1.3544018,1.7384963
-36.15913,1.3712516,1.7736664
-36.12368,1.4463441,1.8805933
-36.16619,1.4617505,1.9139967
-36.15588,1.5162423,1.9953413
-36.17665,1.5470748,2.0476513
-36.20941,1.5688274,2.0889072
-36.258396,1.5787382,2.1158485
-36.31727,1.5816786,2.134492
-36.35868,1.5971072,2.1683984
-36.377567,1.628186,2.2212424
-36.416344,1.64518,2.2571797
-36.218372,1.9861498,2.7406554
-36.340115,1.9463072,2.7092466
-36.256004,2.0399053,2.8349428
-36.21596,2.1038616,2.9254494
-36.235874,2.1290095,2.9704323
-36.26044,2.1510108,3.0117736
-36.300644,2.163163,3.0417557
-36.27859,2.2134683,3.115841
-36.236584,2.2751565,3.2027931
-36.370033,2.230498,3.167759
-36.394444,2.2518272,3.208551
-36.41927,2.2727554,3.248929
-36.449776,2.2902222,3.2854376
-36.483036,2.3060176,3.320139
-36.52289,2.3179934,3.350648
-36.569435,2.326201,3.3770766
-36.623543,2.3302643,3.399063
-36.683006,2.3315263,3.4181566
-36.73322,2.338127,3.4433713
-36.797344,2.3372679,3.4605927
-36.858406,2.338347,3.4801974
-36.94145,2.3278928,3.4875202
-37.01605,2.3223855,3.5005689
-37.09237,2.3163495,3.5133796
-37.1895,2.2998586,3.5153365
-37.27977,2.2874954,3.5221539
-37.361465,2.2800267,3.534586
-37.454605,2.2671869,3.5417328
-37.55851,2.2494695,3.54421
-37.650574,2.2382636,3.5539908
-37.590355,2.3025696,3.6425295
-37.6069,2.3285227,3.6910758
-37.648537,2.342159,3.727003
-37.71062,2.346048,3.7531557
-37.755272,2.3584373,3.7881956
-37.805576,2.3682418,3.8208127
-37.85575,2.378229,3.8538246
-37.914177,2.3845296,3.8833885
-37.97001,2.39221,3.9145823
-38.030807,2.3978083,3.943984
-38.12121,2.3903332,3.9609466
-38.183685,2.395729,3.9908195
-38.242683,2.402876,4.0226717
-38.310158,2.406516,4.0514655
-39.4424,1.9500735,3.6456747
-39.46941,1.9758408,3.6992702
-39.432014,2.0288332,3.7782717
-39.41639,2.0720649,3.8479238
-39.422756,2.1057081,3.9086008
-39.438232,2.1353426,3.9655838
-39.449768,2.1664124,4.023862
-39.460842,2.1974666,4.082105
-39.465286,2.2309794,4.142498
-39.66732,2.1857305,4.1339006
-39.833664,2.1557636,4.139807
-40.04225,2.1102793,4.1334243
-40.180145,2.0933588,4.1526246
-40.45066,2.026423,4.1306286
-40.66832,1.9812031,4.128454
-40.876724,1.9407437,4.1316032
-41.130775,1.8845171,4.1232853
-41.361195,1.8385144,4.124866
-41.63031,1.7797346,4.1178265
-41.89204,1.7252197,4.115946
-42.186382,1.6605668,4.107986
-42.445045,1.6102982,4.11304
-42.72175,1.5551798,4.116212
-43.06706,1.4778061,4.1047525
-43.444626,1.3913684,4.0890884
-43.77719,1.3225064,4.088815
-44.17066,1.2350075,4.0776663
-44.515198,1.1661654,4.082433
-44.851276,1.1020877,4.092987
-45.33129,0.9927337,4.0753455
-45.766014,0.9008858,4.072941
-46.329697,0.77010345,4.04837
-46.824738,0.66445327,4.0442104
-19.620972,1.3228266,2.8507314
-19.691723,1.310523,2.8068147
-20.013172,1.4111247,2.8763957
-20.038761,1.3797827,2.81463
-20.218885,1.4190545,2.824623
-20.345758,1.4348528,2.811575
-20.492264,1.4605155,2.8093028
-20.656494,1.4954133,2.8173285
-20.83081,1.5361555,2.8322787
-21.07254,1.6104169,2.8832126
-21.181293,1.622014,2.869453
-21.223011,1.601404,2.8221145
-21.509155,1.7014701,2.9033566
-21.533472,1.6732719,2.8488493
-21.666782,1.6997366,2.8531795
-21.752338,1.7027938,2.8328414
-21.880035,1.7278624,2.8367958
-21.981844,1.7403455,2.82761
-22.514772,1.9786806,3.0667353
-22.577875,1.97404,3.040759
-22.69737,1.9996521,3.0485444
-22.856876,2.047571,3.0817075
-22.973606,2.0734894,3.0910435
-23.06126,2.0842721,3.0839171
-23.145596,2.0937161,3.0756593
-23.242699,2.110762,3.0763664
-23.344765,2.1312191,3.081376
-23.4343,2.1452205,3.0794601
-23.523525,2.159593,3.07835
-23.604946,2.169989,3.073041
-23.675692,2.174604,3.0613842
-23.772232,2.1948404,3.0681252
-23.835178,2.1956687,3.052679
-23.884857,2.1887715,3.0284414
-23.912003,2.168274,2.9884195
-23.927866,2.1406918,2.9401126
-23.937687,2.1090727,2.8870296
-23.993185,2.1057446,2.8674355
-24.070063,2.1161575,2.8643713
-24.145979,2.1264198,2.8614225
-24.219534,2.1356153,2.8574877
-24.292156,2.144641,2.8536263
-24.451527,2.2112937,2.9194508
-24.499641,2.2054448,2.8983693
-22.94035,1.1183753,1.5670471
-23.695932,1.582555,2.1137023
-23.743134,1.570214,2.0829673
-23.749372,1.5294888,2.0176558
-23.771715,1.4994841,1.9654212
-23.765276,1.4487631,1.8877215
-23.738575,1.3827748,1.7910652
-23.731434,1.3298244,1.7103
-23.747393,1.2929137,1.649282
-23.762037,1.2545404,1.5864162
-23.772196,1.2122934,1.5186896
-24.475006,1.6914611,2.102264
-25.406223,2.355126,2.9200764
-25.448357,2.3487914,2.9010382
-25.480566,2.33481,2.8724918
-25.543356,2.3447938,2.8742456
-25.60221,2.352076,2.8727932
-25.661474,2.360062,2.8724236
-25.722954,2.370231,2.875022
-25.777575,2.3751945,2.871194
-25.837408,2.3848069,2.8734684
-25.899366,2.396625,2.8787565
-25.960455,2.4081738,2.883902
-26.017776,2.4169471,2.8856826
-26.069109,2.4209125,2.8814597
-26.116306,2.421532,2.8730779
-26.165142,2.423819,2.866984
-26.212757,2.4252553,2.8599305
-26.24971,2.417211,2.8407197
-26.280146,2.4031634,2.8137999
-26.275793,2.3565407,2.744543
-26.277187,2.3144095,2.6810474
-26.27614,2.2691183,2.6133518
-26.278593,2.2263017,2.548811
-25.852455,1.7632239,1.9333692
-26.195623,2.0510046,2.3018045
-26.209621,2.0160172,2.2471642
-26.224771,1.9815221,2.193151
-26.217262,1.9230447,2.1074758
-26.205349,1.858685,2.0139103
-26.212517,1.8130062,1.9449315
-26.18128,1.7252829,1.8201613
-26.268751,1.7640531,1.8631077
-26.31601,1.759932,1.8493109
-26.331474,1.7205412,1.78866
-26.371107,1.6491103,1.6771107
-26.368965,1.5867839,1.5857406
-26.367565,1.5238023,1.4933949
-26.374554,1.4692528,1.4122562
-26.366194,1.3948112,1.304347
-26.359716,1.320749,1.1968174
-26.360296,1.2535279,1.0983729
-26.359188,1.1824193,0.99459505
-26.323227,1.0647483,0.8278794
-36.1985,0.9170389,0.9947934
-36.243114,0.9361069,1.0330415
-36.181206,1.0420346,1.1818099
-36.165382,1.1086977,1.2803698
-36.127502,1.1918101,1.3995643
-36.149258,1.2262712,1.4570413
-36.170418,1.2607253,1.514502
-36.158382,1.3203921,1.6036415
-36.149696,1.3764961,1.688149
-36.145733,1.4281044,1.7668886
-36.13637,1.4829392,1.8495288
-36.152496,1.5179958,1.907413
-36.162174,1.5573168,1.9705634
-36.184914,1.5866003,2.021234
-36.215076,1.6102109,2.0649104
-36.235573,1.6404743,2.1168227
-36.36513,1.6382415,2.1438107
-36.401615,1.6570654,2.1819725
-36.43441,1.6782963,2.2231402
-36.47715,1.6926451,2.2560196
-36.485203,1.7301767,2.31706
-36.195793,2.0434728,2.7403731
-37.242477,1.4096227,1.9982553
-36.261536,2.0788028,2.8129973
-36.19641,2.1580741,2.9225378
-36.22841,2.1754522,2.9584465
-36.25002,2.1991594,3.0018916
-36.27198,2.2224436,3.0448608
-36.29138,2.247081,3.089436
-36.315536,2.2686424,3.1304374
-36.264687,2.334608,3.2230659
-36.344254,2.3228085,3.2253337
-36.415123,2.3165605,3.2343326
-36.44334,2.3353047,3.2723198
-36.47203,2.3536768,3.309945
-36.506516,2.3686764,3.3437924
-36.547646,2.3799202,3.373475
-36.60319,2.383204,3.3943
-36.67336,2.3786407,3.4065099
-36.725082,2.3844788,3.4306622
-36.78375,2.3867235,3.4510021
-36.85024,2.3850112,3.467183
-36.914448,2.3848076,3.4853091
-36.992115,2.3778198,3.496241
-37.077076,2.3674464,3.5038104
-37.151917,2.3627558,3.5179553
-37.250862,2.3461409,3.5195084
-37.34773,2.331172,3.5233045
-37.436024,2.3210604,3.5327687
-37.524536,2.3113225,3.5430436
-37.611633,2.3027596,3.5549817
-37.656464,2.3152215,3.5895157
-37.5962,2.3784125,3.677453
-37.650967,2.385796,3.7067242
-37.697384,2.397292,3.7404919
-37.74282,2.409339,3.775011
-37.788925,2.421156,3.8094735
-37.84072,2.4304428,3.8415446
-37.893238,2.4395385,3.8736439
-37.949852,2.4469278,3.904254
-38.00891,2.4533997,3.9342027
-38.07129,2.4585981,3.9631572
-38.13617,2.462924,3.9915447
-38.23262,2.453765,4.0070534
-38.281227,2.4657094,4.043561
-39.442024,2.0032125,3.6230097
-39.41032,2.0537658,3.7003465
-39.42115,2.0859432,3.759945
-39.425415,2.1206198,3.8218665
-39.435265,2.1527324,3.8813243
-39.45688,2.1798353,3.9361105
-39.4702,2.2101564,3.9938936
-39.439957,2.2576895,4.0673337
-39.473427,2.2795045,4.117285
-39.51898,2.296562,4.1631107
-39.785336,2.227977,4.1333265
-39.99129,2.1843114,4.127068
-40.18004,2.1484337,4.1288543
-40.36036,2.1168318,4.13549
-40.635414,2.0508661,4.1140375
-40.765575,2.0402071,4.1408825
-41.02046,1.9844944,4.13105
-41.263454,1.934619,4.127684
-41.507145,1.8859196,4.1268697
-41.794266,1.8231819,4.1163936
-42.069473,1.7663465,4.1125274
-42.368298,1.7028744,4.105324
-42.672554,1.6392806,4.100066
-43.007034,1.5671151,4.09037
-43.270645,1.5209343,4.1025305
-43.674168,1.4292707,4.0828314
-44.003952,1.3644977,4.085626
-44.401264,1.2793887,4.0761604
-44.755047,1.210767,4.0812206
-45.141296,1.133681,4.0829616
-45.561104,1.0480814,4.0817146
-46.102478,0.92646027,4.0593953
-46.6612,0.80256295,4.039657
-47.200726,0.6878507,4.0301065
-47.754707,0.57179666,4.023837
-19.654312,1.4043167,2.8327599
-19.728378,1.3933899,2.7906585
-20.066898,1.4998722,2.8691092
-20.133514,1.4871812,2.8266072
-20.25896,1.5012336,2.812119
-20.388294,1.5177374,2.800805
-20.659536,1.6002717,2.8594441
-20.756145,1.603646,2.8359337
-20.997074,1.6751606,2.8852367
-21.106022,1.6859353,2.8709202
-21.165607,1.673697,2.8323975
-21.359869,1.7265825,2.8644285
-21.507692,1.7582226,2.874374
-21.599117,1.7630949,2.8558235
-21.701668,1.7739387,2.8442254
-21.814388,1.7904372,2.839324
-21.938728,1.8134775,2.8421817
-22.037971,1.8244822,2.8322172
-22.513447,2.0300393,3.0402775
-22.680525,2.0793188,3.0751944
-22.740084,2.0733485,3.0485487
-22.919815,2.1313374,3.094643
-22.993643,2.1340122,3.0786066
-23.092085,2.150351,3.078496
-23.17864,2.1608088,3.0720549
-23.280247,2.1800601,3.076119
-23.369265,2.192964,3.0732708
-23.459503,2.2070887,3.0722117
-23.545654,2.2194507,3.0694714
-23.613525,2.2218564,3.0554209
-23.732002,2.2538683,3.076447
-23.780102,2.2456546,3.0505033
-23.857067,2.2545803,3.045023
-23.889042,2.2371404,3.0084958
-23.913246,2.2149465,2.9663696
-23.931995,2.189262,2.9200988
-23.928787,2.1498554,2.8573513
-24.024548,2.1712701,2.8678174
-24.102726,2.182367,2.8661885
-24.178505,2.1924305,2.8636036
-24.245571,2.1973886,2.8550873
-24.323692,2.2098334,2.8559518
-24.450275,2.254355,2.8963938
-24.481113,2.237019,2.8613749
-23.595161,1.6100867,2.0753732
-23.720488,1.6497676,2.1087456
-23.751247,1.6263845,2.0644684
-23.777657,1.5998156,2.016283
-23.749516,1.5352015,1.9207158
-23.755838,1.4936402,1.8537235
-25.03583,2.3519902,2.914132
-25.084263,2.3487513,2.8981185
-25.194698,2.3904307,2.9388208
-25.256958,2.3980718,2.9369774
-25.302282,2.3936074,2.9200196
-25.338688,2.382622,2.8949165
-25.41077,2.3984904,2.9040608
-25.435257,2.3786857,2.8679714
-25.50695,2.394993,2.878068
-25.557795,2.3956528,2.8683672
-25.619038,2.4047165,2.869608
-25.678822,2.4130337,2.8700867
-25.737175,2.4205937,2.8697805
-25.797129,2.429831,2.8718257
-25.845507,2.4299688,2.8622775
-25.919277,2.45142,2.8805294
-25.97672,2.459837,2.8820806
-26.030449,2.465491,2.8802094
-26.08055,2.468353,2.874855
-26.129965,2.4708853,2.8692145
-26.177008,2.4715858,2.8613129
-26.222294,2.4709363,2.8517709
-26.256947,2.4608872,2.8299823
-26.302244,2.4604976,2.821003
-26.281784,2.3996365,2.7322893
-26.25597,2.3325038,2.6351147
-26.23574,2.2692127,2.5428433
-26.238554,2.2266057,2.4778676
-26.126135,2.0715773,2.2633333
-26.194864,2.0904708,2.2798924
-26.218683,2.0654693,2.2381015
-26.227589,2.0250518,2.1757312
-26.233192,1.9804528,2.107719
-26.230106,1.9259543,2.0263767
-26.173449,1.8142972,1.8682041
-26.170565,1.7568288,1.7825632
-26.32042,1.861814,1.9155679
-26.358967,1.8488915,1.8901186
-26.350788,1.6691961,1.6233878
-26.372744,1.6347132,1.5687456
-26.381264,1.5838535,1.4918685
-26.36293,1.5000985,1.3702145
-26.358662,1.4309938,1.2683377
-26.371077,1.3803644,1.1915321
-26.359371,1.2987747,1.0724311
-26.349272,1.2170069,0.95294476
-26.350906,1.1479077,0.85065126
-26.357225,1.0829849,0.75398636
-36.35939,0.7830956,0.70960665
-36.16571,1.000946,1.0059729
-36.21963,1.0120618,1.0339284
-36.196068,1.0857921,1.142838
-36.12851,1.1933246,1.2950659
-36.157135,1.2228091,1.3465762
-36.145058,1.2837324,1.4384232
-36.173626,1.3122027,1.4885917
-36.15149,1.3791072,1.5878401
-36.174934,1.4103758,1.6415076
-36.129044,1.4931467,1.7605982
-36.14259,1.5304248,1.8217292
-36.15807,1.5657678,1.8803759
-36.162533,1.6086292,1.9484739
-36.17738,1.6434107,2.0063338
-36.19889,1.673008,2.05766
-36.23983,1.6886053,2.0914779
-36.291237,1.6968663,2.1162395
-36.325058,1.7173338,2.1563354
-36.363976,1.7341778,2.1919994
-36.403324,1.750658,2.2273035
-36.42459,1.7791486,2.277515
-36.281166,2.114341,2.777779
-36.160202,2.2277074,2.929811
-36.225094,2.2245634,2.940977
-36.245213,2.2490559,2.9855175
-36.266396,2.2726827,3.0290375
-36.26963,2.3068423,3.0851202
-36.26788,2.343548,3.1441536
-36.28328,2.3697352,3.1906552
-36.28486,2.4036982,3.2463112
-36.408558,2.366991,3.218958
-36.438232,2.3848307,3.2559242
-36.46688,2.4031646,3.2935352
-36.499813,2.419015,3.3283296
-36.537857,2.4319928,3.3598928
-36.58186,2.4417179,3.3878288
-36.63114,2.4486566,3.4127202
-36.69352,2.448683,3.429903
-36.751278,2.451437,3.4504323
-36.831722,2.4424384,3.4578953
-36.86916,2.4563632,3.4915123
-36.91666,2.4650877,3.5194197
-36.975956,2.4678762,3.5408788
-37.05357,2.4615839,3.552497
-37.105743,2.4684947,3.57904
-37.181145,2.4639802,3.5932283
-37.30106,2.4378603,3.5841208
-37.40851,2.4186215,3.5830827
-37.495167,2.4101086,3.5941663
-37.65476,2.367058,3.5684738
-37.58043,2.436314,3.6638298
-37.617847,2.451956,3.7015977
-37.669933,2.4607677,3.7322626
-37.724403,2.4686186,3.7621298
-37.77378,2.4789639,3.7948346
-37.826374,2.487969,3.8263478
-37.877174,2.4979243,3.859065
-37.932907,2.5058155,3.8898745
-37.991085,2.5127997,3.920003
-38.061073,2.514819,3.9453607
-38.12339,2.5204425,3.9746795
-38.20703,2.5171537,3.995378
-38.26587,2.5247846,4.027336
-38.339252,2.5264919,4.053731
-39.415924,2.110829,3.6722765
-39.42674,2.1429036,3.7319727
-39.44055,2.1735327,3.790247
-39.45478,2.2038014,3.8481684
-39.46156,2.2368727,3.90874
-39.422176,2.2880273,3.9862561
-39.411972,2.3271294,4.052198
-39.459496,2.343398,4.096891
-39.490833,2.365991,4.147589
-39.702263,2.3197584,4.135976
-39.87786,2.2883682,4.1389885
-40.092377,2.2434094,4.130994
-40.23407,2.2267551,4.1492596
