x,y,z
-26.323557,1.5107143,2.8594785
-26.37894,1.5225141,2.8605056
-26.4331,1.5333016,2.8607025
-26.488556,1.5460782,2.863165
-26.545752,1.5614583,2.868546
-26.595343,1.5679657,2.8649192
-26.653507,1.5855417,2.8730125
-26.70131,1.5905693,2.8682241
-26.75374,1.6018324,2.8701344
-26.801281,1.6071734,2.8660254
-26.85473,1.6206052,2.870592
-26.902897,1.6274843,2.868454
-26.954096,1.6388087,2.8711796
-27.002846,1.6472306,2.8710222
-27.051434,1.655808,2.8712015
-27.102041,1.667624,2.8749924
-27.15243,1.6796064,2.8791442
-27.20046,1.6886582,2.880353
-27.243687,1.6910446,2.8746133
-27.286018,1.6923168,2.8678212
-27.32708,1.6918461,2.8592973
-27.356375,1.6734233,2.8316302
-27.386768,1.6563048,2.8054295
-27.373627,1.569854,2.7046204
-27.386868,1.523318,2.6466975
-27.38131,1.4447687,2.5541515
-27.43128,1.3835552,2.472589
-27.459051,1.356457,2.4356627
-27.454306,1.2719784,2.336402
-27.483469,1.2448812,2.2994776
-27.479004,1.1564445,2.1957264
-37.742504,0.45614266,2.6705327
-37.855625,0.42351532,2.668004
-37.88468,0.45169067,2.7181792
-37.4905,0.8692806,3.1495056
-37.39425,0.9799247,3.2673001
-37.588688,0.8903496,3.2176967
-37.659706,0.8861153,3.2398944
-37.696053,0.9054611,3.281839
-37.74122,0.9188428,3.3190384
-37.79228,0.92834115,3.3532753
-37.86693,0.92248344,3.3753638
-37.953186,0.9094355,3.3920946
-38.053516,0.8877959,3.4024744
-38.161896,0.86163235,3.4098678
-38.231647,0.8605802,3.4375992
-38.35542,0.8259239,3.43954
-38.715614,0.7772651,3.5229888
-38.780228,0.78153634,3.5574875
-38.798195,0.81381106,3.61314
-38.869698,0.81415653,3.6452675
-38.92175,0.82616925,3.6863203
-38.955738,0.8487551,3.7352896
-38.989395,0.8714278,3.7844481
-39.043182,0.8824806,3.8254662
-39.095963,0.8941896,3.8672247
-39.212864,0.8698914,3.8841186
-39.26963,0.8798287,3.9254465
-39.368576,0.86652493,3.9511714
-39.44014,0.86874795,3.988052
-39.537556,0.857136,4.0160813
-40.678085,0.5086677,4.023163
-40.652805,0.56570363,4.1004424
-40.666245,0.60237336,4.164941
-40.87715,0.5387814,4.168946
-23.964943,0.9797063,2.7837448
-24.071888,1.019289,2.8013768
-24.135115,1.0238886,2.7866125
-24.224594,1.0505857,2.7930193
-24.310366,1.0749002,2.7976031
-24.384037,1.0896523,2.793487
-24.489735,1.132276,2.8163733
-24.552423,1.1388121,2.805141
-24.648737,1.174994,2.822752
-24.717896,1.1881869,2.8185987
-24.801268,1.2144804,2.8274732
-24.877342,1.2349434,2.8310595
-24.95245,1.2551382,2.8347316
-25.020452,1.2694254,2.832951
-25.090645,1.2862239,2.8339396
-25.167206,1.3095145,2.841652
-25.231953,1.3223116,2.8393145
-25.310183,1.3484409,2.8505063
-25.36904,1.3566048,2.844139
-25.437717,1.3747058,2.8479533
-25.497347,1.3844545,2.8436847
-25.558529,1.3961382,2.841608
-25.628088,1.4166942,2.8487382
-25.692745,1.4328835,2.85175
-25.755987,1.4481492,2.854095
-25.815603,1.4601562,2.8533869
-25.876663,1.4741216,2.854919
-25.935822,1.486552,2.8551288
-26.000736,1.5056319,2.8624015
-26.059921,1.5190799,2.8641486
-26.119928,1.5339131,2.8675623
-26.17543,1.5442419,2.866559
-26.230215,1.5541701,2.8653536
-26.292086,1.5725775,2.8731747
-26.345392,1.5817084,2.8715787
-26.400051,1.5928035,2.8722348
-26.453495,1.6028919,2.872047
-26.505747,1.6119647,2.870994
-26.55832,1.6218112,2.8709497
-26.607767,1.6282313,2.8674884
-26.663866,1.6432312,2.8732686
-26.714417,1.6517954,2.8724499
-26.766697,1.6629407,2.8745527
-26.81783,1.6730502,2.8757467
-26.866447,1.6802964,2.8740764
-26.91584,1.6889136,2.8740406
-26.967333,1.7007337,2.8776064
-27.018602,1.7127242,2.8815432
-27.069645,1.724884,2.8858461
-27.119146,1.7353768,2.8885398
-27.169744,1.7478695,2.8935637
-27.215406,1.7537713,2.891652
-27.257992,1.755507,2.8853865
-27.30053,1.7573683,2.879395
-27.344658,1.7618248,2.8763556
-27.37407,1.7441471,2.8493915
-27.406572,1.7308638,2.8272777
-27.37957,1.6239407,2.703084
-27.386,1.5671391,2.6334114
-27.393007,1.5096519,2.5629206
-27.277723,1.2494309,2.270144
-27.314997,1.2358572,2.2473984
-27.44128,1.3731217,2.3905797
-27.46493,1.260277,2.2515426
-27.482777,1.211961,2.1909084
-27.474415,1.1145546,2.0759845
-37.81574,0.40990448,2.523714
-37.837795,0.4436736,2.5788803
-37.86734,0.4717586,2.629077
-37.48767,0.788497,2.9307413
-37.49884,0.8264024,2.9881907
-37.451187,0.9046817,3.0803633
-37.42907,0.96426845,3.1560745
-37.4031,1.025676,3.2330594
-37.448116,1.0382915,3.2684336
-37.65021,0.9457214,3.2154732
-37.689564,0.9630344,3.2556849
-37.731705,0.9784558,3.2944698
-37.78888,0.98403883,3.3252935
-37.846733,0.98932743,3.3561482
-37.92839,0.9795034,3.37496
-37.988503,0.9837885,3.4056444
-38.11229,0.948097,3.4044714
-38.19752,0.93736076,3.4239802
-38.27897,0.9294033,3.4461708
-38.379417,0.91015434,3.4599247
-38.53073,0.86047673,3.450491
-38.623142,0.8474932,3.4704752
-38.722885,0.83059216,3.4879823
-38.729946,0.8693278,3.5485678
-38.775852,0.8847861,3.591445
-38.81426,0.9046383,3.6378307
-38.855614,0.9227197,3.6830516
-38.90809,0.93437886,3.7237067
-38.962006,0.9452889,3.7640748
-39.01657,0.95592666,3.8045206
-39.08989,0.95614743,3.8377576
-39.13756,0.9708967,3.881772
-39.219814,0.9666076,3.9125838
-39.30458,0.96129227,3.9431777
-39.414413,0.942744,3.9651356
-39.492607,0.94180465,3.9998684
-39.630444,0.9093373,4.0137095
-40.697136,0.47665977,3.8410678
-40.686844,0.52668095,3.9147587
-40.66562,0.58181214,3.9915056
-40.64966,0.6336994,4.065899
-40.727554,0.63776064,4.110137
-40.718246,0.68567467,4.1819334
-41.03951,0.56921744,4.1533947
-41.260597,0.5042443,4.158263
-23.74912,0.9910946,2.7941027
-23.831501,1.0088947,2.790627
-23.93861,1.0468545,2.8065395
-24.00612,1.0540693,2.7939177
-24.085524,1.071243,2.7910566
-24.209106,1.1249917,2.8234549
-24.285,1.1407235,2.8200955
-24.360624,1.1567466,2.817369
-24.45485,1.1889033,2.8305597
-24.534319,1.2093897,2.8329086
-24.604452,1.2224903,2.8284464
-24.684559,1.2446749,2.8331623
-24.761755,1.2649605,2.8363905
-24.835459,1.2827725,2.837542
-24.89949,1.2925231,2.8310757
-24.960863,1.3002739,2.8229017
-25.062084,1.3446014,2.8513064
-25.123474,1.3534513,2.8448586
-25.191364,1.368707,2.8450694
-25.265001,1.3898559,2.8514838
-25.332897,1.4061949,2.8533869
-25.396948,1.4193845,2.8524036
-25.454884,1.42712,2.846169
-25.52666,1.4487407,2.8542638
-25.589384,1.4620593,2.8542185
-25.651863,1.475604,2.854663
-25.71694,1.4922471,2.8585386
-25.775515,1.5027919,2.856423
-25.83445,1.5141196,2.8553467
-25.893171,1.5256543,2.8547215
-25.956076,1.5420377,2.8593493
-26.016502,1.5563226,2.8620553
-26.07289,1.5667403,2.8609786
-26.131752,1.5802753,2.8633742
-26.189835,1.5934315,2.8656058
-26.249775,1.6091399,2.8707428
-26.304745,1.619765,2.8707724
-26.364147,1.6358864,2.8768039
-26.416622,1.6445327,2.875173
-26.468422,1.652761,2.8732939
-26.52006,1.6611621,2.8717885
-26.561626,1.6578321,2.857995
-26.617931,1.6725123,2.863531
-26.68124,1.696351,2.8790655
-26.72924,1.7018566,2.875227
-26.7795,1.7105155,2.874938
-26.831465,1.7217436,2.8775902
-26.882751,1.7325428,2.8799696
-26.932913,1.7423036,2.8814135
-26.98243,1.7516239,2.8825593
-27.031765,1.7611053,2.8840532
-27.080914,1.7707465,2.8858943
-27.129436,1.7799387,2.8874192
-27.177345,1.7886772,2.8886185
-27.223372,1.7951264,2.8874826
-27.269264,1.8017199,2.8866591
-27.31335,1.8060045,2.88346
-27.347866,1.7963061,2.8650618
-27.380903,1.7842333,2.8441439
-27.409313,1.7648463,2.8152575
-27.381811,1.6579151,2.6898985
-27.38545,1.5970926,2.6152139
-27.364708,1.4953465,2.4951825
-27.283817,1.2923586,2.2627854
-27.319519,1.2763536,2.237286
-27.339615,1.23369,2.1822524
-27.452396,1.3485782,2.3025131
-27.46111,1.2861915,2.22575
-27.470894,1.223747,2.148862
-27.5005,1.1950238,2.1095915
-37.838478,0.39362073,2.4176207
-37.813038,0.46203637,2.504168
-37.872658,0.4689026,2.5354886
-37.44988,0.8622279,2.934071
-37.49755,0.8744118,2.9690323
-37.388443,0.99437237,3.098319
-37.424564,1.0135272,3.139193
-37.507412,1.0010283,3.1528482
-37.59269,0.9873564,3.1659307
-37.617134,1.0145297,3.2143307
-37.64875,1.0367539,3.258573
-37.68689,1.0545824,3.2991996
-37.730118,1.0690551,3.337152
-37.811527,1.0590487,3.3548956
-37.897705,1.0464284,3.3709168
-37.957706,1.0507605,3.4013448
-38.03866,1.0421824,3.4215279
-38.12832,1.0286043,3.4381008
-38.229942,1.0081639,3.449656
-38.322372,0.9939182,3.466754
-38.443504,0.96284485,3.4710307
-38.566643,0.93135333,3.4757152
-38.67103,0.91178346,3.4904718
-38.71311,0.92947793,3.534752
-38.734802,0.9590471,3.588347
-38.772232,0.9792812,3.6348467
-38.819107,0.99402976,3.677342
-38.86901,1.0070772,3.7187772
-38.932617,1.0124471,3.7547412
-38.982986,1.0254099,3.796651
-39.03645,1.0367169,3.8375988
-39.13191,1.0249951,3.8621411
-39.196774,1.0304468,3.8995972
-39.286522,1.0226176,3.9279776
-39.35627,1.02594,3.9647613
-39.436836,1.0237305,3.998097
-39.567047,0.99562526,4.0140667
-40.71808,0.4789641,3.7378678
-40.66763,0.54996896,3.8260856
-40.64438,0.6062422,3.904055
-40.64261,0.6510334,3.9742193
-40.63851,0.69659233,4.0447326
-40.67511,0.72144103,4.101897
-40.70961,0.7472491,4.159824
-40.97929,0.6576078,4.1462326
-41.21523,0.5861759,4.1458282
-41.41709,0.5326886,4.158037
-23.42057,0.9736259,2.796297
-23.493643,0.9820137,2.7828622
-23.600574,1.0163958,2.7941694
-23.686943,1.0359535,2.7920485
-23.79836,1.0754068,2.8091884
-23.868238,1.0835218,2.7970986
-23.985394,1.1291316,2.8211336
-24.062757,1.1442909,2.8165746
-24.161268,1.1768816,2.8291588
-24.23398,1.1894698,2.8228965
-24.311752,1.2066438,2.821414
-24.402355,1.2349284,2.8311167
-24.4814,1.254364,2.832602
-24.548452,1.2643182,2.8251462
-24.721437,1.3645272,2.9069033
-24.937489,1.5038264,3.028242
-24.938148,1.4597456,2.9688048
-24.865185,1.3506277,2.844501
-24.9378,1.3680084,2.8460484
-25.000797,1.3773603,2.8398676
-25.070396,1.3930471,2.8403234
-25.144608,1.4134493,2.8458405
-25.212997,1.4291103,2.8468862
-25.278091,1.4422269,2.8456411
-25.34713,1.4595115,2.8489175
-25.409332,1.4708624,2.846425
-25.480152,1.4909043,2.853096
-25.544777,1.5055537,2.8545303
-25.606236,1.5176024,2.8535504
-25.66977,1.5321465,2.8554006
-25.724487,1.5383646,2.8488789
-25.785854,1.5516322,2.849896
-25.85314,1.5714257,2.857967
-25.91618,1.587446,2.862372
-25.978374,1.6031196,2.866671
-26.033733,1.6120858,2.86417
-26.088373,1.6206622,2.8614707
-26.141235,1.6276844,2.8573365
-26.204046,1.6459363,2.865291
-26.255999,1.6527541,2.8613586
-26.307812,1.6597443,2.8578005
-26.372902,1.682137,2.870861
-26.420717,1.6853945,2.863727
-26.473513,1.6946878,2.863227
-26.53264,1.7118247,2.8713436
-26.58401,1.7203062,2.8703737
-26.637173,1.7313266,2.8723278
-26.68575,1.7371845,2.868896
-26.744299,1.7556884,2.879332
-26.791565,1.7606914,2.8753366
-26.845308,1.7742047,2.8807607
-26.890884,1.7777271,2.8754911
-26.937756,1.78319,2.8724933
-26.986786,1.7918034,2.8731012
-27.036541,1.8017797,2.875372
-27.093658,1.822171,2.8892546
-27.14249,1.8318863,2.8916054
-27.191132,1.841759,2.8942976
-27.23872,1.8505762,2.8959908
-27.27597,1.8449638,2.8818865
-27.320406,1.8497968,2.8794599
-27.35937,1.8468399,2.8685308
-27.384916,1.8238351,2.8354297
-27.367826,1.7354054,2.729525
-27.387177,1.7007258,2.6833725
-27.397726,1.6513188,2.6207752
-27.256308,1.3583915,2.2857246
-27.29467,1.3473125,2.2655754
-27.312954,1.3030193,2.2082572
-27.334953,1.2636578,2.1564713
-27.420986,1.3319588,2.225832
-27.452705,1.3088877,2.1925883
-27.478806,1.2753263,2.1475677
-27.487402,1.2094777,2.066102
-27.492699,1.1354775,1.9753499
-37.837128,0.3454919,2.250699
-37.82123,0.40817952,2.333057
-37.79794,0.4753065,2.4192314
-37.829826,0.50219536,2.4684968
-37.72224,0.6272633,2.6067328
-37.53266,0.8076799,2.793992
-37.415768,0.9347613,2.9320765
-37.46033,0.9489329,2.9686108
-37.45661,0.9959657,3.03445
-37.528767,0.9912138,3.0544758
-37.54346,1.0252154,3.1088371
-37.58469,1.041276,3.147532
-37.609837,1.0678663,3.1955042
-37.638382,1.0920227,3.2414265
-37.681046,1.1068847,3.2794585
-37.719666,1.1243243,3.319851
-37.754955,1.1438224,3.3621264
-37.834766,1.1352205,3.3809032
-37.901505,1.1351678,3.407247
-37.97993,1.1281376,3.4281406
-38.112476,1.0882981,3.4224253
-38.201546,1.0758214,3.4398985
-38.286827,1.0660927,3.4601045
-38.40159,1.039177,3.4669223
-38.526268,1.0070987,3.4702902
-38.612995,0.998127,3.492783
-38.70063,0.9890444,3.5156794
-38.719032,1.0203774,3.5707097
-38.7556,1.0410514,3.6174707
-38.794296,1.0604403,3.6633806
-38.842503,1.0744274,3.7053218
-38.89459,1.0862882,3.7458801
-38.95553,1.0933232,3.7830744
-39.0213,1.0978673,3.818738
-39.09857,1.0963507,3.8502955
-39.159214,1.1041257,3.8890944
-39.233063,1.1049807,3.9232125
-39.32193,1.0981295,3.9522386
-39.404976,1.0947502,3.9842744
-39.500664,1.0851109,4.0124187
-40.66371,0.5229528,3.6569767
-40.66637,0.5665827,3.7270532
-40.62841,0.6305237,3.8108368
-40.62716,0.67518973,3.8812242
-40.646713,0.7090273,3.9442644
-40.67008,0.74074364,4.005933
-40.680923,0.7784443,4.0715413
-40.67827,0.8224585,4.1411586
-40.86234,0.77554226,4.1530104
-41.134758,0.6872442,4.1403136
-41.364555,0.6210692,4.143319
-41.551323,0.57668567,4.1613064
-23.088917,0.97274375,2.8030763
-23.16209,0.979167,2.7867222
-23.26716,1.0089355,2.7925968
-23.369625,1.0375998,2.7979698
-23.46107,1.0589464,2.796939
-23.58363,1.1039765,2.818871
-23.65818,1.1141849,2.8082008
-23.756046,1.1424143,2.8151531
-23.845201,1.1647656,2.8169332
-23.937393,1.1901023,2.82203
-24.03323,1.2189755,2.8310113
-24.11779,1.2397845,2.8325987
-24.190601,1.2519124,2.8260908
-24.316467,1.3068864,2.8620124
-24.608812,1.4974673,3.032349
-24.712692,1.5384326,3.0561914
-24.79695,1.564259,3.065505
-24.852224,1.5667145,3.0519042
-24.92032,1.5801735,3.0495424
-24.959383,1.5694911,3.0232272
-24.986526,1.5485847,2.98673
-25.012094,1.5260892,2.9486809
-24.984766,1.4571314,2.863515
-25.047478,1.4664009,2.8577476
-25.092726,1.4604895,2.83673
-25.166847,1.4806521,2.842595
-25.239998,1.5005455,2.848507
-25.316414,1.5240483,2.858461
-25.37085,1.5278139,2.84833
-25.424007,1.530647,2.8374405
-25.508343,1.5633154,2.8578038
-25.557005,1.5626562,2.8437567
-25.6219,1.5779045,2.8465376
-25.688238,1.595083,2.8516092
-25.751976,1.6102445,2.8548336
-25.816563,1.6267724,2.859757
-25.86906,1.6316001,2.8525596
-25.949821,1.6656668,2.876586
-26.012882,1.6823425,2.8824615
-26.09203,1.71643,2.9071617
-26.153234,1.7324572,2.9128938
-26.195887,1.7291391,2.8981285
-26.244421,1.7322922,2.8904567
-26.30605,1.750057,2.898693
-26.358994,1.7587721,2.8974013
-26.404526,1.7595329,2.8876953
-26.446947,1.7569408,2.874506
-26.531466,1.8029087,2.9142408
-26.546902,1.7696772,2.868054
-26.597668,1.7774622,2.8666396
-26.656141,1.7948129,2.8758698
-26.70553,1.8017745,2.8739314
-26.753326,1.8071265,2.8703966
-26.810057,1.823863,2.8795567
-26.856573,1.8283582,2.8754249
-26.905785,1.8365605,2.875545
-26.960358,1.8520598,2.883915
-27.010534,1.8623827,2.8867412
-27.059605,1.8716762,2.8885975
-27.111158,1.8847194,2.8947973
-27.158941,1.8931391,2.8960204
-27.203943,1.898109,2.8935475
-27.245827,1.8990066,2.886663
-27.29149,1.9054515,2.8861275
-27.332829,1.9060016,2.879117
-27.362556,1.889735,2.853312
-27.394999,1.8771648,2.8317351
-27.370052,1.7778745,2.7123446
-27.385387,1.7373393,2.659154
-27.385742,1.6724274,2.5783453
-27.256193,1.400634,2.262836
-27.292665,1.3865283,2.239192
-27.316217,1.3510883,2.1913714
-27.322237,1.2856317,2.1093807
-27.33852,1.2354486,2.044734
-27.437943,1.3260291,2.1408248
-27.474445,1.2296782,2.0164518
-27.499098,1.1907473,1.9648476
-37.833153,0.36200738,2.1526346
-37.810886,0.42955327,2.2404175
-37.794014,0.49226713,2.3234005
-37.82786,0.51808214,2.3718019
-37.875763,0.5338042,2.4109373
-37.742752,0.6756611,2.566474
-37.536816,0.8656256,2.765123
-37.393986,1.0092201,2.9200106
-37.442863,1.0203788,2.9536676
-37.481945,1.038172,2.9935079
-37.492466,1.0749378,3.0505133
-37.461273,1.1388674,3.1317148
-37.460716,1.1818464,3.1939883
-37.59861,1.1344242,3.1763353
-37.62556,1.1594784,3.2230859
-37.65061,1.1855516,3.2707858
-37.682953,1.2068119,3.3143587
-37.73886,1.2131765,3.345191
-37.81093,1.2096379,3.3677988
-37.865166,1.217396,3.4003916
-37.934906,1.2158041,3.4253273
-38.030552,1.1988091,3.4376855
-38.102802,1.1964049,3.4627533
-38.1822,1.1900456,3.4849234
-38.258507,1.1858816,3.5093298
-38.324486,1.1880906,3.5393534
-38.418472,1.1742849,3.5567327
-38.66952,1.0706503,3.5023637
-38.67645,1.1082492,3.5624356
-38.729874,1.1191993,3.601318
-38.765213,1.1403792,3.648501
-38.815773,1.1530204,3.6891575
-38.871883,1.1626697,3.7277422
-38.92784,1.1725218,3.7667675
-38.981983,1.1834731,3.8069139
-39.03678,1.1941719,3.8471437
-39.108063,1.1961946,3.8811789
-39.18263,1.1967349,3.9145222
-39.263027,1.1944995,3.9462647
-39.331642,1.1987176,3.9831676
-39.417053,1.1945047,4.0144076
-40.61655,0.6213074,3.6415534
-40.61898,0.6646192,3.7114887
-40.631042,0.7027099,3.7776752
-40.638287,0.7429066,3.845271
-40.650974,0.7800832,3.9107366
-40.655388,0.8210368,3.978713
-40.654915,0.8640268,4.0479507
-40.67463,0.89690924,4.1104126
-40.71734,0.9185972,4.165637
-40.989746,0.8313701,4.151258
-41.26753,0.7434099,4.138444
-41.44464,0.704195,4.1581397
-41.779457,0.59307575,4.134856
-42.074104,0.5025892,4.1266565
-22.799364,0.96784425,2.7895622
-22.901669,0.99252987,2.7894263
-22.997047,1.0131214,2.7859645
-23.086319,1.030071,2.7795405
-23.229774,1.085825,2.8103771
-23.308186,1.0965221,2.7990308
-23.414753,1.1279042,2.8078632
-23.51798,1.1576891,2.8156996
-23.615108,1.1837995,2.8205037
-23.715977,1.2134004,2.8291736
-23.777575,1.2144837,2.810553
-23.89694,1.2593405,2.8350306
-24.092175,1.3629818,2.9178867
-24.34486,1.512943,3.047513
-24.43632,1.5410197,3.0578132
-24.505144,1.5521319,3.0516849
-24.581102,1.569305,3.0519123
-24.666697,1.5947089,3.0607357
-24.728146,1.6013579,3.0510979
-24.810394,1.6252639,3.0591402
-24.873379,1.6340151,3.0522108
-24.942003,1.6478193,3.0506845
-24.975124,1.6323318,3.0195723
-25.000835,1.6104567,2.9820108
-25.018036,1.5810535,2.9367623
-25.014362,1.533212,2.8725076
-25.061922,1.5293057,2.8535538
-25.12498,1.5391846,2.8490677
-25.199512,1.559684,2.8558922
-25.265747,1.5733395,2.8558946
-25.329914,1.5855906,2.854701
-25.400444,1.6041436,2.8603897
-25.455153,1.6085811,2.8515077
-25.525707,1.6281824,2.85885
-25.646887,1.6964421,2.9180355
-25.716885,1.7172651,2.9274101
-25.792845,1.7445045,2.943914
-25.841438,1.7456894,2.9329128
-25.887148,1.7442198,2.919241
-25.937914,1.7479653,2.9113264
-25.991375,1.7547035,2.9068165
-26.027014,1.7434964,2.8831348
-26.07596,1.7460091,2.8743973
-26.130804,1.7549417,2.8727946
-26.17471,1.7526495,2.8591886
-26.23568,1.7687943,2.8658228
-26.293703,1.7822919,2.8698
-26.34519,1.7890961,2.8666677
-26.395493,1.7949197,2.8626409
-26.4549,1.8113024,2.8704066
-26.531775,1.8481517,2.9009619
-26.572775,1.8447003,2.8873105
-26.617294,1.8454356,2.8784199
-26.669659,1.8556297,2.8801684
-26.723278,1.8677504,2.8842454
-26.772316,1.8747885,2.8828516
-26.821682,1.8825719,2.8824573
-26.874662,1.8952167,2.88767
-26.923656,1.903331,2.8879938
-26.972021,1.9110146,2.8880005
-27.022507,1.9218099,2.8916707
-27.072323,1.9321804,2.8950348
-27.120594,1.9409335,2.8967447
-27.169565,1.9510322,2.9001374
-27.21659,1.9589071,2.9011755
-27.258287,1.9597704,2.894412
-27.302069,1.9637458,2.8913126
-27.34198,1.9624631,2.8823633
-27.375675,1.9522922,2.8633957
-27.40585,1.9367931,2.838426
-27.375751,1.8310287,2.71026
-27.380568,1.7750859,2.6389256
-27.395788,1.7335763,2.5840797
-27.275017,1.4784007,2.2836905
-27.269545,1.3983176,2.1840687
-27.300867,1.3751805,2.1499405
-27.314405,1.3223002,2.081544
-27.295616,1.2139556,1.9490175
-27.286316,1.1182206,1.8308778
-27.463028,1.340025,2.0805006
-27.446241,1.2303822,1.946393
-27.476742,1.2014296,1.9058218
-27.5047,1.1670024,1.858932
-37.78668,0.45489764,2.151698
-37.813843,0.48627496,2.205542
-37.8484,0.5121057,2.2541466
-37.878258,0.5410316,2.3057613
-37.587467,0.79282975,2.5673733
-37.587105,0.84005857,2.6352353
-37.594063,0.8816891,2.6977425
-37.381508,1.0714719,2.8976731
-37.42815,1.0841582,2.932581
-37.44938,1.1137695,2.983214
-37.42839,1.1709263,3.0590324
-37.425285,1.2156346,3.1232786
-37.433563,1.2524266,3.1802301
-37.542744,1.2240593,3.1785517
-37.58922,1.2363293,3.2137885
-37.623283,1.2564564,3.256194
-37.674717,1.2656267,3.2890291
-37.709816,1.2850091,3.3310537
-37.77951,1.2830596,3.3545814
-37.840668,1.2865937,3.383214
-37.9096,1.2856326,3.408267
-37.987972,1.2792966,3.4290686
-38.07196,1.269999,3.4477663
-38.170345,1.2526579,3.4601264
-38.254654,1.244086,3.4803972
-38.351864,1.2284691,3.4952617
-38.456516,1.2091265,3.5075989
-38.569496,1.185657,3.5171566
-38.686035,1.1608591,3.5263
-38.696503,1.1959932,3.584591
-38.72196,1.2225142,3.6359253
-38.801876,1.2189701,3.6633968
-38.85224,1.231853,3.7042823
-38.89994,1.2462456,3.7465887
-38.9499,1.2594693,3.7882118
-39.02043,1.2618432,3.8217297
-39.079235,1.2706387,3.8605375
-39.137894,1.2796545,3.8998213
-39.231674,1.2706411,3.925919
-39.30448,1.2728362,3.9609003
-39.386528,1.2705929,3.9930434
-39.488083,1.258848,4.018769
-40.630978,0.7268064,3.6707087
-40.652466,0.760139,3.7337275
-40.661476,0.79939246,3.80095
-40.64071,0.85285735,3.878015
-40.646797,0.89278555,3.9454665
-40.654922,0.93141556,4.0119524
-40.67378,0.9646406,4.0747395
-40.701736,0.9933665,4.134555
-40.840984,0.96992326,4.1602044
-41.09862,0.8923309,4.1517134
-41.35539,0.81679153,4.1464415
-41.567238,0.76336074,4.15703
-41.90058,0.65627027,4.1357737
-42.190876,0.5706525,4.1302357
-42.442173,0.5041976,4.138491
-22.509682,0.9575169,2.7809343
-22.636122,0.9958079,2.792604
-22.741302,1.0208609,2.7925024
-22.827003,1.0335042,2.7812152
-22.970837,1.0861785,2.8083482
-23.051428,1.096663,2.796009
-23.165741,1.1309559,2.806871
-23.270876,1.1597161,2.8129926
-23.356264,1.1753211,2.8069181
-23.481113,1.2195685,2.829082
-23.550905,1.2253034,2.8143063
-23.695633,1.2857625,2.8534803
-24.010899,1.4725244,3.0177484
-24.12279,1.512667,3.0388737
-24.211266,1.5363162,3.0441947
-24.313032,1.5706496,3.0605855
-24.385624,1.5836616,3.0561447
-24.468803,1.6052682,3.0606642
-24.550255,1.6261666,3.0648575
-24.62399,1.6416378,3.0639348
-24.697445,1.6573961,3.0636344
-24.769295,1.6723869,3.0628796
-24.836283,1.6839578,3.0589418
-24.897198,1.6910124,3.0506563
-24.956032,1.6966946,3.0412064
-24.986507,1.679127,3.0079556
-25.003231,1.649859,2.9626365
-25.021683,1.6216586,2.9184241
-25.018589,1.5746272,2.8545475
-25.080502,1.5830753,2.848678
-25.154003,1.6020305,2.8540998
-25.219166,1.6142113,2.8526945
-25.287752,1.6298976,2.8552623
-25.354227,1.6442039,2.8566508
-25.407812,1.6472585,2.8463426
-25.531055,1.7147372,2.9049692
-25.576239,1.7111735,2.8881707
-25.632599,1.7182384,2.8829312
-25.710922,1.7465377,2.900752
-25.751213,1.7390625,2.880312
-25.787596,1.7278051,2.8559036
-25.84571,1.7378476,2.8546996
-25.86873,1.7134047,2.816216
-25.97472,1.7720087,2.8682985
-26.024357,1.7748227,2.8598866
-26.070623,1.7744155,2.8481197
-26.122845,1.78037,2.8434944
-25.58916,1.170048,2.1605678
-25.592611,1.1174874,2.090145
-25.61967,1.0893195,2.046609
-25.618397,1.0297942,1.9683409
-26.41974,1.8545027,2.872406
-26.47537,1.8667498,2.8759832
-26.556686,1.9084985,2.912684
-26.585896,1.8918226,2.8843884
-26.630318,1.8925226,2.8756266
-26.678646,1.8979869,2.872357
-26.733194,1.9111438,2.8779073
-26.786034,1.9227455,2.881897
-26.83864,1.9345262,2.8862762
-26.887228,1.9418168,2.885756
-26.937061,1.9510186,2.887567
-26.984392,1.9574556,2.8864064
-27.032495,1.9652171,2.886909
-27.082693,1.9760752,2.891101
-27.131777,1.9859202,2.8943062
-27.17757,1.9917922,2.8931293
-27.218437,1.9912987,2.8848038
-27.269192,2.0045586,2.8923893
-27.340097,2.0464928,2.9331212
-27.392586,2.06371,2.94566
-27.3983,2.014351,2.8815727
-27.418386,1.9846356,2.8401237
-27.358208,1.8353052,2.6602635
-27.391155,1.821588,2.6371737
-27.352005,1.6975105,2.4860644
-27.27476,1.5106146,2.2616415
-27.268139,1.42921,2.1595178
-27.293861,1.3971272,2.11475
-27.313826,1.3548024,2.0580535
-27.287352,1.2344213,1.9101224
-27.280693,1.1434927,1.7964196
-27.429264,1.3152151,1.9903612
-27.46922,1.3040233,1.9703283
-27.48117,1.2430131,1.8918657
-27.497593,1.1880531,1.8204727
-37.784523,0.5119219,2.1322627
-37.84794,0.51747847,2.1612415
-37.805313,0.5976057,2.2624092
-37.6376,0.7634988,2.445527
-37.677963,0.7832918,2.4878373
-37.60594,0.87970114,2.6031432
-37.631218,0.90881205,2.6541681
-37.35959,1.1366625,2.892407
-37.41276,1.1449244,2.923018
-37.445755,1.1665721,2.9663262
-37.499344,1.1746466,2.9971356
-37.43194,1.2610574,3.1004386
-37.44018,1.2977073,3.1575289
-37.510056,1.2948174,3.1784735
-37.58761,1.2873986,3.1956453
-37.61628,1.3108568,3.2410655
-37.653835,1.3286619,3.2814841
-37.705814,1.3375695,3.3140993
-37.749905,1.351371,3.3512802
-37.81719,1.3512182,3.3763452
-37.888397,1.3489842,3.3999214
-37.967506,1.3423712,3.4200501
-38.055412,1.3309765,3.4364629
-38.147453,1.3176382,3.4516845
-38.242874,1.3028467,3.4661746
-38.330505,1.2930343,3.4854136
-38.464092,1.2576234,3.4836164
-38.55218,1.248656,3.5046878
-38.628242,1.2468238,3.5321584
-38.77753,1.2048652,3.5270486
-38.810623,1.2275274,3.5755801
-38.745815,1.3032298,3.6671548
-38.805847,1.3107457,3.7034054
-38.887238,1.3070254,3.7310143
-38.93384,1.3220627,3.7738981
-38.978554,1.3381293,3.8178034
-39.059772,1.3352292,3.8471913
-39.125084,1.3408773,3.883624
-39.17347,1.3553805,3.9271636
-39.27481,1.3430927,3.9507093
-39.34919,1.3448687,3.9853992
-39.420113,1.3486414,4.021999
-40.643726,0.78299546,3.6415296
-40.65837,0.819648,3.7070913
-40.639877,0.87213206,3.7840004
-40.649067,0.9107456,3.8507905
-40.661163,0.94767046,3.9163375
-40.677933,0.98211,3.9801245
-40.687263,1.0198169,4.0461574
-40.743988,1.0351663,4.0969725
-40.7725,1.063642,4.1568995
-41.053043,0.9765878,4.140485
-41.28274,0.91444564,4.1424065
-41.457607,0.87840676,4.1628323
-41.80875,0.7646644,4.1351132
-42.075226,0.6907027,4.134992
-42.33185,0.6227107,4.1405587
-42.714832,0.5012846,4.11553
-22.0673,0.9092996,2.7638636
-22.207247,0.95218897,2.7780962
-22.34575,0.99521613,2.7932196
-22.441574,1.0118535,2.784287
-22.573671,1.0526032,2.7986164
-22.697683,1.0890703,2.8095846
-22.787134,1.1036325,2.8002968
-22.924807,1.1508806,2.822795
-23.015676,1.1677616,2.8167596
-23.119333,1.1938941,2.8201246
-23.225437,1.2224429,2.8263578
-23.320997,1.2444763,2.826757
-23.597008,1.393172,2.95196
-23.829372,1.514132,3.051374
-23.905697,1.5265918,3.0446348
-23.992332,1.5469186,3.0460706
-24.09188,1.5772188,3.057878
-24.185352,1.6038723,3.0665169
-24.2687,1.6237743,3.068808
-24.343458,1.6378725,3.065621
-24.425457,1.6579103,3.0688
-24.517262,1.6860058,3.080566
-24.587702,1.698457,3.076767
-24.655897,1.7096219,3.0719585
-24.733185,1.7283323,3.0752177
-24.794283,1.7348173,3.066185
-24.85262,1.7394314,3.0554624
-24.925838,1.7563393,3.057776
-24.967674,1.7482305,3.0342727
-24.996763,1.7296705,2.9999533
-25.011454,1.6989698,2.9529305
-25.025364,1.6671891,2.9047503
-25.047962,1.6423254,2.8638697
-25.106567,1.6479967,2.8554392
-25.171865,1.6597793,2.8537464
-25.248014,1.6814952,2.8629322
-25.305428,1.6873069,2.8553982
-25.368168,1.6981936,2.8535395
-25.442123,1.719629,2.863299
-25.49657,1.723918,2.8548336
-25.570461,1.7464192,2.866313
-25.63688,1.7626328,2.871265
-25.69366,1.7703054,2.8671741
-25.742758,1.7710166,2.8556886
-25.81131,1.7906618,2.8651218
-25.914173,1.8443406,2.9122229
-25.977169,1.8601494,2.9180727
-26.028118,1.8644996,2.9115167
-26.086164,1.8762736,2.9133577
-25.330017,1.0591645,1.9956412
-25.368729,1.0423462,1.9639139
-25.552258,1.1762965,2.1003752
-25.587488,1.1572082,2.066687
-25.617195,1.1319785,2.0261965
-25.620039,1.0773425,1.9527426
-26.450829,1.9263599,2.8958197
-26.528816,1.9635584,2.9279137
-26.553135,1.941751,2.8936605
-26.600506,1.9457006,2.8886046
-26.64728,1.9492292,2.8832264
-26.700878,1.9609449,2.8873096
-26.753262,1.9716923,2.8904781
-26.801552,1.9780035,2.8887658
-26.852573,1.9879386,2.8913574
-26.90102,1.9951477,2.8909993
-26.950714,2.0042562,2.892982
-26.999754,2.012946,2.894649
-27.048151,2.021213,2.8959932
-27.09773,2.0313892,2.8996997
-27.14665,2.0411437,2.9030833
-27.190947,2.0451953,2.9000258
-27.234705,2.0487967,2.8965812
-27.270603,2.0419383,2.8811197
-27.36158,2.1112292,2.954372
-27.400772,2.110015,2.9458175
-27.404228,2.058023,2.8780956
-27.373337,1.954979,2.7506099
-27.368576,1.8873186,2.664312
-27.375004,1.8344126,2.595201
-27.282719,1.6306834,2.3488994
-27.297064,1.5845673,2.287403
-27.300352,1.5198894,2.2040186
-27.284786,1.4233868,2.0830188
-27.31858,1.403481,2.0522943
-27.272072,1.2514696,1.8654213
-27.315695,1.244731,1.8502188
-27.41594,1.333925,1.9488597
-27.447475,1.2257996,1.8068047
-27.474184,1.1886449,1.7558546
-27.487217,1.1254501,1.6739106
-37.74398,0.59336305,2.1327448
-37.648956,0.70992756,2.2705936
-37.69116,0.72925305,2.3124943
-37.735237,0.7471974,2.3531775
-37.73122,0.7978926,2.4257865
-37.57871,0.99408555,2.6616712
-37.360966,1.1838145,2.8663669
-37.41566,1.1911955,2.89599
-37.42933,1.2254348,2.9512773
-37.46268,1.2466044,2.9942155
-37.4025,1.3275113,3.0932455
-37.443825,1.3428414,3.130628
-37.5411,1.3229733,3.1355166
-37.579197,1.3405871,3.1754837
-37.607838,1.3639848,3.2208843
-37.641525,1.3841383,3.2633958
-37.673367,1.4053128,3.3069377
-37.719666,1.41768,3.3426347
-37.798576,1.4106505,3.3611479
-37.861134,1.4136689,3.38901
-37.935467,1.4100003,3.4112568
-38.000362,1.4121377,3.4389853
-38.089867,1.4003453,3.4548697
-38.20269,1.3757243,3.460112
-38.283825,1.3697238,3.4820414
-38.387577,1.3514223,3.4938803
-38.536842,1.3084207,3.4853253
-38.618584,1.3036463,3.5099115
-38.74926,1.272512,3.5128756
-38.82968,1.2694156,3.539916
-38.74925,1.3530185,3.6388688
-38.810165,1.3602481,3.6746783
-38.845333,1.3812361,3.7219605
-38.887665,1.3984118,3.766306
-38.952232,1.4040523,3.801631
-39.004166,1.4163928,3.8425999
-39.060944,1.4263513,3.8819556
-39.151253,1.419491,3.9085345
-39.219658,1.4240267,3.9444242
-39.310028,1.4178782,3.972546
-39.377483,1.4234326,4.0100517
-40.625496,0.8525436,3.6167078
-40.63151,0.8931966,3.685308
-40.638668,0.9329665,3.7531786
-40.661633,0.9648881,3.8152843
-40.670303,1.0033722,3.8821435
-40.684498,1.0389743,3.946899
-40.63555,1.103632,4.032016
-40.663376,1.1322248,4.0916414
-40.68379,1.164073,4.153588
-40.929302,1.093924,4.1465755
-41.15892,1.0324593,4.1471405
-41.36718,0.98190784,4.1565633
-41.64504,0.9019146,4.148341
-41.974396,0.8011606,4.12886
-42.183006,0.7548504,4.1462936
-42.52057,0.6543331,4.1314707
-42.85836,0.55585194,4.1204715
-21.788485,0.9354508,2.7789478
-21.930676,0.9766276,2.790824
-22.043102,1.0006027,2.7873535
-22.152845,1.0236406,2.7835846
-22.309227,1.076479,2.8086138
-22.408905,1.0948625,2.8016853
-22.54882,1.1394188,2.82031
-22.664093,1.1692672,2.825531
-22.761026,1.1880679,2.8206615
-22.884995,1.2251315,2.8340163
-22.970825,1.2380147,2.8244028
-23.079836,1.2668102,2.8308077
-23.17671,1.2882535,2.8305116
-23.26018,1.3012712,2.8223462
-23.696144,1.5557787,3.0547328
-23.820831,1.6004958,3.08006
-23.897068,1.6125393,3.0732489
-23.99502,1.640311,3.0826297
-24.0573,1.6435189,3.067636
-24.148186,1.6675086,3.074017
-24.2296,1.6853335,3.0745401
-24.313456,1.705504,3.0778403
-24.395573,1.7250013,3.0808344
-24.469141,1.7387283,3.07825
-24.537697,1.749171,3.072588
-24.60942,1.7624352,3.0701528
-24.68625,1.7800848,3.072609
-24.752102,1.7897942,3.0670886
-24.826353,1.8064718,3.069169
-24.885181,1.8115098,3.0592976
-24.94846,1.8204024,3.0537405
-24.981739,1.8055146,3.023193
-25.001074,1.7791846,2.980548
-25.01763,1.7502375,2.9351134
-25.025126,1.7133789,2.8811908
-25.072298,1.7092426,2.862403
-25.137655,1.7206326,2.8605266
-25.202782,1.7322643,2.8591747
-25.263975,1.7409353,2.8548708
-25.32988,1.7541072,2.8557034
-25.40828,1.7787921,2.869368
-25.520569,1.8344595,2.9172835
-25.57624,1.840419,2.9111423
-25.587273,1.8059802,2.860734
-24.907242,1.1337843,2.1062741
-24.935495,1.1073036,2.0627217
-24.943905,1.0617592,1.998054
-24.958817,1.0216217,1.939333
-25.927195,1.8994172,2.9044728
-25.98618,1.9111676,2.9062667
-26.050522,1.9286447,2.9147
-26.117853,1.949678,2.9273806
-25.344278,1.1237667,1.9863563
-25.495173,1.2215314,2.0839567
-25.567038,1.2402725,2.0928206
-25.604813,1.2240803,2.062334
-25.616322,1.1799734,2.000206
-26.415987,1.9772954,2.8965712
-26.44593,1.9615555,2.8687983
-26.521467,1.9955134,2.8979468
-26.562689,1.9924529,2.8849583
-26.608988,1.9951799,2.8787403
-26.660206,2.0037324,2.8793774
-26.708763,2.0096095,2.877102
-26.758654,2.0173566,2.8771472
-26.809828,2.0269823,2.8795338
-26.859838,2.035634,2.8809628
-26.90919,2.0438766,2.882082
-26.959766,2.0540073,2.8855639
-27.010132,2.064306,2.8894095
-27.057987,2.0718832,2.8902416
-27.10522,2.0790365,2.8907323
-27.151402,2.0851805,2.8901901
-27.194782,2.087983,2.8858705
-27.259085,2.118873,2.914721
-27.318905,2.1447499,2.9379025
-27.352613,2.1357653,2.9201555
-27.360329,2.09055,2.8596668
-27.391733,2.0775592,2.837275
-27.377346,1.9987977,2.7369785
-27.371677,1.9304733,2.6489124
-27.392832,1.8997831,2.6054773
-27.279615,1.6669989,2.321414
-27.301762,1.6330347,2.273767
-27.321823,1.5949326,2.2211924
-27.34407,1.5592074,2.1714606
-27.318514,1.4461558,2.0291638
-27.267122,1.2875865,1.8320756
-27.33434,1.3196216,1.8634105
-27.418737,1.3817759,1.9311657
-27.466623,1.2195194,1.7156858
-27.486431,1.1687884,1.64786
-37.566425,0.7324302,2.1585407
-37.66954,0.7093258,2.1575437
-37.703804,0.734643,2.205505
-37.777897,0.73241735,2.2260947
-37.805843,0.76189756,2.2784605
-37.5201,1.0933151,2.6735582
-37.493416,1.1553512,2.7566547
-37.42869,1.2412369,2.8625793
-37.383495,1.3132539,2.954607
-37.430077,1.3256769,2.9890518
-37.43658,1.3634727,3.0478945
-37.50834,1.3599641,3.0674357
-37.42201,1.4549303,3.1803408
-37.523705,1.4327598,3.1825252
-37.600426,1.4264724,3.2000847
-37.634834,1.4461303,3.2421288
-37.664307,1.4686596,3.2869325
-37.70279,1.4857035,3.3267746
-37.73711,1.505157,3.3689532
-37.800995,1.5072868,3.3955202
-37.860126,1.5123942,3.4250793
-37.959606,1.4945569,3.4343472
-38.056973,1.4785011,3.4457464
-38.128212,1.477711,3.4711814
-38.20348,1.474961,3.4952564
-38.248165,1.4894569,3.5347724
-38.42779,1.4299722,3.5103502
-38.578228,1.3876727,3.5018158
-38.673813,1.3759589,3.520319
-38.80642,1.3449595,3.5229993
-38.935364,1.3167336,3.5288057
-39.063885,1.2895176,3.5362244
-38.797615,1.468574,3.7153473
-38.866383,1.4719582,3.7481003
-38.915894,1.4854326,3.7894459
-38.97777,1.4927073,3.826013
-39.03701,1.5014861,3.864109
-39.109604,1.5037606,3.8973446
-39.181305,1.5067463,3.9315434
-39.256344,1.5083559,3.9650707
-39.339005,1.506546,3.9963827
-39.441338,1.4956119,4.021196
-40.645298,0.95925593,3.6484814
-40.659332,0.9956398,3.7140813
-40.668526,1.0340338,3.7811527
-40.64339,1.0881021,3.8596811
-40.637486,1.1327395,3.9310474
-40.652733,1.1673021,3.99501
-40.675354,1.1982949,4.056431
-40.682625,1.2360198,4.12263
-40.744747,1.2490251,4.1716223
-41.083466,1.1399882,4.137382
-41.329803,1.0736566,4.1345043
-41.4865,1.0477717,4.160406
-41.835457,0.9399698,4.133464
-42.103683,0.86887383,4.1329646
-42.36735,0.8013456,4.136735
-42.69,0.71067,4.1278653
-42.981327,0.63501716,4.130772
-43.36712,0.52218485,4.1131396
-21.448402,0.9320302,2.7707038
-21.578953,0.96311116,2.7721677
-21.700443,0.98971987,2.770132
-21.871807,1.0467741,2.7974834
-21.963665,1.057451,2.7817526
-22.110537,1.1019297,2.7987413
-22.24676,1.141001,2.8113303
-22.380817,1.1797361,2.8243184
-22.492313,1.2054262,2.8253632
-22.582317,1.2183719,2.8145518
-22.693033,1.2449546,2.817531
-22.79808,1.2686758,2.8182511
-22.904936,1.2942724,2.8213458
-23.007664,1.3179212,2.8230352
-23.107044,1.3400733,2.8237348
-23.195831,1.3558693,2.8185406
-23.67064,1.6307375,3.0747309
-23.721395,1.6243649,3.0490813
-23.813797,1.646529,3.0526218
-23.931461,1.686749,3.0750275
-24.013702,1.7033362,3.0738034
-24.089293,1.7158029,3.0687156
-24.18776,1.7449474,3.0811944
-24.26273,1.7580674,3.0775223
-24.339521,1.7729805,3.0760489
-24.420158,1.791208,3.07838
-24.490883,1.8027108,3.074019
-24.570213,1.8210537,3.0771656
-24.64042,1.833123,3.0740328
-24.713745,1.8480062,3.074185
-24.786783,1.8631759,3.0749578
-24.853569,1.8740208,3.0714254
-24.90895,1.8763838,3.059081
-24.967524,1.8815193,3.04993
-24.998066,1.8646257,3.0172467
-25.018553,1.8394973,2.9757237
-25.028555,1.805536,2.9246283
-25.044193,1.7757123,2.877996
-25.095654,1.7752082,2.86338
-25.158993,1.784858,2.8600745
-25.224613,1.7968476,2.8595872
-25.2974,1.8154237,2.8666182
-25.361244,1.8268573,2.8660522
-25.42972,1.8427801,2.8707108
-25.592018,1.9421551,2.968409
-25.604038,1.9096286,2.9198613
-24.732027,1.0784118,1.9786172
-24.903038,1.1812668,2.0793533
-24.934223,1.1575887,2.0387206
-24.940277,1.110163,1.9713917
-24.954605,1.0697107,1.9118586
-24.933117,0.99441624,1.8128409
-26.040257,2.0062575,2.947369
-26.073893,1.9941008,2.9227028
-25.33711,1.1670458,1.9561105
-25.522572,1.2985501,2.0941696
-25.567177,1.2894747,2.0716753
-25.604937,1.2733214,2.0411592
-26.387274,2.0356107,2.9084616
-26.427984,2.031552,2.8940268
-26.47186,2.030959,2.8837247
-26.540474,2.0573418,2.9048662
-26.579462,2.052035,2.8894162
-26.6261,2.0552654,2.8840237
-26.678152,2.0648384,2.8861856
-26.729502,2.0740232,2.8880672
-26.778692,2.0811174,2.887672
-26.825779,2.0861056,2.884964
-26.876104,2.0952218,2.8872614
-26.926704,2.1050744,2.890594
-26.975216,2.112814,2.8915963
-27.02402,2.1212826,2.893618
-27.072636,2.1299117,2.895987
-27.121971,2.139848,2.900063
-27.168402,2.1464946,2.9003878
-27.213795,2.1521366,2.8996615
-27.253798,2.15099,2.890976
-27.300714,2.159218,2.8936028
-27.338478,2.1554203,2.8819866
-27.367846,2.1401076,2.8566751
-27.397467,2.1248553,2.8314939
-27.352516,2.003547,2.6789165
-27.383629,1.9882278,2.6535897
-27.390182,1.9366951,2.584682
-27.281178,1.7121816,2.3069453
-27.301325,1.6755016,2.2555885
-27.329037,1.6494107,2.2170506
-27.337524,1.5927241,2.1414762
-27.357485,1.5525024,2.0858226
-27.260952,1.3237283,1.8011012
-27.398485,1.4702816,1.9723525
-27.452347,1.240953,1.6661439
-27.47202,1.1899381,1.5972309
-27.46733,1.0929174,1.4719563
-37.508366,0.7340729,2.0276446
-37.581387,0.7322366,2.047329
-37.624775,0.75139,2.0888562
-37.73002,0.776804,2.159172
-37.78561,0.78755474,2.192624
-37.852634,0.79070354,2.218608
-37.572933,1.1603029,2.6790662
-37.414116,1.306231,2.8455815
-37.456066,1.3220985,2.8833656
-37.425743,1.3834801,2.9657393
-37.480446,1.3909221,2.9953976
-37.42136,1.4688997,3.0934706
-37.463123,1.4838953,3.1304913
-37.416653,1.5524974,3.2189412
-37.56984,1.4998984,3.1916718
-37.604103,1.5194724,3.2335477
-37.635757,1.5405095,3.2769065
-37.681133,1.5533915,3.312725
-37.726326,1.5664172,3.348856
-37.7792,1.5750568,3.3811102
-37.850925,1.5730541,3.4038143
-37.93936,1.561903,3.4185176
-37.99689,1.5685539,3.449841
-38.104767,1.5473819,3.4563394
-38.158302,1.5567954,3.4908357
-38.24157,1.5500877,3.5112271
-38.35413,1.5279284,3.5184011
-38.392147,1.5464344,3.5619063
-38.437244,1.5611391,3.6022406
-38.72578,1.4475543,3.5317717
-38.87351,1.4098191,3.528276
-39.02179,1.3727582,3.5262437
-38.86441,1.4936001,3.6586528
-38.84603,1.5418973,3.7289977
-38.89383,1.5562713,3.7708688
-38.95316,1.5649335,3.8082457
-39.0132,1.5734022,3.8457642
-39.088314,1.5746222,3.8777094
-39.153225,1.581106,3.9143066
-39.224834,1.5845561,3.948832
-39.317722,1.5780754,3.9759145
-39.37728,1.5878503,4.016267
-40.660267,1.0220206,3.6109838
-40.658794,1.0655625,3.6822886
-40.65411,1.110209,3.7542977
-40.65486,1.1519611,3.8239741
-40.654152,1.194027,3.8937688
-40.670296,1.2281404,3.9575891
-40.681576,1.2642093,4.0228343
-40.689705,1.3014209,4.088865
-40.700825,1.3370483,4.1537156
-40.93837,1.2739084,4.149232
-41.16605,1.2164962,4.1504064
-41.39708,1.1590388,4.153172
-41.676857,1.0823128,4.1445875
-41.968246,1.0024464,4.1359553
-42.193443,0.9519594,4.1487627
-42.506233,0.8666134,4.140647
-42.825397,0.78058743,4.1344366
-43.172577,0.6851461,4.1247163
-43.552467,0.57868505,4.1108255
-21.15385,0.9523914,2.801178
-21.236383,0.953856,2.7740073
-21.360704,0.97939277,2.7697916
-21.549034,1.0423772,2.801526
-21.648743,1.0555897,2.7871394
-21.813623,1.1073623,2.8100128
-21.93193,1.1329694,2.8087072
-22.047485,1.1577113,2.8071804
-22.197174,1.2036524,2.8267899
-22.296427,1.2202287,2.8185925
-22.393864,1.2362888,2.810379
-22.529604,1.2765162,2.826428
-22.628523,1.2948825,2.82156
-22.748837,1.3272846,2.8311248
-22.849213,1.3479414,2.829568
-22.95515,1.3728056,2.8327198
-23.04811,1.3900318,2.8286915
-23.134882,1.4038198,2.8216205
-23.49869,1.600106,3.000586
-23.650196,1.6595721,3.0417962
-23.728508,1.6714163,3.034924
-23.782185,1.667083,3.011736
-23.985065,1.7646666,3.0942135
-24.059256,1.7757418,3.0878806
-24.136045,1.7890687,3.0842247
-24.206966,1.7987621,3.0771046
-24.288147,1.8161395,3.0783687
-24.367615,1.8328516,3.0792933
-24.44883,1.8513741,3.082489
-24.516,1.8602371,3.0757751
-24.589788,1.8743658,3.0749607
-24.65789,1.8847611,3.070465
-24.732498,1.9004622,3.0719562
-24.805464,1.9154437,3.0729904
-24.874157,1.9276617,3.071343
-24.925476,1.9268909,3.0558796
-24.977427,1.9268055,3.0413494
-25.003994,1.9068878,3.0053368
-25.016027,1.8751788,2.9564486
-25.034344,1.8480887,2.9126081
-25.056278,1.823592,2.871633
-25.113358,1.8276968,2.862327
-25.188524,1.8471184,2.8702312
-25.249609,1.85533,2.8659658
-25.312366,1.8653357,2.8639355
-25.368773,1.8703098,2.8565125
-25.443932,1.8918374,2.8678784
-25.568224,1.9570503,2.9287214
-25.643354,1.98035,2.9428263
-24.817366,1.1980944,2.0456462
-24.90997,1.2298174,2.0675306
-24.9323,1.198205,2.0177488
-24.935413,1.1483493,1.9471688
-24.944555,1.1032455,1.8819265
-24.897932,1.004643,1.7553115
-24.859262,0.911644,1.6347761
-24.913708,0.90678835,1.6154213
-24.968752,0.90264034,1.5970478
-25.065739,0.94011784,1.6269965
-25.50415,1.3203578,2.054738
-25.565712,1.3282127,2.051907
-26.360683,2.0877426,2.9246407
-26.400164,2.082459,2.9087715
-26.435493,2.0728676,2.8879757
-26.513214,2.1082253,2.9199476
-26.552546,2.103366,2.9049978
-26.585281,2.0913835,2.8817778
-26.62985,2.0923085,2.8738513
-26.685398,2.1056702,2.880753
-26.733223,2.1108205,2.8781266
-26.78534,2.12118,2.8818302
-26.83626,2.1305904,2.8845787
-26.888897,2.142428,2.8903818
-26.93415,2.1459646,2.886465
-26.982128,2.1530428,2.8869143
-27.037384,2.16936,2.898569
-27.08403,2.1756299,2.8983703
-27.1278,2.1786282,2.8943887
-27.171932,2.1823325,2.8913865
-27.21508,2.1850276,2.887299
-27.256828,2.1861339,2.8814216
-27.305458,2.1965594,2.8869228
-27.34488,2.195052,2.878138
-27.37331,2.1786587,2.8514214
-27.395346,2.1530735,2.8136034
-27.354006,2.0377638,2.6667638
-27.326172,1.9383945,2.5390363
-27.33545,1.8899281,2.4731236
-27.275213,1.737793,2.2806463
-27.308283,1.7205429,2.2526245
-27.33126,1.6875896,2.2054515
-27.334362,1.6230559,2.1196003
-27.34014,1.5607808,2.0364385
-27.253954,1.3499115,1.7706828
-27.404058,1.5153899,1.9672642
-27.451782,1.5178096,1.9636817
-27.477295,1.4832087,1.9145932
-27.469635,1.308778,1.6864629
-27.474928,1.2332222,1.5866442
-27.471094,1.1385958,1.4631314
-37.45854,0.7687876,1.9677854
-37.52117,0.7743149,1.9946656
-37.566856,0.7918401,2.034319
-37.60238,0.816339,2.081367
-37.6596,0.8257947,2.112903
-37.718132,0.8344619,2.1438327
-38.299248,0.74147797,2.1882935
-37.44798,1.330533,2.8023038
-37.448254,1.3728697,2.8665113
-37.414814,1.4357357,2.9509544
-37.443058,1.4595871,2.9965992
-37.426178,1.510917,3.069271
-37.471786,1.5236435,3.1040363
-37.45362,1.5747716,3.176271
-37.5717,1.5440164,3.1691732
-37.59051,1.5727308,3.2198448
-37.62365,1.5928061,3.2622685
-37.66118,1.6102448,3.3022852
-37.703945,1.6246305,3.3395443
-37.77329,1.6238825,3.362751
-37.81813,1.637259,3.399477
-37.900925,1.6294239,3.416696
-37.958317,1.6361003,3.4477224
-38.0565,1.6205041,3.4585967
-38.14044,1.6132247,3.4775715
-38.167927,1.6368582,3.5249505
-38.29083,1.6092663,3.5263672
-38.36934,1.6060097,3.550202
-38.422546,1.6164145,3.586555
-38.660393,1.530643,3.5385156
-38.854176,1.4694517,3.5134273
-38.930515,1.4698124,3.5428987
-39.09906,1.423646,3.532732
-38.831352,1.598228,3.7120867
-38.873257,1.615567,3.7563
-38.937588,1.6218214,3.791378
-38.99002,1.6341114,3.831818
-39.046497,1.6445346,3.8709683
-39.116398,1.648624,3.9052138
-39.197304,1.6477053,3.935773
-39.275646,1.6483374,3.96804
-39.34882,1.6517084,4.0029345
-40.612507,1.1015196,3.6011915
-40.641052,1.1308374,3.661448
-40.654453,1.1669433,3.7270417
-40.668205,1.2026379,3.7922955
-40.67534,1.2410569,3.8595943
-40.67144,1.284097,3.930293
-40.66605,1.3274214,4.001056
-40.68378,1.360254,4.0639663
-40.69487,1.3957734,4.1288404
-40.797386,1.3917499,4.1653576
-41.07987,1.311496,4.1485925
-41.351788,1.2374995,4.138222
-41.54171,1.1995285,4.1546516
-41.8965,1.0942161,4.1265883
-42.151314,1.0322988,4.1302705
-42.35742,0.99175835,4.1499557
-42.738693,0.88159037,4.1257114
-43.058945,0.7982578,4.12158
-43.43897,0.6931362,4.1060696
-43.753036,0.6163051,4.111069
-44.117954,0.52150154,4.107447
-20.938063,1.0308311,2.8742566
-21.023838,1.0328681,2.8469362
-21.079124,1.0186415,2.8047943
-21.184849,1.0322607,2.7891378
-21.35226,1.080729,2.8070817
-21.461967,1.0980511,2.796226
-21.648493,1.1594632,2.8282485
-21.75254,1.1752274,2.817244
-21.882038,1.2062509,2.8215709
-21.994709,1.2283661,2.8178806
-22.116264,1.2564003,2.8205671
-22.221958,1.2758567,2.815415
-22.344906,1.306273,2.8216534
-22.458946,1.3321726,2.8240156
-22.571014,1.3576384,2.8265138
-22.667553,1.3743224,2.8207302
-22.795294,1.4109318,2.835555
-22.897017,1.4322278,2.8354669
-22.981272,1.4431682,2.8252978
-23.084515,1.4666822,2.8284059
-23.163084,1.4750357,2.8163948
-23.603233,1.7185402,3.0479589
-23.755074,1.7779698,3.0907464
-23.81263,1.7764041,3.0706758
-23.86802,1.7736039,3.0495424
-24.020632,1.8365309,3.0977602
-24.08046,1.8377535,3.081584
-24.158602,1.8518174,3.0792627
-24.24279,1.8705783,3.082285
-24.321733,1.8862576,3.0823908
-24.394121,1.8978338,3.078443
-24.471104,1.913141,3.0788193
-24.551214,1.9312265,3.082528
-24.623478,1.944175,3.081017
-24.694803,1.9569073,3.0795755
-24.761833,1.9669187,3.0754614
-24.83266,1.9801927,3.0751948
-24.877981,1.9746232,3.054512
-24.947113,1.987371,3.0541787
-24.979937,1.9725251,3.0236053
-25.006474,1.9526775,2.987564
-25.032675,1.9323666,2.9510574
-25.027094,1.8865235,2.8860898
-25.07774,1.8852077,2.8708649
-25.145458,1.8979592,2.871616
-25.208511,1.9073503,2.868847
-25.275726,1.9205997,2.870677
-25.335234,1.927866,2.8659906
-25.403791,1.9431629,2.8706484
-25.50741,1.9890416,2.9104114
-25.579906,2.009142,2.9211779
-25.655006,2.0321522,2.935566
-24.861542,1.2869847,2.0681634
-24.898308,1.268688,2.0333347
-24.92539,1.2414536,1.9882717
-24.93547,1.1982918,1.9248128
-24.924948,1.1353347,1.8383374
-24.862904,1.023,1.6942916
-26.056583,2.0962176,2.9313846
-25.093338,1.1305196,1.792933
-25.127325,1.1078737,1.7535157
-25.166649,1.0901573,1.719943
-25.443832,1.3078132,1.963242
-25.550995,1.3604534,2.013363
-26.364496,2.1306448,2.9113536
-26.39596,2.1171377,2.8858337
-26.452427,2.1294422,2.890995
-26.521172,2.1551213,2.9122453
-26.552671,2.1419888,2.8875356
-26.600258,2.146029,2.8833866
-26.647736,2.1502237,2.8795705
-26.696102,2.1556797,2.8774152
-26.748808,2.1662934,2.8816
-26.799313,2.1748598,2.8834977
-26.849138,2.1830366,2.8850894
-26.898777,2.1913788,2.8870392
-26.950607,2.202688,2.8927321
-26.997482,2.2085557,2.892006
-27.04375,2.2140107,2.8909235
-27.0885,2.217921,2.888105
-27.138151,2.2281895,2.893155
-27.182629,2.232391,2.8909683
-27.226551,2.2361639,2.888389
-27.266417,2.2349524,2.879846
-27.313215,2.2429748,2.8827167
-27.347403,2.234588,2.8656073
-27.379179,2.2228537,2.84447
-27.378134,2.1659102,2.767806
-27.359985,2.0836046,2.65982
-27.38162,2.0551949,2.6181269
-27.306177,1.8867483,2.4035234
-27.279842,1.7847989,2.270699
-27.311663,1.7659063,2.2404952
-27.330326,1.7267973,2.1852846
-27.336412,1.6673696,2.1048484
-27.316282,1.5654328,1.9715133
-27.244236,1.3782754,1.7319407
-27.41137,1.5691643,1.9629278
-27.44433,1.547576,1.9295688
-27.468128,1.3499746,1.6635876
-27.475052,1.2779026,1.5670314
-27.473763,1.1886847,1.4489021
-37.424255,0.80076814,1.892385
-37.50106,0.7964897,1.90839
-37.497425,0.84863377,1.98487
-37.496475,0.8982136,2.0584779
-37.562763,0.9011569,2.082611
-37.599106,0.92460656,2.1286125
-38.083305,0.84413075,2.155847
-37.355827,1.3573537,2.7064753
-37.48653,1.317213,2.6866832
-37.48316,1.3623097,2.7543378
-37.39675,1.4585326,2.87367
-37.4081,1.4929757,2.9300594
-37.435547,1.5172186,2.9761672
-37.472504,1.535528,3.0164027
-37.47407,1.5750046,3.0777888
-37.48501,1.6084671,3.1331282
-37.5517,1.6087434,3.1557803
-37.582012,1.630522,3.1997738
-37.61278,1.6519163,3.2434707
-37.65027,1.6693463,3.283414
-37.6875,1.6868794,3.3235803
-37.752876,1.6885295,3.3486748
-37.803192,1.6988277,3.3822994
-37.884396,1.6921365,3.4000664
