x,y,z
-31.236238,3.1664093,2.8629417
-31.269764,3.1672,2.865744
-31.302454,3.1701195,2.8720746
-31.337263,3.1680276,2.8702579
-31.371923,3.1665401,2.8694806
-31.40847,3.1610792,2.8622627
-31.44447,3.1572459,2.8577595
-31.480825,3.153007,2.8526473
-31.517307,3.1488707,2.8477578
-31.557945,3.1367426,2.8298922
-31.604048,3.1146336,2.7958255
-44.744873,0.68818665,0.6114187
-44.839424,0.7103064,0.67297363
-44.74739,0.79875016,0.81986475
-44.689476,0.8740988,0.9495115
-44.715794,0.9193876,1.0406351
-44.687138,0.98329234,1.1552615
-44.621407,1.0591383,1.284625
-44.62666,1.1102803,1.382729
-44.63022,1.161623,1.4809952
-44.590424,1.2784417,1.6945744
-44.607475,1.3242028,1.7856336
-44.595192,1.3790312,1.887651
-44.68614,1.400986,1.9499369
-44.719215,1.4411917,2.03439
-45.847557,1.3050272,2.0276995
-45.87574,1.3494401,2.119915
-44.778805,1.7203033,2.5857072
-44.779827,1.768475,2.6792736
-44.573196,1.875252,2.8387184
-44.629387,1.9066763,2.9128332
-44.67497,1.941114,2.9904928
-44.702454,1.9805157,3.0737472
-44.728424,2.02022,3.157384
-44.8385,2.0373106,3.2167392
-44.88494,2.0716481,3.2949963
-44.986984,2.0914862,3.3581333
-45.14499,2.097257,3.4070854
-45.312363,2.1013622,3.4551477
-45.542778,2.090369,3.4886932
-45.7857,2.0774288,3.521553
-46.16211,2.0329278,3.5243278
-45.94858,2.1336062,3.6721811
-46.08539,2.148793,3.7355676
-46.20014,2.1697752,3.8052635
-46.3089,2.1926029,3.8773298
-46.442135,2.210195,3.945115
-46.607613,2.2210026,4.0074363
-47.85544,1.9894106,3.851767
-47.87001,2.0383508,3.953526
-47.889618,2.0860264,4.054176
-47.961437,2.1223083,4.1450796
-48.54811,2.0491369,4.1441603
-49.29792,1.9448631,4.121494
-49.9197,1.8711967,4.128749
-50.758263,1.7565684,4.1078353
-51.517933,1.6623807,4.1086683
-52.420494,1.5438879,4.096509
-53.311947,1.4324336,4.096074
-54.46065,1.2761166,4.069892
-3.7607784,1.0600145,3.7915082
-3.3379345,0.9061158,3.5787683
-3.837946,0.85186625,3.347169
-3.9558163,0.8003495,3.213811
-3.987358,0.73192096,3.0669932
-4.0073395,0.6610105,2.918147
-4.027399,0.58990693,2.7691402
-4.042717,0.51760054,2.619071
-4.0725613,0.4481194,2.471519
-4.0803833,0.3737433,2.3195405
-4.069168,0.29492164,2.1633415
-4.0801716,0.22057271,2.0111656
-9.5225315,0.27126622,0.8688755
-9.817762,0.2863698,0.83328676
-10.108854,0.3018198,0.7994814
-10.320835,0.29614472,0.74205065
-10.519045,0.28746724,0.6819792
-10.844551,0.31693935,0.66851854
-12.502659,0.7426574,1.1351242
-12.728863,0.75045323,1.1014853
-12.935602,0.6942239,0.94862556
-13.37488,0.770607,1.0023236
-13.995796,0.9065342,1.1322598
-14.281405,0.9401946,1.1366487
-14.523518,0.961534,1.1267014
-14.791604,0.99260044,1.1301079
-15.032401,1.0162432,1.125155
-15.276067,1.042165,1.1241097
-15.536585,1.075089,1.133091
-15.725421,1.0852516,1.1136084
-15.955708,1.1105764,1.1146231
-16.168797,1.1312511,1.1104541
-16.350117,1.1419995,1.0940475
-16.38781,1.1029384,1.0124512
-16.459621,1.0759268,0.9469228
-16.677418,1.1017487,0.95210934
-16.817684,1.100524,0.92186165
-16.93142,1.0901682,0.8798108
-17.599258,1.2868776,1.1180677
-17.649311,1.2556396,1.0495644
-17.633389,1.1992373,0.94687176
-17.651932,1.1555276,0.8613863
-17.496834,1.0439568,0.6826587
-17.480934,0.9853697,0.5762615
-17.576105,0.9703052,0.52993345
-17.44888,0.86624384,0.3602667
-17.490211,0.8290088,0.283144
-24.541172,2.844101,2.7285218
-24.705046,2.9025857,2.807622
-24.851528,2.952724,2.8745556
-24.89659,2.9459062,2.8553896
-24.982214,2.9627843,2.872386
-25.043482,2.965984,2.8687515
-25.105259,2.9698155,2.866228
-25.165503,2.9730701,2.8629699
-25.217548,2.971675,2.852725
-25.268864,2.9700534,2.842247
-25.323418,2.9706576,2.8353052
-25.375895,2.9702225,2.8268843
-25.420479,2.9650164,2.8112125
-25.472187,2.9645135,2.8029017
-25.543695,2.977092,2.81496
-25.599548,2.9799235,2.8120732
-25.65461,2.9825356,2.808969
-25.710148,2.985765,2.8069463
-25.767391,2.9904618,2.8073306
-25.821968,2.9936686,2.8055167
-25.879444,2.9991992,2.8074508
-25.930628,3.0006642,2.8031483
-25.98169,3.0023057,2.7992306
-26.03562,3.0062761,2.7990708
-26.086405,3.0082765,2.7959294
-26.138826,3.0117528,2.7952147
-26.192835,3.0167167,2.7969522
-26.246645,3.0218723,2.7991047
-26.299109,3.0263414,2.8002853
-26.348545,3.028796,2.7983866
-26.400663,3.0336235,2.800344
-26.447561,3.0346506,2.7963815
-26.493805,3.035388,2.7920504
-26.542147,3.0380588,2.7908788
-26.593065,3.0431247,2.7936106
-26.640024,3.045229,2.7917266
-26.687391,3.0479388,2.790897
-26.737263,3.053059,2.7940059
-26.784327,3.0560892,2.79387
-26.830729,3.0588207,2.7933464
-26.876997,3.0617049,2.7931533
-26.921604,3.0633726,2.7910962
-26.966606,3.0656407,2.790082
-27.013968,3.0703473,2.793067
-27.065083,3.0788918,2.8023095
-27.1101,3.082077,2.8030272
-27.153532,3.0840209,2.8018255
-27.194475,3.083783,2.797184
-27.23724,3.085529,2.7958136
-27.281294,3.0888083,2.7969923
-27.32291,3.0898914,2.7946987
-27.365347,3.0920393,2.794199
-27.407671,3.0943196,2.7939854
-27.45121,3.0981438,2.7963457
-27.491098,3.0983307,2.792883
-27.53265,3.1005287,2.7927494
-27.574945,3.103803,2.794433
-27.616264,3.1062584,2.7948565
-27.6583,3.1097927,2.7971048
-27.699377,3.112503,2.7980814
-27.738716,3.1134245,2.7962112
-27.77798,3.114463,2.7945948
-27.817558,3.116098,2.794014
-27.857433,3.1183321,2.7944746
-27.897968,3.1216505,2.7967696
-27.936115,3.1221902,2.7945886
-27.974567,3.1233258,2.7934403
-28.013676,3.1255434,2.7941227
-28.051964,3.126905,2.7934637
-28.090878,3.1293511,2.7946424
-28.130383,3.1328878,2.7976694
-28.169416,3.1360538,2.8001494
-28.206985,3.137375,2.7996616
-28.243814,3.1378224,2.7977948
-28.280266,3.1378822,2.7953458
-28.31699,3.1385365,2.7939272
-28.353657,3.139294,2.7927332
-28.391186,3.141636,2.7942019
-28.428017,3.1430964,2.7942743
-28.465069,3.145156,2.7953877
-28.501741,3.1468244,2.7959104
-28.538052,3.148099,2.795837
-28.572624,3.1464877,2.7910547
-28.608288,3.1469634,2.789765
-28.644703,3.1490343,2.7911606
-28.681557,3.1522064,2.7944274
-28.718046,3.1549826,2.7970939
-28.753439,3.155855,2.7966657
-28.789265,3.1578288,2.7981086
-28.825487,3.160906,2.8014278
-28.860678,3.1620717,2.8016343
-28.895588,3.1628299,2.8012152
-28.930668,3.164186,2.8018355
-28.966753,3.1681612,2.8068438
-29.002094,3.170721,2.8095574
-29.036139,3.1703424,2.8074474
-29.06997,3.1695478,2.8046927
-29.10474,3.171376,2.806336
-29.138527,3.1707609,2.8039718
-29.17319,3.1727743,2.806015
-29.208296,3.1764042,2.810792
-29.2423,3.1770792,2.810707
-29.275948,3.1768248,2.8091245
-29.309887,3.1776776,2.8094268
-29.34349,3.1776006,2.808228
-29.37736,3.1786315,2.808916
-29.411184,3.1797514,2.8097978
-29.445354,3.1824937,2.8134217
-29.47944,3.185326,2.8172421
-29.51274,3.18518,2.8161516
-29.545914,3.184608,2.8143964
-29.579298,3.1851466,2.8145318
-29.612358,3.1842346,2.8122969
-29.645334,3.1828954,2.8093934
-29.678936,3.1852307,2.8126516
-29.71231,3.186628,2.8143911
-29.74549,3.1870856,2.81461
-29.778374,3.1855745,2.811592
-29.811533,3.1862028,2.8121805
-29.84484,3.188458,2.8155231
-29.877882,3.1887438,2.815627
-29.910778,3.187573,2.8133464
-29.94381,3.1880286,2.8138185
-29.976664,3.1859984,2.8101902
-30.009613,3.1850808,2.8084593
-30.042799,3.1899064,2.8163424
-30.075827,3.1932743,2.8218393
-30.108755,3.1956978,2.8258047
-30.141615,3.195634,2.825667
-30.174477,3.1956544,2.8257113
-30.207306,3.1973028,2.8285117
-30.240112,3.198521,2.8306375
-30.272982,3.1977663,2.829516
-30.3059,3.1965816,2.8277216
-30.338745,3.1970243,2.828682
-30.371706,3.1960096,2.8272543
-30.404696,3.1950796,2.8260121
-30.437445,3.1968036,2.8292346
-30.470337,3.1970716,2.8300724
-30.503294,3.1969101,2.8302374
-30.536549,3.1947796,2.827166
-30.570017,3.1917095,2.8225732
-30.602898,3.1928315,2.825005
-30.63594,3.193012,2.825913
-30.668798,3.194303,2.8287115
-30.701942,3.1941419,2.8291354
-30.735102,3.1940665,2.8297458
-30.768047,3.1951005,2.8322458
-30.801102,3.1957083,2.8340783
-30.833776,3.1979349,2.8386483
-30.867075,3.1976912,2.8391519
-30.90081,3.196003,2.837297
-30.934458,3.1949146,2.836484
-30.967846,3.1949337,2.8375578
-31.000628,3.1970775,2.842206
-31.033539,3.1987967,2.846191
-31.066767,3.1995847,2.848672
-31.100866,3.1979184,2.8471231
-31.134666,3.1973588,2.847457
-31.168129,3.1979034,2.849668
-31.201986,3.1975224,2.85039
-31.236668,3.195207,2.847949
-31.271225,3.1934917,2.84655
-31.304794,3.1943948,2.8495398
-31.339233,3.1933687,2.8493776
-31.374836,3.189916,2.845244
-31.411228,3.1850524,2.8388252
-31.44753,3.1807947,2.8334618
-31.482761,3.1791506,2.8324752
-31.519537,3.1745934,2.8267207
-31.564255,3.1546142,2.7955227
-31.608444,3.136783,2.7679486
-44.723335,0.7309067,0.4719348
-44.67548,0.8039334,0.6003561
-44.73871,0.8370726,0.67581844
-44.71216,0.90147686,0.7925072
-44.659286,0.9742968,0.91996527
-44.68201,1.0205622,1.0125418
-44.63656,1.0895288,1.134481
-44.65322,1.1370621,1.2285166
-44.64269,1.1932716,1.3336267
-44.678123,1.2340322,1.4189091
-44.61276,1.3585658,1.6437907
-44.60577,1.4118237,1.744566
-44.580025,1.4705126,1.8519578
-44.6099,1.511524,1.9372663
-44.705734,1.5822484,2.0942202
-46.040817,1.3945491,2.0191288
-46.095314,1.4317939,2.1034927
-46.134598,1.47334,2.1930566
-44.7654,1.9061689,2.7364511
-44.625603,1.9921565,2.8736358
-44.66287,2.0289006,2.9538193
-44.707935,2.063507,3.0316882
-44.7237,2.105886,3.1184154
-44.785397,2.1360683,3.1915917
-44.845737,2.1667216,3.2655306
-44.938385,2.1892345,3.3308468
-45.079494,2.1998365,3.3837461
-45.245876,2.2047586,3.4312935
-45.449924,2.2011836,3.4707308
-45.74374,2.1767898,3.4895277
-45.99361,2.1644897,3.5224266
-45.951054,2.2227538,3.6286392
-46.05567,2.2460809,3.6993303
-46.14476,2.2733803,3.774508
-46.254425,2.296282,3.8458242
-46.38191,2.3155918,3.9142513
-46.5359,2.3295388,3.9782715
-47.81214,2.098341,3.812995
-47.868855,2.1379635,3.906124
-47.890392,2.185175,4.006422
-47.91124,2.2324204,4.1067967
-48.420116,2.1783483,4.1182337
-49.177914,2.0760827,4.091452
-49.623928,2.0408034,4.126359
-50.396744,1.9428871,4.112358
-51.15638,1.8517214,4.1091275
-52.024063,1.7437665,4.0978594
-52.95152,1.629101,4.087513
-53.760727,1.5415735,4.1042895
-54.922905,1.3931613,4.082147
-3.7878304,1.2885001,3.8752422
-3.770525,1.2118349,3.7214303
-3.347395,1.0605142,3.5074778
-3.7723312,1.0641387,3.4177485
-3.8748646,1.009038,3.2814884
-3.9723873,0.95325994,3.1452198
-4.008751,0.88584733,2.9993014
-4.011303,0.81166315,2.8474617
-4.0255623,0.7395196,2.6973696
-4.0418415,0.6675451,2.5474005
-4.119814,0.6080322,2.4091187
-4.073744,0.52274084,2.246582
-4.172823,0.46756077,2.1128268
-4.102249,0.37620068,1.9439454
-4.1295986,0.30536914,1.7949953
-4.109329,0.22383165,1.6352425
-7.6319923,0.3147056,1.0508375
-7.8169193,0.29104447,0.9644909
-7.895033,0.24066305,0.8481984
-8.648096,0.3661561,0.93655014
-9.071749,0.34149098,0.79862595
-9.188173,0.30482054,0.70208263
-9.277479,0.26107454,0.5974989
-9.491224,0.25190878,0.53503704
-11.771795,0.8222203,1.1792288
-12.060274,0.8430245,1.1603303
-12.3554325,0.8672712,1.1469502
-12.689863,0.90448713,1.1509814
-13.006182,0.93825245,1.1521559
-13.301788,0.9676268,1.1491628
-13.586721,0.9954252,1.1454296
-13.88168,1.0278306,1.1487675
-14.069332,1.0289388,1.113205
-14.277276,1.0372579,1.0876808
-14.335446,0.9996023,1.0033584
-14.638838,1.0398335,1.0207429
-14.672565,0.9952097,0.92812777
-14.91575,1.0184424,0.92496014
-15.067817,1.0130951,0.88489294
-15.361563,1.0554833,0.90890074
-15.71269,1.1188748,0.9621396
-16.029293,1.1727281,1.0039482
-16.415642,1.2524626,1.0819154
-16.036125,1.0689478,0.80448866
-16.190933,1.0695584,0.77612066
-16.402092,1.0908978,0.7766366
-16.576733,1.1003337,0.76156425
-16.71268,1.0966623,0.72902346
-17.643688,1.3848577,1.101027
-17.79408,1.3909314,1.084506
-17.674934,1.2968907,0.9287958
-17.625431,1.2277994,0.80746746
-17.474495,1.1190691,0.63012886
-17.6241,1.1247995,0.6135926
-17.670704,1.0910575,0.54165125
-17.435791,0.94607186,0.3117447
-17.478825,0.909534,0.23544455
-24.653252,2.9491427,2.801299
-24.737402,2.9630315,2.813891
-24.800255,2.9655573,2.8091464
-24.874699,2.9749846,2.815228
-24.940578,2.9799821,2.8146253
-25.00624,2.9852312,2.814568
-25.083885,2.9978833,2.826182
-25.15036,3.0044622,2.8285217
-25.205875,3.0048847,2.8214054
-25.264603,3.0075176,2.8178668
-25.331749,3.015622,2.8230267
-25.382881,3.014242,2.813465
-25.436546,3.0146706,2.8068485
-25.491394,3.0161066,2.8019314
-25.551247,3.0210257,2.8026195
-25.608978,3.024928,2.8018327
-25.661467,3.0257273,2.7962646
-25.715721,3.0279572,2.793069
-25.772947,3.0324671,2.7935991
-25.826267,3.0346704,2.7905884
-25.884964,3.0408466,2.7940025
-25.937344,3.043017,2.7911625
-25.98958,3.0453696,2.7887197
-26.04227,3.0483294,2.7873497
-26.091244,3.048913,2.782288
-26.14777,3.0552304,2.7864943
-26.198221,3.0574534,2.7842565
-26.253748,3.0637317,2.788621
-26.306173,3.0680442,2.7899404
-26.355,3.0699346,2.787468
-26.404263,3.0724258,2.786055
-26.453386,3.075084,2.7850041
-26.502365,3.0779083,2.7843132
-26.552845,3.082218,2.7861133
-26.600967,3.0849354,2.7854342
-26.64841,3.0873706,2.784388
-26.697853,3.0917413,2.786563
-26.745531,3.0949428,2.7869334
-26.791487,3.0969625,2.7854724
-26.838358,3.1000292,2.7857938
-26.884056,3.1023514,2.784988
-26.931149,3.1061752,2.7867079
-26.97607,3.1083462,2.785818
-27.021366,3.111116,2.7859817
-27.068491,3.1158514,2.789435
-27.113005,3.118463,2.7895002
-27.155945,3.1198459,2.7876315
-27.198307,3.1209056,2.7853045
-27.24199,3.1234756,2.7855234
-27.284147,3.124802,2.7837758
-27.32529,3.1253357,2.780795
-27.367718,3.1273844,2.7803693
-27.411829,3.1314225,2.7832847
-27.45578,3.135602,2.7865052
-27.498257,3.138522,2.787725
-27.53801,3.1387663,2.7846065
-27.57855,3.1400683,2.7832913
-27.620264,3.142903,2.7845702
-27.66102,3.144924,2.7845712
-27.70085,3.1461241,2.78328
-27.741,3.1479173,2.783031
-27.781048,3.1498308,2.783042
-27.820604,3.1513894,2.7825274
-27.860067,3.1530657,2.7822685
-27.900583,3.1562908,2.784637
-27.939465,3.157726,2.7840977
-27.97863,3.159754,2.7846022
-28.018427,3.1628587,2.7869525
-28.056662,3.164158,2.7863631
-28.095524,3.1665325,2.7876167
-28.13428,3.1690211,2.7891188
-28.172928,3.1716232,2.7908678
-28.209448,3.1714313,2.7880173
-28.246258,3.171827,2.7861986
-28.283337,3.172813,2.7854161
-28.31971,3.1729305,2.7832365
-28.35635,3.1736372,2.7820916
-28.393852,3.1759129,2.7836185
-28.430655,3.1773164,2.783742
-28.467382,3.1788244,2.784092
-28.504034,3.1804357,2.7846646
-28.540892,3.1826417,2.786284
-28.57543,3.1810122,2.7815332
-28.610239,3.1799674,2.7778087
-28.646372,3.1814864,2.7784247
-28.683475,3.1850839,2.7825737
-28.720459,3.1887867,2.786952
-28.756071,3.1901147,2.7873979
-28.791862,3.1920369,2.788889
-28.826862,3.1925664,2.7880898
-28.862278,3.1941864,2.7891688
-28.8974,3.1954048,2.78962
-28.932243,3.1962202,2.7894406
-28.967249,3.1976285,2.7903037
-29.001986,3.1986318,2.7905316
-29.036469,3.1992276,2.790121
-29.071299,3.200918,2.7915955
-29.106064,3.202702,2.793274
-29.140026,3.2025723,2.7917752
-29.174498,3.204039,2.7930083
-29.209082,3.2061007,2.795289
-29.243097,3.2067459,2.795227
-29.276915,3.206977,2.7945108
-29.311012,3.2083044,2.7956862
-29.344614,3.2082095,2.794506
-29.378338,3.2087069,2.7943683
-29.412169,3.209798,2.7952743
-29.44634,3.2124956,2.7989316
-29.48043,3.2152832,2.8027854
-29.513733,3.2151237,2.8017101
-29.54658,3.2130241,2.7974014
-29.579985,3.2135437,2.7975545
-29.613462,3.214657,2.7987504
-29.646713,3.2148423,2.7984228
-29.680035,3.2156212,2.7991395
-29.713406,3.2169955,2.8009014
-29.746433,3.2164237,2.7994184
-29.779394,3.215429,2.7972617
-29.81262,3.2165523,2.7987237
-29.845867,3.2182703,2.8012323
-29.878963,3.219057,2.8022075
-29.911856,3.217894,2.7999291
-29.944845,3.2178335,2.7995543
-29.977736,3.2163303,2.796782
-30.01076,3.2169483,2.797635
-30.043863,3.2201967,2.8029742
-30.076887,3.2235305,2.8084984
-30.109804,3.2254212,2.8116255
-30.142666,3.2248514,2.8106322
-30.17554,3.2243655,2.8098226
-30.208395,3.2254915,2.811778
-30.24124,3.2261927,2.813055
-30.274136,3.2254512,2.8119335
-30.306995,3.2258127,2.812717
-30.339918,3.2252405,2.811964
-30.373022,3.2227178,2.8079543
-30.40605,3.221807,2.8067093
-30.438837,3.223524,2.809946
-30.471828,3.223292,2.809929
-30.504766,3.2236533,2.8109555
-30.537916,3.2225745,2.8095908
-30.571257,3.2205663,2.806696
-30.604235,3.2211835,2.8082776
-30.637209,3.2218852,2.8100429
-30.67008,3.2231793,2.8128486
-30.70324,3.2230372,2.8132706
-30.736845,3.2209544,2.8104572
-30.769943,3.2214913,2.8121095
-30.802801,3.223127,2.8156552
-30.835888,3.2238355,2.8176775
-30.869238,3.2236183,2.81818
-30.902609,3.2234879,2.8188715
-30.935856,3.2239501,2.8206038
-30.969109,3.2244985,2.8225226
-31.002523,3.2246296,2.8237805
-31.035305,3.2268624,2.8286219
-31.068558,3.22767,2.8311028
-31.10251,3.2265534,2.8303857
-31.13615,3.2265322,2.8315563
-31.169441,3.2276034,2.834608
-31.203499,3.2267559,2.8344746
-31.2376,3.225999,2.8345375
-31.272154,3.2243335,2.8331165
-31.306562,3.2232614,2.8327389
-31.340805,3.2227814,2.8334007
-31.376423,3.219401,2.829236
-31.413061,3.2141278,2.8219395
-31.44915,3.2104506,2.8173747
-31.48536,3.2068756,2.8130298
-31.522665,3.2014172,2.8055754
-31.56971,3.1772332,2.7667694
-31.616589,3.1546922,2.7307944
-44.686005,0.7835295,0.3413973
-44.66908,0.84548974,0.45602512
-44.690746,0.89339304,0.5513706
-44.694363,0.94724274,0.6547413
-44.740486,0.986166,0.73791647
-44.60578,1.08606,0.90291214
-44.642277,1.127357,0.98904276
-44.651844,1.1774025,1.0868416
-44.66237,1.2267962,1.1837149
-44.66064,1.2798266,1.2853093
-44.659824,1.3321624,1.3858838
-44.601345,1.4023242,1.5095329
-44.62005,1.447587,1.6006131
-44.600533,1.5044177,1.706553
-44.598007,1.555562,1.8050318
-44.598263,1.6054969,1.9018602
-44.64099,1.6424112,1.9821405
-44.67775,1.681037,2.0646715
-44.726627,1.7160442,2.142764
-46.17316,1.4550014,1.9303818
-46.068607,1.5370276,2.0692916
-44.726448,1.9584184,2.6164365
-44.769825,1.9941735,2.6956625
-44.764683,2.0429454,2.7904577
-44.623688,2.1274397,2.9271731
-44.67701,2.1598172,3.0022407
-44.670364,2.2077856,3.0955367
-44.705853,2.244667,3.1759892
-44.832333,2.2585216,3.2303634
-44.889412,2.2902226,3.3054252
-45.005142,2.3075712,3.3646984
-45.13948,2.320857,3.42003
-45.27746,2.333846,3.4756932
-45.53804,2.318359,3.5012517
-45.74884,2.3158684,3.5420904
-45.979675,2.3097825,3.580244
-46.019806,2.348336,3.6662674
-46.1041,2.3769515,3.7421837
-46.19657,2.4040182,3.8169293
-46.339287,2.4203935,3.8813949
-46.47797,2.4382546,3.9481072
-46.636547,2.4524636,4.0120125
-47.87874,2.2395225,3.8581724
-47.869507,2.2930956,3.964594
-47.90186,2.337881,4.0626698
-48.003006,2.3687592,4.148114
-48.608963,2.2996936,4.1441417
-49.335938,2.2101789,4.126008
-50.021614,2.132559,4.1229587
-50.827763,2.0357013,4.1081305
-51.67027,1.9363649,4.0966887
-52.575455,1.8299797,4.085296
-53.29213,1.7626886,4.1112113
-54.433975,1.6231055,4.0862465
-3.6548595,1.4188905,3.7823725
-3.3148708,1.2858455,3.5811696
-3.3167877,1.2112293,3.426928
-3.7955208,1.2221901,3.346527
-3.9194546,1.1706758,3.2140474
-3.9849586,1.1087191,3.0728617
-4.007763,1.0387869,2.924663
-4.002577,0.96332383,2.771325
-4.027481,0.8933654,2.6230702
-4.045698,0.82191443,2.4734063
-4.080372,0.7535355,2.326748
-4.2612095,0.7146814,2.2096114
-4.2371864,0.63438106,2.0514965
-4.1108913,0.5322497,1.8707194
-4.1344147,0.46073556,1.7209182
-4.130348,0.38308,1.5646553
-4.1560364,0.3115058,1.4147229
-5.5593147,0.39589787,1.2952538
-7.900097,0.44747782,0.923038
-8.627222,0.56024027,1.0016832
-7.997244,0.33196497,0.6739569
-8.048943,0.27486444,0.55038166
-10.451284,0.8306422,1.1751814
-10.75993,0.8487537,1.1500335
-11.137941,0.8870132,1.151207
-11.445248,0.9082234,1.1327753
-11.706156,0.9183574,1.1017513
-11.9273815,0.91883016,1.0596018
-12.000862,0.8789563,0.9669814
-12.326433,0.91069984,0.966362
-12.654776,0.94502735,0.97043324
-12.893721,0.9552107,0.94454193
-13.464495,1.0641339,1.0484428
-13.799452,1.1064625,1.0673485
-13.478088,0.95331955,0.8296504
-13.65666,0.9496374,0.78877354
-14.008575,1.0001364,0.8208256
-14.628889,1.1362443,0.96904707
-14.668837,1.0936365,0.8789506
-14.686509,1.0438128,0.77914715
-14.9834585,1.0836315,0.80129147
-15.077969,1.0592625,0.73680496
-16.022774,1.3151729,1.057519
-15.586999,1.1178937,0.756793
-16.556646,1.3902011,1.1048341
-15.786016,1.0768282,0.6417141
-16.185347,1.1599829,0.72949266
-16.345156,1.1623697,0.7054281
-16.54998,1.1813867,0.7053137
-17.650654,1.5202832,1.1582141
-17.668463,1.4286277,0.98004675
-17.737427,1.4043496,0.92169666
-17.504017,1.2678196,0.7024293
-17.459532,1.199933,0.58105326
-17.648344,1.2198219,0.58625555
-17.509289,1.1149344,0.41115236
-17.455585,1.0415387,0.28125715
-24.5505,2.9714193,2.7543764
-24.628141,2.9807115,2.7603602
-24.71316,2.994529,2.7736425
-24.77408,2.9956095,2.767077
-24.847315,3.0038764,2.7719808
-24.917498,3.0108788,2.775056
-24.983313,3.015814,2.7750196
-25.05026,3.0217838,2.7767706
-25.123703,3.0319479,2.7853303
-25.197475,3.0427978,2.7951484
-25.266901,3.0515575,2.801805
-25.320168,3.0510156,2.7937784
-25.383183,3.0566692,2.7957563
-25.444008,3.0613537,2.796319
-25.49945,3.063034,2.7921948
-25.554752,3.0649126,2.7885013
-25.60991,3.0669897,2.7852387
-25.663021,3.0680375,2.780429
-25.721031,3.0725555,2.7813153
-25.77884,3.0772848,2.7826605
-25.830875,3.0785027,2.778448
-25.888308,3.0836384,2.780674
-25.941874,3.086482,2.7793012
-25.99226,3.087424,2.7749472
-26.046722,3.0914767,2.7757397
-26.099812,3.0948813,2.7755823
-26.150963,3.0972028,2.7737641
-26.20372,3.100975,2.774403
-26.258617,3.1066353,2.778224
-26.308125,3.108645,2.776185
-26.35579,3.1095364,2.772407
-26.403912,3.111017,2.7696786
-26.45415,3.1143866,2.770131
-26.50367,3.1174943,2.7702446
-26.55413,3.1216397,2.772151
-26.601147,3.1233423,2.770131
-26.64858,3.1256378,2.7691689
-26.698545,3.1302853,2.7721643
-26.74568,3.1329021,2.7718992
-26.791628,3.1347928,2.7705154
-26.835896,3.1355047,2.767262
-26.879559,3.1359136,2.7635808
-26.923134,3.1364617,2.7602005
-26.971142,3.1411686,2.763781
-27.015486,3.1428998,2.7625089
-27.062172,3.1470199,2.7652736
-27.107716,3.1503918,2.7668748
-27.148777,3.149846,2.7620354
-27.191685,3.1512372,2.7604837
-27.23684,3.1550345,2.7630067
-27.280905,3.1580672,2.764327
-27.321613,3.1580439,2.7606215
-27.36407,3.159975,2.7602396
-27.407314,3.162956,2.7616777
-27.44776,3.1633132,2.7587972
-27.488132,3.1637921,2.7561808
-27.530159,3.1662426,2.7569256
-27.57164,3.1683593,2.757174
-27.613005,3.1706038,2.7576995
-27.653841,3.1725087,2.757719
-27.69416,3.1740708,2.7572227
-27.735193,3.1766906,2.758562
-27.774906,3.1780286,2.7578087
-27.817286,3.1827738,2.7628422
-27.852901,3.1796465,2.7546926
-27.892357,3.1813354,2.7546988
-27.928705,3.179359,2.7485867
-27.967272,3.1803257,2.7474842
-28.007223,3.1833043,2.7498302
-28.045612,3.1844993,2.7492228
-28.085337,3.1877124,2.752077
-28.121452,3.1862686,2.7471194
-28.159948,3.1882734,2.7480402
-28.198349,3.1903903,2.7492037
-28.234995,3.1902184,2.7465463
-28.272898,3.192073,2.7473693
-28.31135,3.195,2.7500606
-28.34843,3.1961079,2.749722
-28.386057,3.198288,2.7512503
-28.422379,3.198639,2.7497268
-28.458351,3.1986067,2.7476006
-28.496027,3.2015865,2.7506356
-28.53245,3.2027295,2.7506008
-28.568806,3.2039738,2.7507854
-28.604002,3.2033677,2.7478724
-28.64024,3.204811,2.7484899
-28.67484,3.20342,2.7443314
-28.709694,3.202611,2.7412071
-28.746273,3.2053292,2.7441301
-28.782509,3.2076583,2.7464395
-28.819365,3.2115633,2.7514791
-28.853548,3.210156,2.7475142
-28.88931,3.212289,2.7496266
-28.924114,3.2125468,2.7485871
-28.95845,3.2119098,2.7460632
-28.993189,3.2123528,2.7454238
-29.029701,3.2173452,2.7525935
-29.064302,3.2179782,2.7523675
-29.10019,3.222177,2.7582726
-29.135397,3.2249846,2.7618475
-29.168736,3.2229168,2.7571359
-29.201756,3.2199404,2.7509108
-29.236975,3.2235217,2.7559347
-29.270807,3.2232118,2.7543483
-29.305086,3.2244866,2.7555141
-29.339605,3.2268503,2.7585826
-29.373484,3.227308,2.7584333
-29.40733,3.2278547,2.7584767
-29.441141,3.22849,2.7587118
-29.47529,3.2307158,2.7617092
-29.50925,3.2325304,2.7640452
-29.542706,3.2324302,2.7631426
-29.576357,3.2334192,2.7641444
-29.609474,3.2319877,2.7610407
-29.64289,3.2321467,2.7607007
-29.676638,3.234402,2.7639904
-29.710398,3.2372468,2.768332
-29.744001,3.2396777,2.7720037
-29.77733,3.2406878,2.7732801
-29.810562,3.2412815,2.773882
-29.843376,3.2384393,2.7686334
-29.87635,3.2366874,2.7652917
-29.909668,3.238544,2.7681742
-29.942896,3.239982,2.7703795
-29.975986,3.2399964,2.7701812
-30.009174,3.2421098,2.7736206
-30.04219,3.2412863,2.7720647
-30.075127,3.2370222,2.764646
-30.10826,3.239391,2.768641
-30.141325,3.2388225,2.7676363
-30.174398,3.238843,2.7676802
-30.20746,3.2394516,2.7687721
-30.240526,3.2396417,2.769184
-30.27361,3.239413,2.7689166
-30.306643,3.240277,2.7705612
-30.339588,3.2422328,2.7741165
-30.372778,3.2407486,2.7718124
-30.405819,3.2413635,2.7731457
-30.43896,3.241057,2.7729383
-30.47211,3.240836,2.7729158
-30.505209,3.2412035,2.7739406
-30.53845,3.2406504,2.7734275
-30.571636,3.2406864,2.7739615
-30.604492,3.2428167,2.7781239
-30.63794,3.241517,2.7764482
-30.671333,3.2408056,2.7758198
-30.704245,3.2426898,2.7796755
-30.737122,3.244658,2.7837143
-30.770422,3.2447057,2.7845035
-30.804098,3.2433383,2.7829094
-30.837442,3.2435603,2.7840762
-30.870798,3.2438693,2.7854304
-30.904438,3.2432652,2.7852635
-30.937387,3.2452464,2.7895598
-30.97076,3.2458153,2.7914786
-31.00508,3.2434802,2.7884707
-31.038984,3.2427304,2.788216
-31.07293,3.2420707,2.7881565
-31.105515,3.2454798,2.7950902
-31.140207,3.2430093,2.792019
-31.172743,3.2465887,2.799323
-31.208107,3.242813,2.7941055
-31.241798,3.2435927,2.7967105
-31.277134,3.2405024,2.7927508
-31.312151,3.238498,2.79069
-31.345509,3.2405393,2.7955723
-31.381071,3.237736,2.7922344
-31.418104,3.2320743,2.784072
-31.455536,3.2260268,2.7753
-31.494108,3.2181218,2.7634144
-31.53167,3.2127845,2.7559543
-31.574692,3.1972616,2.7312064
-31.62251,3.173554,2.692597
-44.65887,0.8909614,0.31113052
-44.642647,0.95209813,0.42541122
-44.661606,1.0006213,0.5219364
-44.684975,1.0473514,0.6159458
-44.62232,1.1762464,0.85269547
-44.63349,1.2258055,0.950325
-44.658783,1.270469,1.041224
-44.648174,1.3264046,1.1474257
-44.66931,1.3718245,1.2392793
-44.648113,1.4302568,1.3486099
-44.624165,1.4890099,1.4581785
-44.65004,1.531987,1.5465636
-44.590332,1.6006556,1.6689506
-44.61105,1.6445193,1.7583427
-44.593323,1.6995347,1.8623209
-44.61709,1.741972,1.9497647
-44.67819,1.7734609,2.0230627
-44.722534,1.809814,2.102796
-46.017616,1.651037,2.0420256
-46.09252,1.6827297,2.119193
-46.12001,1.7271755,2.2123618
-44.7603,2.135218,2.7509918
-44.60805,2.2214968,2.8916864
-44.643703,2.258459,2.972055
-44.703938,2.2891674,3.045033
-44.696598,2.3368495,3.1383653
-44.81003,2.3544714,3.1962175
-44.853954,2.3894532,3.2748046
-44.93493,2.4155571,3.3432813
-45.089878,2.4243743,3.392323
-45.22782,2.437878,3.4474144
-45.464832,2.429099,3.4781785
-45.745655,2.4115329,3.500399
-45.89789,2.424345,3.5574164
-45.965424,2.4566288,3.636322
-46.03917,2.487722,3.7142453
-46.129646,2.5154088,3.7888947
-46.236954,2.5398207,3.8605556
-46.373608,2.5584755,3.926816
-46.561813,2.5670335,3.98352
-46.738426,2.578841,4.044527
-47.883835,2.396443,3.9144955
-47.900784,2.4443474,4.0156193
-47.925716,2.4905663,4.1151443
-48.405293,2.4491167,4.132181
-49.05885,2.3771696,4.1239843
-49.651478,2.3201146,4.133456
-50.37897,2.2413647,4.127413
-51.153343,2.158,4.1221
-52.102222,2.0476117,4.0988574
-52.995174,1.9521363,4.09447
-53.736225,1.8876767,4.121467
-54.81918,1.7689276,4.110478
-3.7946014,1.6692545,3.8903608
-3.8308334,1.6023757,3.7442865
-3.2570896,1.4325938,3.509009
-3.7395573,1.4403744,3.4274788
-3.861683,1.3878086,3.2942548
-3.9408188,1.3280396,3.1550407
-3.9693737,1.2593367,3.007791
-3.985363,1.1882093,2.8582811
-3.9985237,1.1163514,2.7080426
-4.0282116,1.0473766,2.5606322
-4.0840015,0.98325133,2.4181757
-4.0588284,0.9034169,2.2598405
-4.223387,0.8604827,2.139585
-4.0610485,0.7528372,1.9519691
-4.0882893,0.68235064,1.8029923
-4.099346,0.60834813,1.6502414
-4.115324,0.5350833,1.4982367
-4.1219044,0.4595635,1.3436947
-3.7498531,0.30247402,1.0976462
-5.523535,0.6095767,1.375463
-4.318165,0.26992273,0.9218259
-4.6658077,0.26981497,0.8546376
-7.8996944,0.6522968,1.0064683
-8.765163,0.7925072,1.1237245
-9.389139,0.8785553,1.178309
-9.7601795,0.9053607,1.1622
-10.194475,0.9500389,1.170084
-10.267693,0.905179,1.0670452
-10.73571,0.9621837,1.0935249
-11.021894,0.9743607,1.0647383
-11.272696,0.9786606,1.0270004
-11.300562,0.9245758,0.91465473
-11.930437,1.0333021,1.0145588
-11.932819,0.9738064,0.8964715
-11.967033,0.92276907,0.7894497
-12.312845,0.95904803,0.7983742
-13.467358,1.2270181,1.117981
-13.352913,1.1375761,0.96255875
-14.006418,1.2703807,1.1065392
-13.520214,1.0717998,0.80347395
-13.375416,0.9711437,0.63186646
-13.6152935,0.9849751,0.6165066
-14.60912,1.2298822,0.92033434
-14.657943,1.1900074,0.8338785
-14.809661,1.1821711,0.7920742
-14.607876,1.0634849,0.595922
-15.921646,1.426549,1.074861
-15.031093,1.0873141,0.5690808
-15.597508,1.2167213,0.7230234
-16.619816,1.5003822,1.0982552
-16.310783,1.3467813,0.85335255
-16.234749,1.2691147,0.7159753
-16.565228,1.3292291,0.7763648
-16.617126,1.2952676,0.7020879
-17.603298,1.58739,1.1003723
-17.77916,1.600743,1.0968099
-17.667858,1.5125835,0.9456663
-17.656788,1.4592931,0.84509754
-17.422615,1.3240988,0.6240611
-17.559711,1.323513,0.600543
-17.6891,1.3207088,0.5741415
-17.455193,1.1815581,0.34581137
-17.46848,1.1342134,0.25321293
-24.535545,3.0084715,2.723506
-24.609772,3.0155087,2.7265701
-24.695637,3.0292585,2.7405534
-24.757372,3.030462,2.7346063
-24.831425,3.038757,2.7401848
-24.902416,3.0458136,2.7439327
-24.974497,3.0539167,2.7495227
-25.046272,3.0623033,2.7557282
-25.114367,3.06903,2.7594037
-25.183533,3.0768008,2.764914
-25.251741,3.0844476,2.7703705
-25.315695,3.0899987,2.7725658
-25.378098,3.0950012,2.7740002
-25.430498,3.0942872,2.7662482
-25.49122,3.0989356,2.767343
-25.5498,3.1026096,2.7669659
-25.60564,3.1048908,2.7644258
-25.66132,3.107373,2.7623205
-25.71684,3.1100554,2.7606487
-25.773443,3.1137493,2.760744
-25.828,3.1164236,2.7592692
-25.883623,3.1201112,2.7595644
-25.937233,3.1227646,2.7582579
-25.98766,3.1235425,2.7539558
-26.037373,3.1240797,2.7493439
-26.094706,3.1301925,2.7540417
-26.147081,3.1331744,2.7536612
-26.196955,3.134663,2.7508988
-26.253078,3.1409473,2.7561817
-26.303785,3.1436353,2.7555933
-26.35206,3.1448042,2.7525659
-26.398521,3.1448603,2.747768
-26.446012,3.1459215,2.744721
-26.49561,3.148852,2.7448716
-26.542852,3.1502345,2.7425203
-26.592697,3.1539264,2.7441077
-26.640211,3.15606,2.7431726
-26.690796,3.160952,2.746934
-26.738537,3.1638439,2.7474284
-26.781933,3.163406,2.7424145
-26.826817,3.1644177,2.7399025
-26.872108,3.1660128,2.73844
-26.914232,3.1651134,2.732854
-26.959318,3.166993,2.7320094
-27.003286,3.168133,2.729989
-27.049612,3.171632,2.7320142
-27.094805,3.1743927,2.7328653
-27.13841,3.1759598,2.7317715
-27.180954,3.1767697,2.7294621
-27.227173,3.1813025,2.7335157
-27.269949,3.182837,2.7325635
-27.31032,3.182248,2.7280784
-27.352453,3.1835904,2.7269244
-27.394934,3.185517,2.7268229
-27.436855,3.1871204,2.7262359
-27.477358,3.1874857,2.7236052
-27.517786,3.1879733,2.721239
-27.557281,3.1876657,2.7175784
-27.59925,3.1902306,2.7188606
-27.640676,3.192464,2.7196398
-27.681578,3.1943634,2.7199068
-27.722775,3.196849,2.7212315
-27.761456,3.196679,2.718083
-27.80008,3.1966224,2.715178
-27.839424,3.1976087,2.7141085
-27.880217,3.2005765,2.7164793
-27.919748,3.2022655,2.7167192
-27.958069,3.2026663,2.714807
-27.99669,3.2036476,2.7139392
-28.034515,3.2038004,2.7117033
-28.071218,3.2026477,2.7072792
-28.111034,3.2058468,2.7103653
-28.148666,3.2063258,2.7088366
-28.187244,3.208334,2.709982
-28.225725,3.2104535,2.7113695
-28.263128,3.2112586,2.710547
-28.302383,3.2150278,2.7148695
-28.339615,3.2160492,2.7145176
-28.376158,3.2162201,2.7127485
-28.413862,3.2184079,2.7144966
-28.45058,3.219264,2.7140012
-28.487232,3.2202234,2.7137275
-28.524673,3.2227285,2.7161636
-28.560617,3.2229307,2.7146773
-28.597334,3.2246788,2.715901
-28.6329,3.2245972,2.714013
-28.668167,3.2241287,2.7114992
-28.703918,3.2247243,2.710866
-28.740366,3.226873,2.7129579
-28.776482,3.2286377,2.7144303
-28.810379,3.2261236,2.7085524
-28.847548,3.2305167,2.7146544
-28.882994,3.2316012,2.7150803
-28.917063,3.2298524,2.7106476
-28.952425,3.231126,2.7114835
-28.987309,3.2315164,2.710832
-29.02074,3.2285714,2.7044477
-29.057545,3.2340484,2.712685
-29.091337,3.2322655,2.7083917
-29.127169,3.2359748,2.7136536
-29.161459,3.2358482,2.7123094
-29.196758,3.2387652,2.716281
-29.229473,3.2343874,2.707645
-29.265306,3.2394612,2.715437
-29.300072,3.241672,2.7183046
-29.334759,3.2439752,2.721374
-29.368517,3.2434058,2.7194982
-29.402676,3.2444081,2.7203875
-29.43666,3.2450051,2.7206116
-29.470984,3.2471771,2.7236094
-29.505234,3.2494395,2.7268038
-29.538408,3.2473292,2.7224426
-29.572144,3.2477849,2.7225752
-29.60625,3.2503138,2.726347
-29.640095,3.2519395,2.7285876
-29.674059,3.254647,2.7327466
-29.707863,3.256946,2.7362347
-29.741596,3.2593336,2.7399144
-29.775192,3.2613118,2.7429194
-29.808542,3.2618842,2.7435188
-29.841244,3.257067,2.734785
-29.874409,3.2558181,2.7322917
-29.90773,3.2561488,2.7325807
-29.941113,3.2575614,2.734788
-29.974293,3.2565694,2.73285
-30.007229,3.2506788,2.7224312
-30.040648,3.2533445,2.7269287
-30.074024,3.2570941,2.7333474
-30.10722,3.2554467,2.7304158
-30.140474,3.2598655,2.738072
-30.173649,3.2608805,2.7398453
-30.20682,3.2609837,2.740069
-30.23999,3.2611725,2.740478
-30.273155,3.2614465,2.7410717
-30.306402,3.2603102,2.7392502
-30.339506,3.261752,2.7419477
-30.372826,3.2602885,2.7396307
-30.406042,3.260406,2.740099
-30.439262,3.2606087,2.7407527
-30.472485,3.2608967,2.7415915
-30.505705,3.2612708,2.7426157
-30.538853,3.2622275,2.74469
-30.572144,3.2622752,2.7452216
-30.605274,3.2634022,2.747665
-30.638836,3.2621305,2.7459779
-30.672153,3.2624364,2.747069
-30.704964,3.2653098,2.752657
-30.738152,3.266282,2.7549796
-30.772013,3.264366,2.7523217
-30.805695,3.2635298,2.7515788
-30.838404,3.266743,2.7579026
-30.87277,3.2636065,2.753242
-30.906954,3.261551,2.7504964
-30.940918,3.2605743,2.7496624
-30.97402,3.2626493,2.7541618
-31.008032,3.2618499,2.7537112
-31.040619,3.265576,2.7611485
-31.074488,3.2654445,2.7619338
-31.109077,3.263435,2.7595015
-31.143019,3.263484,2.7606773
-31.177544,3.2621496,2.7594953
-31.211739,3.261889,2.7602139
-31.24696,3.2592692,2.7568855
-31.280838,3.260172,2.7596993
-31.315775,3.2587192,2.7584739
-31.351425,3.2558951,2.754919
-31.385172,3.2575612,2.7591734
-31.422333,3.252005,2.750977
-31.460365,3.245096,2.7404876
-31.497635,3.240241,2.7335987
-31.534317,3.23695,2.7294574
-31.578428,3.2196994,2.701254
-31.632027,3.185643,2.6440983
-44.675217,0.9773202,0.25508022
-44.637566,1.0453756,0.3801751
-44.64703,1.0968723,0.48134804
-44.67816,1.1408074,0.57168674
-44.64073,1.2604668,0.7973294
-44.637115,1.3146205,0.90190935
-44.657173,1.3608279,0.9952483
-44.65713,1.4130921,1.0970173
-44.656235,1.465234,1.1985183
-44.628788,1.525132,1.3106327
-44.65544,1.568059,1.3992128
-44.620808,1.6291776,1.5126915
-44.610188,1.6825833,1.6154366
-44.60945,1.7326689,1.7135487
-44.597122,1.7857633,1.8156171
-44.58302,1.8389413,1.9176526
-44.646774,1.8696918,1.9896741
-44.726448,1.8961036,2.056137
-45.989166,1.7527459,2.0030746
-46.0383,1.7913275,2.0886517
-46.080418,1.8317313,2.1766825
-44.772694,2.2181144,2.7025461
-44.587067,2.311788,2.8545218
-44.645912,2.3428981,2.927535
-44.704323,2.3742206,3.0010095
-44.718452,2.4164412,3.0880585
-44.688927,2.4689937,3.1876698
-44.670757,2.5184157,3.2832737
-44.9242,2.503821,3.3021145
-45.04438,2.521364,3.3602571
-45.21437,2.5280328,3.4061604
-45.446754,2.5214443,3.437439
-45.64813,2.522916,3.4791327
-45.87427,2.5199351,3.516735
-45.95797,2.548871,3.5914536
-46.030792,2.580394,3.669426
-46.118454,2.6090024,3.744503
-46.2258,2.633823,3.815858
-46.341446,2.657359,3.8863535
-46.491325,2.674457,3.950592
-46.673683,2.685765,4.0095506
-47.847473,2.503943,3.8700962
-47.889458,2.5468569,3.966136
-47.916332,2.5926638,4.0652385
-48.014107,2.6251493,4.151288
-48.66936,2.5552974,4.138665
-49.378143,2.479246,4.124151
-50.071632,2.409718,4.120145
-50.868362,2.3257387,4.1072664
-51.630352,2.2520177,4.108714
-52.63923,2.1403291,4.0817485
-53.34313,2.085071,4.1099653
-54.38121,1.9784892,4.099847
-3.650505,1.7848785,3.799242
-3.3643417,1.6658068,3.6061425
-3.7439156,1.6536272,3.5086613
-3.7784061,1.5859725,3.3617735
-3.8869324,1.5307472,3.226819
-3.9466438,1.4674749,3.08463
-3.9625988,1.3966238,2.935217
-3.9844513,1.3266232,2.786646
-3.9908676,1.2536733,2.6350846
-4.0283394,1.1861451,2.4890728
-4.0803165,1.1212215,2.3459053
-4.1544495,1.0604651,2.207367
-4.20154,0.99463654,2.0636392
-4.0920315,0.8982973,1.8865919
-4.062666,0.8168113,1.7253323
-4.117836,0.75174713,1.5822606
-4.1366806,0.6792753,1.4309349
-4.126072,0.600487,1.2723212
-3.8557587,0.46695495,1.0498719
-4.5038166,0.52625394,1.0525088
-7.761614,0.94775033,1.3183041
-8.127987,0.9627378,1.2829285
-8.435621,0.966084,1.2347245
-8.651146,0.9494679,1.1628599
-9.111586,0.99173284,1.1662064
-9.205439,0.9486747,1.0630383
-9.432894,0.93826103,1.0020194
-9.645439,0.925241,0.9385524
-10.670805,1.1156023,1.1402655
-10.054775,0.89813757,0.812716
-11.272276,1.1446698,1.093575
-11.29101,1.0886145,0.97844267
-11.212547,1.006851,0.8289952
-11.947123,1.1397784,0.96724606
-11.923952,1.073731,0.83986044
-12.011856,1.0373325,0.7525344
-13.344955,1.3436582,1.1334028
-12.042625,0.9247341,0.5240183
-13.35198,1.232635,0.9123063
-14.135187,1.3989594,1.1093545
-13.335667,1.1134441,0.6795063
-13.353098,1.0606434,0.57243395
-13.244875,0.9704242,0.4126606
-14.641613,1.3290513,0.8871069
-14.651419,1.2774765,0.7840924
-14.624109,1.2142146,0.66434956
-15.8133545,1.5270569,1.0833721
-14.388649,1.0292313,0.34015465
-15.217967,1.1804132,0.50156736
-16.694939,1.6043117,1.0917063
-16.674355,1.5476782,0.9845314
-16.416933,1.4119487,0.76112175
-16.584625,1.4164608,0.74327517
-17.622826,1.7171054,1.163682
-17.628073,1.6709385,1.0731931
-17.741932,1.6620891,1.0381889
-17.76778,1.622844,0.95810556
-17.534718,1.4915504,0.74010754
-17.438602,1.4071093,0.59166193
-17.676025,1.4424286,0.6233926
-17.577671,1.356082,0.4718151
-17.471886,1.2137012,0.21356297
-24.521027,3.040672,2.6889873
-24.59114,3.0451617,2.688511
-24.67435,3.0570042,2.7001724
-24.739733,3.0598254,2.69728
-24.812546,3.067033,2.701695
-24.889194,3.0767953,2.7104483
-24.95934,3.0834455,2.7142563
-25.033285,3.092658,2.7224183
-25.099472,3.0979476,2.724277
-25.171452,3.1069548,2.7323942
-25.239105,3.1139245,2.7372947
-25.300531,3.1176598,2.7369847
-25.374886,3.1294255,2.750082
-25.423424,3.1262078,2.7385006
-25.477753,3.1266944,2.733148
-25.538387,3.1313238,2.734778
-25.594337,3.1334019,2.732275
-25.65583,3.139266,2.7361794
-25.708904,3.1401591,2.7319102
-25.766218,3.1440501,2.732739
-25.82024,3.1461325,2.730647
-25.874107,3.148407,2.728971
-25.928429,3.1512775,2.7283883
-25.977745,3.1510775,2.7227492
-26.028162,3.1518633,2.7188473
-26.081436,3.1548772,2.7187738
-26.13572,3.158903,2.7204947
-26.183374,3.1585662,2.71496
-26.231522,3.1588037,2.7104707
-26.281868,3.1608703,2.7091446
-26.33321,3.163946,2.7096071
-26.386644,3.1688786,2.7132936
-26.437067,3.171892,2.7138205
-26.480669,3.170004,2.7061238
-26.534122,3.17589,2.711678
-26.57972,3.1760044,2.707522
-26.627384,3.1779754,2.7065902
-26.673843,3.1792483,2.704544
-26.715954,3.177235,2.6969752
-26.769032,3.1844046,2.7051125
-26.807327,3.1796513,2.693005
-26.862087,3.1888902,2.7048283
-26.905867,3.1891866,2.7014656
-26.950563,3.1904936,2.6998959
-26.994154,3.191069,2.6971388
-27.038635,3.1926591,2.6961813
-27.084463,3.195712,2.6977959
-27.13062,3.1993558,2.70049
-27.173754,3.200493,2.6989532
-27.21914,3.203986,2.7015204
-27.257849,3.2013938,2.6936975
-27.299768,3.2020383,2.6914911
-27.338871,3.2001266,2.6849442
-27.383793,3.204162,2.6886883
-27.428099,3.207892,2.6919699
-27.467863,3.2072532,2.6877818
-27.507572,3.2067323,2.6838493
-27.547657,3.206782,2.6809554
-27.587671,3.2069519,2.678319
-27.631365,3.211338,2.6830244
-27.67242,3.2131236,2.6832924
-27.71418,3.2159483,2.685413
-27.75421,3.2170675,2.6846356
-27.793362,3.217387,2.6825247
-27.832445,3.2178206,2.6806626
-27.873755,3.221138,2.6838508
-27.913792,3.2231932,2.684904
-27.95335,3.2249043,2.685411
-27.990252,3.2234821,2.6805248
-28.02713,3.2221632,2.6758623
-28.066113,3.2237437,2.6762867
-28.104652,3.2249718,2.676146
-28.142767,3.2258425,2.6754322
-28.180807,3.226823,2.6749554
-28.218773,3.2279124,2.6747146
-28.25666,3.2291102,2.6747088
-28.296068,3.2327733,2.679047
-28.33314,3.233247,2.6778717
-28.370152,3.2338245,2.6769214
-28.408613,3.2368746,2.6803317
-28.444286,3.2357647,2.6765237
-28.48256,3.23903,2.6803994
-28.518711,3.2390726,2.6786904
-28.555101,3.2396917,2.6780305
-28.592798,3.242799,2.6817646
-28.62904,3.2436225,2.6815476
-28.66496,3.2440667,2.6807094
-28.700577,3.2441304,2.6792445
-28.73665,3.2452507,2.6796713
-28.772903,3.2469506,2.6811557
-28.808603,3.2477877,2.681169
-28.844477,3.2492044,2.6822386
-28.880281,3.2507188,2.6835194
-28.914038,3.2479825,2.6773858
-28.949324,3.2487195,2.6773825
-28.985184,3.2510047,2.6801343
-29.02035,3.2519329,2.6805458
-29.055462,3.252956,2.6811619
-29.09071,3.2545586,2.682835
-29.125154,3.254311,2.6812973
-29.159578,3.2541542,2.679956
-29.194666,3.2560375,2.6822376
-29.228687,3.2550886,2.6795793
-29.263184,3.2556925,2.679688
-29.298412,3.2588298,2.6842875
-29.3328,3.2596178,2.684795
-29.367432,3.2614746,2.6872191
-29.401587,3.2619548,2.6872587
-29.435839,3.2630143,2.688354
-29.470171,3.2646534,2.6905084
-29.504208,3.2654026,2.6911302
-29.538206,3.2662404,2.691946
-29.571959,3.2661843,2.691224
-29.60629,3.2691643,2.6958838
-29.64044,3.2717438,2.699874
-29.674164,3.2724447,2.700593
-29.70713,3.2688043,2.6937013
-29.740921,3.2701707,2.6956625
-29.774734,3.2721171,2.6986818
-29.808176,3.271689,2.6975522
-29.84145,3.2698672,2.694003
-29.875061,3.2710893,2.6958523
-29.9085,3.2709188,2.695282
-29.941822,3.2693546,2.6922913
-29.975433,3.2718217,2.6964402
-30.008953,3.2738833,2.6999073
-30.042395,3.275537,2.7026935
-30.075724,3.27481,2.7013168
-30.109106,3.2766361,2.7044744
-30.142437,3.2770672,2.7052097
-30.175766,3.2765973,2.7043905
-30.209114,3.2757194,2.7028875
-30.242403,3.277394,2.7059188
-30.275627,3.279648,2.7100043
-30.308945,3.27952,2.7099276
-30.342373,3.277999,2.70743
-30.375677,3.278536,2.7085943
-30.408974,3.2791588,2.7099447
-30.442474,3.2778955,2.7080054
-30.476072,3.2762258,2.7053876
-30.509521,3.2761214,2.705562
-30.54284,3.2770886,2.7076583
-30.57614,3.2781405,2.709939
-30.609594,3.2782946,2.7106729
-30.643507,3.2760763,2.7072654
-30.677773,3.2724714,2.7014518
-30.710812,3.2753446,2.7070804
-30.74347,3.2797747,2.7154846
-30.777288,3.278889,2.7145653
-30.810905,3.2790725,2.7155638
-30.844406,3.2798333,2.7176137
-30.878435,3.2787218,2.716405
-30.911678,3.2806363,2.7205567
-30.945038,3.2821476,2.7240334
-30.97883,3.2822788,2.7251182
-31.013111,3.2810333,2.7238193
-31.048422,3.2769518,2.7175727
-31.081154,3.2807653,2.7252407
-31.114862,3.2817402,2.7279549
-31.14839,3.2832894,2.7317133
-31.182467,3.283467,2.733101
-31.217527,3.281307,2.7304192
-31.252668,3.2792423,2.7279444
-31.287067,3.2792113,2.7290778
-31.321497,3.2792716,2.7304106
-31.356821,3.2774897,2.7285495
-31.392887,3.2743561,2.7243576
-31.430206,3.2689104,2.716155
-31.466988,3.2650173,2.7107167
-31.506304,3.2564163,2.6970735
-31.544138,3.251296,2.6895752
-31.584408,3.241965,2.6747503
-31.649755,3.1867523,2.5796657
-44.6273,1.139538,0.34907007
-44.631493,1.192462,0.45280647
-44.632202,1.2461214,0.5575366
-44.624195,1.3021724,0.6656513
-44.635307,1.3516607,0.76414204
-44.656113,1.3977699,0.8577075
-44.625256,1.4597178,0.9740019
-44.642666,1.5061972,1.0679703
-44.62487,1.5631299,1.1767955
-44.649563,1.6067855,1.2666435
-44.66112,1.6541505,1.361731
-44.628212,1.7142973,1.474721
-44.604122,1.7713013,1.5830984
-44.589855,1.8249779,1.6866646
-44.5819,1.8764279,1.7870059
-44.56589,1.9297497,1.8898029
-44.631393,1.9600861,1.9609842
-44.671066,1.9976013,2.0421228
-44.734768,2.028578,2.1144915
-44.742367,2.0746315,2.2073355
-44.741005,2.1227913,2.3029451
-45.97686,1.8487291,1.9700041
-46.019493,1.8889809,2.0576787
-46.062458,1.9291127,2.1452913
-46.107613,1.9686658,2.2322507
-44.736736,2.3584888,2.772934
-44.60452,2.436864,2.906827
-44.671204,2.4661953,2.9774299
-44.684284,2.5084426,3.0646248
-44.743504,2.5396833,3.1379662
-44.83511,2.5635374,3.2022986
-44.910454,2.5914311,3.2719874
-44.992958,2.6179297,3.340252
-45.177994,2.6218727,3.3814354
-45.35743,2.6279333,3.4260092
-45.5767,2.626218,3.462132
-45.835068,2.6172373,3.4907098
-45.95769,2.638153,3.55548
-46.019077,2.6722846,3.6360898
-46.1325,2.6959062,3.7049236
-46.24659,2.7198417,3.7746387
-46.336414,2.7490516,3.8507843
-46.501686,2.763794,3.911378
-46.61488,2.7893345,3.9845724
-46.78939,2.8036668,4.0462794
-47.91306,2.641092,3.9214296
-47.921585,2.690339,4.0242004
-47.903248,2.7443001,4.131788
-48.523758,2.6838043,4.123351
-49.110382,2.6325755,4.1277995
-49.775646,2.5708401,4.125485
-50.512016,2.5005276,4.1189885
-51.263184,2.4316475,4.118401
-52.18036,2.3394072,4.1009994
-53.128273,2.247067,4.089389
-53.898575,2.1880145,4.113312
-3.4524498,1.9108274,3.702557
-3.208395,1.7996039,3.5136476
-3.7094688,1.8040686,3.4345899
-3.8044815,1.7460096,3.2970362
-3.9013004,1.6885123,3.1605167
-3.9600143,1.6249735,3.0183077
-3.9642658,1.5523114,2.8668756
-3.991911,1.483403,2.7193236
-4.005062,1.4118423,2.568984
-4.036688,1.3433342,2.421929
-4.05097,1.2715874,2.2713718
-4.2322006,1.2301235,2.1546087
-4.041321,1.1203258,1.9613805
-4.0780945,1.0520182,1.8145742
-4.080364,0.97699404,1.6600609
-4.068434,0.8988905,1.5018349
-4.211647,0.850971,1.3792257
-5.820326,0.9530809,1.315506
-7.163172,1.0235627,1.2336016
-7.4844666,1.0241933,1.1812444
-8.142441,1.1008446,1.2273922
-8.316805,1.0727673,1.1415052
-8.7276,1.099117,1.1269412
-8.775719,1.0441265,1.0077124
-8.848898,0.9949219,0.89621115
-9.099607,0.9877889,0.8407297
-10.519197,1.2619424,1.1618867
-8.903038,0.8076668,0.5096626
-8.922075,0.74495125,0.38035297
-11.31362,1.273042,1.055347
-11.310156,1.2117047,0.9327321
-11.280159,1.1431975,0.8001294
-11.910675,1.2450798,0.903388
-11.924032,1.1889477,0.7889085
-13.21081,1.4704742,1.147357
-13.195026,1.3536351,0.91663074
-13.338278,1.336206,0.8593898
-14.238847,1.5304737,1.1051569
-12.912186,1.1020441,0.46006203
-13.812309,1.3000956,0.7136631
-14.673153,1.4925883,0.9624357
-14.62955,1.4261091,0.8373785
-14.638472,1.3744888,0.7337942
-15.698849,1.6374707,1.0918636
-15.1668625,1.3175008,0.54094744
-15.204493,1.2749591,0.45148897
-16.81691,1.732305,1.1100001
-16.873726,1.7014356,1.0408468
-16.540405,1.5438385,0.7808471
-16.595173,1.5109026,0.7081404
-17.695366,1.7781291,1.0700407
-17.73339,1.7432926,0.9963627
-17.689,1.6800044,0.8791504
-17.471241,1.5556583,0.66790295
-17.49706,1.5148668,0.5846472
-17.619747,1.508306,0.55430555
-17.434868,1.3916414,0.3535986
-17.4731,1.3542013,0.27538633
-24.485367,3.0678473,2.6381154
-24.56631,3.0774398,2.646688
-24.65251,3.0902965,2.6608543
-24.715256,3.091336,2.6555114
-24.78963,3.0989096,2.6611881
-24.854748,3.101937,2.6594148
-24.923767,3.1074553,2.661932
-24.99593,3.115121,2.6681767
-25.063059,3.120425,2.6706
-25.134632,3.128642,2.6780415
-25.202559,3.135234,2.6828856
-25.274837,3.1447668,2.69281
-25.338884,3.1499698,2.6955686
-25.410517,3.1600487,2.7066765
-25.460417,3.1576087,2.696755
-25.519907,3.161182,2.697092
-25.573452,3.161453,2.691937
-25.625608,3.1611266,2.6858573
-25.689613,3.168476,2.6928983
-25.739597,3.1673536,2.6856494
-25.80189,3.1743543,2.6923065
-25.855913,3.1763983,2.6906242
-25.911,3.1794345,2.690723
-25.962883,3.1806552,2.6878114
-26.014032,3.1816514,2.6845994
-26.063864,3.182013,2.6803813
-26.115944,3.1841712,2.679318
-26.167871,3.1865108,2.6786475
-26.2179,3.1878,2.6762557
-26.267223,3.188848,2.6735258
-26.318703,3.1917143,2.6739974
-26.368322,3.1935148,2.6727138
-26.414438,3.1929882,2.6674967
-26.459917,3.1921947,2.6618848
-26.508072,3.1936414,2.6602044
-26.55501,3.1944077,2.6574206
-26.603456,3.196593,2.657157
-26.656036,3.202323,2.6630964
-26.70521,3.2056906,2.6650252
-26.748444,3.204542,2.6592007
-26.793694,3.2052364,2.656631
-26.838327,3.2056482,2.653633
-26.88134,3.2049139,2.648706
-26.925797,3.2056055,2.6463156
-26.97065,3.2068713,2.6449842
-27.016869,3.2095802,2.6462264
-27.05709,3.2072232,2.6387076
-27.101147,3.2084732,2.637527
