x,y,z
-42.017532,2.378382,3.5723677
-42.13788,2.3820684,3.6098495
-42.24629,2.389826,3.6522474
-42.396065,2.385946,3.682953
-42.593952,2.3688798,3.7007165
-42.771835,2.358574,3.7265162
-42.966637,2.344387,3.7493181
-43.18682,2.3241124,3.767045
-43.35522,2.319306,3.8014593
-43.543354,2.3099346,3.8322954
-43.73168,2.301455,3.8650637
-45.215023,1.9483988,3.5662856
-45.214737,1.9955778,3.6583462
-45.202446,2.0456166,3.7529974
-45.199795,2.09284,3.8448539
-45.20306,2.1382873,3.9349656
-45.215126,2.1812932,4.0227947
-45.33663,2.1969552,4.086241
-45.71649,2.1497445,4.0952168
-46.160866,2.0889566,4.0949144
-46.684357,2.011662,4.083498
-47.21278,1.9360842,4.0770073
-47.89544,1.8274109,4.046905
-48.550842,1.7288017,4.0295963
-49.13556,1.6498704,4.0323844
-49.96373,1.5194459,3.9993548
-50.708847,1.4119909,3.9896479
-51.547005,1.2882438,3.9732027
-52.5162,1.140784,3.9456668
-53.40692,1.0153306,3.940867
-54.575294,0.83636117,3.9057956
-16.211971,2.4441977,4.027233
-15.913709,2.3248367,3.8675437
-15.633296,2.208008,3.708489
-18.16202,2.7499928,4.138459
-18.290432,2.7467856,4.1003733
-18.558182,2.7824612,4.1037526
-18.81506,2.816608,4.1069574
-19.044468,2.8444629,4.104805
-19.218899,2.8579452,4.08834
-19.467552,2.8937016,4.0970345
-19.679708,2.9202476,4.0968986
-19.855618,2.937304,4.087326
-20.100544,2.9758563,4.1026535
-20.279133,2.9958553,4.098319
-20.482716,3.024447,4.104617
-20.622297,3.034495,4.090703
-20.77787,3.0502543,4.08403
-20.932175,3.0664613,4.0786133
-21.131905,3.09797,4.0918074
-21.29963,3.120352,4.09521
-21.392742,3.1194232,4.0717754
-21.555225,3.141737,4.076458
-21.68792,3.1550827,4.071122
-21.813198,3.1666648,4.0642457
-21.97786,3.192303,4.0749927
-22.072495,3.1948762,4.0582943
-22.223955,3.2176325,4.0667934
-22.316376,3.2205772,4.0514708
-22.40778,3.2236204,4.0366497
-22.459995,3.2130818,4.0052314
-22.594458,3.2324796,4.0115886
-22.650915,3.2241302,3.983489
-22.706583,3.2156854,3.9554687
-22.851294,3.240702,3.970295
-22.868422,3.2184393,3.9251678
-23.005634,3.241884,3.938871
-23.060228,3.234323,3.9130526
-23.131737,3.2335415,3.8962212
-23.233393,3.2449574,3.8955538
-23.272005,3.231875,3.8631902
-23.35327,3.2359986,3.8535666
-23.454273,3.2485569,3.8553762
-23.487171,3.2337587,3.8212914
-23.571297,3.2402153,3.8155837
-23.6888,3.2611096,3.8294697
-23.705414,3.2400498,3.7875214
-23.82881,3.2645314,3.8068995
-23.902264,3.268249,3.7986808
-23.905468,3.2416782,3.749639
-24.038239,3.272007,3.7779822
-24.104033,3.2734141,3.767325
-24.15858,3.2700791,3.7503824
-24.20678,3.2640746,3.729938
-24.298313,3.278152,3.737327
-24.309538,3.2555075,3.6942263
-24.402245,3.2709067,3.7039104
-24.454964,3.2679462,3.6883512
-24.509195,3.2659245,3.6742568
-24.558002,3.2615056,3.6569653
-24.652687,3.2796986,3.6715636
-24.720276,3.2851515,3.6685333
-24.730152,3.262167,3.625554
-24.833765,3.2862477,3.6492057
-24.882122,3.2829266,3.634293
-24.938654,3.2840016,3.62577
-24.958038,3.2660196,3.5902095
-25.064644,3.293776,3.6201167
-25.127352,3.2990394,3.6181054
-25.179667,3.2990768,3.6087604
-25.215235,3.2902699,3.5868096
-25.285471,3.3005276,3.592485
-25.336075,3.3003612,3.5832705
-25.360977,3.2860339,3.5536351
-25.427134,3.2949834,3.5579014
-25.476843,3.2949488,3.5492587
-25.539745,3.3027716,3.552225
-25.569065,3.2913668,3.5272112
-25.62684,3.2967489,3.5268855
-25.683735,3.3019445,3.5264401
-25.726128,3.2987256,3.5137486
-25.784756,3.3055582,3.5159965
-25.797432,3.2844276,3.4770365
-25.869263,3.2999215,3.492352
-25.918785,3.301916,3.4878216
-25.984657,3.3145819,3.49929
-26.002415,3.2967515,3.465486
-26.07051,3.311514,3.4803567
-26.117563,3.3129594,3.4754934
-26.173473,3.3205411,3.479937
-26.20753,3.3137836,3.4630003
-26.253017,3.3148599,3.4579082
-26.302792,3.319114,3.457707
-26.348667,3.3209522,3.4539804
-26.405535,3.3307705,3.4624166
-26.422943,3.3129005,3.4290986
-26.471035,3.3169258,3.4289713
-26.526796,3.3268313,3.437882
-26.551197,3.3140326,3.412416
-26.612556,3.3287015,3.4287982
-26.631203,3.3116612,3.3969936
-26.667643,3.3079991,3.3856258
-26.720276,3.3169568,3.3936243
-26.761185,3.3171453,3.3883204
-26.815653,3.3282602,3.3998528
-26.838282,3.3143156,3.3730454
-26.88347,3.318515,3.3741536
-26.937347,3.3301344,3.3867793
-26.979397,3.3323903,3.3851027
-27.012648,3.3274782,3.3724523
-27.037882,3.3157876,3.349391
-27.085678,3.3234537,3.3563013
-27.141151,3.3382027,3.3742852
-27.185265,3.343453,3.3776708
-27.225065,3.3451436,3.3756251
-27.248392,3.3320858,3.3507404
-27.278538,3.3251336,3.33538
-27.327328,3.3355594,3.3471327
-27.364914,3.335845,3.3431816
-27.39998,3.3338962,3.335816
-27.437948,3.3348806,3.3330941
-27.456154,3.3166072,3.3003292
-27.496078,3.3196726,3.3009787
-27.542921,3.329992,3.3130703
-27.586689,3.3376176,3.3210354
-27.619226,3.3339329,3.3113337
-27.644995,3.3231602,3.290547
-27.683044,3.325397,3.2902546
-27.71878,3.3253472,3.2864342
-27.764076,3.3360083,3.299553
-27.805197,3.342477,3.3061523
-27.836752,3.3384264,3.2962275
-27.864986,3.330579,3.2803555
-27.897915,3.32815,3.2730904
-27.939445,3.3360498,3.2822213
-27.975903,3.3382235,3.282364
-28.011467,3.3395283,3.2811952
-28.04892,3.3433917,3.2841449
-28.072695,3.3301656,3.2600389
-28.102829,3.324866,3.248548
-28.14206,3.3314881,3.256052
-28.188124,3.3476288,3.2787657
-28.22248,3.3485706,3.2773805
-28.252827,3.3441522,3.2675147
-28.281115,3.336829,3.2530646
-28.30953,3.329574,3.2387633
-28.348663,3.3378587,3.249299
-28.393948,3.3557637,3.2752686
-28.425247,3.353293,3.2687683
-28.457212,3.3519084,3.2640538
-28.481525,3.338553,3.2402382
-28.513306,3.3368201,3.2350526
-28.546625,3.3376935,3.2340903
-28.588326,3.3527951,3.2559805
-28.62403,3.3584266,3.262764
-28.654934,3.3560631,3.2567816
-28.683022,3.34871,3.2428389
-28.712915,3.3444707,3.233933
-28.74614,3.3464103,3.2349958
-28.780886,3.3514974,3.2411714
-28.816788,3.3592353,3.2516646
-28.851206,3.3645265,3.2582827
-28.883484,3.365828,3.2585335
-28.908667,3.3523762,3.2350788
-28.93863,3.3487122,3.2274203
-28.969574,3.347177,3.223236
-29.005928,3.3580503,3.239099
-29.041126,3.3669753,3.2518806
-29.069916,3.3610759,3.2408037
-29.098402,3.3542168,3.2282171
-29.126822,3.3469112,3.2149467
-29.159487,3.350516,3.2193365
-29.192993,3.3567955,3.2280955
-29.22798,3.367824,3.2445822
-29.259853,3.370671,3.2478986
-29.2901,3.3689406,3.2438607
-29.317558,3.358471,3.2257314
-29.345718,3.3496232,3.21026
-29.376822,3.3501923,3.2100663
-29.412457,3.3669589,3.236137
-29.445147,3.374466,3.247272
-29.475212,3.372693,3.2434287
-29.50414,3.3663094,3.2321582
-29.531605,3.3532214,3.2100654
-29.562983,3.3563654,3.2143111
-29.593498,3.355939,3.2128153
-29.628838,3.3796089,3.2504268
-29.659363,3.38092,3.251841
-29.689104,3.3781302,3.2466483
-29.718466,3.372801,3.23738
-29.747053,3.3617928,3.2189388
-29.77723,3.360273,3.2159286
-29.808186,3.3645883,3.2224293
-29.840218,3.3789334,3.2452497
-29.870783,3.3828902,3.2512574
-29.900446,3.3785439,3.243833
-29.92985,3.3700807,3.2297683
-29.959291,3.3595953,3.21246
-29.989195,3.3528538,3.2012706
-30.019588,3.3530033,3.2013102
-30.05142,3.3915095,3.2636623
-30.081327,3.39077,3.2623448
-30.111277,3.3922057,3.2646003
-30.141184,3.3905706,3.2619128
-30.171091,3.393209,3.2662048
-30.201042,3.3906791,3.2621484
-30.231707,3.3677766,3.225058
-30.262285,3.359112,3.2111268
-30.291912,3.3714972,3.2314105
-30.321882,3.3745215,3.2365403
-30.350595,3.3928208,3.2665052
-30.380207,3.3965185,3.272809
-30.410055,3.3971484,3.2741747
-30.441616,3.382668,3.2510605
-30.472864,3.373509,3.236629
-30.503757,3.3686206,3.2291718
-30.532911,3.376369,3.2422595
-30.560888,3.3904657,3.2656832
-30.589983,3.3962648,3.2756858
-30.619907,3.3969116,3.2773733
-30.65207,3.3861456,3.260601
-30.684273,3.3765132,3.2457132
-30.71466,3.3763595,3.2462373
-30.743263,3.3841062,3.259606
-30.769053,3.4028645,3.2908516
-30.797588,3.40918,3.3019743
-30.828478,3.4061987,3.2980814
-30.859161,3.4043403,3.2960515
-30.888853,3.4062004,3.300085
-30.919296,3.4055412,3.3000836
-30.95042,3.4028869,3.2968988
-41.79577,0.6951108,0.20977402
-41.670193,0.8053963,0.3846302
-41.686573,0.8510344,0.47072983
-41.6813,0.9057913,0.56917524
-41.667007,0.9638939,0.67201614
-41.666306,1.0155153,0.7659478
-41.675316,1.0624995,0.8535371
-41.6909,1.1063008,0.9367957
-41.622,1.184968,1.0665183
-41.696003,1.2036252,1.1161094
-41.63068,1.2793319,1.2414122
-41.75107,1.2789991,1.2661085
-41.627888,1.3766272,1.419805
-41.699852,1.3955696,1.4700155
-41.626907,1.4714336,1.5945172
-41.648045,1.5098212,1.6700358
-41.622803,1.5657606,1.7681885
-41.639156,1.60531,1.8450847
-41.66086,1.6425879,1.919055
-41.711967,1.6687183,1.9788523
-41.78515,1.776109,2.1954145
-43.139805,1.4829946,1.9497423
-43.054905,1.5597298,2.0749907
-41.72848,2.0549073,2.7065039
-41.678764,2.1134353,2.805698
-41.70719,2.1454592,2.872847
-41.726223,2.1804533,2.9435792
-41.749195,2.2140074,3.012617
-41.753723,2.2533298,3.08845
-41.771133,2.2883165,3.1591673
-41.80425,2.318224,3.2240114
-41.792603,2.3619375,3.3047943
-41.838326,2.3877327,3.3650074
-41.871857,2.4172604,3.4295998
-41.915897,2.4436007,3.4907088
-41.967796,2.4676514,3.5494227
-42.0661,2.478203,3.5934362
-42.223125,2.472159,3.6197448
-42.33979,2.4784431,3.6602178
-42.471203,2.4810703,3.6973295
-42.68411,2.4615154,3.7114806
-42.874214,2.4493911,3.7346034
-43.112953,2.4249554,3.745884
-43.31581,2.4114878,3.7698069
-43.44608,2.418434,3.8157125
-43.627792,2.4123945,3.8491716
-45.14863,2.0583136,3.5355768
-45.202744,2.0910885,3.613492
-45.223404,2.1324475,3.7000256
-45.243458,2.1738327,3.7866135
-45.23452,2.2222865,3.879959
-45.215385,2.27294,3.9752192
-45.226833,2.3158312,4.0630736
-45.546852,2.2847698,4.0834084
-45.968388,2.231427,4.0857067
-46.44516,2.1674907,4.0813174
-46.9095,2.109017,4.084771
-47.527027,2.0182457,4.0636125
-48.163143,1.9267039,4.0459223
-48.765953,1.8460183,4.0414877
-49.5191,1.7357647,4.017215
-50.272793,1.6295164,4.0013404
-51.028877,1.5268621,3.9935431
-51.98841,1.3856249,3.9617844
-52.855843,1.2686782,3.954987
-53.863407,1.1278181,3.9371824
-6.0269375,0.65405536,2.7627745
-6.057558,0.58997655,2.6265597
-16.12179,2.4989154,3.9676628
-15.6746855,2.343836,3.7687593
-17.91914,2.7915165,4.1139264
-18.272942,2.8460147,4.136906
-18.369501,2.834113,4.0907035
-18.633518,2.867675,4.0941267
-18.805058,2.8775182,4.073043
-19.14196,2.933813,4.103997
-19.371643,2.962174,4.105661
-19.6256,2.9986587,4.1175947
-19.73922,2.996544,4.087174
-19.978294,3.0311728,4.0991635
-20.156351,3.0493531,4.0934386
-20.283869,3.0535784,4.0724134
-20.494835,3.0833664,4.0817933
-20.681599,3.1070514,4.0850105
-20.82716,3.1192012,4.0754576
-21.02378,3.1479037,4.0862904
-21.129002,3.149191,4.0651507
-21.329096,3.1809573,4.081267
-21.45166,3.1891418,4.069642
-21.590014,3.2030673,4.065569
-21.66584,3.1973395,4.037922
-21.827559,3.2202806,4.046054
-21.836945,3.1933312,3.9927905
-22.035015,3.2298703,4.018983
-22.030602,3.1985838,3.9606678
-22.19188,3.2241478,3.9742143
-22.227129,3.2067657,3.9338074
-22.375477,3.2292438,3.944471
-22.439365,3.2225416,3.9182453
-22.477425,3.2067935,3.8805656
-22.629951,3.2327213,3.8970776
-22.649185,3.2105994,3.85156
-22.81546,3.2429972,3.8774767
-22.858622,3.230244,3.8446584
-22.927338,3.2272782,3.824904
-23.057579,3.2482,3.8370876
-23.077242,3.2270792,3.7937412
-23.203514,3.247602,3.806149
-23.276758,3.2479255,3.791893
-23.278492,3.2200074,3.7397914
-23.432014,3.2531633,3.7703433
-23.47853,3.2436671,3.7434988
-23.521862,3.232986,3.7151732
-23.629824,3.2493486,3.723999
-23.677994,3.241191,3.699513
-23.736755,3.237689,3.6815867
-23.884964,3.272897,3.7174034
-23.906355,3.2540429,3.6787
-24.03429,3.281882,3.7050667
-24.106678,3.2859602,3.69868
-24.11635,3.2623034,3.6536427
-24.205208,3.2743156,3.6587467
-24.259996,3.2712784,3.6429152
-24.30773,3.265201,3.6229405
-24.368698,3.2654672,3.6120954
-24.445019,3.273272,3.6121569
-24.512619,3.27736,3.6071506
-24.519602,3.2525806,3.5610394
-24.645752,3.2856157,3.5978556
-24.710531,3.2894008,3.59301
-24.721653,3.2668405,3.5503488
-24.788609,3.272137,3.5479631
-24.872498,3.2864108,3.5587878
-24.93153,3.2884855,3.5521364
-24.961678,3.2758765,3.5242534
-25.06091,3.2994714,3.549304
-25.11435,3.299559,3.5402489
-25.133636,3.2816107,3.5048685
-25.213026,3.2960486,3.5171366
-25.278404,3.3033767,3.5191555
-25.325018,3.300734,3.5066261
-25.346119,3.2840223,3.473384
-25.416746,3.2951493,3.4814644
-25.48145,3.3033721,3.4854236
-25.531292,3.3034358,3.4774032
-25.554115,3.2879808,3.4463415
-25.634144,3.306129,3.4655657
-25.698008,3.3152728,3.4715219
-25.73856,3.310803,3.4572067
-25.7724,3.3023705,3.4370208
-25.80968,3.296094,3.4201488
-25.88087,3.3109984,3.4353309
-25.933853,3.3149948,3.434206
-25.964405,3.30503,3.412057
-25.984045,3.2880402,3.3792992
-26.074333,3.316829,3.4161553
-26.122894,3.3190348,3.4127789
-26.16433,3.3167613,3.4026828
-26.187424,3.3023098,3.3740692
-26.2609,3.322005,3.3977346
-26.310225,3.3257408,3.3971329
-26.349516,3.3227825,3.3863678
-26.396757,3.3255546,3.384492
-26.420773,3.3120534,3.357666
-26.471537,3.3177052,3.3604012
-26.529875,3.329205,3.372282
-26.557636,3.3186278,3.350165
-26.585562,3.3081183,3.3281932
-26.628815,3.309123,3.3241172
-26.681225,3.3173418,3.3313308
-26.736246,3.3279688,3.3424072
-26.779024,3.3294628,3.3393908
-26.800293,3.3141453,3.3102603
-26.84696,3.3190045,3.3126364
-26.871874,3.3065128,3.288
-26.952911,3.34002,3.3353586
-26.980993,3.3304865,3.315504
-27.018908,3.32918,3.3085914
-27.063179,3.3334467,3.3105006
-27.098846,3.3305686,3.301268
-27.152802,3.343804,3.3174543
-27.19553,3.3476064,3.318901
-27.210459,3.3267124,3.2814856
-27.250633,3.3284228,3.2797546
-27.282183,3.3223984,3.2658768
-27.348549,3.3489304,3.3035517
-27.388226,3.3510728,3.3027573
-27.419052,3.3449466,3.2889304
-27.438433,3.3276787,3.2574744
-27.47145,3.3235626,3.2469172
-27.52094,3.3359916,3.2627158
-27.571484,3.3500106,3.281146
-27.606506,3.3486202,3.2751398
-27.628357,3.3335967,3.2474613
-27.656769,3.3252556,3.2304645
-27.697268,3.3298345,3.2341366
-27.742414,3.3397915,3.246479
-27.777786,3.3393815,3.2423267
-27.819933,3.3467443,3.2506757
-27.839565,3.3287854,3.2185369
-27.871185,3.3243315,3.208064
-27.911457,3.330095,3.2140331
-27.95922,3.3451743,3.235035
-28.002207,3.3550906,3.2478328
-28.038239,3.3568943,3.2476635
-28.054823,3.3344743,3.2085714
-28.090956,3.3364434,3.2087622
-28.129631,3.3419392,3.2146955
-28.173317,3.35441,3.2319431
-28.21266,3.3616312,3.2408009
-28.243536,3.3576736,3.231677
-28.272694,3.3513367,3.2187524
-28.301262,3.3440847,3.20439
-28.334059,3.3428319,3.199769
-28.376928,3.356519,3.2193828
-28.416136,3.3653886,3.2312717
-28.44828,3.3639517,3.2265248
-28.476276,3.356135,3.2114801
-28.505354,3.3498795,3.1990042
-28.537306,3.3481874,3.1939764
-28.572578,3.3520806,3.1980667
-28.6092,3.35858,3.206448
-28.645926,3.3656907,3.2158818
-28.676205,3.3618643,3.2075858
-28.704313,3.3540928,3.1929111
-28.736382,3.3534384,3.1898603
-28.771364,3.3584177,3.196033
-28.808022,3.3670325,3.2081847
-28.84012,3.3671625,3.2065625
-28.87293,3.368898,3.2076054
-28.89887,3.3565304,3.1856866
-28.928389,3.3513243,3.1754866
-28.959616,3.3497484,3.1712542
-29.000532,3.370129,3.2029328
-29.032398,3.3707788,3.2024384
-29.06401,3.371005,3.2012963
-29.09497,3.3697839,3.1978335
-29.122713,3.3604705,3.1811748
-29.154556,3.3614495,3.1813946
-29.187868,3.3666086,3.1885018
-29.22342,3.378522,3.206716
-29.253351,3.375154,3.1999583
-29.28591,3.3795617,3.2059789
-29.313715,3.369674,3.1886206
-29.33982,3.3536825,3.1612906
-29.370882,3.3531828,3.1593924
-29.405027,3.3635783,3.1754045
-29.438206,3.3714936,3.187399
-29.472128,3.3831108,3.2055154
-29.50124,3.3767629,3.194201
-29.529749,3.3673906,3.1779585
-29.558228,3.3570533,3.1601682
-29.589598,3.35919,3.1628976
-29.626152,3.3872688,3.2082772
-29.656694,3.387514,3.207993
-29.6875,3.3893912,3.2104316
-29.717033,3.384098,3.2011304
-29.74515,3.3690348,3.1758127
-29.776516,3.3742537,3.183865
-29.80734,3.3764436,3.1869817
-29.839417,3.389607,3.20818
-29.87016,3.3935175,3.2142105
-29.8997,3.3860908,3.2016425
-29.929232,3.3766615,3.1858215
-29.959282,3.37146,3.176992
-29.989386,3.3652968,3.1666198
-30.020147,3.369598,3.1734977
-30.051535,3.3931973,3.2121563
-30.081915,3.3997366,3.2227988
-30.112123,3.405315,3.2319021
-30.142176,3.4026577,3.2275019
-30.172266,3.4026768,3.2275429
-30.202421,3.3996558,3.2226233
-30.23325,3.3780117,3.1871176
-30.2639,3.372032,3.1774158
-30.294579,3.3682091,3.1713033
-30.324612,3.37537,3.1832943
-30.353123,3.399739,3.2236204
-30.383568,3.3966668,3.218863
-30.413185,3.4024951,3.2287793
-30.444868,3.3892026,3.2073026
-30.47582,3.3842945,3.1996527
-30.506823,3.3799868,3.1930313
-30.53669,3.3840523,3.2002144
-30.564377,3.401144,3.2288423
-30.593199,3.4094975,3.243146
-30.6249,3.4013577,3.2303934
-30.655785,3.3984783,3.2263255
-30.689232,3.3837886,3.2029057
-30.72041,3.3810787,3.1992068
-30.747099,3.3980777,3.2279053
-30.774538,3.4104898,3.249106
-30.803417,3.4162598,3.2594395
-30.834251,3.414369,3.2572446
-30.864422,3.4151356,3.2594504
-30.893385,3.4200983,3.2685785
-30.92694,3.4097033,3.2525663
-30.95621,3.4137938,3.2603478
-41.66374,0.8851714,0.35511017
-41.672047,0.93406296,0.4461584
-41.673088,0.98564315,0.54086065
-41.6789,1.0346758,0.63194275
-41.687943,1.0818877,0.72043705
-41.627735,1.1576972,0.8480916
-41.684002,1.184202,0.9080057
-41.66511,1.2415581,1.0100641
-41.683186,1.2832756,1.0907245
-41.61855,1.3579292,1.2158737
-41.69484,1.37555,1.2638679
-41.600536,1.4605017,1.4023714
-41.71014,1.4648402,1.4327173
-41.593365,1.556891,1.5800862
-41.641388,1.5847447,1.6418371
-41.634724,1.6332152,1.730885
-41.646835,1.6742275,1.8100162
-41.716393,1.6937246,1.8609924
-41.703384,1.7435656,1.9516501
-41.737743,1.7757998,2.0193634
-41.77814,1.8499877,2.1674342
-43.009712,1.6527267,2.0598211
-43.081505,1.6755595,2.118846
-41.659737,2.1888142,2.7832265
-41.70143,2.2164166,2.8449774
-41.728455,2.2487252,2.9125814
-41.74515,2.2842083,2.984075
-41.76938,2.3171506,3.0525088
-41.775116,2.3557212,3.1277065
-41.79379,2.3900752,3.1978388
-41.811043,2.424714,3.2683191
-41.81052,2.4645362,3.344871
-41.877644,2.4840019,3.3976812
-41.916225,2.5120368,3.4606414
-41.98551,2.5311587,3.5135236
-42.07932,2.5434499,3.558937
-42.17208,2.5564055,3.6055202
-42.30711,2.5578685,3.6396937
-42.485634,2.54791,3.6618857
-42.64589,2.5438683,3.6914678
-42.85458,2.5275023,3.7084684
-43.022675,2.5230894,3.739421
-43.271145,2.4982579,3.7494903
-43.415398,2.5019789,3.7910075
-43.6037,2.495002,3.8221116
-43.804382,2.485806,3.8519397
-45.220978,2.1714108,3.5713987
-45.226578,2.2165134,3.6618476
-45.187096,2.2724738,3.7630553
-45.222504,2.309777,3.8455663
-45.233654,2.3528662,3.9338226
-45.245117,2.395712,4.0218263
-45.40161,2.4045205,4.0776362
-45.782135,2.3623796,4.0868893
-46.205368,2.3125558,4.09145
-46.695427,2.2500024,4.087173
-47.315865,2.1612034,4.062705
-47.941475,2.0746818,4.0442643
-48.543358,1.9967036,4.037274
-49.215717,1.9069762,4.024391
-49.972332,1.8032033,4.004443
-50.76711,1.6956398,3.986609
-51.524647,1.5999944,3.983738
-52.507305,1.4630752,3.9541988
-53.42093,1.3452001,3.9460974
-54.59451,1.181345,3.9106426
-2.9329185,0.44295168,2.7321053
-4.303318,0.64670014,2.8185267
-5.6138,0.8455205,2.9094772
-6.1143246,0.88020945,2.8609123
-6.148592,0.81746197,2.7261543
-6.1636505,0.75041294,2.5874858
-6.1749077,0.682286,2.4477677
-6.2043667,0.6179533,2.3116364
-6.162298,0.5372627,2.159635
-16.006374,2.5520468,3.902688
-17.75284,2.859096,4.112774
-18.059668,2.8983436,4.1207657
-18.287228,2.918929,4.1099586
-18.532053,2.945223,4.106627
-18.81075,2.9817674,4.1159787
-19.02188,3.0018702,4.1082506
-19.240892,3.0252368,4.105277
-19.432606,3.0423512,4.0962257
-19.63313,3.0629272,4.0921006
-19.853401,3.090114,4.096637
-20.038246,3.1085176,4.0919275
-20.218082,3.1264956,4.087586
-20.388367,3.1426916,4.081959
-20.550976,3.157566,4.075528
-20.734074,3.1793838,4.0782223
-20.856052,3.1839287,4.0607424
-20.980553,3.1898527,4.045479
-21.085052,3.1902885,4.023989
-21.189442,3.1911936,4.003518
-21.330368,3.2040513,3.9983878
-21.39161,3.1924329,3.96314
-21.56939,3.2183523,3.9755008
-21.593288,3.1954746,3.926672
-21.769436,3.2223976,3.9414663
-21.815536,3.207308,3.9030762
-21.933784,3.2164736,3.8961306
-22.027258,3.2178893,3.8796024
-22.101416,3.2131548,3.8554125
-22.229424,3.2273612,3.8563013
-22.243626,3.202501,3.8062682
-22.426453,3.2371044,3.834879
-22.433098,3.20992,3.782127
-22.59095,3.2371445,3.8019586
-22.651695,3.2299042,3.7762032
-22.720133,3.2257295,3.7547736
-22.852938,3.2458446,3.7664113
-22.866217,3.2217202,3.7184892
-23.008518,3.2465918,3.7373457
-23.059755,3.2373023,3.7099843
-23.139437,3.2392402,3.698197
-23.230602,3.2460883,3.6934485
-23.269386,3.2326174,3.6608887
-23.375095,3.2460809,3.6658397
-23.467287,3.2546847,3.664381
-23.48074,3.2315147,3.6187863
-23.614187,3.257919,3.6427698
-23.674057,3.2543938,3.6250696
-23.704857,3.2388124,3.5905132
-23.836262,3.2662532,3.617003
-23.88224,3.2576663,3.5927124
-23.976044,3.2700994,3.598524
-24.082949,3.2888846,3.6137242
-24.095524,3.266296,3.5699062
-24.181458,3.2765937,3.5734081
-24.231922,3.2712522,3.554607
-24.308048,3.2779007,3.5532918
-24.320513,3.2553709,3.5098586
-24.438784,3.282382,3.5385118
-24.50584,3.2859254,3.5333
-24.514828,3.2619514,3.4880261
-24.596222,3.2728698,3.493906
-24.68105,3.2859788,3.5032458
-24.725754,3.2797618,3.4843516
-24.79287,3.2849016,3.4823437
-24.867191,3.294064,3.4864798
-24.931627,3.2986298,3.484002
-24.95185,3.280708,3.4482388
-25.051153,3.3039587,3.4738941
-25.093275,3.2977839,3.4558644
-25.144814,3.2967508,3.4456315
-25.18911,3.2920427,3.4300084
-25.260498,3.3022456,3.4369154
-25.33086,3.3123488,3.4438648
-25.344576,3.291378,3.4040694
-25.40485,3.2963943,3.4035993
-25.465618,3.3020399,3.4042354
-25.531696,3.3111005,3.410214
-25.552166,3.2940807,3.3766656
-25.602257,3.294331,3.369471
-25.664455,3.3020096,3.373742
-25.711582,3.301035,3.364924
-25.767334,3.3055055,3.364561
-25.793009,3.2918336,3.336465
-25.849909,3.2974665,3.3381047
-25.916424,3.3094826,3.349718
-25.969574,3.3135056,3.3491578
-25.977331,3.288706,3.3041544
-26.03366,3.295086,3.307415
-26.122866,3.3234076,3.3448396
-26.174068,3.3273594,3.3446403
-26.18621,3.305389,3.304225
-26.247322,3.3163774,3.315156
-26.308105,3.327602,3.3265996
-26.352005,3.3275623,3.3205833
-26.383665,3.319123,3.3015113
-26.419662,3.313773,3.287333
-26.465876,3.3158503,3.2848744
-26.530363,3.3314826,3.303812
-26.556158,3.3191836,3.2789512
-26.603754,3.3230407,3.2795763
-26.637299,3.3165858,3.2640343
-26.68067,3.3176734,3.2604618
-26.727922,3.3219833,3.2620707
-26.783463,3.3330736,3.2745123
-26.799564,3.3133993,3.2383022
-26.83487,3.3088236,3.2260594
-26.87734,3.3101397,3.2232404
-26.930038,3.3200839,3.2342281
-26.988897,3.3355968,3.2541962
-27.021204,3.3293102,3.239534
-27.05253,3.32221,3.2236242
-27.09964,3.3287594,3.2295728
-27.15637,3.3440893,3.249659
-27.187056,3.33689,3.2337914
-27.22393,3.3352442,3.2268715
-27.258268,3.3314235,3.2165241
-27.293625,3.3286185,3.2078638
-27.343725,3.3397179,3.2216144
-27.378925,3.3371577,3.2134848
-27.417969,3.3384006,3.2115383
-27.44361,3.3267815,3.1889248
-27.47322,3.3189359,3.172429
-27.516893,3.3251488,3.1786795
-27.56404,3.3352456,3.191288
-27.606354,3.3408203,3.1966715
-27.63458,3.3319747,3.1787815
-27.666058,3.3264914,3.166377
-27.69848,3.3220353,3.1556835
-27.75385,3.3427396,3.185876
-27.788637,3.341363,3.1803122
-27.82298,3.339611,3.174193
-27.849419,3.3289068,3.1535635
-27.885075,3.328763,3.150157
-27.918657,3.3263311,3.1430793
-27.963814,3.3378978,3.1588736
-28.001965,3.341448,3.161673
-28.036882,3.341264,3.1584363
-28.06488,3.3324952,3.1412306
-28.096048,3.32766,3.1304889
-28.137287,3.3359852,3.1413188
-28.178288,3.344442,3.1524348
-28.219402,3.3535175,3.1646333
-28.250006,3.3485956,3.1539617
-28.278593,3.3408234,3.1386576
-28.3104,3.3375208,3.130723
-28.345268,3.3387115,3.1302104
-28.385359,3.3478534,3.1428113
-28.421944,3.3522065,3.1476078
-28.454876,3.3512516,3.1437325
-28.482777,3.3424957,3.1270695
-28.51361,3.3382509,3.117866
-28.547829,3.3395286,3.1177988
-28.591154,3.356264,3.1432548
-28.625925,3.359246,3.14611
-28.659168,3.359842,3.1450815
-28.68373,3.3450997,3.1187897
-28.711056,3.334891,3.1000075
-28.742325,3.3317323,3.0929008
-28.791372,3.3626442,3.1421309
-28.824362,3.3636968,3.1420922
-28.85854,3.3673456,3.1463943
-28.887493,3.3605542,3.133473
-28.915394,3.35132,3.1165466
-28.945564,3.3466775,3.1072555
-28.983477,3.3592339,3.1264853
-29.023918,3.3784595,3.1568232
-29.056192,3.3796422,3.1573253
-29.083641,3.369292,3.138752
-29.1101,3.3559694,3.1152816
-29.14115,3.3538427,3.110413
-29.174313,3.3573713,3.1149693
-29.209387,3.3665712,3.128985
-29.2428,3.3718097,3.136475
-29.276237,3.377649,3.1450086
-29.304882,3.369339,3.130087
-29.33434,3.3631344,3.1186967
-29.362083,3.3508892,3.0973043
-29.398947,3.3692977,3.126902
-29.432384,3.3771005,3.1389213
-29.463724,3.3778486,3.1392536
-29.495289,3.3797004,3.1414642
-29.522476,3.3637433,3.1140862
-29.5546,3.3677971,3.1200385
-29.584946,3.3642597,3.1134
-29.617884,3.373089,3.1273866
-29.649807,3.3779092,3.1347432
-29.68058,3.3771758,3.1328955
-29.712576,3.3837018,3.1431766
-29.741009,3.3687642,3.1177526
-29.770908,3.3615937,3.1052995
-29.802479,3.3657937,3.111827
-29.836382,3.3901074,3.1519074
-29.867271,3.3924232,3.1553817
-29.897997,3.393792,3.1573176
-29.927397,3.3803327,3.134582
-29.956806,3.3628335,3.1051507
-29.987394,3.3577485,3.0964465
-30.018358,3.3578846,3.0964837
-30.050732,3.39462,3.157565
-30.081152,3.3913178,3.1519537
-30.1117,3.3916943,3.1525126
-30.14225,3.3952365,3.1583867
-30.172703,3.3998852,3.1661453
-30.2033,3.3922668,3.1534953
-30.234463,3.3728967,3.1212964
-30.265514,3.3664668,3.1107073
-30.296087,3.3714316,3.119151
-30.326473,3.3775024,3.1294775
-30.356186,3.3903334,3.1511087
-30.386023,3.398612,3.1651897
-30.417212,3.3920639,3.1546025
-30.448086,3.3897078,3.151041
-30.479742,3.381783,3.1382422
-30.51145,3.3749688,3.1273375
-30.540533,3.3867142,3.1473866
-30.569513,3.3975036,3.1658802
-30.599236,3.4027226,3.1751332
-30.63028,3.4003284,3.1717472
-30.661594,3.3969917,3.1668339
-30.696669,3.3763301,3.1331248
-30.724949,3.38852,3.154139
-30.75139,3.4074242,3.1863585
-30.783579,3.4013424,3.1770406
-30.813808,3.4035206,3.1815057
-30.844278,3.4047549,3.1844392
-30.875456,3.4035177,3.1833038
-30.905777,3.405421,3.1874304
-30.935131,3.4104578,3.1968045
-30.965519,3.4120054,3.200418
-41.632446,0.9763489,0.33725357
-41.65662,1.0179849,0.4185009
-41.66884,1.0644054,0.5065141
-41.679466,1.1110959,0.59485245
-41.65683,1.1712432,0.702055
-41.643726,1.2267723,0.80259514
-41.650124,1.2737498,0.8910427
-41.76838,1.2751389,0.9159727
-41.655586,1.3694005,1.0700645
-41.740013,1.3842766,1.1139212
-41.65699,1.46493,1.2485662
-41.723763,1.4864714,1.3017168
-41.628334,1.5702682,1.4400816
-41.688034,1.5940771,1.496345
-41.634968,1.6602483,1.6101604
-41.624863,1.7096574,1.7010422
-41.61222,1.759527,1.792407
-41.647472,1.7915213,1.8597136
-41.686535,1.8220465,1.9251242
-41.712227,1.8572564,1.9968238
-41.7782,1.9657288,2.215764
-43.007214,1.6381328,1.844316
-42.9746,1.6961067,1.9480958
-43.04506,1.7195327,2.0073972
-43.01969,1.7743356,2.1068792
-41.652767,2.260875,2.7528028
-41.6989,2.287078,2.8127089
-41.728592,2.3184898,2.8792677
-41.735435,2.3569388,2.9546385
-41.756943,2.3906288,3.0240746
-41.779743,2.423793,3.092886
-41.777657,2.464333,3.1707268
-41.80935,2.4945264,3.2359333
-41.85513,2.5205183,3.2961574
-41.886887,2.5506399,3.3614655
-41.92459,2.5790026,3.4247656
-41.98294,2.60149,3.4812574
-42.08688,2.6112943,3.5231447
-42.200867,2.6187425,3.5627594
-42.337883,2.6203663,3.596192
-42.49069,2.618351,3.6261187
-42.631577,2.6202757,3.6612368
-42.84685,2.6031547,3.6756887
-43.02806,2.596085,3.702393
-43.25335,2.5785258,3.7184734
-43.395767,2.58332,3.7600698
-43.536316,2.5892444,3.8036003
-43.71442,2.5864496,3.838542
-43.919014,2.5780075,3.8684592
-45.207855,2.3070474,3.6254807
-45.21368,2.3516817,3.7155523
-45.22547,2.3946962,3.8039155
-45.246117,2.4354737,3.890007
-45.263306,2.4769402,3.9768195
-45.23606,2.5284097,4.0734572
-45.58979,2.4937882,4.0865827
-46.02346,2.4432995,4.0867066
-46.47998,2.3901458,4.0869846
-47.0141,2.3226833,4.076868
-47.61557,2.2437615,4.0596986
-48.24713,2.1617901,4.043654
-48.912697,2.0761974,4.0285234
-49.622013,1.9852684,4.0131683
-50.415794,1.8811464,3.9913874
-51.105522,1.80201,3.9956713
-52.052322,1.6761942,3.9668226
-53.03678,1.5482342,3.9428658
-54.12795,1.405282,3.9142542
-1.5153656,0.48273635,2.741725
-2.8778477,0.66605973,2.8070116
-3.71739,0.7537024,2.7957745
-4.4174995,0.81793547,2.7685843
-5.5724735,0.97819304,2.8344798
-6.1022434,1.0161123,2.7925801
-6.1605587,0.958375,2.6625285
-6.148733,0.88581324,2.518344
-6.2136326,0.82932377,2.3897805
-6.2458954,0.76578546,2.2544522
-6.256193,0.6972561,2.1141438
-6.164812,0.53398275,1.8061342
-17.446964,2.9353077,4.150194
-17.668182,2.9497814,4.131199
-17.955734,2.981645,4.1326303
-18.147034,2.9912243,4.1105676
-18.374537,3.0108714,4.1008434
-18.654768,3.045134,4.1089363
-18.866325,3.0632856,4.099862
-19.09417,3.0868099,4.0980577
-19.288126,3.1026433,4.088339
-19.515884,3.1285315,4.091416
-19.720009,3.1492968,4.089469
-19.89513,3.16325,4.080298
-20.008423,3.1610353,4.052377
-20.163738,3.1711164,4.03992
-20.340652,3.1881304,4.036654
-20.366062,3.1626945,3.9817486
-20.564287,3.187315,3.989135
-20.665085,3.1844826,3.9630375
-20.765823,3.1820993,3.9379153
-20.969994,3.2112255,3.9531229
-20.985039,3.1841276,3.897533
-21.134705,3.1982434,3.8947992
-21.194775,3.185359,3.8578587
-21.381262,3.2123725,3.872867
-21.415503,3.1921258,3.8270216
-21.583473,3.2148454,3.8375864
-21.63195,3.1997323,3.7989788
-21.780712,3.2176726,3.8042922
-21.818726,3.199688,3.7623777
-22.019224,3.2363012,3.7935758
-22.025875,3.208359,3.7388334
-22.175922,3.2294412,3.7502294
-22.233051,3.21917,3.7196846
-22.335861,3.2251148,3.7114015
-22.441006,3.2324276,3.7053537
-22.499763,3.2236748,3.6776166
-22.624956,3.2392054,3.683545
-22.64798,3.21804,3.6391153
-22.82081,3.252273,3.6717248
-22.86325,3.2388277,3.6384354
-22.94692,3.2410638,3.627221
-23.06298,3.256105,3.6342802
-23.090483,3.2376077,3.5944185
-23.210169,3.2550845,3.6055412
-23.25598,3.244125,3.5766668
-23.283018,3.225789,3.5374002
-23.41909,3.2513857,3.561016
-23.47715,3.2460737,3.5407386
-23.510887,3.2309668,3.506524
-23.652992,3.260994,3.5375576
-23.69068,3.248054,3.5068245
-23.77733,3.2559872,3.5065026
-23.897144,3.2786655,3.5279298
-23.913315,3.2571247,3.4851198
-24.042658,3.2851195,3.5149102
-24.100616,3.2823515,3.4999042
-24.140553,3.2717476,3.473506
-24.222603,3.280303,3.4755073
-24.307453,3.2906225,3.48036
-24.317284,3.2667367,3.4346547
-24.39571,3.2747183,3.4363852
-24.46928,3.280865,3.4355974
-24.520622,3.276809,3.419746
-24.553087,3.2638366,3.3906465
-24.661512,3.2879343,3.4173412
-24.734228,3.2952142,3.4190102
-24.74062,3.2698658,3.3715944
-24.839737,3.290957,3.3944483
-24.92434,3.3053799,3.407467
-24.942095,3.2859783,3.3692951
-25.024048,3.2998133,3.3817687
-25.086111,3.3037493,3.379352
-25.155159,3.3117406,3.3832932
-25.186134,3.2997086,3.3567195
-25.249887,3.3054647,3.3575177
-25.32046,3.3153381,3.364811
-25.360603,3.3087924,3.3469677
-25.396622,3.3000355,3.325791
-25.454178,3.3035412,3.323657
-25.531485,3.3186874,3.339705
-25.56535,3.30923,3.31774
-25.597975,3.2990763,3.2947512
-25.669815,3.3121603,3.3080306
-25.71985,3.31271,3.3019223
-25.768452,3.3126345,3.2949438
-25.7998,3.3022218,3.2718806
-25.861452,3.3105652,3.2782898
-25.918266,3.3162947,3.2807345
-25.975508,3.3226476,3.2842884
-25.982466,3.2971656,3.2377982
-26.057438,3.3153741,3.260243
-26.124323,3.3289192,3.275495
-26.177004,3.3335817,3.2768445
-26.195236,3.3154793,3.242219
-26.260775,3.3292391,3.258181
-26.315487,3.3361073,3.2633376
-26.356573,3.333891,3.2541509
-26.398232,3.3322322,3.2459311
-26.437452,3.329008,3.2352905
-26.477854,3.3267622,3.226284
-26.542965,3.3426354,3.2463417
-26.570835,3.3316858,3.2235737
-26.591352,3.3151941,3.191955
-26.627674,3.3104162,3.179162
-26.667442,3.3083525,3.170792
-26.725798,3.3207932,3.1858416
-26.784348,3.3338916,3.202073
-26.808172,3.320018,3.174914
-26.85914,3.3277504,3.182674
-26.902243,3.3294852,3.1808386
-26.951696,3.336677,3.187914
-26.990774,3.335605,3.181695
-27.023464,3.3293073,3.1670675
-27.073498,3.337848,3.17658
-27.122227,3.3456695,3.1850214
-27.172243,3.3550117,3.1960292
-27.209793,3.3537111,3.1898017
-27.234247,3.3407679,3.1646595
-27.27335,3.3410232,3.161076
-27.313858,3.3427649,3.1599846
-27.3635,3.3532994,3.1733341
-27.39792,3.3498359,3.1638775
-27.434736,3.348763,3.1583877
-27.457405,3.3340096,3.1305375
-27.494308,3.3331218,3.1254482
-27.547255,3.3485155,3.1471438
-27.585701,3.3497417,3.1456647
-27.621815,3.3487647,3.1406255
-27.647257,3.3367198,3.1174316
-27.679928,3.3321953,3.106647
-27.725616,3.341792,3.1191816
-27.774862,3.3557644,3.1390114
-27.812773,3.3576903,3.1390495
-27.842268,3.3503103,3.1237783
-27.871063,3.3420587,3.1071048
-27.904856,3.3395543,3.0999713
-27.948229,3.348525,3.111877
-27.996061,3.3633416,3.1335363
-28.028366,3.3597505,3.1247773
-28.05727,3.351952,3.109085
-28.081036,3.3375278,3.0824351
-28.12067,3.3432715,3.0892906
-28.167059,3.3582604,3.111569
-28.206934,3.3652306,3.1205964
-28.239876,3.363168,3.114665
-28.272472,3.3607135,3.1081266
-28.296524,3.3462534,3.0816407
-28.335348,3.3526762,3.0899696
-28.371994,3.3563058,3.0937023
-28.41371,3.3678243,3.1106462
-28.448406,3.369248,3.1108122
-28.47707,3.3614993,3.095714
-28.50557,3.35333,3.079949
-28.538149,3.3515913,3.074963
-28.572508,3.3528824,3.0750856
-28.614927,3.3680196,3.0984144
-28.646423,3.365098,3.0915933
-28.676281,3.359304,3.0800042
-28.705969,3.3530908,3.067749
-28.736835,3.3489258,3.0589623
-28.771423,3.351764,3.061952
-28.816877,3.3759956,3.100863
-28.852251,3.381536,3.1084948
-28.884787,3.3817165,3.1071825
-28.910877,3.3685615,3.083527
-28.939798,3.360937,3.0691862
-28.97541,3.367834,3.0792732
-29.015657,3.38581,3.1080275
-29.050322,3.3919253,3.1169052
-29.078793,3.3836386,3.1016154
-29.10804,3.3769212,3.0889974
-29.138792,3.3737822,3.0824351
-29.170544,3.3732293,3.0802636
-29.20467,3.3792865,3.0892591
-29.24076,3.3914695,3.1086159
-29.272417,3.3916874,3.107871
-29.300402,3.3809142,3.0886507
-29.32671,3.3641608,3.0593834
-29.36,3.3691435,3.0667806
-29.39227,3.3711898,3.0692701
-29.428854,3.3889759,3.098342
-29.46039,3.3896892,3.098671
-29.490597,3.3854282,3.09065
-29.519163,3.3741596,3.0708418
-29.547983,3.362959,3.0511808
-29.579168,3.3614519,3.047913
-29.61311,3.3732035,3.0670652
-29.64953,3.399248,3.110393
-29.680386,3.3985093,3.1085472
-29.710289,3.3922653,3.0974436
-29.739601,3.3815272,3.0787845
-29.770508,3.380004,3.075726
-29.801785,3.3811016,3.0771322
-29.834402,3.393464,3.0976086
-29.866093,3.4003203,3.1088238
-29.897007,3.4011562,3.1099057
-29.926653,3.3878262,3.087088
-29.956957,3.3791494,3.0721703
-29.987623,3.3730948,3.0617185
-30.018976,3.377808,3.0695038
-30.050829,3.3983843,3.1041398
-30.081772,3.4037695,3.1131392
-30.112581,3.4092348,3.1223116
-30.14325,3.4117243,3.126492
-30.17387,3.4127643,3.1282601
-30.20485,3.3955538,3.0992193
-30.235989,3.3860607,3.0832605
-30.267105,3.3822486,3.0769415
-30.297998,3.3841162,3.0802617
-30.329128,3.381992,3.0768723
-30.358175,3.406407,3.1183715
-30.388718,3.4085078,3.1221952
-30.41959,3.4071262,3.120173
-30.452341,3.3900628,3.0916944
-30.48341,3.389355,3.0908885
-30.514935,3.3856785,3.0851078
-30.546087,3.3851318,3.0846543
-30.572823,3.411575,3.129819
-30.603607,3.4116862,3.130546
-30.6343,3.4123838,3.1323023
-30.668152,3.397444,3.1076975
-30.700642,3.3907073,3.0969853
-30.731365,3.3926685,3.1009946
-30.75881,3.4083743,3.1282325
-30.786776,3.4206002,3.1496305
-30.817375,3.4217706,3.1524105
-30.847822,3.4235244,3.1562138
-30.878963,3.4228332,3.155931
-30.909538,3.424241,3.1592274
-30.939468,3.4277442,3.1660929
-41.657433,1.0466993,0.28631163
-41.637596,1.1068687,0.39486742
-41.66419,1.1469088,0.47413588
-41.684464,1.1892967,0.5567932
-41.68292,1.2902029,0.7451539
-41.627987,1.3616624,0.86918306
-41.672134,1.3928547,0.93559694
-41.61418,1.4640722,1.0588598
-41.693474,1.4810178,1.1050916
-41.598507,1.5651963,1.246233
-41.72777,1.562859,1.265502
-41.6163,1.6517661,1.4127588
-41.698715,1.6671665,1.4570999
-41.62361,1.7408488,1.5825424
-41.640594,1.7799845,1.6598511
-41.615177,1.8341544,1.7578311
-41.635025,1.8716052,1.8327041
-41.717823,1.8866334,1.8769689
-41.664326,1.949492,1.9864874
-41.74895,1.9639113,2.0301619
-41.78312,1.9958441,2.0976944
-41.79852,2.0340233,2.1736608
-43.13301,1.7263873,1.843708
-42.993206,1.8645842,2.082015
-43.02806,1.8993232,2.1558762
-41.64992,2.3753457,2.8005424
-41.722332,2.3933558,2.8498125
-41.728233,2.4318943,2.925583
-41.753296,2.464405,2.9936385
-41.77336,2.498302,3.0634818
-41.795628,2.5314145,3.1323552
-41.814674,2.565349,3.2022805
-41.857742,2.5922225,3.2634678
-41.89496,2.6207926,3.3268719
-41.968315,2.639179,3.3779316
-42.060684,2.652507,3.4231348
-42.197014,2.6541047,3.454586
-42.309483,2.6628315,3.4951658
-42.438526,2.6675956,3.5315347
-42.573143,2.671472,3.567439
-42.746754,2.6657522,3.5927582
-42.877808,2.6719222,3.6326623
-43.051727,2.667725,3.661284
-43.260376,2.6556168,3.681756
-43.458107,2.6473086,3.7075486
-43.624184,2.6478004,3.7441454
-43.740517,2.6611931,3.7958145
-43.87555,2.6705832,3.8436751
-45.2095,2.3962684,3.5854836
-45.24463,2.4339013,3.6682935
-45.218544,2.4856522,3.76614
-45.222065,2.5302608,3.8562899
-45.210644,2.5780244,3.9496274
-45.226154,2.6195157,4.0364237
-45.43205,2.6191673,4.081176
-45.766205,2.5920982,4.100606
-46.30401,2.5233622,4.0812864
-46.78823,2.4688284,4.0788875
-47.39547,2.3913922,4.05774
-47.956757,2.3266568,4.0522056
-48.548965,2.2587092,4.04725
-49.27072,2.1682053,4.025755
-50.01803,2.0766027,4.0079627
-50.824837,1.9775517,3.9886217
-51.620476,1.8849733,3.9801526
-52.56997,1.7678382,3.9566464
-53.47538,1.6639462,3.950416
-54.659836,1.5141885,3.9141011
0.062755585,0.5275061,2.7462988
-3.6453953,1.0456655,3.0161018
-3.7762222,0.99513483,2.884614
-4.1728325,0.99590707,2.8017673
-5.08226,1.098243,2.8178306
-6.044941,1.2159853,2.8542771
-6.103405,1.1581323,2.7240438
-6.1252155,1.0928755,2.586669
-4.253504,0.63773894,2.0548935
-4.329336,0.5778446,1.9174943
-6.065399,0.86945915,2.145894
-6.110386,0.80803037,2.01225
-6.2553787,0.7682874,1.901865
-6.268688,0.700016,1.7613807
-6.2402935,0.62214947,1.6103697
-16.157967,2.7972093,3.9464526
-15.7925005,2.6709723,3.7677789
-17.504307,3.0255375,4.12924
-17.666185,3.025035,4.095256
-18.371971,3.0821993,4.0666037
-18.70369,3.127696,4.0905514
-18.894747,3.1397305,4.076212
-19.02135,3.1363695,4.0442524
-19.105257,3.1226077,4.000252
-19.315071,3.142005,3.9970794
-19.51794,3.160707,3.9939976
-19.634758,3.157515,3.9646907
-19.735912,3.1506352,3.9312706
-19.929535,3.1695168,3.9306343
-20.046886,3.1683288,3.9054437
-20.154125,3.1648664,3.8778334
-20.342121,3.1848142,3.8806515
-20.419123,3.173942,3.8445153
-20.578384,3.1872644,3.8400488
-20.700344,3.1904852,3.8230472
-20.778114,3.1811838,3.7900872
-20.976791,3.2085557,3.8058033
-20.994513,3.1820307,3.7508059
-21.162117,3.201526,3.7572103
-21.177525,3.1745987,3.7020254
-21.401134,3.2130952,3.7350092
-21.41847,3.1872802,3.6817794
-21.618938,3.220325,3.7086535
-21.627712,3.1921644,3.6526213
-21.82806,3.2269166,3.6829686
-21.851871,3.2041183,3.6346803
-21.996508,3.2219398,3.6427107
-22.035267,3.2045522,3.6022701
-22.2223,3.2382553,3.6333122
-22.221542,3.2077699,3.5749807
-22.369122,3.2292304,3.5897598
-22.44461,3.2259312,3.5700421
-22.511559,3.2198958,3.5466766
-22.642723,3.237482,3.557166
-22.65555,3.2123473,3.5070095
-22.82557,3.2454717,3.540453
-22.86281,3.2298238,3.5042415
-22.981773,3.2452495,3.5130157
-23.076256,3.251989,3.5095806
-23.11437,3.237369,3.4753704
-23.206078,3.2438173,3.4719906
-23.27707,3.2425528,3.4575987
-23.338188,3.2376602,3.4380813
-23.455256,3.2556758,3.4524722
-23.481365,3.2371864,3.4132977
-23.56966,3.244374,3.4122062
-23.667282,3.2559564,3.417901
-23.690435,3.2366402,3.3778486
-23.829674,3.2668402,3.4118032
-23.896301,3.2666578,3.4006715
-23.935322,3.2547395,3.3720894
-24.051102,3.2767491,3.3946815
-24.108707,3.2736034,3.3796382
-24.16704,3.2710266,3.3655992
-24.244574,3.2774458,3.3653545
-24.318016,3.2824223,3.363124
-24.323368,3.2561183,3.3134012
-24.430084,3.2772202,3.336083
-24.517353,3.2898242,3.3460493
-24.523909,3.2642064,3.297587
-24.601105,3.272631,3.3014617
-24.670578,3.2777295,3.3004084
-24.721363,3.2739468,3.2858105
-24.786812,3.2777135,3.2830138
-24.846224,3.2787778,3.2761836
-24.92656,3.29086,3.2866168
-24.959593,3.2789705,3.2599258
-25.049484,3.2968602,3.2797537
-25.133156,3.3121128,3.295692
-25.156101,3.2954645,3.2618794
-25.23007,3.3063083,3.2712274
-25.270763,3.2994494,3.2529302
-25.347713,3.312735,3.2664304
-25.375832,3.2992728,3.2379274
-25.423405,3.2967534,3.2267542
-25.478445,3.2986922,3.2227345
-25.549625,3.310242,3.2340698
-25.573938,3.2949157,3.2028956
-25.619257,3.291894,3.191319
-25.690483,3.3045132,3.2047453
-25.742828,3.3062532,3.2009792
-25.769463,3.292564,3.1726685
-25.82562,3.297031,3.1734452
-25.892574,3.308573,3.185678
-25.942476,3.3098364,3.1815639
-25.984612,3.3063915,3.1699839
-26.031794,3.306355,3.1639652
-26.104,3.3228977,3.1847558
-26.150185,3.3228395,3.1789188
-26.189484,3.3183904,3.1660743
-26.233704,3.3173857,3.1588707
-26.294292,3.3277817,3.170218
-26.350931,3.3359003,3.1779976
-26.37615,3.3223977,3.1507773
-26.399817,3.3076825,3.121613
-26.45261,3.3137326,3.1262794
-26.503428,3.3187006,3.129284
-26.551147,3.3217208,3.1292076
-26.599863,3.3257613,3.1308866
-26.625633,3.3128178,3.1048794
-26.67081,3.3145587,3.102943
-26.718105,3.318179,3.104167
-26.772438,3.3275936,3.114986
-26.801765,3.3176494,3.0941105
-26.838863,3.313881,3.0834274
-26.882978,3.3159099,3.082344
-26.930174,3.320718,3.0859156
-26.988808,3.3353715,3.1058078
-27.016146,3.324197,3.0831785
-27.056627,3.3241544,3.0789747
-27.099089,3.3260171,3.0779872
-27.152098,3.3373723,3.092785
-27.194216,3.3395367,3.0924525
-27.22975,3.3360133,3.082757
-27.263824,3.331245,3.0710478
-27.296482,3.3252199,3.0572987
-27.35087,3.3396146,3.0775447
-27.391052,3.3410697,3.0763588
-27.427368,3.3390164,3.0693946
-27.44879,3.3224945,3.0383697
-27.494898,3.330207,3.0477815
-27.537582,3.3348696,3.0521803
-27.575603,3.3350816,3.0492125
-27.615776,3.3377085,3.0503407
-27.649694,3.3340044,3.0409384
-27.677156,3.3234575,3.0201273
-27.716763,3.32595,3.0211902
-27.760885,3.333675,3.0310864
-27.800608,3.3368888,3.0334868
-27.837324,3.336959,3.0306687
-27.869534,3.3319917,3.019442
-27.899012,3.3238275,3.002883
-27.941221,3.330769,3.0117655
-27.983988,3.3387873,3.0225263
-28.024216,3.3441133,3.028819
-28.054096,3.3367996,3.0138755
-28.084473,3.330032,2.9998884
-28.12117,3.3314106,2.999679
-28.164255,3.3414576,3.014153
-28.206697,3.3511682,3.0281258
-28.239113,3.347647,3.0198054
-28.270195,3.3422983,3.0084367
-28.306746,3.344696,3.010209
-28.337898,3.3395193,2.9992137
-28.378885,3.3488498,3.0128188
-28.414177,3.3501194,3.0128307
-28.449392,3.3514898,3.0130606
-28.479918,3.3457096,3.001214
-28.51205,3.3424263,2.9936385
-28.541853,3.3353484,2.979663
-28.583107,3.3472831,2.9980006
-28.624033,3.359348,3.0166216
-28.659338,3.3622868,3.0197945
-28.686354,3.350691,2.9983077
-28.716816,3.3450162,2.986918
-28.749466,3.3433304,2.982349
-28.786455,3.350059,2.9921398
-28.823997,3.3583672,3.0046725
-28.859602,3.3633497,3.011591
-28.88675,3.3512223,2.9894094
-28.913464,3.3376768,2.9648376
-28.94814,3.3409486,2.9689608
-28.984898,3.3492515,2.981709
-29.023989,3.3635905,3.0048037
-29.063118,3.379038,3.0298448
-29.09036,3.3663824,3.0069733
-29.116121,3.349326,2.976616
-29.147766,3.3467095,2.9709435
-29.184038,3.3565907,2.9866567
-29.222176,3.372541,3.0127873
-29.253386,3.369699,3.006855
-29.286297,3.371917,3.0096078
-29.314346,3.3592718,2.986988
-29.344522,3.3526757,2.9747424
-29.377197,3.3541405,2.9763193
-29.408401,3.3506963,2.9695377
-29.444542,3.3653286,2.9937234
-29.479536,3.3770626,3.0129976
-29.50942,3.3693728,2.9990668
-29.537601,3.3537424,2.9715729
-29.570366,3.3572216,2.9768314
-29.602715,3.3592823,2.979701
-29.637077,3.3719647,3.000802
-29.669449,3.3757064,3.0066304
-29.70076,3.3740098,3.00318
-29.731052,3.365862,2.9887123
-29.76116,3.3552763,2.9701014
-29.793428,3.3588426,2.9757776
-29.826164,3.36702,2.989396
-29.8592,3.3798125,3.0109644
-29.89051,3.3786018,3.0085683
-29.921711,3.3759623,3.0037584
-29.952246,3.3638358,2.9827209
-29.983454,3.357829,2.97221
-30.015032,3.3564346,2.9696426
-30.047764,3.3838313,3.0164804
-30.079163,3.3866317,3.0211802
-30.110466,3.388001,3.0234642
-30.141754,3.3959997,3.0371523
-30.172998,3.3879585,3.0233722
-30.20423,3.389569,3.0261784
-30.236101,3.3711107,2.9946108
-30.267776,3.36684,2.9874058
-30.299585,3.362147,2.9795156
-30.330242,3.3756635,3.0028825
-30.360947,3.3847249,3.0186458
-30.392433,3.3832936,3.0164566
-30.423958,3.381945,3.0144453
-30.455761,3.3786647,3.009161
-30.488176,3.371445,2.9971623
-30.519695,3.3718517,2.998273
-30.549421,3.3838973,3.0193634
-30.579702,3.3909907,3.0320034
-30.610273,3.3956501,3.0405054
-30.642569,3.3908505,3.0328417
-30.676323,3.379618,3.0141969
-30.710466,3.3679771,2.994897
-30.741245,3.3724637,3.0032544
-30.766506,3.3995593,3.050353
-30.796694,3.4046865,3.0598698
-30.830088,3.3973868,3.0481553
-30.861456,3.3981752,3.0503206
-30.89282,3.399045,3.0526638
-30.922523,3.4054844,3.06457
-30.952246,3.4114983,3.0757813
-41.64594,1.1858058,0.35259438
-41.65562,1.232656,0.44229698
-41.70902,1.2613006,0.5050888
-41.669315,1.3274119,0.6230717
-41.60635,1.4019709,0.7532048
-41.616608,1.446665,0.8393731
-41.65823,1.4787633,0.9071398
-41.725822,1.5007439,0.96027946
-41.64369,1.5799797,1.0964417
-41.72013,1.598247,1.1442714
-41.644054,1.6736727,1.2744565
-41.714462,1.6939569,1.3252892
-41.64798,1.7644207,1.4479136
-41.62763,1.8172865,1.5451746
-41.643753,1.8565624,1.6230221
-41.61744,1.9105921,1.7216635
-41.60988,1.9574869,1.8100905
-41.653084,1.9863958,1.8732266
-41.682068,2.0201404,1.9431939
-41.698418,2.0580285,2.0189447
-41.815575,2.1051884,2.1310177
-41.874466,2.1715932,2.26997
-43.069283,1.8316846,1.8331504
-41.79536,2.2812212,2.4674582
-42.957237,1.959264,2.0595083
-41.763165,2.3739696,2.6413689
-41.7321,2.4243007,2.7333627
-41.684105,2.4792435,2.8312435
-41.740078,2.5024974,2.887145
-41.755276,2.5379045,2.9591165
-41.78616,2.568562,3.0249014
-41.81659,2.59929,3.0908408
-41.845657,2.6303482,3.1572661
-41.90701,2.652243,3.2120466
-42.00637,2.6637003,3.2537932
-42.065422,2.6866608,3.3104277
-42.23418,2.679926,3.33009
-42.339775,2.6910176,3.372642
-42.459114,2.698903,3.4116693
-42.606148,2.7000563,3.4429522
-42.743095,2.7045243,3.4789095
-42.872665,2.7115188,3.518516
-43.048744,2.707347,3.5453358
-43.169064,2.7179642,3.5905142
-43.34726,2.7148461,3.6200733
-43.522816,2.7132516,3.6522527
-43.699455,2.7122588,3.6859632
-43.80001,2.7301645,3.7421474
-43.946556,2.7377024,3.7870445
-44.025993,2.7614112,3.8507848
-45.201332,2.5355985,3.6380453
-45.21401,2.5781562,3.7262058
-45.223198,2.6213346,3.8150258
-45.238407,2.663025,3.9022212
-45.24346,2.70678,3.9916062
-45.244995,2.7510986,4.081529
-45.537857,2.7340229,4.1080112
-45.988342,2.6858103,4.104444
-46.515564,2.6243496,4.0902014
-47.062126,2.5618508,4.078046
-47.602024,2.5036225,4.073324
-48.231697,2.4307375,4.05784
-48.87802,2.3580403,4.0464163
-49.629097,2.2689326,4.0238557
-50.37574,2.1847029,4.0105
-51.17222,2.0953012,3.9973516
-52.027397,1.9995201,3.9838514
-53.01346,1.8849502,3.9599924
-53.988495,1.7776015,3.948822
0.08430672,0.78500175,2.8456898
-3.0921364,1.1778293,3.0161023
-3.7354107,1.217268,2.968132
-3.7342815,1.142353,2.814259
-5.501213,1.3247855,2.8361034
-6.1105957,1.3707204,2.8090625
-6.099554,1.2994554,2.6654568
-6.0982265,1.229742,2.5232906
-4.3165016,0.8038912,2.0057616
-6.022005,1.0744495,2.221671
-6.0641384,1.0124984,2.0873504
-6.1062202,0.95045733,1.9530487
-6.122513,0.8828738,1.8127193
-6.2464676,0.766845,1.5536618
-16.389685,2.9321747,3.9705343
-15.88721,2.7783895,3.7568908
-17.94411,3.0892022,3.9890609
-18.289318,3.1339028,4.0132504
-18.452332,3.1364574,3.9875584
-18.606777,3.1377256,3.9610023
-18.73875,3.1341794,3.92914
-18.895706,3.137538,3.9064755
-19.117239,3.1581247,3.9061902
-19.269928,3.1621704,3.88587
-19.366234,3.1522703,3.848362
-19.516785,3.1571147,3.8302007
-19.714737,3.175405,3.830069
-19.797071,3.1634672,3.7913523
-19.926884,3.1648698,3.7704349
-20.13468,3.1885476,3.7794175
