x,y,z
-24.348568,3.3248184,3.4372277
-24.381632,3.3117115,3.4076676
-24.466726,3.3228295,3.4150977
-24.534771,3.3264592,3.4113169
-24.611681,3.3346677,3.4147234
-24.588463,3.2952251,3.3451953
-24.705631,3.3233955,3.3795476
-24.777506,3.3302202,3.3813229
-24.80555,3.3157187,3.3503385
-24.851435,3.3101258,3.3331861
-24.919247,3.3157978,3.3336053
-24.987549,3.3221133,3.3351917
-25.025284,3.312998,3.3129158
-25.098284,3.3224134,3.3196235
-25.161692,3.3272178,3.319304
-25.20574,3.3220258,3.3034778
-25.245577,3.3146956,3.284388
-25.309994,3.3209012,3.2866488
-25.385305,3.3335178,3.2991552
-25.444317,3.3375509,3.2983055
-25.463272,3.319282,3.26235
-25.531033,3.328736,3.2702851
-25.580158,3.327879,3.2620301
-25.627857,3.326409,3.252904
-25.660095,3.3160126,3.2296782
-25.71043,3.3164265,3.223722
-25.76264,3.3182173,3.2200665
-25.839634,3.335417,3.24114
-25.856228,3.3159332,3.2036924
-25.916496,3.3235152,3.2096233
-25.970722,3.3276782,3.210198
-26.034317,3.3381488,3.2210212
-26.046974,3.3161657,3.1797538
-26.104628,3.3233078,3.1854172
-26.152054,3.3240757,3.1809134
-26.221016,3.339484,3.2001586
-26.253948,3.3310866,3.1810389
-26.31864,3.344452,3.1972246
-26.373877,3.351796,3.2037816
-26.410292,3.3463295,3.1896448
-26.460411,3.3506644,3.191505
-26.489727,3.340376,3.1696553
-26.535559,3.3420436,3.1673317
-26.592854,3.3523865,3.1792483
-26.636618,3.3531146,3.1755729
-26.663206,3.3411229,3.151173
-26.707489,3.3425295,3.1487398
-26.742151,3.3367445,3.1345987
-26.798485,3.3479536,3.1483936
-26.833061,3.3424225,3.1348019
-26.876398,3.3439665,3.132895
-26.913692,3.3408422,3.1233807
-26.947252,3.3347592,3.1090498
-27.006779,3.3503368,3.1304884
-27.050163,3.3528945,3.1305523
-27.080462,3.344525,3.1126337
-27.121658,3.34556,3.1103096
-27.160728,3.344945,3.105321
-27.215317,3.3583012,3.1235433
-27.252617,3.3566241,3.1169367
-27.28989,3.3550591,3.1105747
-27.318377,3.3454962,3.0909824
-27.363863,3.351814,3.0978274
-27.413416,3.3623633,3.1117911
-27.455597,3.3662727,3.1147861
-27.500875,3.373508,3.1233912
-27.525236,3.3603468,3.098053
-27.566198,3.3637135,3.1003275
-27.615545,3.3759322,3.1174545
-27.654787,3.378202,3.1180344
-27.6891,3.3755193,3.1103911
-27.715635,3.364611,3.089024
-27.747496,3.3593218,3.0770993
-27.779423,3.354117,3.0653577
-27.829296,3.36902,3.0873904
-27.86891,3.3728971,3.0909991
-27.903522,3.3712845,3.0854478
-27.928541,3.3585196,3.0611968
-27.96286,3.3566093,3.0552278
-28.004154,3.3632703,3.0637307
-28.04409,3.3686476,3.0701356
-28.084597,3.3750958,3.0784059
-28.1249,3.3816712,3.0869522
-28.143448,3.3603673,3.0485282
-28.181513,3.364288,3.0526876
-28.22262,3.372613,3.0643415
-28.264524,3.3825006,3.0786986
-28.293135,3.3743472,3.0626187
-28.32324,3.3681772,3.0499277
-28.3604,3.3721638,3.0544596
-28.38864,3.3632772,3.0372477
-28.430462,3.3746881,3.0544496
-28.472595,3.3871984,3.0735793
-28.507,3.3882442,3.0733347
-28.537111,3.3826098,3.0618029
-28.566133,3.3751104,3.047142
-28.600813,3.376908,3.0482984
-28.635126,3.3783176,3.0488415
-28.675495,3.3905394,3.067803
-28.70817,3.3897169,3.0646482
-28.737627,3.3831205,3.0517168
-28.765642,3.3736606,3.033947
-28.795382,3.3672042,3.021319
-28.830475,3.3711207,3.0263848
-28.869087,3.3825042,3.0442128
-28.903122,3.3851538,3.047216
-28.93336,3.38002,3.0369992
-28.960083,3.3670745,3.0134993
-28.991041,3.36307,3.0052738
-29.02292,3.3611202,3.0005898
-29.059797,3.371124,3.0163407
-29.094793,3.3772752,3.025566
-29.12805,3.37956,3.0282354
-29.15876,3.3754861,3.0200877
-29.185873,3.3615563,2.9951396
-29.217026,3.3581252,2.9881568
-29.251328,3.3637285,2.9966512
-29.290268,3.3838682,3.0300379
-29.32264,3.3851879,3.0313
-29.357874,3.3960705,3.0489554
-29.379261,3.3611288,2.9882731
-29.413492,3.3686802,3.0003061
-29.446032,3.3708274,3.0031333
-29.480827,3.382065,3.0215592
-29.514349,3.3893955,3.0333414
-29.546972,3.393813,3.0401773
-29.577251,3.3882937,3.0300388
-29.605234,3.3713174,3.0003119
-29.637869,3.375978,3.007677
-29.670656,3.3822317,3.017809
-29.703363,3.3890753,3.0289922
-29.73557,3.3939967,3.0369205
-29.766306,3.3899555,3.0295305
-29.79658,3.381971,3.0154152
-29.825977,3.3655112,2.9868097
-29.858242,3.3712592,2.996304
-29.89041,3.3775957,3.006843
-29.922592,3.3860292,3.021018
-29.953272,3.3774295,3.0060263
-29.984219,3.3699145,2.9929304
-30.015291,3.361471,2.9782777
-30.04678,3.3586473,2.9732976
-30.07866,3.367993,2.9892216
-30.110415,3.3844745,3.017418
-30.141718,3.3829017,3.0146928
-30.17298,3.3899739,3.0268278
-30.20422,3.3900726,3.0270424
-30.236357,3.3635552,2.9816551
-30.268053,3.3607955,2.9770427
-30.29906,3.3712113,2.995057
-30.329536,3.3857338,3.0201478
-30.360493,3.3902624,3.0281396
-30.392433,3.3832936,3.0164566
-30.425083,3.371378,2.9963317
-30.456776,3.3701136,2.994504
-30.48719,3.3789883,3.0100904
-30.517467,3.3874352,3.0249782
-30.54794,3.3934448,3.0357237
-30.579618,3.391493,3.032864
-30.612076,3.3856087,3.023303
-30.645744,3.3742907,3.0044746
-30.677652,3.3730974,3.0030289
-30.707434,3.382013,3.0189333
-30.736898,3.3915017,3.035852
-30.766869,3.3980575,3.0477815
-30.799225,3.3946786,3.0427394
-30.834332,3.381385,3.02077
-30.86825,3.3736892,3.0084252
-30.899332,3.3765743,3.0142226
-30.93368,3.3685608,3.0014176
-30.959145,3.389561,3.038269
-30.991447,3.3881934,3.0369015
-31.02414,3.385916,3.0340204
-31.057783,3.3812401,3.027081
-31.09174,3.3761613,3.0194945
-31.120985,3.3840816,3.0341544
-31.143888,3.4079394,3.0760603
-31.178568,3.401121,3.065617
-31.212208,3.397371,3.0604563
-31.248281,3.3882768,3.0462208
-31.285685,3.37682,3.0280046
-31.317375,3.3787923,3.0327377
-31.34539,3.388729,3.051084
-31.37155,3.4021738,3.075437
-31.403908,3.4024045,3.0773082
-31.439741,3.3958504,3.0676665
-31.474754,3.391362,3.0615902
-31.51197,3.3830583,3.049069
-31.539646,3.3929534,3.067553
-31.571976,3.3941238,3.0712328
-31.601276,3.400742,3.0842123
-31.630733,3.406945,3.096519
-31.673883,3.3898923,3.069368
-31.708967,3.3870552,3.0664144
-31.74266,3.3867404,3.067789
-31.769684,3.3971617,3.0874133
-31.798363,3.4047441,3.1022544
-31.831648,3.4051623,3.104989
-31.867867,3.401342,3.1005893
-31.911766,3.3865778,3.0777164
-31.9427,3.391145,3.0876184
-31.969826,3.401058,3.106598
-31.998833,3.4081633,3.120862
-32.02947,3.4129536,3.1312485
-32.0686,3.4063985,3.1225166
-32.11664,3.3885617,3.0948095
-32.149677,3.3908103,3.1010556
-32.17934,3.3974087,3.1146755
-32.20434,3.4097474,3.138002
-32.240654,3.4079967,3.1376324
-32.279007,3.404003,3.133542
-32.330593,3.3846424,3.1036716
-32.365803,3.385135,3.1072521
-32.393715,3.394139,3.125176
-32.417328,3.4078689,3.151062
-32.444855,3.4169905,3.1692395
-32.48283,3.4145749,3.1681142
-32.519623,3.4136653,3.169569
-32.55606,3.413329,3.1720371
-32.608868,3.3960578,3.1462402
-32.649647,3.391847,3.1423645
-32.682,3.3964763,3.1533165
-32.7111,3.4043941,3.169797
-32.742386,3.4101028,3.182631
-32.778275,3.4113457,3.188068
-32.8194,3.407706,3.18543
-32.855408,3.4091759,3.1913586
-32.90354,3.3994749,3.1787767
-32.92848,3.4115386,3.2024207
-32.96655,3.4115396,3.2060776
-33.00418,3.4121063,3.210733
-33.059048,3.3976228,3.1905227
-33.092365,3.402469,3.2024007
-33.117382,3.4145036,3.2262096
-33.147396,3.422168,3.242827
-33.179398,3.4281461,3.2567024
-33.21664,3.4298177,3.2635255
-33.257133,3.428976,3.2662687
-33.2923,3.4326324,3.276482
-45.264412,0.79435706,0.2343955
-45.202496,0.8722179,0.3728299
-45.27034,0.90573645,0.449615
-45.22619,0.97638416,0.5776639
-45.216667,1.0349381,0.6888571
-45.206177,1.0933104,0.79965687
-45.24224,1.136291,0.8894186
-45.19201,1.206429,1.0159063
-45.2699,1.2357244,1.0871897
-45.190144,1.3139417,1.224113
-45.23648,1.3526521,1.3080444
-45.21431,1.4120197,1.4194021
-45.17682,1.4754417,1.5358963
-45.191326,1.5228825,1.631217
-45.21412,1.5676484,1.7230229
-45.186478,1.6267745,1.8334012
-45.305706,1.643482,1.8890433
-45.372955,1.6753058,1.9644384
-45.46895,1.6992393,2.030036
-46.60561,1.5982804,2.0532784
-46.662273,1.6365039,2.140037
-46.908222,1.6257463,2.1674252
-45.231266,2.108151,2.790761
-45.265903,2.1471887,2.8751717
-45.267323,2.1944554,2.969431
-45.303543,2.2328882,3.0532165
-45.33077,2.273469,3.1396036
-45.36584,2.3120725,3.2237606
-45.338253,2.3654916,3.3249617
-45.414494,2.394195,3.397932
-45.453495,2.431717,3.4811144
-45.55254,2.4555492,3.549234
-45.69775,2.4693577,3.606812
-45.88084,2.4753978,3.6566868
-46.105816,2.4731312,3.6985998
-46.405327,2.4558756,3.725834
-46.738663,2.4329605,3.7487917
-46.941307,2.4392319,3.8037357
-47.194748,2.4359422,3.8500571
-48.748978,2.1682856,3.632483
-48.79503,2.2130222,3.7331343
-48.79995,2.2659473,3.8419461
-48.794437,2.3207068,3.9524498
-48.805515,2.3720095,4.0595713
-49.213753,2.347767,4.096784
-49.886112,2.2762468,4.0936227
-50.637238,2.1938086,4.085067
-51.596687,2.0776138,4.0519757
-52.39526,1.995303,4.0542006
-53.508892,1.861872,4.019146
-54.567787,1.7438817,4.0043197
-3.061676,1.0961242,2.8539257
-3.1080418,1.0279775,2.7044601
-5.6896095,1.4300098,3.0144062
-6.634962,1.5383034,3.0481281
-6.942463,1.5297668,2.969512
-6.9840584,1.4711094,2.8412623
-8.944149,1.6669712,2.85436
-9.331455,1.6845727,2.8142323
-9.319931,1.6209552,2.6872087
-9.358957,1.5676761,2.571475
-9.23324,1.353893,2.163147
-9.452297,1.087162,1.5841856
-9.461369,1.0253091,1.4584217
-9.478857,0.96519566,1.3347144
-9.458109,0.8954592,1.1991305
-9.422647,0.8215723,1.0581818
-17.160099,2.7012043,3.3606558
-18.795202,3.0761392,3.8028731
-18.37912,2.9325345,3.5944028
-18.842295,3.0155206,3.6735787
-19.838245,3.242059,3.9395058
-20.036282,3.2614188,3.9414802
-20.104061,3.2465959,3.899715
-20.275879,3.2605243,3.8959026
-20.329147,3.242494,3.8506074
-20.57476,3.2786071,3.8773532
-20.60896,3.2560887,3.8268185
-20.770525,3.2702055,3.8255534
-20.83913,3.2581604,3.789597
-21.028772,3.2819946,3.802557
-21.07043,3.2628453,3.757615
-21.216518,3.2752285,3.756013
-21.246822,3.2531178,3.7074323
-21.467686,3.2897525,3.7402291
-21.4892,3.2655497,3.6892514
-21.672844,3.2924232,3.7096558
-21.67966,3.2639635,3.6530833
-21.855492,3.2898684,3.673099
-21.884417,3.2688732,3.6273637
-22.086262,3.3049376,3.6627755
-22.06765,3.2686682,3.5956888
-22.261562,3.3037658,3.6307158
-22.270927,3.2770844,3.5775714
-22.431232,3.3023338,3.5993743
-22.497993,3.295917,3.5758362
-22.623323,3.3104415,3.582941
-22.678026,3.30049,3.5547333
-22.706696,3.281325,3.5131807
-22.861507,3.3081465,3.5392485
-22.911972,3.2974675,3.5105324
-23.005821,3.303114,3.5060897
-23.101074,3.309793,3.503458
-23.130823,3.2920303,3.4647312
-23.298141,3.3272452,3.5051465
-23.3311,3.3112683,3.4694366
-23.398523,3.3088677,3.4541779
-23.506458,3.3228915,3.4638343
-23.53556,3.305856,3.4268985
-23.607557,3.3062382,3.416389
-23.697842,3.314488,3.4180193
-23.747948,3.306559,3.3952665
-23.819534,3.3078134,3.3866491
-23.938364,3.329484,3.4094634
-23.960669,3.3105223,3.370275
-24.001272,3.2994068,3.3431807
-24.112856,3.3194966,3.3642778
-24.14871,3.3067682,3.334968
-24.204002,3.3027835,3.3192701
-24.295319,3.315334,3.3293705
-24.37478,3.323037,3.3321671
-24.412952,3.3120985,3.306097
-24.498835,3.3235364,3.3150673
-24.569315,3.3282342,3.3137012
-24.588013,3.308574,3.2742834
-24.633797,3.3018596,3.2552333
-24.778654,3.343672,3.3127332
-24.790148,3.320835,3.268567
-24.859785,3.326796,3.2699404
-24.905195,3.3209383,3.252748
-24.973022,3.32666,3.2540298
-24.999666,3.3115432,3.222323
-25.083668,3.3262594,3.2381873
-25.157995,3.3364658,3.247055
-25.205875,3.3330717,3.2343473
-25.234798,3.31965,3.2056742
-25.311302,3.3320994,3.2185488
-25.374258,3.3376203,3.2204652
-25.425972,3.337259,3.2130504
-25.455032,3.324388,3.1855726
-25.537937,3.3421218,3.2075515
-25.575802,3.3345792,3.1888447
-25.62245,3.3322227,3.1786008
-25.64243,3.3143601,3.1432943
-25.707672,3.323272,3.151493
-25.752258,3.3201919,3.1403232
-25.816372,3.3291643,3.1488676
-25.837463,3.3120909,3.115058
-25.896765,3.318652,3.1198711
-25.961557,3.3290524,3.131084
-26.029175,3.341723,3.1461496
-26.039215,3.3178084,3.1013575
-26.098368,3.3255808,3.1085835
-26.172098,3.3433733,3.1324005
-26.216455,3.3422048,3.1251621
-26.255264,3.3374836,3.1121445
-26.30014,3.337011,3.1061993
-26.361725,3.3482943,3.1197543
-26.408087,3.3494139,3.1166196
-26.452566,3.3494403,3.1117578
-26.496372,3.3491964,3.106522
-26.53894,3.3482573,3.1002083
-26.594091,3.356741,3.1096177
-26.624454,3.347219,3.0891862
-26.662867,3.3437228,3.0788245
-26.696241,3.3365064,3.062324
-26.75134,3.3460667,3.073853
-26.803932,3.3541117,3.0829544
-26.837738,3.347706,3.0679955
-26.87,3.3400984,3.051073
-26.914118,3.342111,3.0503025
-26.960756,3.3464432,3.053493
-27.011404,3.354424,3.062881
-27.050896,3.3533978,3.0572329
-27.081093,3.3445957,3.0385776
-27.128706,3.3508325,3.0452547
-27.171066,3.352819,3.044856
-27.23172,3.3713217,3.072353
-27.264288,3.3651943,3.0584254
-27.288166,3.3511403,3.0311618
-27.33206,3.355434,3.0349097
-27.382929,3.3665874,3.050322
-27.42828,3.3729835,3.0577726
-27.472946,3.3790822,3.0647926
-27.497612,3.3659246,3.0392594
-27.544355,3.3745327,3.0506506
-27.575554,3.3678768,3.0362191
-27.637917,3.3931355,3.0760102
-27.665415,3.3830724,3.055903
-27.691364,3.371243,3.0328217
-27.721811,3.364049,3.0176506
-27.758278,3.3633597,3.0135903
-27.808022,3.3775072,3.034852
-27.84792,3.3812175,3.0384045
-27.883213,3.379966,3.0335526
-27.908491,3.3672292,3.0091453
-27.936386,3.357329,2.9896045
-27.969513,3.353543,2.9805408
-28.021431,3.3727026,3.010745
-28.063025,3.3798935,3.0205603
-28.089167,3.368013,2.997796
-28.115545,3.3561864,2.9751496
-28.146479,3.3500586,2.9622903
-28.184952,3.3539035,2.9665627
-28.234785,3.3734438,2.9978056
-28.27415,3.3794415,3.0058894
-28.306583,3.3760824,2.9979653
-28.332422,3.363315,2.9739203
-28.3709,3.368672,2.981042
-28.40568,3.3689046,2.9794073
-28.453287,3.3888006,3.0116358
-28.484648,3.3844802,3.0022693
-28.518793,3.3845503,3.000495
-28.545183,3.3722458,2.9774542
-28.575031,3.3652809,2.9636354
-28.612415,3.3708954,2.971531
-28.658272,3.3915558,3.0054169
-28.688562,3.3858328,2.9938636
-28.719759,3.3816342,2.9849744
-28.74919,3.3741279,2.9704118
-28.785154,3.3788056,2.9769173
-28.812737,3.3675761,2.9559913
-28.857853,3.3909,2.9947972
-28.890959,3.3910246,2.9935703
-28.921711,3.3863688,2.984117
-28.949835,3.3759384,2.9647102
-28.980602,3.3709419,2.954733
-29.011887,3.367,2.9466143
-29.046774,3.3714554,2.9530659
-29.08435,3.3828661,2.9716024
-29.118681,3.3870327,2.9776416
-29.148134,3.3790238,2.9626298
-29.177204,3.3696113,2.9452167
-29.208792,3.3666604,2.939033
-29.246273,3.3805263,2.9620366
-29.281069,3.387605,2.9733205
-29.31519,3.3933017,2.9822497
-29.345146,3.386262,2.9691253
-29.37304,3.3718877,2.9433064
-29.404665,3.3694372,2.938208
-29.439724,3.3794332,2.9547467
-29.474388,3.3890324,2.9706397
-29.508677,3.3982325,2.9858813
-29.539314,3.3931558,2.9763708
-29.569836,3.3871639,2.9653053
-29.599962,3.3787677,2.9500957
-29.633854,3.388316,2.9660916
-29.665169,3.3855398,2.9607148
-29.699587,3.4002354,2.9857316
-29.730228,3.3941472,2.9746704
-29.761307,3.390125,2.9672337
-29.792473,3.3861818,2.9599676
-29.822159,3.3698764,2.9312458
-29.854216,3.371066,2.9329696
-29.887753,3.3872771,2.9608445
-29.91973,3.3906286,2.9663997
-29.951195,3.3885827,2.962606
-29.982962,3.3906035,2.9659176
-30.013943,3.3787532,2.9451442
-30.04539,3.3714666,2.9323401
-30.077124,3.368248,2.9266448
-30.109339,3.3910317,2.9662037
-30.140907,3.3884754,2.961731
-30.17251,3.3889904,2.9626346
-30.2043,3.3801167,2.9472451
-30.236326,3.3708274,2.9311676
-30.268284,3.3680997,2.926537
-30.299416,3.3809018,2.948948
-30.330202,3.3942807,2.9723935
-30.361855,3.3932898,2.9708872
-30.393866,3.3888948,2.9634962
-30.426418,3.3806002,2.9493628
-30.459356,3.3708985,2.9328194
-30.491034,3.3727298,2.9363623
-30.51981,3.394538,2.9746623
-30.549768,3.4054732,2.994094
-30.582066,3.4010737,2.986907
-30.616549,3.3853338,2.9600534
-30.648932,3.3826008,2.9558392
-30.682312,3.3754869,2.9440513
-30.711988,3.3863199,2.9634752
-30.740498,3.4011896,2.9899397
-30.770823,3.4072063,3.00106
-30.804298,3.4004252,2.989993
-30.837955,3.3937352,2.9791255
-30.872623,3.3841715,2.9633098
-30.907398,3.3751998,2.948563
-30.93398,3.3939726,2.9819922
-30.962786,3.4044137,3.0009947
-30.993956,3.407036,3.0064654
-31.027948,3.4013653,2.997593
-31.063148,3.3928375,2.9838095
-31.097494,3.3873591,2.9753547
-31.129011,3.3898346,2.980722
-31.1576,3.3997502,2.9990115
-31.188356,3.4038503,3.0072594
-31.222721,3.3992155,3.0004182
-31.25954,3.3892968,2.9844751
-31.293598,3.3863258,2.9806013
-31.32553,3.3883295,2.9853735
-31.34853,3.4094236,3.0231934
-31.385345,3.400861,3.0097628
-31.41615,3.4050481,3.0184135
-31.4523,3.3986316,3.0087786
-31.490404,3.388927,2.9935126
-31.518711,3.3982224,3.0111008
-31.550257,3.4012961,3.0179791
-31.58068,3.4063833,3.028367
-31.612396,3.4091358,3.0347633
-31.648586,3.4042678,3.028058
-31.68752,3.3951795,3.0141287
-31.723774,3.3910105,3.008727
-31.751793,3.400367,3.0266595
-31.781149,3.4073944,3.0406122
-31.81317,3.410193,3.0473223
-31.851496,3.4035394,3.0378165
-31.890347,3.3965273,3.0277467
-31.919563,3.4038908,3.0424285
-31.958662,3.3970942,3.032826
-31.9871,3.4055698,3.0494914
-32.013996,3.4160018,3.069543
-32.053677,3.4090395,3.0597944
-32.095352,3.399848,3.0462832
-32.132225,3.3973691,3.044332
-32.168102,3.396407,3.0450268
-32.193203,3.4091208,3.0691695
-32.22298,3.4158118,3.0830355
-32.25804,3.4160526,3.0859103
-32.30761,3.3991885,3.0596137
-32.350098,3.3913167,3.048749
-32.38077,3.397473,3.0618844
-32.406864,3.4087894,3.0838518
-32.434803,3.417855,3.1020112
-32.470535,3.4182484,3.1054306
-32.51056,3.4141586,3.1012697
-32.539127,3.4225526,3.1183996
-32.593674,3.4036226,3.0891209
-32.635067,3.3990123,3.0842595
-32.669487,3.4018042,3.0920234
-32.698483,3.4101305,3.109222
-32.72825,3.4176235,3.1250386
-32.773163,3.410315,3.1158237
-32.81083,3.4103522,3.119113
-32.852814,3.4064686,3.1158266
-32.890648,3.406747,3.1196399
-32.918373,3.4165046,3.1395125
-32.951313,3.4214349,3.1512718
-32.98667,3.4242392,3.1594906
-33.045036,3.4068105,3.1336813
-33.09024,3.401506,3.1283836
-33.109085,3.4192097,3.1618495
-33.13377,3.4316733,3.1865187
-33.162395,3.4406905,3.2054272
-33.203506,3.4393249,3.2069588
-33.25694,3.428108,3.192051
-33.28442,3.4382951,3.213068
-45.206276,0.96539044,0.32183647
-45.20554,1.021555,0.43056297
-45.22741,1.0699377,0.52819157
-45.231018,1.1239161,0.63367414
-45.247787,1.1733236,0.7326703
-45.226784,1.2342942,0.8477526
-45.32312,1.2583013,0.91135454
-45.202095,1.3492706,1.0677357
-45.17366,1.4109228,1.1832256
-45.270798,1.4343586,1.2462306
-45.176292,1.5148723,1.3872142
-45.29386,1.5322709,1.4422646
-45.19358,1.6131597,1.5832057
-45.19564,1.6637447,1.683042
-45.182426,1.718318,1.788105
-45.288094,1.7392676,1.8484998
-45.39537,1.7601488,1.9091759
-45.49604,1.783215,1.9730916
-46.602184,1.696306,2.0041304
-46.649635,1.73698,2.0938158
-46.72985,1.7693491,2.1731958
-45.182663,2.2087245,2.7602649
-45.248856,2.23982,2.8347445
-45.276375,2.280486,2.9212031
-45.30703,2.3203022,3.0066762
-45.31742,2.3648603,3.097938
-45.349674,2.4041014,3.182805
-45.359703,2.4484296,3.2737813
-45.40868,2.483682,3.354066
-45.45148,2.5203798,3.4362001
-45.516483,2.5521662,3.5128193
-45.668346,2.5650709,3.5681791
-45.85623,2.5708663,3.6162534
-46.097477,2.566176,3.6535726
-46.333187,2.5638533,3.6947408
-46.62067,2.5519629,3.726716
-46.923782,2.5383427,3.7583647
-47.140877,2.5436027,3.8116941
-47.417557,2.538072,3.8548923
-48.779327,2.3216243,3.6818614
-48.79678,2.3719532,3.7882032
-48.807693,2.4233944,3.8956723
-48.79367,2.4793384,4.0075564
-48.986107,2.4969542,4.0821157
-49.64102,2.4315693,4.0787497
-50.330032,2.363585,4.0770206
-51.183533,2.2703555,4.0564923
-52.087173,2.173022,4.0377626
-53.09664,2.0625079,4.0133433
-54.060867,1.964956,4.0067606
-3.1380196,1.2527323,2.7932134
-5.665203,1.6246607,3.0858784
-6.2153473,1.6544275,3.0441055
-6.891533,1.7101104,3.0322952
-6.9912205,1.6622286,2.915267
-6.8901157,1.5767474,2.7585588
-8.6364765,1.7821636,2.8559704
-9.307192,1.8520722,2.875205
-9.3187275,1.7935696,2.7535663
-9.339735,1.7367818,2.6338444
-9.339649,1.6754832,2.5089474
-7.476059,1.2241428,1.9303827
-9.197922,1.4593897,2.0954776
-9.207645,1.3354149,1.842494
-9.4550705,1.2008393,1.5262856
-9.466032,1.1396279,1.4009771
-9.470451,1.0765891,1.2733078
-9.482363,1.0150185,1.147419
-16.851496,2.7387903,3.309197
-17.183765,2.77858,3.3305988
-17.49564,2.8151531,3.3492322
-17.756752,2.84067,3.3547044
-18.703468,3.0427375,3.5938115
-18.878752,3.0511453,3.5802088
-19.841858,3.266788,3.8437445
-19.86266,3.238636,3.7841082
-20.074402,3.2616663,3.7935977
-20.098253,3.2348204,3.7361927
-20.288406,3.2536638,3.741211
-20.366829,3.2424526,3.7056909
-20.590462,3.272471,3.7273307
-20.615583,3.2471712,3.673077
-20.833755,3.2775385,3.696474
-20.853687,3.2512846,3.6413527
-21.03346,3.2721815,3.652625
-21.080338,3.2543654,3.6097932
-21.238972,3.2704616,3.6152606
-21.338879,3.269474,3.5969028
-21.45361,3.2735567,3.5861335
-21.582132,3.282549,3.5828056
-21.657892,3.2755167,3.5567484
-21.738008,3.2701964,3.5334005
-21.873625,3.2832181,3.5370073
-21.89986,3.2611356,3.48973
-22.078075,3.2894082,3.5163932
-22.120735,3.2733095,3.4782848
-22.277376,3.2959492,3.49754
-22.296156,3.2722466,3.4485512
-22.491926,3.309834,3.490806
-22.50486,3.2845535,3.439797
-22.662298,3.3103776,3.4653568
-22.695639,3.292678,3.42598
-22.782734,3.294481,3.4160752
-22.874645,3.2984889,3.409748
-22.920712,3.2859795,3.3786225
-23.051987,3.3055239,3.396371
-23.121,3.3022842,3.3797379
-23.203053,3.3043456,3.3713932
-23.339561,3.327921,3.3962803
-23.363346,3.3082306,3.3549905
-23.458582,3.3167582,3.357263
-23.544638,3.3221545,3.3549485
-23.545504,3.2935448,3.3001246
-23.688055,3.3226213,3.3349385
-23.756775,3.3221433,3.324091
-23.76532,3.2968314,3.2746162
-23.89306,3.321683,3.3036728
-23.947317,3.3160098,3.2851658
-23.975088,3.2990992,3.2491012
-24.1031,3.3259134,3.282013
-24.14708,3.3165405,3.2580862
-24.169659,3.2977285,3.2193012
-24.284153,3.32028,3.2461739
-24.367626,3.329488,3.2521234
-24.391075,3.3115327,3.2149944
-24.497478,3.3321435,3.239462
-24.537506,3.3222346,3.2153745
-24.59251,3.3195338,3.2029123
-24.620098,3.3038678,3.1697454
-24.762619,3.3440902,3.226523
-24.790775,3.3292055,3.1948504
-24.800983,3.3053467,3.1487274
-24.920755,3.336348,3.191317
-24.959219,3.3269672,3.168776
-24.994928,3.3162377,3.1441112
-25.05491,3.3181584,3.1400666
-25.15425,3.3410735,3.17033
-25.197535,3.3349817,3.1535192
-25.21088,3.3129337,3.1107202
-25.30566,3.3348918,3.1399097
-25.359215,3.3349557,3.1334414
-25.408554,3.3329365,3.1236582
-25.447643,3.3253696,3.1048484
-25.512444,3.332487,3.11027
-25.568254,3.334853,3.1079917
-25.627897,3.3397458,3.1099906
-25.62517,3.3083568,3.0521445
-25.713032,3.3303154,3.0825372
-25.757889,3.3271801,3.0715346
-25.831203,3.3415062,3.0895824
-25.85266,3.324521,3.0557594
-25.881435,3.311931,3.0292625
-25.968674,3.3360584,3.0639558
-26.027582,3.3429525,3.070094
-26.031332,3.3147285,3.0177093
-26.103132,3.330392,3.0386558
-26.165247,3.3402712,3.050066
-26.216063,3.3430748,3.0497375
-26.23951,3.327702,3.0190105
-26.292618,3.332434,3.0220618
-26.366335,3.3517418,3.0497098
-26.411184,3.3515465,3.0446815
-26.451267,3.3481889,3.034398
-26.495403,3.3478653,3.0292926
-26.542332,3.3497734,3.0280232
-26.597107,3.3576999,3.0370011
-26.63296,3.3519692,3.0229745
-26.660467,3.3400218,2.9984708
-26.70371,3.3399742,2.9941635
-26.754019,3.3455818,2.9995155
-26.812277,3.3577516,3.0160904
-26.853434,3.356901,3.010643
-26.875294,3.3407586,2.979247
-26.926039,3.3478556,2.9874272
-26.970243,3.3499582,2.9871807
-27.020025,3.356964,2.9953628
-27.062883,3.3585045,2.9942985
-27.081738,3.339734,2.9586058
-27.131653,3.3476005,2.9684548
-27.183792,3.3578298,2.9824252
-27.233147,3.3660507,2.9930415
-27.27541,3.3682804,2.9934711
-27.296347,3.3512213,2.9608889
-27.348595,3.3629644,2.9777412
-27.402369,3.37667,2.9980474
-27.442703,3.378107,2.9973593
-27.485235,3.3819017,3.0007815
-27.504414,3.3630126,2.965231
-27.545551,3.3656757,2.9668016
-27.59588,3.3779151,2.9849296
-27.641901,3.3862722,2.9964428
-27.677265,3.3839355,2.989575
-27.70493,3.3735433,2.9688444
-27.740377,3.3713884,2.9623704
-27.77207,3.365237,2.9490333
-27.821514,3.3787918,2.9698124
-27.86125,3.381997,2.9727588
-27.895252,3.3789065,2.9648566
-27.91903,3.3639634,2.936461
-27.950108,3.35735,2.9225225
-27.99277,3.364659,2.9327645
-28.035952,3.3730304,2.9449081
-28.074417,3.3759797,2.9476995
-28.110195,3.375795,2.9450955
-28.135847,3.3626835,2.920072
-28.168499,3.3584812,2.9105597
-28.20957,3.365575,2.9207354
-28.256243,3.380754,2.9450364
-28.293055,3.3829615,2.9468198
-28.322144,3.3744724,2.9300146
-28.34879,3.3622866,2.906798
-28.38656,3.3661842,2.911645
-28.429213,3.3777492,2.929913
-28.471535,3.3894513,2.9484773
-28.506268,3.3899167,2.9474845
-28.535906,3.3824112,2.9326124
-28.563652,3.3716495,2.9120822
-28.597319,3.37047,2.9083247
-28.646036,3.395129,2.9497766
-28.67936,3.3941703,2.9464965
-28.7116,3.391388,2.940063
-28.739689,3.381028,2.920404
-28.768509,3.37169,2.9025602
-28.801264,3.3696215,2.8974748
-28.843288,3.3859105,2.9245834
-28.877985,3.388371,2.9275155
-28.91166,3.3889997,2.9272766
-28.940321,3.379101,2.9086175
-28.970295,3.3716846,2.8943396
-29.00277,3.3696613,2.8895535
-29.036928,3.3715978,2.8917484
-29.075045,3.3833237,2.9111662
-29.11069,3.389824,2.9214559
-29.140259,3.3813632,2.9055152
-29.169275,3.3710284,2.8863106
-29.199766,3.3641682,2.8732386
-29.231604,3.3607934,2.866321
-29.273611,3.387247,2.9118652
-29.30871,3.3947978,2.924232
-29.340681,3.3931653,2.9204922
-29.369125,3.3798819,2.8962965
-29.400143,3.3744915,2.8860106
-29.431273,3.3691783,2.8758926
-29.467306,3.3820713,2.89784
-29.502386,3.3926148,2.9156947
-29.534956,3.393935,2.917356
-29.568478,3.3997583,2.9269795
-29.596788,3.3820968,2.8952923
-29.628199,3.377768,2.8871078
-29.659885,3.3745015,2.8808265
-29.696686,3.3998454,2.924965
-29.727829,3.3947845,2.9155946
-29.76051,3.3991559,2.9228697
-29.79094,3.3883457,2.9034362
-29.820814,3.3712068,2.872882
-29.853249,3.372866,2.8754787
-29.885433,3.3726375,2.874783
-29.918722,3.3848193,2.895989
-29.951319,3.3921564,2.9086952
-29.98312,3.390207,2.9050684
-30.013332,3.3572583,2.8468447
-30.045782,3.359909,2.8513908
-30.078325,3.3685653,2.8665538
-30.110926,3.3950698,2.9132094
-30.142769,3.3890884,2.9026437
-30.174788,3.3802283,2.8870368
-30.2068,3.3818135,2.889873
-30.239195,3.371145,2.8711472
-30.271374,3.370922,2.870864
-30.30318,3.3771954,2.8820624
-30.33392,3.396373,2.9160347
-30.366049,3.3934345,2.9110646
-30.39868,3.3861423,2.898458
-30.43198,3.3745005,2.8782215
-30.463785,3.37773,2.8842225
-30.495714,3.379563,2.8877964
-30.526098,3.3918176,2.909762
-30.558603,3.3888874,2.9050102
-30.590014,3.3929303,2.9125748
-30.622505,3.39066,2.9090533
-30.658146,3.3727448,2.8780193
-30.68984,3.3760571,2.8844
-30.721142,3.3809228,2.893548
-30.751421,3.3897927,2.9097757
-30.782822,3.3933408,2.916668
-30.815796,3.390597,2.912521
-30.85071,3.3810842,2.8965
-30.883934,3.3785212,2.8927455
-30.914492,3.3853393,2.9055252
-30.943087,3.3980958,2.9287791
-30.97578,3.3972447,2.928135
-31.009165,3.394529,2.9242501
-31.046186,3.3816671,2.9025688
-31.082323,3.3723228,2.887115
-31.113466,3.377193,2.8966722
-31.139463,3.3952644,2.9294472
-31.171793,3.3963912,2.9324908
-31.199944,3.407789,2.9536004
-31.23624,3.3993828,2.9399786
-31.273617,3.3891466,2.9231906
-31.305416,3.3920748,2.9295392
-31.336725,3.3960505,2.937759
-31.364992,3.4063756,2.9571433
-31.397495,3.4076123,2.9606247
-31.430721,3.4074907,2.961762
-31.469654,3.3964071,2.943738
-31.505106,3.3926413,2.9385762
-31.543009,3.3846638,2.926084
-31.558672,3.4174747,2.985011
-31.597076,3.408711,2.9712157
-31.629932,3.4100845,2.9751945
-31.67266,3.3948712,2.9502177
-31.7135,3.3836029,2.9321928
-31.749954,3.3800623,2.9277196
-31.775751,3.3936987,2.953281
-31.803087,3.4045448,2.9739947
-31.835798,3.4069428,2.9799953
-31.871346,3.405182,2.9787798
-31.91537,3.3912778,2.956441
-31.952225,3.3883326,2.953259
-31.971811,3.4098995,2.9928117
-32.004517,3.4127476,2.9997878
-32.043076,3.4077349,2.993125
-32.081455,3.4033077,2.9875288
-32.119987,3.3989964,2.9821858
-32.161945,3.3906195,2.9698296
-32.185352,3.4060357,2.9988503
-32.212177,3.4168618,3.0199199
-32.25057,3.4134235,3.0162702
-32.297966,3.3995018,2.994493
-32.338715,3.3940227,2.9874191
-32.376076,3.3928032,2.9877782
-32.394604,3.4132183,3.0256343
-32.427383,3.4171987,3.0350661
-32.455982,3.425826,3.0525703
-32.49533,3.422697,3.04979
-32.533108,3.421505,3.0504088
-32.579582,3.411376,3.035655
-32.63246,3.3950863,3.010347
-32.664616,3.400605,3.0227132
-32.697147,3.4057598,3.03449
-32.72464,3.4159303,3.0549388
-32.762012,3.4163299,3.0586085
-32.810093,3.4065917,3.0449018
-32.844887,3.4099119,3.0537024
-32.894356,3.3995888,3.0391288
-32.911076,3.4199429,3.0772543
-32.947723,3.4217885,3.0836577
-32.983902,3.4241827,3.091051
-33.038414,3.4104662,3.0709214
-33.08632,3.40307,3.0616918
-33.107666,3.4189343,3.0922852
-33.1379,3.4270089,3.109592
-33.168015,3.43516,3.1270647
-33.21104,3.4325929,3.1263027
-33.26368,3.4224205,3.1126566
-33.290577,3.4334648,3.135201
-45.183174,1.066525,0.29547596
-45.200546,1.1164308,0.39567184
-45.227585,1.1629565,0.4909401
-45.230255,1.2169306,0.5969548
-45.181988,1.2863712,0.7250905
-45.170387,1.3437741,0.8357358
-45.275375,1.3652277,0.8950639
-45.16293,1.4524162,1.0478649
-45.29706,1.4651527,1.0951014
-45.19384,1.5481622,1.2414446
-45.200104,1.59831,1.341363
-45.251343,1.635242,1.4228401
-45.163418,1.7116117,1.5589924
-45.200546,1.7520194,1.6452007
-45.198143,1.803277,1.746326
-45.20763,1.8509364,1.842452
-45.29193,1.8781314,1.9108262
-46.565163,1.8015542,1.9778385
-46.611572,1.842401,2.0676022
-46.7473,1.8611388,2.128851
-45.344147,2.2562401,2.674571
-45.25331,2.3258681,2.7983084
-45.279873,2.3667252,2.8850923
-45.28992,2.4113636,2.9766693
-45.32367,2.4503143,3.061121
-45.35121,2.4906404,3.1473541
-45.36685,2.5335717,3.2368326
-45.35731,2.5819604,3.3329391
-45.47281,2.6026018,3.3955107
-45.52458,2.6375043,3.4755907
-45.662254,2.654141,3.534285
-45.851143,2.6605892,3.5817013
-46.067688,2.662193,3.6244202
-46.30916,2.6597526,3.6635752
-46.612984,2.6459346,3.6910758
-46.936333,2.629793,3.7175426
-47.089195,2.6487107,3.7843862
-47.308205,2.6555343,3.8388243
-48.784172,2.424463,3.6387372
-48.797733,2.4754596,3.7459016
-48.80184,2.5280507,3.854722
-48.76937,2.5870862,3.970108
-48.795128,2.6353166,4.0742807
-49.2715,2.604243,4.0996056
-50.00891,2.5304766,4.08602
-50.8186,2.4483378,4.068898
-51.686142,2.3608284,4.0517435
-52.602886,2.269836,4.036847
-53.554264,2.1781077,4.027165
-54.742783,2.0536878,3.9948502
-2.978901,1.3862269,2.6946278
-5.686182,1.7737398,3.0253649
-6.4855785,1.843915,3.0315332
-6.929491,1.8554215,2.9783034
-6.9818077,1.7987485,2.8522758
-7.5422497,1.8349504,2.830174
-8.807663,1.9434268,2.8358355
-9.327751,1.9811857,2.8243346
-9.231932,1.902039,2.678296
-9.318104,1.8579485,2.5732508
-9.470583,1.394448,1.6025767
-9.446711,1.3259966,1.4676847
-9.445475,1.2622056,1.3386383
-9.430267,1.1948469,1.2048197
-9.457167,1.1368723,1.0831962
-9.473768,1.0762727,0.9581046
-17.018995,2.8194346,3.2419968
-17.282324,2.8419514,3.244503
-17.58197,2.8748298,3.262064
-17.842041,2.8995209,3.2696548
-18.148308,2.9372988,3.2961717
-18.892841,3.0888257,3.480578
-18.87498,3.0476258,3.4008827
-19.850164,3.266353,3.6831937
-19.871893,3.2382298,3.6235151
-20.089975,3.2627935,3.6380548
-20.173502,3.251987,3.6033235
-20.29858,3.252962,3.5856156
-20.472937,3.2682953,3.588848
-20.612726,3.2748358,3.5800571
-20.639572,3.2498527,3.5262604
-20.841473,3.2754235,3.5457625
-20.856075,3.247381,3.487926
-21.058886,3.274919,3.511322
-21.153227,3.2711618,3.4894662
-21.241323,3.2659478,3.4657502
-21.430244,3.292042,3.4886103
-21.460201,3.2699423,3.4405084
-21.645561,3.296597,3.465139
-21.65913,3.2698169,3.41041
-21.829735,3.2933345,3.4312038
-21.86861,3.2750723,3.3895702
-22.005669,3.289122,3.3968744
-22.0986,3.289287,3.3835235
-22.245098,3.3079183,3.3985395
-22.283125,3.2905314,3.3589888
-22.421259,3.3076155,3.3723168
-22.493933,3.3027492,3.3523188
-22.571602,3.2999532,3.3356962
-22.694355,3.3135498,3.3446126
-22.712496,3.2902317,3.296649
-22.853,3.3113077,3.3177056
-22.916018,3.3047545,3.2960873
-22.93706,3.2828357,3.2506008
-23.112522,3.3188972,3.2959976
-23.122177,3.2930918,3.244679
-23.303713,3.3331835,3.2971468
-23.341003,3.3184588,3.2635536
-23.416336,3.318729,3.253765
-23.507555,3.3256814,3.2547593
-23.541807,3.310254,3.2203832
-23.639822,3.3207455,3.227384
-23.751688,3.3375082,3.2446475
-23.74813,3.3070514,3.1865773
-23.845387,3.3185904,3.195849
-23.953146,3.3351817,3.213482
-23.958786,3.308645,3.1618733
-24.04362,3.316213,3.1653137
-24.132746,3.326157,3.1727958
-24.155048,3.3070068,3.1333122
-24.242256,3.316855,3.140956
-24.29811,3.3130217,3.1265311
-24.376474,3.3197343,3.129414
-24.438099,3.3191454,3.1205416
-24.565067,3.3494594,3.1623688
-24.579487,3.327438,3.118699
-24.577375,3.2973104,3.0617132
-24.71045,3.3322575,3.1117344
-24.774925,3.3346958,3.108499
-24.798,3.316986,3.0721383
-24.8415,3.3093877,3.052516
-24.964382,3.3420696,3.0996623
-24.994019,3.3280566,3.0696497
-25.035162,3.31996,3.0495014
-25.123396,3.3365872,3.0705462
-25.199259,3.3473158,3.0819516
-25.208912,3.3231435,3.035284
-25.283752,3.3339481,3.0470395
-25.369852,3.3514163,3.0700936
-25.418713,3.3489466,3.0599213
-25.429031,3.3251202,3.0140057
-25.505539,3.3384483,3.03049
-25.580946,3.3517065,3.0470095
-25.614906,3.3415363,3.024218
-25.641115,3.3268461,2.9938488
-25.688444,3.3245685,2.9844642
-25.749323,3.3305976,2.9892
-25.806091,3.3345213,2.9904814
-25.818605,3.3116632,2.9464798
-25.882263,3.3202138,2.9557557
-25.943092,3.3274312,2.9628825
-26.018623,3.344384,2.986671
-26.046568,3.3314219,2.9596782
-26.084557,3.3249097,2.9437065
-26.166508,3.3473682,2.9772096
-26.219383,3.3512552,2.9791522
-26.246264,3.3379633,2.9518156
-26.277534,3.327567,2.92946
-26.367987,3.357946,2.976986
-26.412537,3.3572538,2.9714098
-26.448303,3.3505597,2.9555993
-26.473207,3.3361504,2.92658
-26.524607,3.3407824,2.9303246
-26.599545,3.3630004,2.9644175
-26.631271,3.3539171,2.9447236
-26.658686,3.341577,2.9194503
-26.685215,3.3284595,2.8928614
-26.745766,3.3414416,2.9113755
-26.82157,3.3668754,2.9515152
-26.861374,3.3647058,2.9440317
-26.883669,3.348659,2.9125743
-26.93669,3.35733,2.9239645
-26.984741,3.3623486,2.929102
-27.032589,3.367531,2.934596
-27.069546,3.363857,2.9247775
-27.095943,3.351242,2.8994632
-27.148474,3.3611536,2.9133573
-27.200684,3.3712523,2.9276576
-27.24038,3.3706691,2.923429
-27.288692,3.3780549,2.933144
-27.304808,3.3563154,2.8921237
-27.359566,3.370088,2.9130921
-27.415308,3.3853781,2.9367948
-27.453102,3.384121,2.9316616
-27.488579,3.3807673,2.9229074
-27.52407,3.377514,2.914372
-27.569345,3.3841348,2.9231696
-27.62185,3.3984783,2.945561
-27.6605,3.3991663,2.9440894
-27.691797,3.3923619,2.929521
-27.713488,3.3753161,2.8970098
-27.749287,3.3731444,2.8906326
-27.789595,3.3760333,2.8931918
-27.840313,3.390797,2.9166799
-27.879807,3.3935084,2.9190392
-27.911682,3.3877153,2.9064794
-27.933147,3.36972,2.8724637
-27.973768,3.374096,2.8778749
-28.016865,3.381796,2.8891978
-28.057854,3.3873453,2.8967838
-28.093891,3.3870573,2.8941216
-28.124115,3.3795154,2.878696
-28.152702,3.3697438,2.8593612
-28.192291,3.3743458,2.8654504
-28.239948,3.3901694,2.8914204
-28.278728,3.3945694,2.8972554
-28.31204,3.3916588,2.890204
-28.338207,3.3786047,2.8652353
-28.370413,3.37399,2.8552303
-28.405512,3.3736591,2.8528452
-28.45723,3.398672,2.8954062
-28.495567,3.4041977,2.9034958
-28.526005,3.3976412,2.8902068
-28.553072,3.385522,2.8670797
-28.586386,3.3833418,2.861611
-28.624456,3.3892622,2.8705573
-28.665346,3.4004874,2.888967
-28.700832,3.4028583,2.8917003
-28.730467,3.3949149,2.876145
-28.76077,3.38799,2.8624268
-28.79246,3.383511,2.853087
-28.826662,3.3838668,2.852376
-28.866764,3.396214,2.8730335
-28.89771,3.3905752,2.861733
-28.929893,3.387398,2.854845
-28.961243,3.3823934,2.8447342
-28.990757,3.3731623,2.8271275
-29.023384,3.370704,2.8216124
-29.063519,3.3860652,2.8478794
-29.1001,3.3938715,2.8607287
-29.133417,3.394097,2.8601055
-29.162466,3.3833516,2.8399577
-29.193537,3.377486,2.828538
-29.226105,3.3755517,2.8241577
-29.262348,3.3843093,2.8388848
-29.301386,3.402339,2.8701954
-29.333328,3.3997169,2.864695
-29.360435,3.3812237,2.8308973
-29.393799,3.3826225,2.8326344
-29.426155,3.3807206,2.8285103
-29.460613,3.3866537,2.83841
-29.499477,3.4106174,2.8805494
-29.53161,3.4094718,2.87788
-29.562973,3.405012,2.8693209
-29.593273,3.3952875,2.8513865
-29.624695,3.390011,2.8414283
-29.656698,3.3872437,2.8359847
-29.694073,3.4142296,2.88375
-29.725733,3.4111526,2.877819
-29.757233,3.4066956,2.8694525
-29.787388,3.3920913,2.8429742
-29.818714,3.3838928,2.8279781
-29.85165,3.3879569,2.8349366
-29.883568,3.3833315,2.8263907
-29.918257,3.4080434,2.870337
-29.949753,3.400174,2.8560534
-29.981182,3.388481,2.8349624
-30.01311,3.380771,2.821024
-30.045443,3.378509,2.8168612
-30.077871,3.3777938,2.815496
-30.110577,3.393754,2.8439865
-30.142832,3.3951588,2.8464756
-30.175047,3.3971338,2.850017
-30.207499,3.3860154,2.830172
-30.23993,3.3837647,2.826219
-30.272232,3.3855016,2.8294287
-30.304728,3.3834183,2.8258367
-30.335173,3.410684,2.8747644
-30.367739,3.4048617,2.8645492
-30.401688,3.3864477,2.83185
-30.434607,3.381775,2.8237562
-30.467413,3.379137,2.819333
-30.49865,3.388762,2.8368678
-30.529152,3.401873,2.860663
-30.561125,3.4038622,2.8646054
-30.593142,3.4054463,2.867855
-30.628372,3.3896055,2.8399935
-30.661415,3.3869882,2.8358002
-30.692799,3.3927162,2.846552
-30.722103,3.4072616,2.873088
-30.753458,3.411685,2.8815665
-30.786406,3.4093974,2.878088
-30.820818,3.4018655,2.8652782
-30.854507,3.397819,2.8587284
-30.886929,3.398703,2.8610144
-30.921227,3.393384,2.8522615
-30.948141,3.4123201,2.8868337
-30.979618,3.4158607,2.8939548
-31.011518,3.4180334,2.8986664
-31.051998,3.3957074,2.8597074
-31.085537,3.3942144,2.8579526
-31.116243,3.4005084,2.8701167
-31.146255,3.4083197,2.885015
-31.176678,3.4147618,2.8975005
-31.210545,3.412645,2.894764
-31.249617,3.3986433,2.8708887
-31.28569,3.3924174,2.860911
-31.316961,3.3972895,2.8707328
-31.34435,3.4103556,2.8951726
-31.372131,3.42205,2.9171925
-31.406225,3.4204683,2.9156165
-31.444483,3.4108949,2.8998613
-31.483505,3.400487,2.8826666
-31.517519,3.4001594,2.8834395
-31.553642,3.396135,2.877678
-31.57827,3.413029,2.90912
-31.609539,3.4176855,2.9188447
-31.64515,3.4148736,2.9153419
-31.691021,3.3952086,2.881968
-31.730799,3.386514,2.8681178
-31.75791,3.3985987,2.891171
-31.782064,3.4149585,2.921825
-31.817461,3.4135778,2.9210548
-31.8492,3.4179041,2.9304342
-31.898628,3.3961966,2.893743
-31.933144,3.3970072,2.8969822
-31.961771,3.406277,2.9152293
-31.985533,3.4221058,2.9451027
-32.023914,3.4176042,2.9390473
-32.059,3.41784,2.9414105
-32.105373,3.4034166,2.9179192
-32.14215,3.4020383,2.9175253
-32.17139,3.410414,2.9343886
-32.19937,3.4202335,2.9538255
-32.235394,3.4200513,2.9556537
-32.275658,3.4149516,2.9488578
-32.322655,3.402235,2.9286962
-32.357502,3.4042232,2.9344888
-32.39037,3.4085767,2.9444833
-32.41232,3.4252336,2.976152
-32.446568,3.4279277,2.9832907
-32.484116,3.4271142,2.9843063
-32.517548,3.4309068,2.9934545
-32.55945,3.4258258,2.9870696
-32.61616,3.4056787,2.9543176
-32.653824,3.4058127,2.957202
-32.679184,3.418516,2.982151
-32.711002,3.4246123,2.9955544
-32.743183,3.4303486,3.0083618
-32.792683,3.4193964,2.9920268
-32.8453,3.4059784,2.9714541
-32.87629,3.413384,2.9873266
-32.90432,3.423495,3.0079527
-32.93265,3.433233,3.0279546
-32.977295,3.428234,3.022303
-33.030952,3.4155717,3.0033703
-33.071117,3.415224,3.005952
-33.095848,3.4283814,3.032071
-33.12488,3.4377127,3.0515614
-33.164497,3.438105,3.0555625
-33.204693,3.4381948,3.0590901
-33.239223,3.4431,3.071023
-33.28056,3.4425797,3.0735998
-45.193535,1.1616707,0.24327564
-45.191807,1.2174237,0.35267258
-45.215324,1.2648616,0.4495964
-45.22232,1.3171492,0.55370235
-45.187172,1.3819311,0.67619085
-45.2073,1.4294024,0.7730036
-45.212524,1.4810641,0.87593746
-45.27545,1.5153956,0.9535241
-45.21867,1.5846052,1.0819068
-45.163353,1.6526294,1.2082758
-45.31276,1.6617825,1.2496119
-45.187447,1.7486675,1.4027939
-45.199253,1.7963536,1.499516
-45.186817,1.8504148,1.6052432
-45.167156,1.906013,1.7130075
-45.187447,1.9504819,1.8049774
-45.246216,1.9846139,1.8825006
-45.229626,2.0384507,1.9875579
-45.278088,2.0751348,2.0687623
-46.56569,1.954675,2.03434
-46.615112,1.9946752,2.122919
-45.260258,2.369071,2.6567883
-45.225082,2.4245892,2.763081
-45.270264,2.4609923,2.844047
-45.2962,2.5018206,2.9309034
-45.32247,2.5424814,3.017581
-45.353775,2.5819335,3.1027489
-45.388268,2.6206331,3.187027
-45.423138,2.6592207,3.2712474
-45.490562,2.690832,3.3468256
-45.624866,2.7085347,3.4054008
-45.8065,2.7169874,3.4531841
-45.994797,2.7249322,3.501162
-46.172615,2.7358823,3.553619
-46.476486,2.7226088,3.5780077
-46.65058,2.7363064,3.6356816
-46.94539,2.7275214,3.6679497
-47.226074,2.7229142,3.7064981
-47.424248,2.7351549,3.7656431
-47.545242,2.7625418,3.8428073
-48.775864,2.5891767,3.697751
-48.784775,2.6407032,3.8055797
-48.806473,2.6898186,3.9107733
-48.797394,2.744167,4.021571
-48.915672,2.7766037,4.109313
-49.594597,2.715762,4.101705
-50.381706,2.6407323,4.0837145
-51.25981,2.5551844,4.05996
-52.17645,2.4681883,4.0401073
-53.128727,2.380495,4.025226
-54.28305,2.266866,3.9920893
-3.101511,1.6399901,2.7966266
-5.983141,1.9656749,3.0106096
-6.8260593,2.0395806,3.0289922
-6.9502487,1.9949327,2.91652
-6.900114,1.9203892,2.7700539
-8.621992,2.0971816,2.862162
-9.2031555,2.141487,2.8616662
-9.3186,2.1024845,2.762968
-9.3435135,2.0468311,2.6443453
-9.304195,1.9787674,2.510395
-6.765053,1.4246306,1.7685623
-9.18491,1.8331091,2.2296638
-9.202162,1.7747142,2.1071415
-9.231676,1.718621,1.9875636
-9.2535,1.6608167,1.8658113
-9.427752,1.5097308,1.5302277
-9.485708,1.4594054,1.4187288
-9.439142,1.3223853,1.1468492
-9.447363,1.2603109,1.019414
-9.446302,1.1957974,0.8885641
-9.412813,1.1233459,0.7466326
-17.013332,2.85738,3.1187377
-17.295258,2.883529,3.1294522
-17.591175,2.9146283,3.1481771
-17.840248,2.9358418,3.1539812
-18.025372,2.9424627,3.1398964
-18.262299,2.96313,3.1465607
-18.913736,3.091188,3.3085804
-18.816086,3.0290942,3.1979618
-19.837513,3.2598915,3.512577
-19.850288,3.2290974,3.4488754
-20.07648,3.2556098,3.4692345
-20.175064,3.2486386,3.4410062
-20.282587,3.2445734,3.417376
-20.424892,3.2507262,3.4092588
-20.604328,3.268121,3.4183645
-20.621437,3.2400672,3.359923
-20.823273,3.265408,3.3818288
-20.863628,3.244585,3.3346372
-21.028393,3.2607203,3.343566
-21.161907,3.268404,3.3401308
-21.245232,3.2615523,3.314886
-21.458387,3.2949739,3.3515882
-21.46999,3.2670026,3.294518
-21.645626,3.2904987,3.3168516
-21.668766,3.2664852,3.2661486
-21.864151,3.297881,3.3015232
-21.877129,3.2710457,3.2467456
-22.041542,3.2939787,3.269732
-22.079477,3.2757313,3.2286353
-22.25313,3.3032973,3.2596235
-22.2826,3.2827551,3.2152538
-22.450161,3.3098361,3.246212
-22.499777,3.296806,3.2140436
-22.597872,3.301019,3.209384
-22.708157,3.3101027,3.212731
-22.699026,3.2766895,3.148459
-22.882324,3.3131971,3.1961098
-22.90804,3.292743,3.1527839
-23.001818,3.297645,3.1502986
-23.116457,3.3109293,3.16156
-23.154566,3.2956748,3.126954
-23.326605,3.3321786,3.1762977
-23.335636,3.3062274,3.12463
-23.448902,3.321223,3.1396012
-23.530674,3.3243463,3.1354752
-23.53946,3.298435,3.0840635
-23.6715,3.322617,3.114696
-23.7425,3.3224988,3.105754
-23.754105,3.2979383,3.0567608
-23.875526,3.3195155,3.0837884
-23.960783,3.326485,3.0869784
-23.96355,3.2983603,3.0323014
-24.03332,3.2991679,3.0255365
-24.150814,3.321372,3.0544357
-24.167822,3.2995884,3.0104408
-24.292017,3.3259692,3.0466924
-24.363821,3.3293724,3.0448751
-24.39225,3.3131716,3.0104303
-24.479387,3.3242822,3.0217476
-24.56097,3.3333309,3.0297866
-24.58147,3.3137789,2.9899487
-24.660507,3.322294,2.997342
-24.721125,3.322324,2.9905953
-24.790958,3.3271892,2.992118
-24.80907,3.306692,2.950912
-24.843182,3.2940814,2.9230595
-24.99612,3.342003,2.997841
-25.002474,3.3157828,2.9471216
-25.071419,3.3218536,2.9512587
-25.16158,3.339516,2.9752488
-25.196775,3.328572,2.9506683
-25.22527,3.3140404,2.9200134
-25.3247,3.3380997,2.9553185
-25.375477,3.3361616,2.9463477
-25.431545,3.337394,2.9428887
-25.46614,3.3268116,2.9192634
-25.520071,3.327268,2.9146338
-25.624474,3.3571045,2.9605913
-25.619059,3.3238146,2.8981209
-25.659695,3.3171835,2.8815289
-25.71839,3.3214316,2.883757
-25.777506,3.3262835,2.8871245
-25.819912,3.3212857,2.8735638
-25.844717,3.3055322,2.8414507
-25.932856,3.3292696,2.8777614
-25.98189,3.3290622,2.872714
-26.046806,3.3392608,2.8858
-26.057083,3.3145263,2.8383017
-26.13079,3.331038,2.8625221
-26.17998,3.331907,2.8596377
-26.229044,3.332945,2.8571205
-26.259089,3.321304,2.8325624
-26.332642,3.339557,2.860217
-26.385908,3.3443506,2.86448
-26.447016,3.3550177,2.8790932
-26.462696,3.3337271,2.8378696
-26.51669,3.3398318,2.8446345
-26.585007,3.3567994,2.870524
-26.629488,3.356739,2.8666468
-26.65517,3.342775,2.8384137
-26.686012,3.3325913,2.816845
-26.724577,3.3283074,2.805684
-26.781872,3.338747,2.8204846
-26.828758,3.3414402,2.821725
-26.864475,3.3354678,2.807754
-26.892467,3.323273,2.782847
-26.951513,3.336506,2.802853
-27.01981,3.3580158,2.8375688
-27.061811,3.3580961,2.834507
-27.077326,3.335694,2.7917256
-27.123875,3.3398228,2.7959094
-27.1795,3.3522615,2.8148751
-27.22847,3.3593056,2.8243575
-27.288149,3.3764467,2.8518152
-27.29217,3.343158,2.7898583
-27.330498,3.3410656,2.7832775
-27.406109,3.3743463,2.8395977
-27.448042,3.3765025,2.8406973
-27.495695,3.3844807,2.8522058
-27.514202,3.3640985,2.813292
-27.554207,3.3648455,2.812017
-27.60972,3.381592,2.839301
-27.651485,3.3848338,2.8425822
-27.692678,3.3877628,2.845357
-27.71415,3.3699362,2.8111343
-27.740114,3.3565924,2.7849264
-27.783781,3.3624952,2.7931275
-27.828035,3.3694334,2.8032322
-27.868898,3.372927,2.8072295
-27.903004,3.3689046,2.7978272
-27.929873,3.3564148,2.7733011
-27.965673,3.354363,2.7674909
-28.008526,3.3610082,2.7773
-28.04786,3.363707,2.780088
-28.107962,3.3928757,2.830387
-28.124374,3.3671834,2.7823458
-28.151842,3.355178,2.7588701
-28.19431,3.3628824,2.7708054
-28.242262,3.378504,2.7970133
-28.280485,3.3814425,2.8004894
-28.310438,3.3730025,2.7835531
-28.339273,3.3627923,2.7634578
-28.37177,3.3577201,2.7526307
-28.411133,3.3628955,2.7602758
-28.45455,3.3746686,2.7798414
-28.49347,3.380089,2.7880177
-28.528715,3.380053,2.7864075
-28.557648,3.3698826,2.7665691
-28.588186,3.3621056,2.751071
-28.626802,3.3679316,2.760126
-28.67539,3.3916261,2.8014522
-28.706863,3.3860068,2.7899494
-28.73614,3.3762484,2.771006
-28.766623,3.3684344,2.7555957
-28.800919,3.3677409,2.7530704
-28.835907,3.36855,2.7532926
-28.880573,3.3892403,2.7894678
-28.912937,3.385548,2.7816324
-28.94316,3.3772163,2.765441
-28.97035,3.3618643,2.7365828
-29.003511,3.3593488,2.730958
-29.04276,3.3711345,2.751233
-29.079721,3.3782935,2.7631774
-29.11552,3.383183,2.7710547
-29.148592,3.3815174,2.7671022
-29.175272,3.362808,2.732328
-29.207382,3.357964,2.7226772
-29.244398,3.367025,2.7382355
-29.284515,3.3862104,2.7721696
-29.317816,3.3859386,2.7708988
-29.355679,3.4005687,2.796659
-29.378698,3.3665245,2.7342548
-29.411644,3.3645844,2.7300487
-29.447208,3.3723092,2.743391
-29.48404,3.385883,2.767373
-29.518627,3.3918872,2.777666
-29.551374,3.3907866,2.7751093
-29.5835,3.3868895,2.767511
-29.613626,3.372984,2.7417893
-29.646696,3.3726094,2.7406359
-29.680542,3.3766482,2.74752
-29.714838,3.3841443,2.7607079
-29.748257,3.3874009,2.7662354
-29.780348,3.3820763,2.7562237
-29.81181,3.3710527,2.735899
-29.84422,3.3658895,2.7262368
-29.877354,3.366592,2.7272487
-29.911787,3.3818433,2.7546964
-29.944874,3.3851311,2.7604628
-29.977743,3.3865752,2.7629123
-30.009407,3.3663971,2.7261448
-30.04215,3.360289,2.7149453
-30.075562,3.3725986,2.737206
-30.108574,3.3796873,2.750022
-30.141397,3.3839653,2.7577653
-30.174149,3.384468,2.7586842
-30.20731,3.3662376,2.7256284
-30.24044,3.3620849,2.7181582
-30.273357,3.3647718,2.7231317
-30.305738,3.3752606,2.7422972
-30.337646,3.3887236,2.766889
-30.370543,3.386837,2.763651
-30.40449,3.374913,2.7422242
-30.437672,3.3727176,2.7384863
-30.470978,3.370127,2.7340617
-30.502775,3.3791814,2.7507982
-30.533846,3.3916843,2.7738194
-30.567423,3.3869379,2.765572
-30.600456,3.3861287,2.7644987
-30.635237,3.37627,2.7470398
-30.66999,3.3679476,2.7324014
-30.701792,3.3746095,2.7449727
