x,y,z
-25.413656,1.3512359,2.8244762
-25.478716,1.3660882,2.8252568
-25.548134,1.3857806,2.831184
-25.612623,1.4011176,2.833016
-25.668886,1.4085922,2.82716
-25.734018,1.4255359,2.831139
-25.79829,1.4421368,2.835043
-25.861712,1.4583886,2.8388577
-25.920452,1.470197,2.838387
-25.981693,1.4851384,2.8413668
-26.043745,1.5014725,2.8460293
-26.099625,1.511558,2.8444972
-26.153196,1.5194764,2.840941
-26.207138,1.5281653,2.8383865
-26.26455,1.5411828,2.8405375
-26.321722,1.5543988,2.8431196
-26.374063,1.5624585,2.8405375
-26.424734,1.5689027,2.8364596
-26.482267,1.5838783,2.8415194
-26.534088,1.5924661,2.8400836
-26.582804,1.5976243,2.8352227
-26.660475,1.6390214,2.8688207
-26.86923,1.8464432,3.0785418
-26.906582,1.8410766,3.0635624
-26.915863,1.7995076,3.0102048
-27.013971,1.8730872,3.079485
-27.052088,1.8693254,3.066648
-27.112926,1.8961,3.086594
-27.141005,1.8791935,3.0599651
-27.181318,1.8788366,3.0511699
-27.255774,1.9263382,3.0939918
-27.297812,1.9293685,3.0891976
-27.343197,1.9374406,3.0899854
-27.38969,1.9475024,3.093082
-27.437243,1.959563,3.0985074
-27.4821,1.9680743,3.1002474
-27.525166,1.974252,3.0996022
-27.5653,1.9762259,3.0945215
-27.606173,1.979558,3.0910492
-27.64892,1.986119,3.091236
-27.69115,1.9921889,3.0910258
-27.73212,1.9965155,3.0890427
-27.774492,2.0034628,3.090064
-27.817095,2.011164,3.0920544
-27.85882,2.0177424,3.092947
-27.896479,2.0175452,3.086502
-27.935886,2.0205948,3.083755
-27.974876,2.023129,3.0805583
-28.01551,2.0289254,3.081092
-28.056698,2.0361035,3.0832844
-28.096424,2.0408769,3.0829377
-28.135725,2.0451334,3.0821395
-28.171747,2.0431685,3.0745368
-28.206533,2.0387635,3.0643172
-28.236149,2.0236523,3.0422497
-28.259367,1.9946151,3.0046968
-28.27507,1.9484193,2.947991
-28.294193,1.9079521,2.8976889
-28.329426,1.9019532,2.8860188
-28.366709,1.9005148,2.8795586
-28.406197,1.9042926,2.879058
-28.445065,1.9069004,2.877358
-28.484924,1.9121797,2.8787766
-28.523905,1.9156466,2.8782706
-28.561554,1.9160094,2.8743782
-28.60041,1.9196887,2.8743324
-28.64015,1.9260492,2.8774276
-28.678123,1.9280128,2.875667
-28.721994,1.9468429,2.8930945
-28.77176,1.9838746,2.9312692
-28.81999,2.018486,2.9668684
-28.851309,2.0034773,2.94636
-28.60825,1.1248176,1.9458084
-28.647366,1.1079605,1.9226313
-28.955921,1.9893377,2.9203825
-28.788446,1.2878773,2.119513
-28.825056,1.2662609,2.091364
-28.862394,1.2460241,2.0648694
-28.875446,1.1322887,1.9319229
-28.900932,1.0594845,1.8456044
-28.913992,0.93073845,1.6954894
-29.213432,2.0059066,2.919538
-29.251062,2.0133183,2.9255795
-29.286848,2.0130095,2.922904
-29.323586,2.0173593,2.9256501
-29.359844,2.0198495,2.9263687
-29.395056,2.0172112,2.921317
-29.434937,2.0401397,2.9456253
-29.467405,2.0226622,2.9237761
-29.505527,2.0379527,2.9395466
-29.406342,0.86944485,1.5966892
-29.474834,1.034509,1.7841
-29.5189,1.0315208,1.7789593
-29.679873,2.0144289,2.9052563
-29.715765,2.0171976,2.9072485
-29.751537,2.019404,2.9086895
-29.787445,2.02367,2.91259
-29.821543,2.0070474,2.8925943
-29.857092,2.0062487,2.890863
-29.892693,2.0061975,2.8900838
-29.928293,2.0062382,2.889503
-29.963768,2.0037458,2.886105
-29.999508,2.00725,2.8896914
-30.035126,2.008878,2.8912153
-30.070698,2.0099406,2.8921833
-30.10623,2.009126,2.891086
-30.141783,2.0123408,2.8947134
-30.177292,2.013678,2.896275
-30.212795,2.013794,2.8965263
-30.24825,2.01597,2.899238
-30.283663,2.0182364,2.9021473
-30.319149,2.0179691,2.902236
-30.35447,2.0210738,2.906293
-30.389856,2.0223007,2.9082847
-30.425545,2.0190277,2.9051995
-30.461084,2.01847,2.9053273
-30.496635,2.0180032,2.905653
-30.532516,2.0143516,2.9024153
-30.568674,2.0088274,2.8971229
-30.606062,1.993572,2.8807597
-30.648355,1.9410894,2.8217893
-24.044128,1.1304877,2.8853273
-24.101572,1.1304431,2.866168
-24.157663,1.1295166,2.8464117
-24.212425,1.127698,2.826035
-24.29621,1.1499543,2.8289347
-24.390106,1.1812565,2.8409305
-24.443785,1.1796157,2.8215966
-24.51234,1.1907573,2.814859
-24.589043,1.2092986,2.8156204
-24.664791,1.2275839,2.816484
-24.741491,1.2472663,2.8190608
-24.822884,1.2716813,2.826641
-24.896994,1.2902982,2.8288813
-24.967682,1.3064091,2.8289738
-25.035011,1.3199897,2.826867
-25.10332,1.3349404,2.826416
-25.171967,1.350707,2.827077
-25.239134,1.3656013,2.8271613
-25.309017,1.3835711,2.8306274
-25.375624,1.3989685,2.831802
-25.439604,1.4123359,2.8312044
-25.506256,1.4287858,2.8340049
-25.565094,1.4380507,2.8297715
-25.634083,1.4578378,2.8365197
-25.696463,1.4715621,2.8373537
-25.760849,1.4878149,2.841041
-25.821026,1.5002596,2.841073
-25.87931,1.5111814,2.839775
-25.941235,1.5263691,2.843124
-26.00125,1.540034,2.8451443
-26.055073,1.547497,2.8409476
-26.115168,1.5621555,2.8444638
-26.170221,1.5717542,2.842928
-26.220364,1.5762551,2.8362522
-26.282894,1.5950441,2.8447819
-26.338385,1.606391,2.8457189
-26.391619,1.6155627,2.8445706
-26.443663,1.6237271,2.8425517
-26.50205,1.6397843,2.849102
-26.55618,1.6512856,2.8510323
-26.606169,1.6581993,2.8482747
-26.739447,1.7680666,2.9556766
-26.842028,1.8425901,3.0258875
-26.903427,1.8671389,3.0429606
-26.979416,1.911154,3.0812058
-27.02815,1.9211261,3.083106
-27.073477,1.9270332,3.0807958
-27.110504,1.9221957,3.0670204
-27.135921,1.9017029,3.0363927
-27.230452,1.975364,3.1080189
-27.269316,1.973988,3.098463
-27.310349,1.9757707,3.0924697
-27.352615,1.9795072,3.088738
-27.396065,1.9852073,3.0872931
-27.441483,1.9941049,3.0894938
-27.486313,2.002533,3.0913334
-27.528944,2.0080283,3.0901022
-27.57146,2.0136542,3.0891533
-27.61267,2.017559,3.0864458
-27.6577,2.027766,3.090828
-27.700993,2.0356398,3.092781
-27.74223,2.0405483,3.0915918
-27.782612,2.0443387,3.089292
-27.824387,2.0507345,3.090013
-27.86385,2.0535212,3.086852
-27.903244,2.056421,3.0839376
-27.941162,2.0569372,3.078484
-27.98287,2.0644405,3.0809474
-28.025454,2.0739484,3.0857859
-28.06281,2.0741777,3.0803676
-28.101141,2.076395,3.0772872
-28.137465,2.0749476,3.0702052
-28.176033,2.0780072,3.0682926
-28.212019,2.076131,3.0609398
-28.244019,2.0661442,3.0445447
-28.263165,2.0290506,2.997643
-28.2782,1.9818406,2.9393234
-28.29231,1.9308167,2.8766804
-28.330746,1.9317985,2.8728938
-28.371387,1.9379671,2.875094
-28.413004,1.9467952,2.8804307
-28.451757,1.9493802,2.8788037
-28.490452,1.9520712,2.8774095
-28.530373,1.9580595,2.8798752
-28.568913,1.9609675,2.8789496
-28.606894,1.962703,2.8767967
-28.645071,1.9651818,2.875597
-28.6846,1.9716079,2.879012
-28.72377,1.9775038,2.8819351
-28.771976,2.009815,2.915182
-28.816545,2.0332909,2.9384747
-28.852638,2.0324807,2.9340873
-28.616856,1.182637,1.9565287
-28.65916,1.1768212,1.94589
-28.963062,2.0377061,2.9302988
-28.79309,1.333159,2.1178951
-28.835987,1.3342423,2.115642
-28.86274,1.2766767,2.0460467
-28.863455,1.1170456,1.8590121
-28.88837,1.0407274,1.7678194
-28.930134,1.02719,1.7489858
-29.215937,2.0399456,2.913463
-29.25307,2.0453646,2.9173236
-29.2901,2.050883,2.9214015
-29.326614,2.054556,2.923448
-29.363575,2.060921,2.9287038
-29.399914,2.0647883,2.9311728
-29.43594,2.067453,2.9323487
-29.469538,2.0565653,2.917945
-29.50418,2.050961,2.909738
-29.538618,2.0434935,2.8994632
-29.574707,2.0465226,2.9014292
-29.467943,1.0108404,1.7003913
-29.516882,1.0417006,1.7344341
-29.683384,2.0626872,2.9160995
-29.719597,2.070003,2.9234161
-29.755539,2.0761106,2.929428
-29.788063,2.046461,2.8940659
-29.823017,2.0397081,2.8853402
-29.858038,2.032393,2.876052
-29.89353,2.0303838,2.8730106
-29.929491,2.0362937,2.8792515
-29.96516,2.0383825,2.8811502
-30.000763,2.0399106,2.882492
-30.036411,2.0441406,2.8870616
-30.071932,2.0458517,2.8888001
-30.107397,2.0456965,2.888464
-30.142868,2.0475907,2.8905993
-30.178299,2.0502286,2.8936887
-30.213787,2.0464313,2.8893995
-30.249262,2.0459878,2.8890953
-30.28452,2.0521615,2.8965645
-30.319723,2.0571198,2.9027138
-30.355215,2.0549922,2.9007301
-30.390585,2.0555646,2.9019718
-30.425762,2.058837,2.906437
-30.461401,2.055679,2.903535
-30.497158,2.0519612,2.900075
-30.533493,2.0431228,2.890771
-30.568876,2.0448053,2.8937616
-30.60642,2.027689,2.8750558
-30.645254,2.00286,2.847516
-23.866259,1.1277206,2.858728
-23.930954,1.132298,2.8434858
-23.986073,1.1296635,2.821641
-24.06343,1.1448247,2.8170862
-24.106407,1.1329801,2.7868872
-24.255917,1.2071939,2.8400307
-24.368555,1.2529807,2.8663845
-24.401041,1.2338476,2.8300643
-24.47488,1.2489419,2.8273
-24.557518,1.2719321,2.8326197
-24.635262,1.29143,2.8348856
-24.705643,1.3052108,2.8318553
-24.763092,1.308281,2.8185067
-24.833694,1.3231075,2.8170977
-24.905283,1.3393035,2.8173661
-24.977205,1.3563228,2.8187766
-25.046976,1.371949,2.8191013
-25.118301,1.3895073,2.8216786
-25.190533,1.4084511,2.8259692
-25.261219,1.4265492,2.8297176
-25.327396,1.4409838,2.8300395
-25.388567,1.451158,2.8262877
-25.452486,1.4643724,2.8259006
-25.527258,1.4885738,2.8370728
-25.581907,1.4937668,2.8289738
-25.64851,1.5110941,2.8336315
-25.702835,1.5166869,2.8263998
-25.771166,1.5367622,2.8344336
-25.836334,1.554225,2.8400302
-25.891743,1.562155,2.8359308
-25.952497,1.5760374,2.8382807
-26.014633,1.5918689,2.8429222
-26.071608,1.6027126,2.842558
-26.126766,1.6120129,2.8407817
-26.179619,1.619175,2.8369508
-26.246002,1.6416745,2.8495975
-26.2927,1.6427944,2.8397646
-26.346579,1.6522603,2.838994
-26.39976,1.6613221,2.8379912
-26.458328,1.6770344,2.8443098
-26.510092,1.6852868,2.842844
-26.564663,1.6972563,2.8455648
-26.612133,1.7011201,2.839746
-26.850462,1.9383941,3.0863953
-26.884682,1.9293642,3.0674634
-26.929024,1.9329383,3.062305
-26.977047,1.9414275,3.0626435
-27.02583,1.9512708,3.0646267
-27.07304,1.9594772,3.0649953
-27.118721,1.9660332,3.0637236
-27.188553,2.0052404,3.0983977
-27.235899,2.0151641,3.1012
-27.273388,2.0119495,3.0897126
-27.316555,2.0167084,3.0871253
-27.358759,2.020388,3.0834875
-27.406382,2.0320935,3.088863
-27.447926,2.035434,3.085136
-27.49063,2.0407288,3.0837097
-27.536886,2.0516512,3.0886774
-27.578106,2.0553806,3.0857935
-27.623207,2.0653622,3.090012
-27.6642,2.0693479,3.0876837
-27.70163,2.0679226,3.079431
-27.745533,2.0770712,3.0831337
-27.791504,2.0900564,3.0912848
-27.830206,2.0914528,3.0865674
-27.867773,2.0911038,3.0800033
-27.907837,2.0951967,3.0785527
-27.953108,2.1087158,3.08786
-27.992558,2.1124358,3.0862455
-28.028843,2.1106694,3.0785446
-28.069183,2.1164804,3.0795279
-28.105429,2.114921,3.072276
-28.14852,2.1265833,3.0801382
-28.184029,2.1239872,3.071927
-28.213278,2.108954,3.0496578
-28.246178,2.100884,3.035388
-28.267681,2.0690262,2.994062
-28.281406,2.0195816,2.932674
-28.30038,1.979564,2.8820453
-28.338663,1.9805298,2.878333
-28.377195,1.9822326,2.8755703
-28.41458,1.9815137,2.870141
-28.458965,1.9973414,2.8838081
-28.498041,2.0012734,2.883945
-28.536774,2.0046806,2.8835893
-28.572908,2.0018501,2.8761606
-28.61401,2.0118177,2.883575
-28.65251,2.0155458,2.883916
-28.687637,2.0104709,2.8742018
-28.728579,2.02141,2.8830786
-28.784294,2.0751884,2.9416022
-28.818108,2.0678947,2.9296603
-28.859888,2.0843186,2.9452653
-28.896822,2.0868018,2.9448419
-28.916443,2.0343616,2.8808308
-28.687607,1.1623392,1.8658109
-28.793266,1.3694603,2.102581
-28.834875,1.3660271,2.0951376
-28.862337,1.311362,2.0282373
-28.855247,1.1237977,1.8067689
-28.885536,1.067832,1.7383394
-28.919868,1.0241275,1.6842346
-28.956213,0.9856341,1.6362672
-29.002886,0.9890628,1.6372476
-29.048773,0.9893942,1.634738
-29.093962,0.98662233,1.6287284
-29.13958,0.98590136,1.6252294
-29.185827,0.9885247,1.6257563
-29.231897,0.99062395,1.6257896
-29.277468,0.99026036,1.623066
-29.324646,0.99970603,1.6319304
-29.369614,0.99635077,1.625946
-29.416452,1.0053961,1.6345882
-29.615744,2.1149373,2.9316344
-29.649462,2.1032555,2.9166312
-29.684788,2.103309,2.9154568
-29.720108,2.103454,2.9144807
-29.75595,2.1088715,2.919773
-29.78922,2.0878205,2.894135
-29.82439,2.0849946,2.8899436
-29.85985,2.0854993,2.8897486
-29.895042,2.0822062,2.8851886
-29.930769,2.0874314,2.8907108
-29.966335,2.0914526,2.8949118
-30.00175,2.0936203,2.8970313
-30.037144,2.0965273,2.9001074
-30.072456,2.0982285,2.9018593
-30.107708,2.0974257,2.9007654
-30.142971,2.096714,2.899867
-30.178202,2.1025794,2.9067755
-30.213451,2.1007512,2.9047475
-30.248684,2.1009593,2.9051986
-30.283756,2.1057982,2.9111738
-30.319336,2.0971081,2.9013662
-30.35415,2.1060178,2.9122953
-30.389486,2.1039941,2.910489
-30.425411,2.0942838,2.8997607
-30.460737,2.0943892,2.9006333
-30.496351,2.0913455,2.8979063
-30.532597,2.082564,2.8885465
-30.567822,2.0848882,2.8922944
-30.59961,2.1164358,2.930365
-30.632862,2.1318748,2.9496436
-30.665052,2.1532173,2.975914
-23.72702,1.1205044,2.7941446
-23.803295,1.1328366,2.7861857
-23.898472,1.1601665,2.7930827
-24.040695,1.224772,2.836639
-24.130604,1.2498293,2.8423924
-24.21875,1.2741892,2.8478951
-24.285835,1.2824087,2.8379593
-24.39908,1.3282437,2.8654218
-24.435312,1.3124423,2.8324227
-24.500507,1.3203673,2.8231096
-24.57398,1.3355362,2.8213024
-24.649115,1.352606,2.821724
-24.721386,1.3677967,2.8205934
-24.797195,1.386524,2.8233461
-24.870779,1.4039073,2.825079
-24.942799,1.4204779,2.8263102
-25.01141,1.4345777,2.8253384
-25.083466,1.4522357,2.8282957
-25.151527,1.4668558,2.8284535
-25.221752,1.4839427,2.8314352
-25.278992,1.4896402,2.82297
-25.347488,1.5061095,2.8258753
-25.413902,1.5211606,2.8275957
-25.486525,1.5426116,2.8362546
-25.544136,1.5503128,2.8308725
-25.608555,1.5649652,2.8329926
-25.66752,1.5747766,2.8302917
-25.737137,1.5955405,2.839355
-25.795057,1.605226,2.8370147
-25.857838,1.6202314,2.8405275
-25.916443,1.6314735,2.8403006
-25.968212,1.6360669,2.8332257
-26.036274,1.6580124,2.8448496
-26.09581,1.671601,2.8478165
-26.14811,1.6779191,2.8432207
-26.208784,1.6936414,2.8489218
-26.261257,1.7009072,2.8457499
-26.31567,1.7106664,2.8454614
-26.373507,1.724678,2.8499742
-26.429028,1.7365625,2.8524017
-26.482796,1.7468882,2.8533401
-26.534855,1.7556407,2.8527613
-26.581768,1.7587061,2.84616
-26.672863,1.8147845,2.8977232
-26.852509,1.9795487,3.0688615
-26.90165,1.9888163,3.0700293
-26.937263,1.9816952,3.053328
-26.98476,1.9894769,3.0531678
-27.010191,1.9695163,3.0225067
-27.094946,2.0257251,3.0762448
-27.148159,2.0423512,3.0864286
-27.199705,2.0573702,3.0950212
-27.247402,2.06778,3.0986648
-27.286537,2.0669582,3.089944
-27.32566,2.0662487,3.0814667
-27.371218,2.0746765,3.0833368
-27.412361,2.0772228,3.0787654
-27.46014,2.0895538,3.0853124
-27.502302,2.094177,3.0833516
-27.54518,2.1001415,3.083035
-27.587524,2.1056304,3.0823197
-27.629354,2.110641,3.0811977
-27.670292,2.1145606,3.0789704
-27.71539,2.1253119,3.084618
-27.755701,2.1288748,3.0822506
-27.795929,2.1325576,3.0801406
-27.837923,2.1394231,3.0817795
-27.880138,2.14703,3.0843945
-27.92184,2.1541512,3.0865865
-27.958796,2.1533952,3.0798993
-27.99888,2.1582901,3.0797882
-28.034744,2.1558936,3.0714374
-28.076704,2.164724,3.0760736
-28.11351,2.1643934,3.070311
-28.15161,2.166645,3.0676231
-28.190613,2.1708672,3.0673137
-28.221018,2.158415,3.047886
-28.247612,2.1379385,3.0192614
-28.265446,2.0988123,2.9691238
-28.292015,2.0765398,2.938497
-28.302887,2.0199485,2.8681583
-28.341148,2.0208774,2.8644948
-28.381063,2.0256698,2.8654227
-28.423355,2.0362184,2.8731537
-28.463549,2.0424984,2.8760457
-28.501501,2.0438662,2.873332
-28.538897,2.0440793,2.8693786
-28.578547,2.0500607,2.8722544
-28.61758,2.0548933,2.8738995
-28.654581,2.0547872,2.869885
-28.69086,2.052884,2.8638673
-28.737963,2.0807917,2.8928323
-28.790142,2.1246693,2.9406538
-28.825577,2.122486,2.9346585
-28.874426,2.1603334,2.9757128
-28.89942,2.1272798,2.9336972
-28.64772,1.2179756,1.8623862
-28.723648,1.3202996,1.9788904
-28.790876,1.4000039,2.0690632
-28.832777,1.3972011,2.062355
-28.874538,1.3938696,2.055132
-28.85876,1.1771209,1.7965155
-28.8564,0.9965439,1.5803695
-28.9062,1.01051,1.5936184
-28.954346,1.0188682,1.6003833
-29.001432,1.0235221,1.6029043
-29.047709,1.025104,1.6019192
-29.094904,1.0312862,1.6064906
-29.140663,1.0311935,1.6037664
-29.18554,1.026737,1.5959954
-29.232035,1.030724,1.5983324
-29.27845,1.0348339,1.6009345
-29.324457,1.0371413,1.6015215
-29.370615,1.0408523,1.6038904
-29.417082,1.0472522,1.6095653
-29.617771,2.156902,2.923483
-29.651003,2.1420908,2.9046164
-29.687546,2.1524189,2.9156547
-29.722523,2.1506326,2.9124131
-29.760641,2.1791525,2.94523
-29.791655,2.137684,2.8950615
-29.826147,2.1284466,2.883235
-29.861242,2.125086,2.8784723
-29.896906,2.1295369,2.8830767
-29.932522,2.1347244,2.8886452
-29.967579,2.1303487,2.8829436
-30.002886,2.130569,2.8827906
-30.038208,2.1315236,2.8835988
-30.073496,2.131925,2.8838391
-30.108782,2.1330621,2.8850408
-30.144054,2.1387959,2.8917956
-30.179268,2.1381824,2.891096
-30.214502,2.1370153,2.8898263
-30.249693,2.1385138,2.8918142
-30.28481,2.1413898,2.8955278
-30.319847,2.145,2.9002013
-30.355162,2.1422634,2.8974223
-30.390366,2.1421928,2.8978982
-30.425388,2.144786,2.9016285
-30.461042,2.1391058,2.8956218
-30.496801,2.1335194,2.8898177
-30.530434,2.15053,2.9109287
-30.562498,2.179193,2.9459481
-30.59669,2.185439,2.9544435
-30.630116,2.19691,2.9692216
-30.66421,2.202041,2.9765625
-23.597572,1.1258597,2.7442203
-23.739494,1.1860638,2.7828546
-23.91621,1.2738583,2.8492393
-23.987514,1.2833807,2.839663
-24.049805,1.2863855,2.8239741
-24.126205,1.300612,2.8196645
-24.193624,1.3083024,2.8092003
-24.318264,1.361582,2.84454
-24.390308,1.3741479,2.839713
-24.460804,1.3859253,2.8344107
-24.530426,1.3974364,2.8291469
-24.60828,1.4161501,2.8314824
-24.687735,1.436774,2.8361082
-24.757847,1.4501872,2.833736
-24.830894,1.4665599,2.834694
-24.899849,1.4799666,2.8329244
-24.972319,1.4968851,2.8350677
-25.040741,1.5108168,2.834436
-25.11385,1.5293674,2.8388844
-25.17557,1.5383518,2.833694
-25.246859,1.5563347,2.8381448
-25.316006,1.5729377,2.8414545
-25.380041,1.5853872,2.8406925
-25.440863,1.5953045,2.837524
-25.502079,1.6059935,2.835412
-25.566015,1.619683,2.8367224
-25.641317,1.6447606,2.850387
-25.755367,1.7081561,2.9051924
-25.796267,1.7013948,2.8855996
-25.823076,1.6806962,2.8512063
-25.878323,1.6882231,2.8471727
-25.940657,1.7032847,2.851457
-25.996624,1.7123411,2.8495054
-26.051315,1.7204545,2.8467436
-26.109636,1.7327399,2.848711
-26.167717,1.7452302,2.8511214
-26.221825,1.7539213,2.8496118
-26.27417,1.7610757,2.84662
-26.332115,1.7747273,2.8509321
-26.389278,1.7880068,2.8550544
-26.441051,1.7957118,2.8532562
-26.49114,1.8018532,2.8499188
-26.548136,1.8162787,2.855908
-26.601364,1.8268337,2.8578238
-26.77017,1.9744782,3.0120325
-26.852005,2.0218873,3.0556135
-26.900654,2.0304244,3.0562372
-26.948652,2.038536,3.0565548
-27.006397,2.0591438,3.0710144
-27.056747,2.071127,3.0760264
-27.104553,2.0803308,3.078095
-27.142128,2.0766864,3.0658765
-27.20547,2.1069086,3.091929
-27.254868,2.1195626,3.0983963
-27.30049,2.127626,3.099843
-27.342897,2.1316652,3.0968823
-27.385208,2.1358352,3.094205
-27.426573,2.1389384,3.0904484
-27.469118,2.143964,3.0890088
-27.514034,2.152721,3.09196
-27.557955,2.160418,3.0938458
-27.601715,2.1682532,3.0960321
-27.644518,2.1750188,3.0971317
-27.685211,2.1788957,3.0950527
-27.727364,2.1853154,3.0960193
-27.769379,2.191864,3.0972657
-27.809374,2.1955051,3.0952916
-27.849653,2.1998725,3.0942755
-27.889832,2.2043593,3.0935187
-27.93063,2.210185,3.0944328
-27.969175,2.2124677,3.091364
-28.006962,2.213638,3.0871153
-28.045052,2.2155266,3.0838103
-28.08241,2.2162974,3.0793128
-28.121067,2.2196302,3.0779052
-28.159317,2.2224598,3.0760207
-28.194927,2.220468,3.0686188
-28.227715,2.2130198,3.054937
-28.252253,2.1889722,3.0219183
-28.267776,2.1457882,2.966527
-28.29273,2.1205575,2.9321747
-28.310213,2.0786226,2.8782597
-28.348848,2.0807698,2.8761306
-28.389679,2.087997,2.8800821
-28.429256,2.092853,2.8813596
-28.468729,2.0978222,2.8828807
-28.507565,2.1016543,2.8831735
-28.546833,2.1068447,2.8851743
-28.584723,2.1090202,2.8837247
-28.620825,2.1069202,2.8773208
-28.660818,2.114936,2.8829808
-28.698053,2.1161697,2.880722
-28.728344,2.0986786,2.8563666
-28.790596,2.1698136,2.9372053
-28.825935,2.1676223,2.931221
-28.876848,2.211456,2.980002
-28.904358,2.1868172,2.9475503
-28.636875,1.237608,1.815268
-28.698616,1.2924383,1.8767915
-28.76104,1.3531559,1.9455261
-28.82325,1.4172399,2.0184784
-28.858255,1.3892269,1.9817953
-28.870848,1.2771406,1.8448558
-28.84421,1.007999,1.5203543
-28.891598,1.0110378,1.5207739
-28.936438,1.0040588,1.5093436
-28.983479,1.0060742,1.5087781
-29.028326,0.99869204,1.4970908
-29.07947,1.0200009,1.519855
-29.126137,1.0217564,1.5193448
-29.172134,1.0204556,1.5152903
-29.217665,1.0167294,1.5084453
-29.266666,1.0322104,1.5247407
-29.31343,1.0363657,1.5275817
-29.360516,1.043191,1.5337462
-29.40449,1.0303893,1.5164738
-29.615677,2.1988103,2.917427
-29.649168,2.1866422,2.9015307
-29.686167,2.2013466,2.9179926
-29.720425,2.1944568,2.9086056
-29.756802,2.2068002,2.9224162
-29.790098,2.1892366,2.900371
-29.824371,2.179418,2.8877163
-29.859797,2.182458,2.8906078
-29.895033,2.1836736,2.8913927
-29.930391,2.1875355,2.8954492
-29.965706,2.192128,2.9004722
-30.000683,2.1904216,2.8980055
-30.03565,2.1875262,2.894195
-30.070776,2.1898344,2.8967328
-30.105892,2.195428,2.9033098
-30.140896,2.197277,2.905468
-30.175865,2.1992164,2.907823
-30.210766,2.2031622,2.9126782
-30.245674,2.2040026,2.9138832
-30.280703,2.201098,2.9106688
-30.315842,2.1970055,2.9061136
-30.35075,2.1987548,2.9086723
-30.385506,2.2025094,2.9137301
-30.420424,2.2031596,2.9151392
-30.455591,2.2007067,2.9129043
-30.49098,2.1964297,2.9085646
-30.528303,2.173734,2.8821778
-30.559563,2.2104857,2.9273224
-30.594534,2.2103071,2.9281688
-30.632282,2.1885362,2.9031692
-23.685253,1.2339792,2.782927
-23.8268,1.2937906,2.8225121
-23.904648,1.3074231,2.816998
-23.994577,1.3306482,2.8213983
-24.064362,1.3392191,2.8115606
-24.205002,1.4026122,2.8570971
-24.28408,1.4197071,2.8566713
-24.393574,1.4611735,2.8812728
-24.398838,1.4212382,2.823709
-24.482525,1.4433615,2.8293495
-24.54486,1.448916,2.8184147
-24.63895,1.4806576,2.834629
-24.702763,1.4883361,2.8264847
-24.785667,1.5122411,2.835383
-24.844566,1.5166874,2.8244643
-24.921711,1.5368981,2.8301892
-24.97964,1.5412669,2.8197064
-25.054306,1.5604084,2.8249292
-25.129856,1.5809207,2.831912
-25.201958,1.5990112,2.836669
-25.255424,1.6010427,2.824747
-25.322748,1.6158123,2.8265357
-25.433643,1.6708033,2.8713903
-25.54536,1.7279155,2.9190292
-25.609947,1.7425585,2.921753
-25.618519,1.7049873,2.868713
-25.66262,1.7005866,2.8513098
-25.751213,1.7390625,2.880312
-25.863153,1.8012757,2.9353833
-25.84628,1.7384055,2.8553047
-25.90869,1.7531304,2.859415
-25.957983,1.7551799,2.8499508
-26.017166,1.7675116,2.8518963
-26.07227,1.7761071,2.8499737
-26.122301,1.7798047,2.842873
-26.176548,1.7881982,2.8411179
-26.239687,1.806433,2.850419
-26.28821,1.809525,2.843216
-26.347118,1.8241868,2.8490052
-26.393297,1.8253295,2.839992
-26.447128,1.8352158,2.840869
-26.510418,1.8562038,2.8543262
-26.563244,1.8659039,2.8554034
-26.612877,1.8723187,2.852985
-26.839926,2.087164,3.0847955
-26.871813,2.075803,3.0631862
-26.931889,2.0982175,3.0797358
-26.970037,2.0946496,3.0671625
-27.006805,2.089439,3.0528421
-27.070284,2.1176574,3.0765338
-27.112896,2.120333,3.0714512
-27.157719,2.1260746,3.0699925
-27.227715,2.1648996,3.1064034
-27.267075,2.1645067,3.0982938
-27.306856,2.1648188,3.0911093
-27.349224,2.1687975,3.0882473
-27.39365,2.1758704,3.0890703
-27.435371,2.1795208,3.0861
-27.477425,2.1838923,3.0840907
-27.519373,2.188393,3.0823584
-27.564083,2.1972008,3.085734
-27.604977,2.2007673,3.083187
-27.64618,2.2050557,3.0816011
-27.688854,2.2118688,3.0830703
-27.73022,2.2170103,3.0827289
-27.774529,2.2270947,3.0882664
-27.814865,2.2312872,3.087078
-27.85436,2.2343912,3.0847373
-27.893778,2.2376115,3.0826492
-27.934196,2.2427645,3.0829382
-27.975918,2.2504659,3.0863333
-28.015385,2.254648,3.0857253
-28.053036,2.2559013,3.0817914
-28.08929,2.2548234,3.075221
-28.126211,2.2550652,3.0703034
-28.164087,2.2572434,3.06777
-28.199978,2.2558563,3.0611343
-28.233347,2.2496629,3.0489154
-28.252853,2.2159352,3.004208
-28.269917,2.1760752,2.9522514
-28.287392,2.1356006,2.8995671
-28.31791,2.1210017,2.8775892
-28.355577,2.1212735,2.8733416
-28.394915,2.1253533,2.8737206
-28.435263,2.1320171,2.877285
-28.474932,2.13756,2.8796272
-28.513155,2.1401167,2.87852
-28.551056,2.1421592,2.8769007
-28.589157,2.1449263,2.8762493
-28.62818,2.150285,2.878798
-28.664669,2.149531,2.8741393
-28.702103,2.1513653,2.872675
-28.74133,2.158289,2.8774061
-28.812532,2.2545638,2.989398
-28.83117,2.2061975,2.9280686
-28.865387,2.2009776,2.9185648
-28.559574,1.1690259,1.6752124
-28.631886,1.2514188,1.7704077
-28.713802,1.3697922,1.9091496
-28.78914,1.4740443,2.0311809
-28.818918,1.4297981,1.9745517
-28.85467,1.4038162,1.9399872
-28.835052,1.1742263,1.6598816
-28.842001,1.0287306,1.4810796
-28.886501,1.0197623,1.4670777
-28.932703,1.0172045,1.460927
-28.97864,1.0135055,1.4535117
-29.023775,1.0061395,1.4417734
-29.07164,1.0108771,1.4447899
-29.120983,1.0233185,1.4572515
-29.168701,1.0289457,1.4615912
-29.216183,1.0340674,1.4654408
-29.26447,1.0443735,1.4756913
-29.31212,1.0522783,1.4831562
-29.549862,2.242537,2.9246225
-29.58396,2.236607,2.9159985
-29.618254,2.2313972,2.908331
-29.651964,2.221205,2.8946972
-29.687658,2.2256746,2.8989463
-29.72254,2.223897,2.895697
-29.760038,2.2469423,2.9226856
-29.792387,2.2206113,2.889783
-29.827621,2.2222753,2.8909712
-29.862722,2.2227612,2.8908148
-29.897684,2.2214334,2.8885403
-29.932886,2.224004,2.8910909
-29.9681,2.2279356,2.895382
-30.003212,2.2313225,2.8990993
-30.038088,2.2290854,2.8960614
-30.073069,2.2301128,2.8970804
-30.108007,2.229325,2.895976
-30.142967,2.232438,2.8997016
-30.177887,2.2330997,2.9005322
-30.212835,2.2313108,2.898467
-30.247768,2.231517,2.8989148
-30.282675,2.2324483,2.900329
-30.317564,2.2334695,2.9019384
-30.352468,2.233945,2.9029694
-30.387447,2.2332406,2.9026513
-30.42249,2.2319913,2.9017572
-30.457605,2.2301981,2.900288
-30.492527,2.2310338,2.9021
-30.528204,2.2243478,2.8948584
-30.56408,2.2171218,2.887053
-30.59903,2.2188647,2.8902273
-30.636406,2.2016869,2.8705187
-23.682486,1.3244114,2.8247852
-23.73984,1.3220172,2.8030143
-23.831228,1.3447199,2.8066387
-23.96708,1.4009387,2.8444428
-24.052586,1.4209161,2.8463054
-24.160234,1.4581797,2.8661046
-24.235392,1.4716859,2.862227
-24.304909,1.4813466,2.8547487
-24.371561,1.4891939,2.845707
-24.449352,1.5061347,2.846315
-24.50636,1.5071945,2.8308487
-24.586277,1.5267837,2.8348293
-24.65932,1.5414331,2.8340216
-24.724968,1.5505638,2.8277626
-24.79493,1.5636368,2.8259068
-24.86464,1.5769744,2.8246236
-24.926483,1.5841894,2.8171716
-25.01335,1.6129735,2.8327994
-25.11219,1.6528141,2.8605552
-25.211561,1.6941397,2.890347
-25.27264,1.7030344,2.8859444
-25.321316,1.7013485,2.8704453
-25.363922,1.6944022,2.849464
-25.430689,1.7093086,2.8521738
-25.539562,1.7631369,2.8972292
-25.588236,1.7628067,2.884078
-25.64511,1.7703011,2.8796015
-25.697159,1.7736008,2.870767
-25.773983,1.8007567,2.8881931
-25.856611,1.8342879,2.9129286
-25.880054,1.8111193,2.875723
-25.92417,1.8079648,2.8605933
-25.969425,1.8060579,2.8469834
-26.027428,1.8171237,2.8478808
-26.080812,1.8239186,2.8442564
-26.140575,1.8376243,2.8485098
-26.19953,1.8509812,2.8525982
-26.250202,1.8560939,2.8476934
-26.307106,1.8681524,2.8507452
-26.362192,1.8787117,2.8523211
-26.420698,1.8934345,2.858778
-26.473255,1.9021056,2.8586292
-26.523079,1.908102,2.8556418
-26.573776,1.9154043,2.8543024
-26.635298,1.9354792,2.8676267
-26.841219,2.1240153,3.0726976
-26.875519,2.1155565,3.054357
-26.928333,2.1291008,3.0612206
-26.972736,2.1330023,3.0572438
-27.03409,2.157894,3.0774589
-27.074362,2.1574755,3.0688534
-27.123878,2.1688073,3.0738816
-27.170874,2.1773915,3.075913
-27.228554,2.2001438,3.0944505
-27.271925,2.204967,3.0924716
-27.31209,2.2058215,3.0860343
-27.35527,2.2109067,3.0846243
-27.399628,2.2178915,3.085557
-27.443834,2.225017,3.086794
-27.485361,2.228738,3.0842023
-27.529705,2.2367275,3.0867195
-27.572237,2.2424858,3.08677
-27.61464,2.248376,3.0871053
-27.657711,2.2555864,3.0891185
-27.698656,2.259951,3.0879226
-27.738333,2.2626486,3.084888
-27.780235,2.26905,3.0863323
-27.819733,2.271987,3.083817
-27.861015,2.2780387,3.0850954
-27.901062,2.2824128,3.0845122
-27.94137,2.287508,3.0849004
-27.98085,2.291518,3.0841193
-28.019535,2.2944365,3.0821567
-28.058489,2.2980716,3.0811553
-28.096678,2.3006094,3.078959
-28.134466,2.30265,3.0762777
-28.170557,2.3017633,3.07021
-28.202135,2.2924643,3.054194
-28.23355,2.282633,3.0376153
-28.253313,2.249715,2.9934835
-28.274275,2.2180326,2.9508467
-28.291012,2.1765938,2.8965306
-28.323193,2.1657434,2.8789263
-28.361897,2.1684446,2.877678
-28.401945,2.174321,2.8803515
-28.441036,2.1784701,2.8810568
-28.479488,2.1815002,2.8805208
-28.51707,2.1827917,2.8779902
-28.554611,2.184185,2.8756828
-28.592617,2.1869147,2.8750877
-28.630556,2.1897492,2.8747172
-28.667456,2.190216,2.8715854
-28.704803,2.1920192,2.8701658
-28.763584,2.251513,2.9387565
-28.803898,2.2634907,2.9499216
-28.840244,2.2650387,2.9485416
-28.494339,1.1557927,1.5981674
-28.548874,1.1801844,1.6238132
-28.653038,1.3590026,1.8374228
-28.773462,1.600491,2.1276932
-28.811863,1.5889063,2.1102748
-28.814291,1.4552054,1.9441528
-28.847805,1.4212523,1.8995528
-28.777351,1.0095801,1.3942599
-28.82333,1.0042379,1.3844538
-28.878742,1.0352798,1.4191871
-28.9216,1.0183065,1.3954144
-28.968197,1.0158355,1.3894649
-29.015116,1.0147378,1.3853083
-29.062592,1.016269,1.3844829
-29.111343,1.0241961,1.391604
-29.159054,1.0278616,1.3936286
-29.217123,1.0862737,1.4628348
-29.264273,1.0908446,1.4662318
-29.311432,1.0961683,1.4706683
-29.357254,1.0940721,1.4661236
-29.413898,1.1625342,1.5482378
-29.458845,1.158813,1.5419459
-29.654743,2.2786844,2.9147635
-29.692146,2.2988634,2.9383812
-29.72255,2.261832,2.8918462
-29.760988,2.2941678,2.9305692
-29.792183,2.2579238,2.8851485
-29.827349,2.2595704,2.8863502
-29.862331,2.2594168,2.8854246
-29.897272,2.2587228,2.8839192
-29.932259,2.2587485,2.8833833
-29.967272,2.2594953,2.8838177
-30.002293,2.2609632,2.8852234
-30.037342,2.2644138,2.889152
-30.072285,2.2660615,2.8909488
-30.107187,2.2671688,2.8921642
-30.142075,2.2715201,2.8974543
-30.176903,2.2728064,2.8990583
-30.211767,2.2703962,2.8962026
-30.246645,2.2693384,2.8950915
-30.281408,2.2721548,2.898831
-30.316149,2.2744296,2.9019861
-30.350948,2.2749012,2.9030085
-30.38574,2.2754622,2.9042244
-30.42071,2.273591,2.9025364
-30.455975,2.268658,2.8971705
-30.491047,2.2669683,2.8958755
-30.525768,2.2691498,2.8994207
-30.560871,2.2676404,2.8985167
-30.596766,2.2599251,2.890079
-30.635748,2.2296429,2.854031
-23.697014,1.3877871,2.8089113
-23.856462,1.4584749,2.8616676
-23.902748,1.4488895,2.833376
-24.007915,1.4823587,2.8493342
-24.085701,1.4965129,2.8459444
-24.17073,1.5165637,2.8489828
-24.257427,1.5384858,2.8543463
-24.39228,1.5976119,2.898786
-24.400135,1.5607772,2.8437605
-24.44919,1.555325,2.8215408
-24.545921,1.5872543,2.8387823
-24.611202,1.5952048,2.831184
-24.67827,1.6049571,2.825756
-24.738657,1.6097379,2.8153276
-24.858156,1.6629167,2.8566918
-24.976074,1.7160883,2.8986173
-25.001637,1.6938791,2.8602848
-25.064735,1.7028987,2.855579
-25.140158,1.7227535,2.8628144
-25.205889,1.7349231,2.862053
-25.255959,1.7340004,2.847344
-25.313356,1.7396615,2.8399777
-25.380947,1.7546453,2.843007
-25.42353,1.747818,2.8224282
-25.531387,1.7999423,2.8667045
-24.649195,0.9503069,1.9187193
-24.703579,0.9459958,1.8989758
-24.7072,0.8945029,1.8271856
-25.7952,1.8640008,2.8883352
-25.869122,1.888973,2.904356
-25.890177,1.8637519,2.8646908
-25.92971,1.8561523,2.844747
-25.988941,1.8679686,2.846684
-26.040714,1.872807,2.8410006
-26.094568,1.8800354,2.8381896
-26.151533,1.8907828,2.8395414
-26.206654,1.9000578,2.8394346
-26.264252,1.9123156,2.8429065
-26.32107,1.9242165,2.8461823
-26.377642,1.9363158,2.8498883
-26.430325,1.9446745,2.849526
-26.481794,1.9520829,2.84826
-26.53667,1.96362,2.851903
-26.584238,1.9674134,2.8468428
-26.727207,2.0798373,2.9669824
-26.848326,2.1701305,3.0622478
-26.901669,2.1839395,3.0696592
-26.956669,2.20022,3.080121
-26.995047,2.1972146,3.0684056
-26.990765,2.1426399,2.9968667
-27.072344,2.1921077,3.0463572
-27.079708,2.1507988,2.9902964
-27.191442,2.2400239,3.08671
-27.236242,2.2463596,3.0865831
-27.275072,2.245297,3.0779247
-27.316994,2.2484152,3.0742898
-27.35927,2.2522445,3.0716157
-27.404041,2.259704,3.07335
-27.449505,2.268476,3.0767732
-27.490986,2.2721236,3.0742822
-27.53404,2.278243,3.0748434
-27.577366,2.2850842,3.0763907
-27.620136,2.2914724,3.0775347
-27.660763,2.295044,3.0754576
-27.70051,2.2975545,3.072237
-27.742521,2.3037345,3.0735059
-27.783627,2.308858,3.0736384
-27.823856,2.312917,3.07262
-27.863989,2.3170958,3.0718608
-27.904018,2.3213937,3.071361
-27.94467,2.3270047,3.0725503
-27.985195,2.3327372,3.0740047
-28.024187,2.3361964,3.0728402
-28.062405,2.3385704,3.0704784
-28.100216,2.340454,3.0676303
-28.13797,2.342445,3.0650158
-28.174025,2.3415322,3.0589933
-28.205883,2.3328803,3.0437002
-28.230274,2.3098147,3.0110188
-28.25352,2.2837648,2.9747562
-28.274479,2.2522995,2.9319482
-28.288206,2.205094,2.8700328
-28.325167,2.2039964,2.8641877
-28.364727,2.2084665,2.8652153
-28.404182,2.2130504,2.8664894
-28.443533,2.2177458,2.8680048
-28.482235,2.221333,2.8682742
-28.518988,2.2207556,2.8635554
-28.556255,2.221499,2.8605456
-28.595016,2.226014,2.8622494
-28.633179,2.2294128,2.862687
-28.670288,2.2304647,2.8603477
-28.722773,2.2715104,2.907174
-28.777245,2.3201065,2.963441
-28.811163,2.315393,2.9543762
-28.844275,2.3083038,2.9424715
-28.48835,1.1806862,1.5517759
-28.600742,1.3756361,1.7878876
-28.673428,1.4611943,1.8896351
-28.778078,1.6526284,2.1221666
-28.817898,1.6460645,2.1108232
-28.851357,1.617949,2.0729694
-28.877457,1.5626612,2.0016165
-28.773376,1.0377917,1.3499732
-28.818024,1.0268741,1.3332343
-28.869156,1.040262,1.3466649
-28.914577,1.0320642,1.3335118
-28.962233,1.0326767,1.3313742
-29.00972,1.0327923,1.3287358
-29.057053,1.0324097,1.3255963
-29.104511,1.0327725,1.3234944
-29.15359,1.0413525,1.3317013
-29.223276,1.1578326,1.4739208
-29.26881,1.1548865,1.468112
-29.313847,1.1489398,1.458684
-29.367586,1.1955051,1.5145907
-29.412136,1.1885602,1.5041542
-29.456535,1.1798551,1.4916344
-29.497707,1.1462817,1.4482999
-29.692644,2.3285103,2.9169664
-29.72716,2.3267548,2.9137373
-29.764244,2.3488407,2.9402523
-29.79317,2.2916205,2.868175
-29.828674,2.297002,2.8740668
-29.86368,2.297473,2.8739324
-29.898628,2.2974072,2.8732119
-29.933575,2.297432,2.8726878
-29.968517,2.2975469,2.8723593
-30.00358,2.3008807,2.876121
-30.03852,2.302427,2.8777423
-30.073456,2.3053155,2.8811169
-30.108318,2.307042,2.8831267
-30.143152,2.3107357,2.8876696
-30.177933,2.3120153,2.8892884
-30.21272,2.3115056,2.888761
-30.247501,2.3117113,2.8892074
-30.282255,2.3126328,2.8906274
-30.317022,2.3130171,2.891461
-30.351782,2.3134913,2.8924885
-30.386574,2.3134282,2.89293
-30.421461,2.312204,2.8920093
-30.456427,2.3104446,2.8905044
-30.491604,2.3068993,2.8868613
-30.52672,2.3046958,2.8849726
-30.561745,2.303834,2.8848362
-30.598154,2.2918155,2.8709087
-30.636353,2.268028,2.8424377
-23.665733,1.461391,2.8258867
-23.74263,1.4724715,2.818357
-23.871143,1.5205834,2.8494205
-23.947987,1.5328918,2.8439898
-24.030125,1.5494981,2.8433714
-24.121582,1.573456,2.850801
-24.200977,1.5892284,2.8500638
-24.28279,1.6073339,2.85213
-24.378439,1.6364117,2.8661537
-24.42928,1.6323099,2.8454285
-24.499485,1.6431775,2.8408184
-24.568146,1.6532865,2.83569
-24.64449,1.6698203,2.83773
-24.708755,1.6773713,2.8304362
-24.801409,1.7079144,2.8481998
-24.848381,1.7025182,2.827485
-24.955582,1.7461975,2.860208
-25.00415,1.7428167,2.8421717
-25.064732,1.7495427,2.835343
-25.13581,1.7654183,2.8387737
-25.202845,1.7784026,2.8393164
-25.420683,1.8782842,2.9228973
-24.448814,0.98508286,1.919949
-24.474405,0.95448875,1.8705196
-25.611824,1.9165816,2.9276114
-24.552616,0.9164264,1.7975726
-24.629583,0.93168354,1.7996631
-25.830982,1.9850342,2.9684057
-25.858704,1.966948,2.9365177
-25.86716,1.930474,2.8839188
-25.903028,1.919514,2.8601546
-25.956583,1.9255505,2.8557763
-26.007193,1.9290361,2.8486838
-26.062704,1.9376233,2.8475795
-26.120783,1.9491503,2.8500342
-26.17589,1.9581277,2.8497772
-26.23621,1.9728205,2.856278
-26.291409,1.9827459,2.857513
-26.345863,1.9923072,2.8585215
-26.396431,1.9981604,2.8554358
-26.454151,2.011991,2.8617573
-26.499208,2.0126047,2.8529458
-26.55137,2.021206,2.8535638
-26.605366,2.0322301,2.857181
-26.781273,2.180843,3.0216289
-26.85535,2.2173831,3.0557756
-26.917454,2.2412035,3.075306
-26.928635,2.2062945,3.0261002
-27.009542,2.2531726,3.0730834
-27.046354,2.2485623,3.0597067
-27.072891,2.2315006,3.0317287
-27.10389,2.2196338,3.009945
-27.195219,2.282902,3.0772505
-27.247688,2.298893,3.0888195
-27.290863,2.3035595,3.0871053
-27.333477,2.3077853,3.0849972
-27.376863,2.3132975,3.0845528
-27.420986,2.320104,3.0857873
-27.46367,2.3253107,3.0852427
-27.506657,2.3312306,3.0856824
-27.550335,2.338449,3.0878096
-27.593857,2.3458054,3.0902367
-27.636806,2.352714,3.0922556
-27.676802,2.355661,3.0896301
-27.7179,2.3604853,3.089385
-27.757713,2.3636734,3.0872812
-27.795523,2.3640382,3.0818748
-27.836329,2.369225,3.082415
-27.875895,2.372764,3.0810719
-27.916838,2.3787847,3.0828562
-27.955475,2.3813772,3.0805888
-27.994396,2.3846748,3.079286
-28.035336,2.391649,3.082574
-28.073359,2.3939888,3.0803227
-28.111996,2.3976297,3.0797653
-28.148537,2.3978038,3.0750704
-28.183739,2.39569,3.0676708
-28.214762,2.3858945,3.050941
-28.238335,2.3617973,3.0167236
-28.259533,2.332337,2.9759502
-28.283716,2.307703,2.9411345
-28.296932,2.2602544,2.8782644
-28.336357,2.264569,2.879167
-28.375103,2.2677906,2.8788276
-28.41207,2.2675,2.8742523
-28.449574,2.2685177,2.8713884
-28.488943,2.2738738,2.8739848
-28.526064,2.2744958,2.8708262
-28.564196,2.2776442,2.8708916
-28.603012,2.28272,2.8734446
-28.641962,2.288513,2.8769894
-28.678112,2.2877247,2.8724618
-28.723751,2.3113904,2.8984175
-28.772856,2.3455634,2.9375749
-28.80956,2.3481698,2.937592
-28.459673,1.2772129,1.6005144
-28.534931,1.3603404,1.700172
-28.599634,1.4174292,1.7676039
-28.671934,1.5010681,1.8683724
-28.784296,1.7148938,2.1319523
-28.822182,1.7028494,2.1137257
-28.849745,1.6559052,2.05195
-28.86494,1.5635407,1.9333906
-28.75548,1.0223672,1.2530675
-28.808233,1.0391467,1.2708526
-28.853065,1.0271404,1.2527094
-28.898577,1.0170915,1.2371202
-28.943666,1.0046895,1.2186828
-28.99171,1.0041175,1.215189
-29.043196,1.0191002,1.2313328
-29.093721,1.0311372,1.2439075
-29.143372,1.0402224,1.2529011
-29.224907,1.2144907,1.4695926
-29.270548,1.2127907,1.4653435
-29.327793,1.2774141,1.5446029
-29.37417,1.2840252,1.5510483
-29.420507,1.2913785,1.5585394
-29.46425,1.2821269,1.5452428
-29.509684,1.2841411,1.5462284
-29.692383,2.3693273,2.9113412
-29.72668,2.3663354,2.9065442
-29.760096,2.3547463,2.890996
-29.794882,2.3550293,2.8904843
-29.829878,2.3578856,2.8932953
-29.86423,2.3533826,2.8869133
-29.898962,2.3533137,2.8862004
-29.933876,2.356439,2.8895965
-29.968727,2.3596551,2.893188
-30.003315,2.3579912,2.8907075
-30.03793,2.356417,2.8884196
-30.072561,2.354309,2.885541
-30.10728,2.35664,2.88834
-30.141956,2.3596811,2.8921165
-30.17658,2.3615687,2.8945189
-30.211094,2.3678942,2.9025993
-30.245668,2.3674746,2.9022532
-30.280207,2.3683856,2.903665
-30.314842,2.3669014,2.9021378
-30.349335,2.3686116,2.9047189
-30.383999,2.3673058,2.9035778
-30.418457,2.369193,2.9065418
-30.453354,2.3655827,2.9026585
-30.488499,2.3602011,2.8966246
-30.523104,2.3611157,2.8986073
-30.558048,2.3590171,2.8968759
-30.593876,2.3501902,2.8867526
-30.632917,2.3185241,2.847959
-23.71153,1.5363324,2.8391418
-23.782568,1.5433741,2.8279262
-23.896238,1.5807102,2.84874
-23.979258,1.5972915,2.848278
-24.066813,1.6176739,2.8521967
-24.141584,1.6294556,2.847396
-24.22502,1.6480172,2.850124
-24.363213,1.7075016,2.8968906
-24.384735,1.6816149,2.8529024
-24.446302,1.6855152,2.8409452
-24.525785,1.7033074,2.844212
-24.596968,1.7153172,2.8415618
-24.661316,1.722501,2.8339663
-24.73859,1.7401495,2.8380237
-24.923405,1.8432684,2.935812
-24.895971,1.7794397,2.851488
-24.933708,1.7670171,2.8234506
-25.286356,1.8861797,2.900302
-24.296036,0.8972659,1.7514625
-24.469612,0.99499583,1.8458419
-25.624166,1.9633663,2.923658
-25.673416,1.9640234,2.9123926
-25.737371,1.9781868,2.9166188
-25.778206,1.9717107,2.897612
-25.867311,2.0099072,2.9296703
-25.888325,1.9854896,2.890522
-25.914309,1.9654074,2.8563604
-25.968924,1.972429,2.8533764
-26.022812,1.9790957,2.8501759
-26.082668,1.9919322,2.8542833
-26.13398,1.9968002,2.8493915
-26.184624,2.0012934,2.8442364
-26.250854,2.0218558,2.8579235
-26.299505,2.0250745,2.8516617
-26.3571,2.0378203,2.856676
-26.410215,2.0463505,2.8569632
-26.456879,2.0484147,2.849854
-26.51277,2.0606203,2.8548002
-26.563288,2.0674565,2.853622
-26.617191,2.0783641,2.857411
-26.834286,2.27171,3.0768967
-26.846352,2.2385776,3.0293355
-26.900732,2.253158,3.0383272
-26.994654,2.3140838,3.1025639
-27.029259,2.3071465,3.0864186
-27.057302,2.2923858,3.061036
-27.080885,2.272018,3.0290127
-27.11737,2.2670133,3.0154028
-27.224264,2.3491561,3.1063318
-27.256882,2.3405404,3.0887547
-27.296818,2.3411465,3.082345
-27.334938,2.3395815,3.0734363
-27.380077,2.3473034,3.075832
-27.424173,2.3540204,3.077156
-27.470257,2.3637564,3.082265
-27.50937,2.3644128,3.0765162
-27.55053,2.368073,3.0745206
-27.593649,2.3747537,3.0763154
-27.636211,2.3809886,3.0776973
-27.676624,2.384451,3.0758247
-27.718132,2.3897803,3.076345
-27.760683,2.3969865,3.07928
-27.80192,2.4025722,3.0803552
-27.84113,2.4053574,3.0781193
-27.87914,2.4064999,3.073977
-27.91821,2.4095132,3.0722332
-27.958645,2.4149926,3.0736303
-27.998241,2.419415,3.0738406
-28.03597,2.4210064,3.070671
-28.075375,2.425659,3.0713782
-28.112968,2.4274697,3.068684
-28.14883,2.4264245,3.0625563
-28.183372,2.4231052,3.0537043
-28.213104,2.410965,3.0340023
-28.236372,2.3863966,2.99894
-28.254156,2.3505423,2.949891
-28.27413,2.3176754,2.9045615
-28.301023,2.297368,2.874876
-28.337725,2.29625,2.869142
-28.37645,2.2994225,2.8688483
-28.414244,2.3009062,2.866547
-28.451712,2.3018937,2.8637228
-28.491045,2.3071904,2.8663797
-28.529991,2.3119984,2.868528
-28.568565,2.3163137,2.8701606
-28.606018,2.3183253,2.8690047
-28.643414,2.3204393,2.8680716
-28.680994,2.32326,2.8681192
-28.723255,2.338284,2.8835897
-28.77495,2.3788686,2.9313092
-28.807314,2.3699236,2.9168797
-28.503496,1.4345782,1.7363267
-28.56092,1.469877,1.7769985
-28.603882,1.465241,1.7674975
-28.685238,1.575695,1.9032598
-28.786707,1.7552562,2.126513
-28.82528,1.7457116,2.1113353
-28.84809,1.6838126,2.0300932
-28.858442,1.5755439,1.8902426
-28.745253,1.0250208,1.1909509
-28.796179,1.0336959,1.1987262
-28.844658,1.0339475,1.1959615
-28.89436,1.0392232,1.199676
-28.938248,1.0213587,1.1741834
-28.981024,0.99747014,1.1411471
-29.031427,1.0055652,1.148768
-29.084969,1.0291336,1.1761446
-29.149027,1.1062598,1.2716441
-29.226755,1.2609777,1.4658599
-29.276531,1.2820137,1.4905043
-29.329689,1.3247051,1.5427914
-29.377087,1.338031,1.5578904
-29.423443,1.3465619,1.5670085
-29.472345,1.3736825,1.5998797
-29.524446,1.4280322,1.6675129
-29.562561,1.3815148,1.6069312
-29.726902,2.3948877,2.8954215
-29.76211,2.4000087,2.9010067
-29.79508,2.383643,2.8793168
-29.82913,2.3759923,2.8687973
-29.864109,2.3782964,2.8710346
-29.898994,2.3800738,2.872682
-29.933844,2.3819418,2.874524
-29.96884,2.3876016,2.881279
-30.00347,2.3871808,2.8803658
-30.038126,2.387466,2.880433
-30.072735,2.3859882,2.8783326
-30.107414,2.3883035,2.8811455
-30.142046,2.3900902,2.8833647
-30.176655,2.3901143,2.8834171
-30.211264,2.3902273,2.8836622
-30.245821,2.3922808,2.8864594
-30.280249,2.3968923,2.8925953
-30.31473,2.3985057,2.89499
-30.349249,2.3989735,2.8960037
-30.383762,2.3995297,2.8972101
-30.418266,2.4001749,2.8986087
-30.452917,2.3990583,2.8978424
-30.487944,2.3943315,2.892561
-30.523191,2.388464,2.8859072
-30.557856,2.3888514,2.887298
-30.59404,2.377007,2.8732033
-30.63284,2.3473997,2.8365955
-23.571028,1.5334406,2.7789602
-23.763481,1.6220267,2.853764
-23.845573,1.6367347,2.8512254
-23.963202,1.6766231,2.8758492
-24.0424,1.6906073,2.8733568
-24.117157,1.7019594,2.8683834
-24.180641,1.7057176,2.8555546
-24.247448,1.7121809,2.8458986
-24.38361,1.7695067,2.891655
-24.390081,1.7328243,2.8357887
-24.481928,1.7590444,2.8485293
-24.545868,1.7650836,2.839569
-24.615643,1.7758856,2.836094
-24.681229,1.7839227,2.8298516
-24.749252,1.794229,2.8263774
-24.93357,1.8957586,2.9244022
-24.90015,1.827843,2.8347073
-25.393438,1.9767108,2.9213295
-25.526318,2.005248,2.928873
-25.585958,2.0143852,2.927168
-25.642395,2.0211082,2.9229174
-25.70463,2.0333045,2.9251542
-25.729368,2.012405,2.8895235
-25.817179,2.0483027,2.9194798
-25.852547,2.037213,2.8954363
-25.88058,2.01928,2.8635473
-25.928917,2.020123,2.853541
-25.981733,2.0254133,2.8488731
-26.043411,2.0394888,2.8546472
-26.094763,2.044081,2.8495426
-26.14765,2.050468,2.8467155
-26.211332,2.0678775,2.8570275
-26.263807,2.0746512,2.8550382
-26.317734,2.0832372,2.8553648
-26.36614,2.0865455,2.8496275
-26.419197,2.09494,2.8500767
-26.47833,2.110103,2.8587475
-26.531458,2.1194248,2.8606687
-26.575155,2.1189976,2.8511362
-26.637083,2.138611,2.8656893
-26.836695,2.3108752,3.0632868
-26.88498,2.3185146,3.0642524
-26.93014,2.3229747,3.0615497
-26.983942,2.337625,3.0712585
-27.037922,2.3530235,3.0820532
-27.077293,2.351796,3.072936
-27.123251,2.358549,3.0735922
-27.128525,2.3164723,3.0151768
-27.221596,2.3809652,3.086153
-27.25925,2.3785703,3.0761204
-27.30142,2.3819487,3.073224
-27.347942,2.3911335,3.077539
-27.391624,2.397058,3.078012
-27.436901,2.4054003,3.081575
-27.477276,2.407607,3.077754
-27.519274,2.4122243,3.0770063
-27.562824,2.4192638,3.079358
-27.60374,2.4229949,3.0777655
-27.644964,2.4274254,3.0771513
-27.684872,2.4302526,3.0746746
-27.727074,2.4366632,3.0767384
-27.767172,2.440312,3.0755062
-27.807175,2.4440813,3.0745335
-27.848219,2.449711,3.0759811
-27.887259,2.4525585,3.0740867
-27.926954,2.456686,3.0738912
-27.967272,2.4620972,3.0754032
-28.005674,2.4647093,3.0735354
-28.043648,2.4668474,3.0711784
-28.080519,2.4673374,3.0668616
-28.12008,2.4726255,3.0686436
-28.155159,2.4703906,3.061108
-28.18861,2.4653068,3.050086
-28.217276,2.4514682,3.028151
-28.241726,2.4294276,2.9959626
-28.254698,2.384967,2.9356046
-28.271873,2.3469973,2.8834038
-28.304821,2.3386595,2.8685536
-28.34116,2.3369293,2.8621125
-28.378668,2.337673,2.8588834
-28.416708,2.3397093,2.8573823
-28.456636,2.3460212,2.8613844
-28.49506,2.3494668,2.8618612
-28.533129,2.3524222,2.861816
-28.571121,2.355484,2.8619986
-28.610567,2.3622417,2.8669677
-28.647116,2.3625236,2.8638139
-28.683886,2.363503,2.8616343
-28.727285,2.3813896,2.88105
-28.782633,2.4312546,2.9412909
-28.814348,2.421168,2.9253387
-28.848228,2.4165761,2.9164581
-28.887552,2.4271345,2.9269786
-28.924356,2.431172,2.9292765
-28.962894,2.4407434,2.9387326
-28.789293,1.8015413,2.1192641
-28.823572,1.7787471,2.0870552
-28.856419,1.749974,2.0472627
-28.69587,1.0677934,1.1711888
-29.142107,2.4538636,2.9429731
-29.180103,2.4652672,2.955326
-29.213812,2.4616046,2.9484606
-29.248518,2.4616718,2.9464545
-28.929298,1.0305836,1.1082621
-28.97515,1.0183866,1.0898862
-29.023853,1.0178635,1.0865993
-29.072287,1.016249,1.0820231
-29.154669,1.1780171,1.2875261
-29.232319,1.3321579,1.4834843
-29.282629,1.3572984,1.5137873
-29.33124,1.3758698,1.5357633
-29.378242,1.3872507,1.5486045
-29.435093,1.4622617,1.6434636
-29.486742,1.512403,1.7064552
-29.51683,1.4148152,1.5793214
-29.694279,2.4420388,2.9011984
-29.73254,2.4733205,2.9405122
-29.764812,2.455777,2.9169984
-29.796503,2.4291344,2.881825
-29.831028,2.4282703,2.8799515
-29.865564,2.4274948,2.8782701
-29.900501,2.4323184,2.8838873
-29.935228,2.4353955,2.887332
-29.96961,2.4330509,2.8838615
-30.004211,2.4350812,2.8861127
-30.038733,2.435976,2.8869762
-30.073206,2.4357345,2.8864532
-30.107683,2.4355812,2.8861208
-30.142166,2.4373553,2.8883524
-30.176607,2.4398298,2.8915663
-30.211054,2.4393294,2.8910198
-30.24546,2.4407558,2.8930364
-30.279861,2.441658,2.894454
-30.31419,2.4438734,2.897644
-30.348545,2.444952,2.8994446
-30.38296,2.444894,2.899857
-30.417519,2.4430878,2.8980932
-30.452168,2.4407594,2.8957338
-30.48698,2.4372969,2.8919926
-30.521736,2.4351487,2.8900242
-30.556326,2.434925,2.8906145
-30.591991,2.4262311,2.880372
-30.630955,2.3944077,2.8404212
-23.549412,1.6105516,2.8019419
-23.701836,1.6704333,2.8473954
-23.779892,1.6816819,2.8413858
-23.884602,1.7115016,2.8557262
-24.00845,1.7552733,2.885641
-24.09444,1.7739205,2.8888602
-24.153652,1.7744453,2.8727021
-24.220413,1.7805471,2.8628716
