x,y,z
-29.65126,3.0966573,2.9186234
-29.6843,3.098085,2.9201412
-29.717056,3.0979974,2.9193215
-29.749804,3.0979946,2.918684
-29.782679,3.0991442,2.9199152
-29.815393,3.0993109,2.9196458
-29.848042,3.0990276,2.9187155
-29.88074,3.0993626,2.9188108
-29.913555,3.1013854,2.9216208
-29.946203,3.1018896,2.922083
-29.978868,3.103012,2.923571
-30.011503,3.1042192,2.925242
-30.044067,3.10444,2.9254055
-30.076624,3.104745,2.9257503
-30.109161,3.1045978,2.9254317
-30.141695,3.1023946,2.921916
-30.174252,3.103485,2.9236498
-30.206802,3.1035893,2.9238758
-30.239386,3.1027071,2.9225936
-30.271898,3.1040485,2.924871
-30.304497,3.1033337,2.9239526
-30.337114,3.102703,2.9232154
-30.36975,3.1021564,2.9226608
-30.402447,3.101159,2.9214444
-30.435438,3.0975738,2.9161935
-30.468456,3.0946085,2.9119735
-30.501545,3.0917294,2.9079385
-30.534851,3.0878687,2.9024062
-30.568327,3.0835614,2.8962207
-30.602077,3.0782752,2.888544
-30.635954,3.0730784,2.8810606
-30.671583,3.058908,2.8594828
-30.708967,3.037376,2.8263578
-30.7518,2.9914505,2.7548523
-42.888214,0.58920383,0.6439457
-42.97538,0.60708857,0.6962843
-42.989017,0.6556277,0.78733444
-42.8195,0.77879643,0.9714408
-42.862785,0.81380105,1.0451307
-42.90808,0.84788656,1.1177721
-42.781925,0.94997835,1.274158
-42.80688,0.99118423,1.3552995
-42.79795,1.0453348,1.4522085
-42.821507,1.0864654,1.5331869
-42.779682,1.2015748,1.7345119
-42.751743,1.2608914,1.836945
-42.76622,1.3039153,1.9198203
-42.834866,1.3268371,1.9789801
-42.87177,1.3613865,2.0519967
-43.04398,1.3473487,2.0685496
-44.098343,1.1745887,2.0106106
-44.20743,1.1877904,2.0628862
-42.896927,1.6790047,2.6501365
-42.92368,1.7153873,2.7252355
-42.722702,1.8266356,2.8828669
-42.802654,1.8446124,2.9372973
-42.825485,1.8812494,3.0123167
-42.829655,1.9236877,3.093608
-42.872227,1.953738,3.161601
-42.971718,1.9660187,3.2109342
-43.01174,1.9970388,3.2803988
-43.071445,2.02203,3.343731
-43.180344,2.0322807,3.3921304
-43.331444,2.0303686,3.4286675
-43.438374,2.0422235,3.479916
-43.65145,2.023496,3.5011249
-43.901016,1.9953456,3.5142016
-44.136223,1.9726405,3.5340395
-44.147537,2.0144057,3.6176553
-44.172234,2.0522404,3.6974802
-44.262733,2.0718002,3.7600732
-44.34828,2.0930238,3.8246965
-44.461693,2.1070127,3.8830948
-44.589966,2.1174943,3.9389338
-44.707726,2.1312914,3.9984932
-46.006813,1.8379123,3.7865725
-46.02521,1.8818672,3.8777742
-46.021156,1.9313827,3.9737787
-46.04772,1.972923,4.0628996
-46.12506,2.001767,4.141522
-46.73865,1.899319,4.113035
-47.285866,1.8163775,4.1044507
-47.715603,1.7645564,4.124234
-48.39895,1.6550984,4.1023088
-49.027122,1.5622928,4.0978823
-49.69301,1.4642258,4.094032
-50.461205,1.3465114,4.0806956
-51.260746,1.2259586,4.0709825
-52.026024,1.117358,4.0755167
-52.99561,0.9681854,4.0583105
-54.04633,0.80677557,4.040431
-2.792019,0.41045642,3.866138
-2.7529736,0.32500196,3.7037282
-12.91976,0.36878157,1.0844569
-14.222906,0.5652952,1.1377063
-14.318199,0.5401838,1.0676131
-14.403228,0.5117731,0.993978
-14.519368,0.49443507,0.93381786
-14.555998,0.44937515,0.84093475
-16.51675,0.8307996,1.0910878
-16.53997,0.78606725,1.0031266
-16.574104,0.74525976,0.9200659
-23.583452,2.6017501,2.7757072
-23.751408,2.6538591,2.835126
-23.84972,2.6709325,2.8462663
-23.932037,2.6802084,2.8468194
-24.007437,2.6862824,2.8431382
-24.088467,2.6958148,2.8445477
-24.192488,2.718373,2.8645701
-24.282913,2.7342012,2.8754177
-24.349888,2.7375903,2.8689237
-24.41455,2.7400293,2.8612733
-24.51035,2.760497,2.8794713
-24.521519,2.7330556,2.8296027
-24.582348,2.7341318,2.8205018
-24.651436,2.7403483,2.818935
-24.71891,2.7460089,2.8167639
-24.792377,2.7556465,2.820509
-24.858013,2.7610092,2.818295
-24.935694,2.7741218,2.8274674
-24.998127,2.7783403,2.8239756
-25.057693,2.7811112,2.8185482
-25.122448,2.7874758,2.8185058
-25.187641,2.7945085,2.819611
-25.255228,2.8034902,2.8237386
-25.315346,2.8080344,2.8215551
-25.375927,2.8132288,2.8204803
-25.434378,2.8173556,2.8179927
-25.499691,2.8264477,2.8229618
-25.562183,2.834053,2.8259106
-25.62758,2.8440685,2.83258
-25.682667,2.847343,2.8294482
-25.73822,2.8512516,2.827392
-25.791143,2.8535988,2.8231525
-25.844545,2.8565726,2.8199716
-25.906902,2.866381,2.8270946
-25.961143,2.870641,2.8261013
-26.0176,2.876878,2.8281894
-26.069105,2.8797364,2.8253593
-26.118126,2.8809745,2.820221
-26.173445,2.8873372,2.8228822
-26.223932,2.8902783,2.8205328
-26.278284,2.8965688,2.8233385
-26.330725,2.9016857,2.8245034
-26.381853,2.9060721,2.8246856
-26.430584,2.9088016,2.8224788
-26.480288,2.912614,2.8220186
-26.531477,2.9179783,2.82402
-26.580309,2.921669,2.823597
-26.628454,2.9250605,2.822826
-26.675922,2.9281478,2.8216953
-26.724308,2.9323254,2.8223276
-26.773579,2.9376004,2.824738
-26.819565,2.9402273,2.8232112
-26.865938,2.9434745,2.822729
-26.9142,2.9487603,2.8254633
-26.958775,2.9508965,2.823475
-27.006706,2.9564958,2.8268886
-27.051508,2.9594007,2.8262668
-27.095215,2.961496,2.824491
-27.146006,2.9709022,2.834052
-27.189413,2.9732919,2.8329148
-27.230364,2.9734159,2.8283687
-27.272179,2.974628,2.8255801
-27.317574,2.9798324,2.829041
-27.357815,2.9798586,2.8245845
-27.400682,2.982917,2.8248963
-27.44431,2.9870827,2.8270068
-27.48604,2.9894364,2.8263922
-27.527664,2.991918,2.8260565
-27.570456,2.995997,2.8282804
-27.608904,2.9953015,2.8231616
-27.652287,3.0006206,2.8274727
-27.693863,3.0041046,2.8290076
-27.731277,3.002776,2.8231182
-27.771852,3.0055146,2.8236399
-27.811926,3.0078793,2.8236513
-27.852282,3.010861,2.8247004
-27.89138,3.0124702,2.8236747
-27.93002,3.0136952,2.8221188
-27.971544,3.0190332,2.8270717
-28.012173,3.0234966,2.830731
-28.053013,3.0285845,2.8354435
-28.092636,3.0322886,2.838058
-28.130745,3.0340955,2.8377633
-28.168087,3.035004,2.836122
-28.20503,3.0355134,2.8339167
-28.24192,3.0361269,2.8319364
-28.280378,3.03938,2.8341756
-28.317766,3.0412216,2.8342562
-28.353512,3.040626,2.8305583
-28.390764,3.0426762,2.831092
-28.427332,3.0438118,2.8302436
-28.463837,3.04505,2.8296175
-28.501724,3.048949,2.8332567
-28.539204,3.0524447,2.8363228
-28.575735,3.054508,2.8371854
-28.612186,3.0566728,2.8382683
-28.64882,3.0594552,2.8403888
-28.684319,3.0602782,2.8394656
-28.71824,3.0581021,2.8338451
-28.755411,3.062733,2.8390703
-28.791231,3.0648823,2.8404202
-28.827446,3.0681663,2.8436284
-28.863327,3.0710323,2.8462324
-28.89844,3.07244,2.8465767
-28.933275,3.073424,2.8463025
-28.968487,3.0755427,2.847886
-29.003416,3.0772352,2.8488493
-29.03788,3.0779808,2.8483582
-29.072107,3.0782962,2.8472366
-29.106682,3.079747,2.8479762
-29.140285,3.078677,2.8447523
-29.174068,3.0782173,2.8425531
-29.20801,3.0783703,2.8413796
-29.243578,3.0838537,2.8487558
-29.279476,3.091009,2.8588533
-29.315649,3.099838,2.871677
-29.350868,3.1061416,2.8805294
-29.388178,3.1209528,2.9030137
-29.42149,3.1216671,2.903057
-29.455282,3.1245747,2.906654
-29.48838,3.1249378,2.9062376
-29.521338,3.1248608,2.9051676
-29.554613,3.126451,2.9068098
-29.587421,3.1260178,2.9052691
-29.620028,3.1246142,2.9022255
-29.653025,3.1254065,2.90274
-29.685993,3.1262846,2.90344
-29.718689,3.1256628,2.9017906
-29.751389,3.1251247,2.9003239
-29.784159,3.1252005,2.8998861
-29.816917,3.1253605,2.8996305
-29.84978,3.1266632,2.9012518
-29.882551,3.127522,2.9022112
-29.915298,3.128465,2.9033532
-29.947943,3.1284335,2.9029837
-29.980804,3.1321936,2.908729
-30.013445,3.1333902,2.910421
-30.046017,3.1336112,2.9105988
-30.078539,3.132326,2.908414
-30.111088,3.1311243,2.9064102
-30.143665,3.130536,2.905436
-30.176262,3.1289718,2.902948
-30.208843,3.130141,2.9048805
-30.241396,3.1313937,2.9069953
-30.273945,3.1322005,2.908443
-30.306534,3.1320312,2.9083772
-30.33913,3.1319454,2.908492
-30.371813,3.1308846,2.9070945
-30.404572,3.1293788,2.905033
-30.43753,3.1263697,2.9006152
-30.470444,3.1245043,2.8980756
-30.503601,3.121138,2.8931837
-30.536987,3.1168,2.886788
-30.570557,3.1120217,2.8797374
-30.604162,3.1078603,2.8737235
-30.639755,3.092695,2.850171
-30.674076,3.086604,2.841178
-30.711096,3.0674126,2.8113022
-30.754501,3.0193167,2.7353067
-42.87416,0.6291077,0.5171666
-42.854256,0.6917708,0.6268525
-42.926334,0.7159469,0.68679285
-42.816654,0.86685324,0.9381547
-42.848125,0.9065044,1.0178065
-42.819073,0.969826,1.1274152
-42.813515,1.0232806,1.2243571
-42.818134,1.0723119,1.3156195
-42.83391,1.1166754,1.4009752
-42.80017,1.1794775,1.5091558
-42.806637,1.2265322,1.5976372
-42.751118,1.2962055,1.7137957
-42.749813,1.3451557,1.8042808
-42.732094,1.3996613,1.9013948
-42.774487,1.4320498,1.9716187
-42.91694,1.4288027,1.9991827
-42.864853,1.4946818,2.1098237
-44.236465,1.2685285,2.0151768
-44.270485,1.3074365,2.096828
-42.879005,1.8116682,2.7089376
-42.85472,1.8641682,2.8023057
-42.76831,1.9360313,2.9171934
-42.804565,1.9682181,2.9872804
-42.865726,1.9925661,3.0487976
-42.880203,2.0314703,3.1265278
-42.865845,2.0789983,3.2136292
-42.989624,2.084362,3.2550483
-43.03736,2.1130164,3.321991
-43.13244,2.1277063,3.3743029
-43.260487,2.1331072,3.417307
-43.428192,2.127607,3.449615
-43.587723,2.125267,3.4860668
-43.763123,2.1192088,3.5195732
-44.037197,2.0864365,3.5270538
-44.279255,2.0640006,3.5464144
-44.156704,2.1424208,3.6667933
-44.22568,2.1680999,3.7348065
-44.312107,2.1893017,3.7988305
-44.413273,2.2069051,3.859867
-44.547157,2.2163663,3.9137802
-44.651672,2.2339692,3.976019
-44.8051,2.2395296,4.027795
-46.00596,1.9825218,3.8430824
-46.007504,2.0303764,3.9378119
-46.038765,2.0706995,4.02584
-46.05896,2.1136441,4.1162443
-46.428665,2.0728405,4.1355
-46.90695,2.0083475,4.137396
-47.452194,1.9308293,4.1318135
-48.085773,1.8359399,4.1159496
-48.6707,1.7555943,4.1159716
-49.335575,1.6604724,4.1086316
-50.105743,1.5456378,4.0910487
-50.864853,1.4374318,4.0839252
-51.525795,1.3545315,4.1006765
-52.522522,1.2036593,4.0741673
-53.662556,1.0281155,4.0380974
-54.640728,0.8923359,4.0373898
-2.6619244,0.55372024,3.777752
-2.3217468,0.4081993,3.572482
-2.3426056,0.33358598,3.415278
-2.7230988,0.3326528,3.31215
-2.849184,0.28056264,3.1732197
-2.891014,0.21106625,3.0216827
-11.480736,0.34684563,1.1140518
-11.731533,0.36004686,1.079556
-11.8234215,0.32560635,0.991745
-12.886795,0.5341778,1.1392207
-13.016153,0.51531506,1.0729046
-13.212864,0.51859975,1.0331879
-13.2638035,0.47542906,0.9392996
-14.055143,0.67563605,1.1357579
-14.22135,0.67327714,1.0929451
-14.311345,0.64608073,1.0208411
-14.542799,0.6671479,1.0076823
-14.536314,0.6077881,0.89725876
-14.57898,0.5649922,0.80703974
-14.613545,0.51922226,0.71323013
-14.654903,0.47566032,0.6222067
-16.54742,0.99105024,1.1650214
-16.5422,0.88334775,0.9654918
-16.553268,0.8339586,0.8712597
-16.392736,0.7187238,0.69224024
-16.402653,0.6674521,0.5950694
-16.453012,0.6315334,0.51776314
-23.590927,2.6593175,2.7614484
-23.711758,2.6863966,2.7873168
-23.824465,2.7101717,2.808875
-23.9336,2.7328942,2.8292956
-24.014156,2.7413678,2.8296747
-24.087837,2.7466643,2.825735
-24.196268,2.7710264,2.8494248
-24.26569,2.7750273,2.8441048
-24.349327,2.7871954,2.8507805
-24.409697,2.7870107,2.8398132
-24.484913,2.7954183,2.841477
-24.535091,2.790112,2.8234034
-24.60638,2.7970421,2.8232918
-24.678118,2.8046553,2.8243752
-24.749596,2.812549,2.826067
-24.817356,2.8186848,2.825376
-24.884201,2.8246717,2.8246484
-24.94401,2.826804,2.818418
-25.009092,2.8324592,2.8175416
-25.073957,2.838361,2.8172002
-25.141941,2.8465908,2.8204775
-25.207664,2.853828,2.8224592
-25.269844,2.859217,2.8218627
-25.327888,2.86231,2.8180022
-25.392275,2.8698454,2.8209162
-25.4506,2.8738015,2.8186407
-25.512592,2.8805282,2.8206587
-25.570538,2.8849187,2.8193245
-25.628296,2.8895197,2.8184476
-25.680233,2.8904493,2.8121805
-25.744495,2.900216,2.8193622
-25.793653,2.8997993,2.8113184
-25.852531,2.9065242,2.81419
-25.906925,2.9104028,2.8128872
-25.966574,2.9184248,2.8179994
-26.020584,2.922701,2.8175607
-26.07205,2.925399,2.8148413
-26.124552,2.9291618,2.8138614
-26.17689,2.9331079,2.8132777
-26.224438,2.9336624,2.8076258
-26.277054,2.9384086,2.8084917
-26.332327,2.945587,2.813202
-26.38455,2.9507062,2.814876
-26.434908,2.9546502,2.814859
-26.483448,2.957404,2.813119
-26.532398,2.9607759,2.8124332
-26.5812,2.964313,2.8121052
-26.628239,2.96664,2.8100104
-26.685802,2.9783137,2.8224688
-26.730377,2.979134,2.8182483
-26.77591,2.981022,2.8157735
-26.822882,2.984448,2.8157759
-26.870731,2.9889593,2.8175607
-26.913855,2.989434,2.8131623
-26.958906,2.991914,2.8119712
-27.007307,2.9978213,2.8162107
-27.04962,2.9982495,2.8119988
-27.094288,3.0011666,2.8117533
-27.142185,3.007534,2.8169928
-27.187029,3.0112193,2.8181272
-27.22891,3.0121984,2.8151093
-27.271637,3.014259,2.8138652
-27.314257,3.0164535,2.8129106
-27.356766,3.0187807,2.812244
-27.399164,3.02124,2.8118649
-27.441006,3.0233505,2.8110151
-27.482742,3.0255904,2.8104444
-27.524372,3.0279586,2.8101516
-27.566319,3.0309384,2.8109012
-27.60856,3.0345333,2.812698
-27.65067,3.03826,2.8147793
-27.691408,3.040654,2.8148289
-27.732447,3.0436597,2.8159199
-27.773762,3.0472806,2.8180585
-27.814941,3.051028,2.8204713
-27.854439,3.0529344,2.8200355
-27.8927,3.0534806,2.8175068
-27.929771,3.052658,2.8128667
-27.967554,3.0529284,2.8100257
-28.006376,3.054794,2.8097873
-28.046904,3.0592546,2.8137465
-28.086224,3.0623462,2.8155937
-28.124386,3.0640597,2.8153105
-28.16178,3.0648854,2.8136735
-28.199785,3.0668175,2.8138642
-28.237701,3.0688589,2.814293
-28.276505,3.0725148,2.8173633
-28.31518,3.0762844,2.820681
-28.351852,3.0771472,2.8194103
-28.387543,3.0766017,2.8159413
-28.42592,3.080697,2.8199663
-28.462982,3.0828822,2.82099
-28.499958,3.0851717,2.8222423
-28.537127,3.0880728,2.824534
-28.57308,3.0890484,2.823793
-28.60789,3.08809,2.8200011
-28.643484,3.0887523,2.8188667
-28.68007,3.0915518,2.8212237
-28.716816,3.0949643,2.8246245
-28.752205,3.0959244,2.8241363
-28.788029,3.0980048,2.8255053
-28.823298,3.0991592,2.825437
-28.85805,3.0993838,2.8239245
-28.892992,3.1002152,2.823443
-28.928106,3.1016548,2.8239942
-28.963158,3.1031902,2.8247523
-28.997942,3.104305,2.824884
-29.03227,3.1044822,2.823554
-29.06735,3.1068153,2.825757
-29.102163,3.1087272,2.8273315
-29.136358,3.1091802,2.8266006
-29.171228,3.1117957,2.8294153
-29.2067,3.1165776,2.8357844
-29.242865,3.1240497,2.8465595
-29.279474,3.133699,2.8609114
-29.314,3.1372178,2.8653998
-29.347836,3.1387506,2.866723
-29.382322,3.1429741,2.8724532
-29.414667,3.1394813,2.865737
-29.447851,3.1391966,2.8642626
-29.48164,3.1416042,2.8671985
-29.514187,3.1388855,2.8618755
-29.54745,3.1393814,2.8618073
-29.58079,3.1404855,2.862773
-29.61409,3.1416764,2.8639278
-29.647259,3.1424322,2.8644233
-29.68005,3.1411822,2.861714
-29.71302,3.1410625,2.8608832
-29.746058,3.1415517,2.8610864
-29.778936,3.1410787,2.859776
-29.811817,3.1406913,2.8586502
-29.844755,3.1409123,2.8585577
-29.877579,3.14017,2.8569484
-29.910545,3.1410837,2.8580732
-29.943562,3.1431315,2.861085
-29.976557,3.1457884,2.865131
-30.009356,3.145909,2.865107
-30.042088,3.144541,2.8627129
-30.074986,3.1485012,2.8690138
-30.10772,3.1478262,2.8678355
-30.140469,3.1477592,2.867691
-30.173233,3.1462035,2.8651748
-30.20599,3.1468298,2.8662467
-30.238699,3.148589,2.869204
-30.271505,3.147286,2.8672361
-30.304344,3.1460674,2.8654509
-30.337109,3.1465063,2.8664021
-30.369905,3.146505,2.8666854
-30.402756,3.1460643,2.866301
-30.435886,3.1430895,2.8618498
-30.46903,3.1407237,2.8584347
-30.502302,3.1379209,2.8543577
-30.53586,3.1336355,2.847921
-30.569757,3.1278677,2.839129
-30.603882,3.1216676,2.8296843
-30.638248,3.1150355,2.8195891
-30.674406,3.0996132,2.79529
-30.713274,3.0722804,2.7517362
-30.757212,3.023662,2.6737409
-42.83578,0.67907095,0.39177132
-42.826584,0.73725224,0.4964981
-42.855316,0.779361,0.57979965
-42.85678,0.83223295,0.677299
-42.816017,0.95384526,0.89270926
-42.83405,0.9986491,0.97928286
-42.859802,1.0401447,1.0615406
-42.82388,1.105056,1.1740055
-42.850662,1.1454375,1.2547054
-42.788002,1.219193,1.3780622
-42.79692,1.2654266,1.4660234
-42.772415,1.3236094,1.5690403
-42.761616,1.376209,1.6648054
-42.76901,1.4217756,1.7516065
-42.739174,1.4802735,1.8544488
-42.74325,1.5262079,1.9414754
-42.80259,1.5525203,2.0042377
-42.90019,1.5656996,2.0510921
-42.956284,1.5934072,2.1160212
-43.11073,1.634855,2.2295928
-44.20469,1.419622,2.0745268
-42.863113,1.8983271,2.6720371
-42.891827,1.9336069,2.7459602
-42.881233,1.9810812,2.834041
-42.81562,2.045209,2.941093
-42.83786,2.0816905,3.0161934
-42.802254,2.135545,3.1109676
-42.854248,2.1626418,3.1754303
-42.966206,2.1720533,3.220397
-43.01851,2.1993957,3.2856793
-43.07042,2.2269225,3.3513584
-43.16801,2.2414505,3.4031363
-43.302372,2.245947,3.4445872
-43.47469,2.240439,3.476056
-43.660164,2.2321444,3.5054827
-43.83004,2.2290425,3.5413132
-43.97953,2.2322707,3.5845838
-44.09259,2.2459106,3.6392913
-44.20643,2.2598052,3.6948361
-44.285378,2.2832527,3.7605262
-44.37059,2.305334,3.8252525
-44.465855,2.3251393,3.8881865
-44.59012,2.338005,3.9449267
-44.723682,2.3490858,4.000655
-46.00492,2.079367,3.7934284
-46.03781,2.1194608,3.881215
-46.024445,2.170565,3.9791665
-46.050354,2.2120724,4.068304
-46.120533,2.2431757,4.148308
-46.73256,2.1497438,4.1202374
-47.258774,2.0791981,4.115797
-47.719788,2.0261364,4.1295576
-48.317078,1.9453739,4.1235304
-49.031017,1.8423773,4.1035666
-49.69526,1.7539918,4.100146
-50.464005,1.6469779,4.086896
-51.211914,1.5485072,4.0855994
-51.949463,1.4562116,4.094264
-52.93445,1.317373,4.07456
-53.91922,1.183914,4.0659485
-2.6926746,0.78433824,3.8689823
-2.779976,0.7240777,3.7233682
-2.6912231,0.62978387,3.5534616
-2.6989822,0.55371237,3.396411
-2.7815456,0.49233174,3.2505474
-2.8698559,0.43226457,3.1061692
-2.8990955,0.36021876,2.9526815
-2.921669,0.2866137,2.797988
-11.3745575,0.48527622,1.1477742
-11.57901,0.4828422,1.0962658
-11.783337,0.4813311,1.0467582
-11.833431,0.43419623,0.9445615
-12.756454,0.65365434,1.1579542
-12.946974,0.652735,1.113265
-13.033985,0.6203809,1.0316944
-13.222681,0.6203346,0.98944235
-13.26199,0.57347393,0.89110327
-14.15182,0.80111456,1.1284914
-14.249437,0.776011,1.0591063
-14.348238,0.7515769,0.99090004
-14.54264,0.75932956,0.96310997
-14.528211,0.69762206,0.8491678
-14.584937,0.6596346,0.76490164
-14.62735,0.616688,0.67450523
-14.661696,0.57079315,0.5804362
-16.135256,1.0315597,1.1342788
-16.25085,1.019628,1.0871959
-16.505304,1.0581069,1.1056294
-16.529446,1.0143571,1.0183864
-16.544853,0.96714735,0.92663336
-16.493633,0.8948653,0.8020034
-16.495502,0.84165263,0.7021303
-16.472,0.7783654,0.5888443
-16.55753,0.75621533,0.5299406
-23.603062,2.7103653,2.7476587
-23.792076,2.7711775,2.8234882
-23.873112,2.7787328,2.8227372
-23.964993,2.7923248,2.8309946
-24.038782,2.7971225,2.8267121
-24.106497,2.7991385,2.818573
-24.179892,2.8045042,2.8155212
-24.269732,2.8190835,2.826192
-24.333212,2.820001,2.8170314
-24.462471,2.8571966,2.8615084
-24.486853,2.8375075,2.8223543
-24.570309,2.8506749,2.8318677
-24.628048,2.8498845,2.820907
-24.69899,2.8568845,2.8216715
-24.764116,2.8609557,2.8182607
-24.827673,2.8644688,2.8141847
-24.892426,2.8690305,2.8118367
-24.965841,2.8791168,2.817933
-25.029457,2.8837836,2.8160853
-25.092873,2.8886895,2.8147573
-25.156084,2.8938346,2.8139467
-25.217094,2.8979783,2.811781
-25.27726,2.9019337,2.8094792
-25.341171,2.9086096,2.8114443
-25.397694,2.910928,2.806952
-25.454716,2.9138696,2.8035412
-25.516068,2.9199672,2.805067
-25.572739,2.9233317,2.8025718
-25.633034,2.9294484,2.804412
-25.689972,2.933657,2.803474
-25.745481,2.9372146,2.80167
-25.798973,2.9396827,2.7983184
-25.856611,2.945356,2.8000135
-25.91039,2.948643,2.7981658
-25.973654,2.9590662,2.8074403
-26.025839,2.9618847,2.805121
-26.079655,2.966196,2.8052225
-26.132116,2.96982,2.8043776
-26.182665,2.9723065,2.8018813
-26.236547,2.977616,2.8038764
-26.290228,2.9831166,2.806283
-26.33916,2.985248,2.8035622
-26.390783,2.9897757,2.8046765
-26.442783,2.9949296,2.8068771
-26.493483,2.9993658,2.8080654
-26.542912,3.003076,2.8082218
-26.59001,3.0051458,2.8059115
-26.639675,3.0096378,2.8074927
-26.688631,3.013844,2.8087258
-26.733727,3.0150237,2.8053007
-26.779247,3.0168066,2.8029108
-26.827242,3.0210302,2.8044538
-26.874046,3.0244937,2.804894
-26.915632,3.0234993,2.798386
-26.962189,3.027258,2.7994652
-27.007103,3.0297782,2.7986746
-27.052383,3.032908,2.7989345
-27.094128,3.03292,2.7943354
-27.14205,3.0391395,2.799663
-27.188816,3.0445807,2.803846
-27.231165,3.0459456,2.8016381
-27.276207,3.0502703,2.8042154
-27.317875,3.0514321,2.8018408
-27.360817,3.054144,2.8020086
-27.401394,3.0546157,2.7986808
-27.444998,3.0585423,2.8009386
-27.485832,3.059744,2.798922
-27.524853,3.0591571,2.7941136
-27.568516,3.0639567,2.7979937
-27.610752,3.0674539,2.7998652
-27.65202,3.0701191,2.8004775
-27.693172,3.0729108,2.801362
-27.734207,3.0758278,2.8025198
-27.774721,3.078385,2.8031697
-27.815517,3.0815506,2.8048658
-27.855026,3.0833797,2.804481
-27.8933,3.083864,2.8019953
-27.931131,3.0839703,2.798962
-27.970026,3.0856538,2.798534
-28.008102,3.0864708,2.7967696
-28.048265,3.090346,2.800005
-28.088291,3.094342,2.8035016
-28.126093,3.0954986,2.8024735
-28.16348,3.0962696,2.8008823
-28.20316,3.100612,2.80513
-28.23939,3.1001139,2.8016028
-28.276562,3.1012073,2.8007097
-28.314941,3.1043954,2.8032718
-28.352266,3.1062007,2.8036504
-28.391352,3.1111066,2.8091197
-28.428173,3.112629,2.809157
-28.464329,3.1132534,2.8077917
-28.500721,3.1144798,2.8074584
-28.535912,3.1137989,2.8040795
-28.573305,3.1172369,2.807454
-28.609222,3.1182637,2.8069606
-28.645079,3.1193895,2.806682
-28.681396,3.1216242,2.8082638
-28.717884,3.1244657,2.8108892
-28.752281,3.1233592,2.8071308
-28.788128,3.125386,2.8085337
-28.823423,3.1264963,2.8084936
-28.858664,3.1277027,2.8086615
-28.893618,3.1284964,2.8082075
-28.927868,3.127857,2.8054605
-28.962105,3.127308,2.8029103
-28.997156,3.1288908,2.8038955
-29.032547,3.131591,2.8067584
-29.067652,3.1338758,2.8089933
-29.102488,3.1357439,2.8105955
-29.137257,3.137706,2.8124022
-29.172487,3.1413,2.8169308
-29.210354,3.1532023,2.835123
-29.244446,3.1544259,2.8358722
-29.278488,3.1557403,2.8368177
-29.31202,3.155601,2.8354282
-29.346565,3.1591537,2.8401408
-29.380018,3.1591926,2.8391366
-29.413725,3.1603503,2.840015
-29.447386,3.161596,2.8410845
-29.481123,3.1634471,2.843194
-29.51445,3.1638367,2.8429508
-29.547642,3.1637967,2.8420477
-29.580925,3.164359,2.8421803
-29.61418,3.1650093,2.8425016
-29.647408,3.165745,2.843009
-29.680172,3.1639779,2.8394494
-29.71337,3.1648855,2.8403292
-29.746534,3.165879,2.8413954
-29.779528,3.1659207,2.8409433
-29.81245,3.16553,2.8398237
-29.84526,3.1641858,2.8371816
-29.878294,3.165002,2.8381352
-29.911303,3.1659036,2.8392735
-29.944244,3.1663709,2.8397427
-29.977299,3.169,2.843811
-30.010157,3.1691177,2.8437948
-30.042929,3.1672423,2.8405452
-30.075905,3.1716845,2.8477287
-30.10869,3.170498,2.8456988
-30.141497,3.167316,2.8404326
-30.174326,3.1699345,2.8447495
-30.207134,3.1705582,2.84583
-30.239914,3.1717858,2.847949
-30.272734,3.1715398,2.8476872
-30.305618,3.1703398,2.8459
-30.338394,3.1713014,2.847713
-30.371273,3.1707888,2.847146
-30.404121,3.1708806,2.8476167
-30.437239,3.1684623,2.8440056
-30.470478,3.1656113,2.8397274
-30.50366,3.163884,2.8373418
-30.53739,3.158614,2.8291793
-30.571564,3.1513596,2.817802
-30.605661,3.145751,2.809177
-30.640173,3.1386795,2.7981954
-30.676775,3.1213489,2.77041
-30.716549,3.090154,2.7199068
-30.760845,3.0409825,2.6399455
-42.799217,0.7761755,0.37632275
-42.806316,0.8271804,0.4719534
-42.82831,0.87176037,0.5588193
-42.848755,0.9166484,0.6460829
-42.788284,0.993067,0.77560234
-42.799416,1.0406313,0.86622095
-42.817352,1.0852044,0.95280075
-42.856537,1.1213646,1.0282102
-42.803566,1.1921678,1.1493616
-42.854084,1.2234743,1.2183275
-42.81955,1.2861722,1.3284321
-42.832832,1.3307018,1.4146471
-42.755898,1.4075549,1.5426607
-42.782127,1.4464974,1.6213837
-42.760956,1.5020292,1.7213907
-42.771908,1.545764,1.8061519
-42.73854,1.6045611,1.909975
-42.797863,1.6309631,1.9726577
-42.862976,1.655477,2.0331511
-42.94979,1.6728282,2.0849123
-44.15583,1.5185738,2.0566754
-44.209587,1.550673,2.1300807
-42.89299,2.0084736,2.712574
-42.92117,2.0437634,2.7866392
-42.832058,2.1145725,2.902637
-42.814384,2.16302,2.9919066
-42.858746,2.1926365,3.059112
-42.86253,2.2341816,3.140214
-42.96541,2.2467084,3.1880436
-43.003033,2.2783685,3.258047
-43.05767,2.3051794,3.3227038
-43.166325,2.3169353,3.3707643
-43.300743,2.3219948,3.41192
-43.427753,2.329693,3.4566226
-43.634575,2.3163438,3.4790783
-43.831467,2.3067172,3.5066118
-44.02114,2.2999952,3.538268
-44.104427,2.3220067,3.601222
-44.154625,2.3528292,3.6737614
-44.230675,2.3771281,3.739771
-44.312973,2.4000812,3.8047667
-44.427017,2.4154065,3.8624701
-44.551258,2.428689,3.918736
-44.700897,2.4363346,3.9701214
-44.827705,2.45013,4.0283155
-46.01389,2.2138383,3.847498
-46.0271,2.2584243,3.9395447
-46.04728,2.3012419,4.029934
-46.069695,2.3434365,4.119787
-46.504005,2.293004,4.126019
-46.91608,2.2498353,4.141473
-47.527588,2.165227,4.1233726
-48.07878,2.09698,4.12334
-48.74946,2.0062628,4.10804
-49.389576,1.9256105,4.1055856
-50.099422,1.8339639,4.0986032
-50.86277,1.7352176,4.090913
-51.55185,1.6555486,4.103373
-52.477745,1.5325179,4.087901
-53.60441,1.3751776,4.0537906
-54.5307,1.2626011,4.0601687
-2.1826267,0.76657605,3.5730267
-2.6753693,0.781059,3.4832306
-2.674368,0.70342636,3.32471
-2.8384857,0.65757656,3.1915193
-2.8792496,0.588012,3.039917
-2.9007149,0.5144956,2.8851624
-2.9290543,0.44216752,2.7314367
-2.9468746,0.3675003,2.5757341
-2.9918003,0.29824996,2.4248142
-2.9684887,0.21446967,2.2609568
-9.81868,0.28662658,0.8335862
-10.192282,0.32540107,0.8271446
-11.515017,0.63764834,1.1457162
-11.592436,0.59800124,1.0517597
-11.823198,0.6033442,1.0120287
-11.877705,0.5576539,0.91167545
-12.735195,0.75234866,1.1037903
-12.956535,0.7598324,1.0707626
-13.080404,0.738575,1.0032701
-13.232292,0.7264397,0.9475622
-13.672123,0.8051441,1.0057764
-14.255554,0.9320059,1.1263719
-14.498634,0.9535632,1.1166401
-14.778315,0.9882965,1.1246438
-15.019154,1.0119052,1.119616
-15.218842,1.0232189,1.0997925
-15.477791,1.0554082,1.107697
-15.693933,1.0745959,1.0997887
-15.895557,1.089998,1.0877981
-16.118406,1.1138234,1.087625
-16.41332,1.1640968,1.1231346
-16.513777,1.1474574,1.0713267
-16.519806,1.0974267,0.97548676
-16.54121,1.052563,0.8864665
-16.49931,0.9843192,0.7660942
-16.36845,0.8824785,0.60021305
-16.56225,0.9002018,0.59531736
-16.434761,0.7979157,0.42821026
-16.389868,0.7255881,0.30130577
-23.733467,2.8214998,2.820315
-23.827429,2.83477,2.8284569
-23.869526,2.8226724,2.7993908
-23.977047,2.843729,2.8195162
-24.15408,2.901082,2.8938417
-24.225578,2.905428,2.8898554
-24.2976,2.9104364,2.8870473
-24.354174,2.90769,2.8728414
-24.396275,2.8974547,2.8475542
-24.466452,2.902424,2.845179
-24.515743,2.8964057,2.826456
-24.584187,2.9010892,2.823975
-24.646084,2.9025097,2.8167396
-24.706446,2.9033735,2.808814
-24.77155,2.9072297,2.805571
-24.835083,2.9105387,2.8016572
-24.905304,2.9180794,2.8043394
-24.971846,2.9238884,2.8045568
-25.034088,2.9275362,2.8016357
-25.09682,2.9318216,2.799838
-25.156685,2.9347177,2.7960615
-25.229006,2.9455833,2.8046637
-25.293728,2.9522285,2.806952
-25.353619,2.9562411,2.805337
-25.414623,2.9613004,2.8054757
-25.476711,2.9674156,2.8073878
-25.534077,2.9708488,2.8052917
-25.593182,2.9757447,2.8055916
-25.64829,2.9783406,2.8024516
-25.702623,2.9807115,2.7990837
-25.762413,2.9870796,2.8020606
-25.820732,2.9928203,2.8041925
-25.876993,2.997496,2.804789
-25.930628,3.0006642,2.8031483
-25.9835,3.003593,2.8012471
-26.037415,3.007568,2.8010979
-26.089373,3.0104373,2.799325
-26.140003,3.01262,2.7965794
-26.194586,3.0180218,2.7990088
-26.24491,3.0205626,2.7970386
-26.296242,3.0241506,2.7968254
-26.344564,3.0257192,2.793521
-26.393898,3.0283308,2.7919636
-26.445887,3.0333228,2.7942772
-26.49768,3.0384953,2.7969828
-26.547083,3.042066,2.797247
-26.597414,3.046698,2.7992954
-26.644869,3.0492618,2.7981496
-26.691124,3.0510848,2.7959132
-26.737263,3.053059,2.7940059
-26.785372,3.0569935,2.7953153
-26.833836,3.061542,2.797699
-26.880585,3.064889,2.7982516
-26.926678,3.0679343,2.798407
-26.971123,3.0697577,2.7966876
-27.016947,3.0730999,2.7974877
-27.06066,3.0747516,2.7956543
-27.104265,3.0765424,2.7941208
-27.149685,3.0803206,2.7958665
-27.195427,3.0847106,2.7986798
-27.239592,3.0878541,2.7995653
-27.27897,3.0864778,2.7932281
-27.321533,3.0884893,2.7924328
-27.363985,3.0906336,2.791925
-27.406326,3.0929108,2.7917037
-27.448994,3.09579,2.792531
-27.489786,3.0969148,2.790587
-27.53265,3.1005287,2.7927494
-27.574093,3.1028547,2.7928925
-27.615002,3.1048324,2.7925391
-27.656637,3.1078873,2.7940059
-27.696917,3.1096387,2.7934184
-27.737503,3.1119893,2.7938733
-27.776785,3.1130245,2.7922502
-27.81638,3.114656,2.7916622
-27.855108,3.1154432,2.7897577
-27.894148,3.1168256,2.7888875
-27.932728,3.1178393,2.787475
-27.972715,3.1209035,2.7894773
-28.012945,3.124573,2.7925344
-28.05376,3.1293364,2.7974467
-28.092646,3.1317875,2.798635
-28.130035,3.1324003,2.7968688
-28.166338,3.1316528,2.7929282
-28.204292,3.133456,2.7932277
-28.243484,3.1373315,2.7969885
-28.28189,3.14034,2.799386
-28.318268,3.140506,2.7971668
-28.35491,3.1412663,2.7959795
-28.393032,3.1446002,2.7990813
-28.43013,3.1465602,2.7999787
-28.466251,3.147138,2.7986536
-28.501741,3.1468244,2.7959104
-28.538052,3.148099,2.795837
-28.574295,3.1494744,2.7959828
-28.61074,3.1514494,2.797171
-28.647638,3.1545253,2.800229
-28.683643,3.1562052,2.8010345
-28.719576,3.157985,2.8020577
-28.75568,3.160366,2.8041248
-28.791452,3.1623447,2.8055792
-28.826672,3.1634178,2.805585
-28.862297,3.1655927,2.8074636
-28.89784,3.1678658,2.8095555
-28.932861,3.1692278,2.8101878
-28.968035,3.1711895,2.8118625
-29.002302,3.171226,2.8103952
-29.03634,3.1708486,2.8082862
-29.070557,3.1710668,2.8072128
-29.104362,3.1703622,2.8046536
-29.139812,3.174312,2.809866
-29.174433,3.1763284,2.8119168
-29.20881,3.177929,2.8133245
-29.243128,3.179622,2.8149319
-29.276587,3.178861,2.8125076
-29.310194,3.1786969,2.8111205
-29.344376,3.1806598,2.8133135
-29.378067,3.1811821,2.8131576
-29.411997,3.182815,2.8148918
-29.445482,3.1830046,2.8142715
-29.4787,3.1822588,2.8121386
-29.512386,3.1836452,2.8135977
-29.545803,3.1840966,2.8135443
-29.579298,3.1851466,2.8145318
-29.612656,3.185772,2.8148556
-29.645706,3.1849456,2.8128076
-29.679024,3.1857436,2.8135056
-29.712553,3.188167,2.816955
-29.745565,3.1875985,2.815465
-29.778374,3.1855745,2.811592
-29.811409,3.185176,2.8104692
-29.844501,3.1853752,2.8103867
-29.877832,3.18823,2.8147707
-29.910866,3.188601,2.8150597
-29.943733,3.1870008,2.8121047
-29.976696,3.186513,2.811047
-30.00964,3.1855953,2.8093162
-30.0426,3.1847622,2.8077688
-30.075645,3.1865869,2.8106928
-30.108662,3.189525,2.815515
-30.141605,3.1925473,2.8205218
-30.17451,3.1920538,2.8197083
-30.207476,3.1890726,2.8147917
-30.240446,3.1882336,2.813489
-30.273346,3.1895373,2.8157992
-30.306248,3.1904106,2.8174362
-30.339235,3.1898263,2.8166842
-30.371994,3.192411,2.821257
-30.40493,3.19251,2.8217287
-30.438349,3.1880684,2.8146782
-30.471819,3.184229,2.8086743
-30.504995,3.1835575,2.807993
-30.538551,3.1804054,2.8032207
-30.572422,3.175801,2.7960749
-30.606663,3.169748,2.78656
-30.641865,3.1591716,2.769559
-30.678476,3.1425402,2.742525
-30.718245,3.112182,2.6926923
-30.766191,3.0466168,2.5843153
-42.784725,0.8646903,0.34477282
-42.78514,0.91801405,0.44414282
-42.808697,0.96169734,0.5300889
-42.854027,0.9965739,0.6039009
-42.78015,1.077496,0.740932
-42.783688,1.1276944,0.835588
-42.78807,1.1771448,0.92913723
-42.8263,1.2134895,1.0048442
-42.836823,1.2599828,1.0943046
-42.811657,1.3192267,1.2008367
-42.832504,1.3611405,1.2839766
-42.829517,1.411366,1.3781767
-42.779205,1.4779868,1.493998
-42.745018,1.5381532,1.6009836
-42.73756,1.5883751,1.6946592
-42.764084,1.626468,1.7723513
-42.72978,1.6850915,1.8767657
-42.75493,1.7230775,1.9542255
-42.784767,1.7593286,2.0294724
-42.854614,1.7822661,2.0877137
-44.14308,1.6066716,2.0213332
-44.19592,1.639087,2.0949688
-42.9064,2.0805209,2.6712046
-42.891266,2.128858,2.7613087
-42.744034,2.2161376,2.8984575
-42.80783,2.2399898,2.9584236
-42.84035,2.2730923,3.0296812
-42.862335,2.3091638,3.104538
-42.80596,2.3673944,3.2055202
-42.79087,2.4133778,3.291812
-43.04283,2.3847978,3.2914739
-43.109066,2.408599,3.3526206
-43.24804,2.4128337,3.3917155
-43.387962,2.417453,3.431901
-43.560425,2.4140942,3.4638143
-43.743286,2.4088607,3.4944992
-43.96087,2.3955557,3.5172248
-44.07961,2.4086225,3.5697956
-44.151337,2.4340487,3.6362715
-44.221775,2.4599996,3.7036252
-44.296562,2.485076,3.7703733
-44.3861,2.5067916,3.8339581
-44.466843,2.5309334,3.9004846
-44.606926,2.5412745,3.9533339
-44.74975,2.5515962,4.006916
-44.9286,2.5542362,4.05364
-46.04389,2.3442712,3.8928843
-46.042156,2.392023,3.9881663
-46.062656,2.4345975,4.078413
-46.17256,2.457485,4.1502137
-46.762756,2.3769999,4.127076
-47.351326,2.3000956,4.1109266
-47.803444,2.255087,4.12706
-48.458675,2.1703522,4.1112113
-49.139294,2.0839798,4.098259
-49.788296,2.0076632,4.0983424
-50.54683,1.9130566,4.0876503
-51.223286,1.838614,4.0985003
-52.012413,1.7460163,4.099642
-52.99527,1.6207771,4.08107
-54.011894,1.4944949,4.068745
-2.6033764,1.1548924,3.8727255
-2.6738873,1.0141835,3.5666718
-2.6775913,0.937917,3.4090996
-2.7679691,0.8774822,3.2644377
-2.8436985,0.8144896,3.118125
-2.8893204,0.74585104,2.967358
-2.9088326,0.67208195,2.8122802
-2.962696,0.5268686,2.5042477
-2.983509,0.45275187,2.3489041
-2.9274673,0.36258984,2.1784825
-2.9726906,0.2928896,2.0271177
-2.972889,0.21356368,1.8665633
-7.5836678,0.23177052,0.89681673
-7.993704,0.26604867,0.8774433
-8.12245,0.22925282,0.77746296
-8.696499,0.24135494,0.68031836
-8.996403,0.25302625,0.6404028
-9.310587,0.27012467,0.6083598
-10.983719,0.6647434,1.0341835
-11.536652,0.7564044,1.099072
-12.035633,0.83604574,1.1517711
-12.369083,0.8711829,1.151782
-12.668987,0.8984351,1.1434584
-12.95821,0.9241836,1.1345506
-13.248539,0.9518285,1.1292677
-13.548021,0.9838109,1.1307139
-13.817968,1.0084908,1.1241136
-14.09528,1.0369053,1.1234198
-14.2977915,1.0436292,1.0958967
-14.468842,1.0414951,1.0576849
-14.528908,1.0049193,0.9752188
-15.013691,1.1047726,1.0717402
-15.231122,1.1208687,1.0599155
-15.129282,1.0332811,0.91162395
-15.324805,1.0432775,0.8926568
-15.499855,1.0474153,0.8665843
-15.658093,1.0467184,0.8346529
-16.59038,1.2612636,1.0652232
-16.59526,1.211391,0.9692583
-16.513527,1.130415,0.8306794
-16.35382,1.0204215,0.6518183
-16.436127,0.99644256,0.5908232
-16.549236,0.98393583,0.5459409
-16.349909,0.8561704,0.3412037
-16.365868,0.8069196,0.24512577
-23.786716,2.8938239,2.8356504
-23.889444,2.9111974,2.8509307
-23.988688,2.9275398,2.8649473
-24.06073,2.930987,2.8597665
-24.136272,2.936577,2.8580155
-24.20937,2.9413486,2.8552184
-24.281517,2.9460332,2.852478
-24.341108,2.9445848,2.8405771
-24.421543,2.9543586,2.8459496
-24.467932,2.946542,2.8246212
-24.523653,2.9438577,2.8112574
-24.590662,2.9475317,2.807784
-24.652548,2.948756,2.8007045
-24.722698,2.954873,2.801313
-24.798864,2.9647768,2.807941
-24.86156,2.9675353,2.8037004
-24.927525,2.972499,2.8030248
-24.993269,2.9777148,2.8028946
-25.054043,2.9803998,2.7989821
-25.116,2.984109,2.7968025
-25.177767,2.98805,2.795127
-25.240673,2.9930267,2.795209
-25.302044,2.9974315,2.794538
-25.361246,3.0008469,2.7924523
-25.420921,3.0048878,2.791479
-25.480408,3.0091488,2.7909837
-25.538414,3.0128071,2.7896671
-25.596237,3.0166767,2.7888093
-25.653246,3.0203424,2.7877536
-25.710075,3.0242147,2.7871451
-25.771702,3.0316327,2.792276
-25.827503,3.0355084,2.7919192
-25.883125,3.039585,2.7919965
-25.936127,3.0421722,2.7898188
-25.98656,3.0432508,2.7853432
-26.04227,3.0483294,2.7873497
-26.095993,3.0523276,2.787744
-26.14777,3.0552304,2.7864943
-26.203478,3.061322,2.790454
-26.254326,3.064163,2.7893124
-26.305025,3.0671785,2.7885504
-26.355,3.0699346,2.787468
-26.404827,3.0728614,2.7867565
-26.453945,3.075521,2.7857084
-26.504581,3.0796626,2.7871437
-26.553942,3.083098,2.7875347
-26.603687,3.0871425,2.789003
-26.650026,3.0886993,2.7865386
-26.697853,3.0917413,2.786563
-26.745003,3.0944974,2.786211
-26.789917,3.095622,2.783296
-26.839394,3.1009254,2.787251
-26.887133,3.1050487,2.7893763
-26.93267,3.1075277,2.78891
-26.976572,3.1087985,2.7865548
-27.019377,3.1093018,2.7830224
-27.065542,3.113123,2.7849798
-27.109114,3.114815,2.7835379
-27.15354,3.11756,2.7838912
-27.198307,3.1209056,2.7853045
-27.240108,3.121637,2.7825108
-27.282288,3.1229587,2.7807522
-27.32529,3.1253357,2.780795
-27.36681,3.1264577,2.7788467
-27.409136,3.1286366,2.7787032
-27.452677,3.132343,2.7811432
-27.494318,3.1343215,2.7808084
-27.536282,3.1368954,2.7815228
-27.579405,3.141006,2.7848377
-27.619,3.141493,2.7822428
-27.659357,3.1430392,2.7814589
-27.69962,3.144708,2.780939
-27.740189,3.1469712,2.7814655
-27.778654,3.1469853,2.7783337
-27.818243,3.148538,2.7778053
-27.857353,3.1497324,2.7767444
-27.896763,3.1515186,2.7767234
-27.934948,3.1519873,2.7745762
-27.975664,3.155921,2.7782378
-28.018063,3.1623785,2.7861547
-28.058458,3.1665635,2.790361
-28.09623,3.1674962,2.7892203
-28.133583,3.1680555,2.7875113
-28.171558,3.1696885,2.7876453
-28.210459,3.1728847,2.7904396
-28.245928,3.1713417,2.785389
-28.283987,3.173786,2.7870383
-28.320349,3.1739047,2.7848625
-28.35729,3.1751008,2.7845354
-28.393852,3.1759129,2.7836185
-28.430958,3.1778066,2.7845607
-28.467087,3.178334,2.7832713
-28.504034,3.1804357,2.7846646
-28.54004,3.1811666,2.7838154
-28.57543,3.1810122,2.7815332
-28.612694,3.1844068,2.7852426
-28.650642,3.1893892,2.7916656
-28.686607,3.191019,2.7925224
-28.721224,3.1902723,2.7894435
-28.758562,3.1950738,2.7957163
-28.793322,3.1950161,2.793888
-28.828524,3.1960468,2.793932
-28.86436,3.1986663,2.7966914
-28.898527,3.197897,2.793806
-28.933779,3.1997125,2.7953095
-28.968958,3.2016244,2.79702
-29.003231,3.2016313,2.795576
-29.037678,3.202231,2.7951722
-29.072277,3.203423,2.7958097
-29.106064,3.202702,2.793274
-29.14021,3.2030742,2.7926197
-29.17432,3.2035365,2.7921624
-29.208738,3.205095,2.7935948
-29.243595,3.2082558,2.7977715
-29.277075,3.2074807,2.79536
-29.31055,3.206792,2.793137
-29.344614,3.2082095,2.794506
-29.378338,3.2087069,2.7943683
-29.412169,3.209798,2.7952743
-29.445694,3.2099671,2.7946668
-29.47895,3.209211,2.792541
-29.512444,3.2095547,2.7923117
-29.546356,3.2120113,2.7956915
-29.579985,3.2135437,2.7975545
-29.613264,3.2136424,2.797038
-29.646341,3.2128131,2.7949963
-29.679775,3.2140987,2.7965674
-29.713001,3.214456,2.7966132
-29.745985,3.2133756,2.7942696
-29.778982,3.2123795,2.7921104
-29.812183,3.2129939,2.7927113
-29.845188,3.2121685,2.7909217
-29.87851,3.214479,2.7944717
-29.911634,3.2153506,2.7956305
-29.944616,3.2147803,2.7943945
-29.977638,3.2148037,2.7942019
-30.010603,3.2138944,2.7924733
-30.043606,3.2135785,2.791788
-30.076653,3.2148747,2.7938695
-30.10969,3.2177837,2.798716
-30.142653,3.2202685,2.802887
-30.175581,3.2197826,2.8020763
-30.208553,3.2178543,2.7988691
-30.241556,3.2165194,2.7967052
-30.274456,3.2183244,2.7998881
-30.3074,3.2186866,2.800674
-30.340477,3.2170975,2.7982025
-30.373434,3.2176294,2.799355
-30.406427,3.217737,2.7998319
-30.439745,3.214878,2.7953367
-30.473194,3.211598,2.7901707
-30.50647,3.2104375,2.7886295
-30.539993,3.2078393,2.7847
-30.573898,3.2032967,2.7775273
-30.608423,3.1957982,2.7654057
-30.643858,3.1843312,2.7466278
-30.679482,3.1734693,2.7289176
-30.720987,3.1348205,2.6643457
-30.76786,3.0755236,2.5649848
-42.854553,0.9233897,0.2674284
-42.76846,1.0106354,0.41570663
-42.801044,1.0505462,0.49664116
-42.8255,1.0933731,0.5817108
-42.785027,1.2118711,0.7977505
-42.78179,1.2638628,0.8953886
-42.78106,1.3144646,0.9909868
-42.819397,1.3503902,1.0662031
-42.796665,1.4082093,1.1716094
-42.82085,1.4487021,1.253077
-42.787727,1.5091922,1.3618407
-42.77338,1.5624762,1.4605775
-42.753815,1.6170619,1.5609193
-42.761097,1.6619511,1.6480265
-42.72934,1.7197018,1.7523117
-42.743782,1.761421,1.8349762
-42.729507,1.8123693,1.9298677
-42.792664,1.8375673,1.9905839
-42.77432,1.8892057,2.0862408
-44.054157,1.7216356,2.017387
-44.16873,1.7351742,2.0666957
-44.203903,1.7728653,2.1469588
-42.883766,2.210356,2.7292538
-42.885017,2.2531705,2.8128352
-42.775635,2.327601,2.9355183
-42.825363,2.355677,3.0005283
-42.841812,2.3931825,3.0772238
-42.87143,2.4268618,3.149272
-42.975864,2.4398923,3.196507
-43.01941,2.4698915,3.264471
-43.04868,2.503749,3.3371487
-43.225506,2.4983928,3.3637443
-43.35338,2.5067508,3.4071746
-43.5026,2.5101483,3.4454489
-43.692875,2.5037458,3.4731808
-43.93007,2.4864445,3.4894514
-44.089977,2.4896681,3.530024
-44.134537,2.5220633,3.6039147
-44.2153,2.5456889,3.6682806
-44.294804,2.5698788,3.733626
-44.380592,2.5928333,3.7979975
-44.46986,2.615268,3.862215
-44.62613,2.6225371,3.9108295
-44.719673,2.6448307,3.9759579
-44.84432,2.6604662,4.034681
-45.98018,2.4520707,3.8658733
-46.01077,2.4923701,3.9537373
-46.050335,2.5306847,4.039729
-46.07784,2.5715814,4.1284003
-46.60872,2.506575,4.1152205
-47.04547,2.4639685,4.1265135
-47.571526,2.4054222,4.125636
-48.167953,2.335511,4.117641
-48.819565,2.2578478,4.1064653
-49.433655,2.191042,4.109097
-50.197952,2.0985286,4.0934668
-50.948074,2.0128248,4.088706
-51.63626,1.9427348,4.101982
-52.518055,1.8405697,4.093899
-53.60873,1.7051651,4.0655837
-54.32766,1.6421247,4.100957
-2.1932163,1.090169,3.419608
-2.709917,1.1036634,3.3360195
-2.8100338,1.0447533,3.1932158
-2.874092,0.9795158,3.045374
-2.8993282,0.9071276,2.8913932
-2.895588,0.8291111,2.7322917
-2.9249249,0.7570865,2.578642
-2.9659405,0.68717504,2.427062
-2.961689,0.60824513,2.2668943
-3.1742916,0.5723243,2.1488066
-3.001875,0.45917177,1.9548693
-2.9991474,0.37958765,1.7937393
-3.0043068,0.30127454,1.6337662
-3.011591,0.22307277,1.4738064
-4.3920383,0.28609705,1.314631
-6.733635,0.3040123,0.8719368
-7.599243,0.44329762,0.97519493
-6.984316,0.22028542,0.6545396
-9.988226,0.7743597,1.1554904
-10.357883,0.80628633,1.1454468
-10.825426,0.86604357,1.1713014
-11.069851,0.86881804,1.1286597
-11.495729,0.92187715,1.1498151
-11.747349,0.9296346,1.115922
-11.813253,0.8872106,1.0195999
-12.291336,0.96039534,1.0706854
-12.64699,1.0016437,1.0829067
-12.511696,0.9039531,0.91747046
-12.827803,0.936064,0.91970396
-13.223181,0.9932201,0.95590925
-13.546268,1.0311928,0.9685683
-13.552385,0.9756646,0.8591385
-13.707533,0.96511364,0.80930805
-13.972986,0.9891839,0.80621576
-14.959736,1.2392244,1.107121
-14.553007,1.0571706,0.8298116
-15.39778,1.2702832,1.0858288
-14.9210825,1.0635462,0.77396154
-15.072715,1.0575514,0.7344656
-15.335075,1.088707,0.74650764
-15.51133,1.092696,0.72203255
-16.701595,1.3885608,1.0754652
-16.553726,1.2868006,0.9066858
-16.44807,1.1981909,0.75568295
-16.339775,1.1074121,0.6011181
-16.569439,1.1355965,0.61425686
-16.478527,1.0498126,0.46640968
-16.349483,0.94899106,0.29669714
-16.395737,0.91111875,0.21641064
-23.686657,2.9275537,2.8018107
-23.756683,2.9282076,2.792263
-23.85284,2.9417577,2.8026814
-23.914227,2.9390347,2.7883253
-24.016388,2.9565887,2.8053699
-24.08406,2.957725,2.797326
-24.166273,2.9664884,2.8012505
-24.246706,2.9748473,2.8047538
-24.31812,2.9790673,2.8020248
-24.403751,2.9910467,2.8115506
-24.471056,2.993984,2.8071833
-24.54531,3.0009573,2.8092823
-24.603687,2.9998777,2.7989464
-24.664793,3.0005376,2.7914667
-24.733475,3.0056374,2.7911038
-24.79914,3.0094645,2.7888932
-24.867376,3.0150895,2.7896676
-24.928497,3.0170937,2.7848754
-24.997654,3.024008,2.7879877
-25.060438,3.0276628,2.7860904
-25.12303,3.0315542,2.7847052
-25.185423,3.035681,2.7838292
-25.252935,3.043218,2.7885213
-25.312244,3.04623,2.7861428
-25.366787,3.0466568,2.7797585
-25.42838,3.0517018,2.7808733
-25.494278,3.059803,2.7870178
-25.554752,3.0649126,2.7885013
-25.61182,3.0682113,2.7872014
-25.667448,3.070899,2.7850347
-25.721031,3.0725555,2.7813153
-25.782578,3.0797572,2.7866497
-25.835201,3.0813982,2.7831259
-25.892601,3.0865445,2.7853765
-25.939438,3.084815,2.7766008
-25.989843,3.0857506,2.7722325
-26.043129,3.0889578,2.771649
-26.09803,3.0936167,2.7735262
-26.148605,3.0955114,2.77101
-26.20372,3.100975,2.774403
-26.254562,3.103654,2.7733583
-26.304104,3.105653,2.7712975
-26.354082,3.1082501,2.7703032
-26.403912,3.111017,2.7696786
-26.45359,3.113955,2.7694235
-26.500898,3.1153283,2.7666907
-26.54809,3.116859,2.764298
-26.59625,3.119418,2.763679
-26.64373,3.121701,2.7626896
-26.69054,3.1237035,2.76132
-26.739338,3.1276207,2.7631884
-26.787964,3.1317017,2.7654133
-26.83175,3.1319616,2.7614079
-26.878532,3.1350255,2.7621117
-26.925673,3.138689,2.763888
-26.967627,3.1380415,2.7585998
-27.013496,3.141108,2.7595367
-27.055286,3.1407292,2.7548327
-27.10188,3.144985,2.7578921
-27.148296,3.1493938,2.7612844
-27.190256,3.1498783,2.7582226
-27.231663,3.1500378,2.7546844
-27.275324,3.1526012,2.7552176
-27.316097,3.152564,2.751481
-27.357258,3.1531072,2.7487755
-27.398787,3.154235,2.74711
-27.44111,3.1564107,2.7472587
-27.485067,3.1605635,2.7507792
-27.524971,3.1606941,2.7476354
-27.566517,3.1627972,2.7478557
-27.606686,3.1636343,2.7460165
-27.647188,3.165058,2.7452197
-27.69129,3.170804,2.7517376
-27.731552,3.1724803,2.75149
-27.770517,3.1728718,2.7491403
-27.809023,3.1729074,2.7462482
-27.848635,3.1744676,2.745976
-27.888535,3.1766174,2.7467532
-27.926445,3.1765223,2.7438064
-27.964676,3.1770098,2.7418928
-28.002476,3.177133,2.7394195
-28.042017,3.1797428,2.7411947
-28.080383,3.1810405,2.7408104
-28.117971,3.181494,2.7390528
-28.156525,3.18349,2.7399535
-28.195992,3.187036,2.7435298
-28.233671,3.188298,2.7432966
-28.269972,3.1877449,2.7400413
-28.308475,3.190664,2.7427154
-28.346863,3.193695,2.7456331
-28.386364,3.1987712,2.75207
-28.42268,3.1991231,2.7505484
-28.461609,3.2039404,2.7566524
-28.495155,3.2001297,2.7481623
-28.530743,3.1998112,2.7456436
-28.569084,3.2044606,2.7516131
-28.602911,3.2014163,2.7445555
-28.63864,3.2018802,2.7435055
-28.67484,3.20342,2.7443314
-28.710459,3.2040806,2.7437077
-28.746023,3.2048388,2.7432952
-28.781778,3.2061849,2.7439294
-28.816992,3.2066457,2.7431016
-28.852623,3.2081861,2.7441573
-28.887959,3.2093318,2.7445846
-28.922796,3.209586,2.7435374
-28.957811,3.2104275,2.7435346
-28.992981,3.2118578,2.7445803
-29.027283,3.2114036,2.7424517
-29.06137,3.2105434,2.7396736
-29.096588,3.2127502,2.7421741
-29.13246,3.2170386,2.7482738
-29.168379,3.2219229,2.7554374
-29.201584,3.219443,2.7500606
-29.235815,3.220036,2.7499762
-29.270807,3.2232118,2.7543483
-29.304932,3.2239876,2.7546601
-29.338722,3.2238553,2.75346
-29.372776,3.2248104,2.7541604
-29.406517,3.2248554,2.7533436
-29.439333,3.2214868,2.7467256
-29.473196,3.222206,2.7471428
-29.507141,3.2235143,2.7486086
-29.540817,3.2239099,2.7485528
-29.574886,3.2263987,2.752121
-29.608683,3.2279737,2.7541656
-29.642427,3.2296371,2.7564015
-29.676031,3.2308862,2.757968
-29.709993,3.234735,2.764028
-29.742584,3.2301283,2.7556381
-29.775686,3.2286215,2.7525997
-29.809376,3.2317252,2.7575026
-29.842531,3.2308927,2.7556973
-29.875748,3.2306483,2.7549396
-29.909227,3.2335105,2.7595448
-29.942516,3.2349474,2.7617478
-29.975475,3.2319393,2.7563672
-30.008608,3.2310295,2.754623
-30.041756,3.2302053,2.7530646
-30.07499,3.2319849,2.756009
-30.108192,3.2348573,2.7608666
-30.141327,3.2393262,2.7685003
-30.174404,3.2383387,2.7668161
-30.20757,3.234414,2.7601342
-30.240728,3.2335968,2.7588196
-30.273863,3.2338727,2.759417
-30.307081,3.232723,2.7576098
-30.340187,3.233673,2.759441
-30.373152,3.2362177,2.7640448
-30.405962,3.2398536,2.770557
-30.439602,3.235019,2.7625875
-30.473244,3.2312782,2.7565331
-30.506788,3.2291346,2.7532558
-30.540606,3.22557,2.747583
-30.574675,3.221089,2.7403803
-30.609535,3.2126799,2.7264872
-30.643978,3.2078786,2.7188196
-30.6823,3.183598,2.677825
-30.724495,3.1433792,2.6095834
-30.771793,3.084243,2.509006
-42.77349,1.0966079,0.3734684
-42.774525,1.148442,0.47191906
-42.803852,1.1891327,0.55420446
-42.78997,1.2966428,0.756238
-42.820446,1.3359694,0.83647966
-42.767326,1.4053216,0.95943403
-42.792,1.446012,1.041491
-42.788727,1.4963605,1.1371784
-42.817146,1.5351892,1.2165685
-42.80027,1.589504,1.3176546
-42.810066,1.6341691,1.4051328
-42.768074,1.6960473,1.5164509
-42.7719,1.7418997,1.6053591
-42.726177,1.8038082,1.7162871
-42.7161,1.8533511,1.809999
-42.72099,1.8976221,1.8963904
-42.755085,1.9322333,1.9696069
-42.753345,1.9780891,2.0580645
-42.806664,2.0063722,2.1228156
-42.807163,2.0510418,2.2096148
-42.872005,2.0757153,2.2697349
-44.108944,1.7945714,1.9557605
-44.1374,1.8342159,2.038517
-44.17428,1.8712668,2.1179361
-42.872055,2.2946942,2.6970048
-42.88594,2.3336415,2.775968
-42.898315,2.372825,2.8552132
-42.785156,2.4467797,2.9785533
