x,y,z
-43.341686,2.1347742,3.9935975
-43.624405,2.0957708,4.0023355
-44.032124,2.0228014,3.9830494
-44.29751,1.9921479,4.00303
-44.782196,1.901984,3.9739056
-45.078068,1.8664606,3.9939609
-13.316793,1.0343752,2.732448
-13.817425,1.1278851,2.7708178
-14.203961,1.1901498,2.7816296
-14.586671,1.2534637,2.7957063
-14.902193,1.2984061,2.793666
-15.2242365,1.3471382,2.7972088
-15.59107,1.4117153,2.818636
-15.892992,1.4579096,2.8232641
-16.19952,1.5073006,2.8328457
-16.47977,1.5499699,2.837079
-16.715847,1.5798166,2.82932
-16.974762,1.6185138,2.8321881
-17.081076,1.6077847,2.7835603
-17.072803,1.5588422,2.6942449
-17.081367,1.5152409,2.61058
-17.062096,1.4617729,2.5160642
-16.207993,1.1173894,2.100769
-16.267319,1.0875285,2.0297666
-17.101997,1.3331139,2.266757
-17.132446,1.2958467,2.1899076
-17.15819,1.2567222,2.1110091
-17.158298,1.2080164,2.0212178
-17.180954,1.1672666,1.9404421
-17.174706,1.1154835,1.8469429
-17.142447,1.0534215,1.7413702
-17.141388,1.0026045,1.6486483
-17.09386,0.93343997,1.5342646
-28.444534,3.1880455,3.1858463
-28.484179,3.1982331,3.1987119
-28.540144,3.1799397,3.1653075
-28.578846,3.189396,3.1772456
-28.628286,3.2188091,3.2199364
-28.66798,3.2316678,3.2372742
-28.701534,3.233657,3.2379637
-28.7342,3.2341669,3.236435
-28.779306,3.2594376,3.2731075
-28.804602,3.2459679,3.2501626
-28.838041,3.248864,3.252489
-28.870396,3.2497468,3.2517672
-28.905851,3.2575753,3.2618232
-28.937328,3.2570572,3.2590532
-28.96902,3.2571523,3.2572823
-29.00181,3.259979,3.2597876
-29.033857,3.261306,3.2600293
-29.06585,3.26272,3.26046
-29.09903,3.2674067,3.2660098
-29.130877,3.2689967,3.2668219
-29.16228,3.269608,3.266171
-29.194214,3.2719016,3.2681785
-29.227173,3.2774787,3.27533
-29.258926,3.2799466,3.2777157
-29.290092,3.2808986,3.2778044
-29.32122,3.2819335,3.278071
-29.352627,3.28412,3.2801766
-29.38366,3.2853205,3.2808032
-29.414797,3.2871382,3.2824383
-29.446018,3.2895749,3.2850862
-29.476765,3.2904856,3.2854137
-29.507477,3.291477,3.2859154
-29.538399,3.2936225,3.2882628
-29.568909,3.2942386,3.2882795
-29.59917,3.2938583,3.286797
-29.629848,3.2957082,3.2888317
-29.65998,3.2949479,3.2868543
-29.690025,3.2937276,3.2842083
-29.720694,3.2963536,3.2875953
-29.750973,3.296905,3.2878032
-29.781303,3.2980738,3.289019
-29.8116,3.2993214,3.2904067
-29.841549,3.297951,3.2877655
-29.871803,3.2993553,3.2894912
-29.901718,3.297599,3.286343
-29.931974,3.2996984,3.2892466
-29.96032,3.2754264,3.2511148
-29.992363,3.3046708,3.2964044
-30.020905,3.2746067,3.2493377
-30.051619,3.285654,3.2663732
-30.081823,3.2865198,3.2675915
-30.112019,3.288544,3.2706623
-30.142162,3.287945,3.2696939
-30.172293,3.2901237,3.2731
-30.202343,3.2940004,3.2791996
-30.23194,3.309835,3.3039775
-30.262045,3.3052237,3.296945
-30.291967,3.30609,3.2984939
-30.322048,3.3043342,3.2960048
-30.351759,3.308053,3.3020911
-30.381392,3.311848,3.308342
-30.412004,3.3049283,3.2979507
-30.440586,3.3180447,3.3188133
-30.470379,3.3188298,3.320516
-30.500803,3.3148406,3.3148303
-30.52962,3.3227847,3.3277736
-30.55701,3.33888,3.3534465
-30.586735,3.338887,3.3541217
-30.615223,3.3459668,3.365848
-30.643257,3.3547313,3.380238
-30.672396,3.3571115,3.3847408
-30.700466,3.3644023,3.3969254
-30.727304,3.376596,3.4167738
-30.754509,3.386168,3.4325867
-30.783224,3.3888311,3.4377027
-30.809687,3.4001448,3.4563036
-31.221128,1.9769275,1.2467556
-31.248066,2.0434408,1.351768
-31.273376,2.11051,1.4576569
-31.305944,2.148731,1.5187845
-31.354296,2.1341317,1.4980011
-31.399519,2.1303444,1.4940715
-31.459776,2.0824234,1.4217939
-31.480814,2.150305,1.5291152
-31.498632,2.2229722,1.643846
-31.495672,2.3471975,1.8384128
-31.529264,2.3687694,1.8739839
-31.489456,2.5750923,2.1954923
-31.525457,2.5833547,2.210442
-31.49508,2.7500517,2.4704108
-31.503527,2.817565,2.576933
-31.534054,2.831657,2.6008983
-31.501143,2.9851577,2.8401623
-31.510908,3.0392833,2.9258919
-31.531038,3.0691502,2.9741788
-31.517908,3.1658258,3.1254816
-31.5192,3.2292578,3.2254605
-31.523937,3.2831724,3.3107338
-31.540947,3.3113632,3.3563728
-31.56016,3.3343318,3.3939843
-31.578028,3.3588898,3.4340549
-31.597712,3.3792899,3.4677453
-31.612803,3.4070096,3.512693
-31.633072,3.424849,3.5424776
-31.665651,3.421426,3.5396676
-31.71062,3.3978739,3.506061
-31.746521,3.3900132,3.496595
-31.773155,3.397254,3.5103173
-31.804312,3.3973334,3.513125
-31.82806,3.4088345,3.5334487
-31.8564,3.4131832,3.5428777
-31.888515,3.411957,3.5438428
-31.923887,3.4062104,3.537972
-31.972406,3.3821557,3.5042639
-31.998775,3.38994,3.5191646
-32.02798,3.3937078,3.5279932
-32.05223,3.404167,3.5470467
-32.085484,3.4024906,3.5476937
-32.121532,3.397365,3.54317
-32.166405,3.3812249,3.5220103
-32.20287,3.3763485,3.5180254
-32.232994,3.3796456,3.526492
-32.262672,3.3835273,3.5358953
-32.282722,3.399025,3.5629096
-32.303734,3.4130516,3.5877213
-32.332607,3.417623,3.5982924
-32.368347,3.4142976,3.5970116
-32.403324,3.4120789,3.5974722
-32.443718,3.4040155,3.589212
-32.505447,3.3728256,3.5462933
-32.53698,3.3754587,3.554308
-32.569416,3.3771958,3.5610394
-32.59394,3.387381,3.5804873
-32.62347,3.3922272,3.5919824
-32.651512,3.3986197,3.6058426
-32.700645,3.3836231,3.5878205
-32.73847,3.3804836,3.5876021
-32.770004,3.3837748,3.5970445
-32.78908,3.3992553,3.62468
-32.829987,3.3935232,3.6208153
-32.863953,3.394669,3.627253
-32.914875,3.3800755,3.610435
-32.962536,3.3690238,3.598991
-32.991634,3.3753328,3.6133285
-33.01166,3.3898125,3.639782
-33.04904,3.3886576,3.6432066
-33.091885,3.3828897,3.6399255
-33.1398,3.373024,3.6307235
-33.172604,3.3765087,3.6412425
-33.203724,3.381497,3.6540346
-33.23255,3.388445,3.6697578
-33.277645,3.3819485,3.665885
-33.334877,3.3658528,3.6481156
-33.37414,3.3648067,3.6524353
-33.397846,3.376361,3.675181
-33.435375,3.376917,3.6819868
-33.467648,3.3817244,3.695046
-33.520058,3.371079,3.6857986
-33.570957,3.361999,3.6789598
-33.604,3.3667378,3.6921978
-33.63761,3.3711226,3.7049994
-33.666283,3.379218,3.7232113
-33.706577,3.3788493,3.729329
-33.776814,3.3571167,3.704938
-33.812447,3.3606696,3.7169247
-33.836056,3.3727856,3.7412162
-33.872204,3.37609,3.7529926
-33.921806,3.3702397,3.7518382
-33.97482,3.3623762,3.7479644
-34.01765,3.361725,3.7544599
-34.04811,3.3695168,3.7730007
-34.075832,3.379135,3.7941828
-34.124664,3.3749673,3.7960174
-34.17565,3.3696876,3.7964296
-34.23421,3.3598752,3.790636
-34.261196,3.370406,3.8134685
-34.305756,3.369926,3.8209927
-34.369602,3.3577232,3.8123233
-34.420643,3.3538103,3.8153691
-34.450977,3.3627152,3.836323
-34.499374,3.360812,3.842409
-34.57039,3.345738,3.8304784
-34.614174,3.347162,3.8414712
-34.649445,3.3537054,3.8596113
-34.713303,3.3438902,3.8554602
-34.756527,3.3462234,3.8680956
-34.82586,3.3340201,3.8610718
-34.854694,3.3448522,3.8855457
-34.890705,3.3517203,3.9047194
-34.929592,3.3570962,3.921975
-35.009933,3.3401737,3.9093316
-35.06013,3.3399415,3.919368
-35.10666,3.3418822,3.9324713
-35.159237,3.340837,3.941734
-35.227043,3.332138,3.9409907
-35.282913,3.3299747,3.9491467
-35.327423,3.3338647,3.9654877
-35.362705,3.3425605,3.9882934
-35.482838,3.3090231,3.9557674
-35.501247,3.3265913,3.9905636
-35.53888,3.334662,4.0130033
-35.599144,3.3318684,4.0214415
-35.685516,3.3168797,4.014307
-35.706593,3.3333879,4.0481234
-35.765556,3.3320394,4.0590343
-35.844574,3.321657,4.0585938
-35.906216,3.3197286,4.0692368
-35.97843,3.313284,4.0743704
-36.069447,3.2987587,4.069559
-36.15268,3.2882617,4.0701876
-36.239445,3.2766852,4.069793
-36.31257,3.271582,4.0778346
-36.393265,3.2635822,4.0825605
-36.51052,3.2403498,4.0687523
-36.585983,3.2356076,4.0782356
-36.70407,3.2133436,4.066528
-36.76496,3.2156148,4.0852876
-36.902245,3.186685,4.066374
-36.99717,3.17591,4.0700235
-37.10927,3.158732,4.0663786
-37.19375,3.153253,4.077229
-37.29287,3.1424155,4.08206
-37.420475,3.1209755,4.0747757
-37.546818,3.1007915,4.0695524
-37.658955,3.0868049,4.072169
-37.780052,3.0700474,4.072071
-37.929256,3.043419,4.0611124
-38.00767,3.0440278,4.082196
-38.182148,3.0096202,4.063595
-38.33716,2.9833841,4.0551333
-38.46634,2.9673831,4.058982
-38.629353,2.940024,4.0507216
-38.791138,2.9140596,4.0448265
-38.91797,2.9012628,4.054303
-39.053085,2.8862789,4.062004
-39.245613,2.85237,4.049754
-39.402992,2.8315117,4.052623
-39.54373,2.8171105,4.0632343
-39.727066,2.789331,4.06032
-39.888367,2.7698314,4.0671253
-40.12334,2.727283,4.0506363
-40.352722,2.6879158,4.038741
-40.556427,2.6580482,4.037888
-40.782562,2.6222715,4.032129
-41.04682,2.575919,4.016946
-41.254124,2.5486374,4.022359
-41.506943,2.5086358,4.0163345
-41.741096,2.4756918,4.0186944
-41.9675,2.4463563,4.0259132
-42.33974,2.3752882,3.9943662
-42.58323,2.3439178,4.0027733
-42.877457,2.2992554,4.000149
-43.210617,2.245143,3.99054
-43.487648,2.2087274,3.9992085
-43.89817,2.1366267,3.977282
-44.241325,2.0854282,3.9766264
-44.66421,2.0144162,3.9606833
-45.01846,1.9642694,3.9656029
-12.2874775,1.0099554,2.7290802
-12.831858,1.1058655,2.766098
-13.204508,1.1561675,2.7619438
-13.656048,1.231189,2.7842622
-14.107231,1.3086982,2.8116598
-14.375198,1.3350213,2.790205
-14.77712,1.4025481,2.8120432
-15.094242,1.4469414,2.8124228
-15.394962,1.4881368,2.8112292
-15.760722,1.5509784,2.8342628
-16.043278,1.5901432,2.834343
-16.33054,1.6323743,2.83918
-16.883606,1.7148848,2.851245
-17.0737,1.7305133,2.8315172
-17.084457,1.688416,2.7493892
-17.039362,1.6275797,2.6465
-17.097168,1.6005173,2.580885
-16.182713,1.2448056,2.1467738
-16.207745,1.2031949,2.0625472
-16.245808,1.1658909,1.9832411
-17.009586,1.3334446,2.1040077
-16.968987,1.270328,1.9968042
-17.160404,1.2900665,1.9859867
-17.20047,1.2557881,1.912612
-17.16803,1.194767,1.8077455
-17.183363,1.1508436,1.7229195
-17.148445,1.0877736,1.6151862
-17.136938,1.032891,1.5170064
-17.127174,0.97816277,1.4188447
-28.447023,3.1658218,3.0900292
-28.466866,3.1419263,3.0502043
-28.531746,3.1943467,3.1291695
-28.569147,3.20107,3.137123
-28.621696,3.2353063,3.188017
-28.66409,3.2526462,3.2126822
-28.696064,3.2514594,3.2085314
-28.734829,3.2633379,3.2248244
-28.770638,3.2701373,3.2332606
-28.801582,3.2676728,3.2272863
-28.833572,3.267374,3.2247458
-28.866533,3.2692487,3.225657
-28.900152,3.2727818,3.2292175
-28.9339,3.2769325,3.2338018
-28.966377,3.2785594,3.2344913
-28.999018,3.2807999,3.2361946
-29.031582,3.2831292,3.2380915
-29.06343,3.283972,3.2377105
-29.096893,3.289108,3.2441158
-29.128208,3.2890728,3.242463
-29.15989,3.290175,3.2426448
-29.191904,3.2924168,3.2446675
-29.223665,3.294217,3.246048
-29.254301,3.2929323,3.242632
-29.285805,3.2943714,3.243544
-29.31709,3.295365,3.2438064
-29.348335,3.2964418,3.2442484
-29.380457,3.3007822,3.2498746
-29.410257,3.2972517,3.2431664
-29.441532,3.299106,3.244978
-29.473156,3.3026361,3.2494798
-29.504038,3.3035936,3.249978
-29.534515,3.3030362,3.248139
-29.565226,3.303622,3.248148
-29.596132,3.3053532,3.250009
-29.62688,3.3066323,3.2512054
-29.656998,3.3047936,3.2475348
-29.687607,3.305699,3.2482357
-29.718447,3.3082838,3.2516327
-29.749298,3.3114836,3.2560468
-29.779396,3.3099585,3.253056
-29.80918,3.3058403,3.246019
-29.839796,3.3082092,3.2492628
-29.870295,3.3101227,3.2518349
-29.900492,3.309443,3.2503614
-29.93048,3.306167,3.2448354
-29.960724,3.3056417,3.2436967
-29.991009,3.3057292,3.2435703
-30.021755,3.3155234,3.2588139
-30.051718,3.3104174,3.2505822
-30.081919,3.3102038,3.2501183
-30.112137,3.3111374,3.2515125
-30.142326,3.310009,3.2496958
-30.172535,3.3094928,3.2488933
-30.202715,3.311195,3.251637
-30.233286,3.2990637,3.2325873
-30.263273,3.3073413,3.2458038
-30.292784,3.321044,3.2676296
-30.322683,3.3241239,3.2727299
-30.352802,3.3235369,3.2720885
-30.382608,3.3267694,3.2775207
-30.412716,3.3263366,3.277213
-30.442484,3.329188,3.2821336
-30.47278,3.3273075,3.2796326
-30.502338,3.3313794,3.286569
-30.531736,3.33606,3.2945104
-30.561283,3.339214,3.3000875
-30.590498,3.344043,3.3083496
-30.619707,3.3484123,3.3159308
-30.6473,3.3608482,3.3362718
-30.676668,3.3632295,3.340804
-30.704172,3.3742034,3.3589196
-30.732395,3.3809857,3.370472
-30.759218,3.393155,3.3905492
-30.7867,3.4016662,3.404903
-30.813173,3.4134297,3.424417
-30.843996,3.4082725,3.4173346
-31.236988,2.1219492,1.394402
-31.267159,2.1703725,1.4722695
-31.305803,2.1875954,1.5010977
-31.352642,2.1779222,1.4876938
-31.395203,2.1821256,1.4961762
-31.450283,2.1494632,1.4468031
-31.478626,2.1950788,1.5204763
-31.485058,2.2981968,1.6844487
-31.5054,2.358043,1.7804608
-31.48836,2.5110276,2.022592
-31.49745,2.5896916,2.1480517
-31.522682,2.6247127,2.205061
-31.491325,2.7919607,2.4692874
-31.513992,2.8258467,2.5244665
-31.51492,2.9068637,2.65345
-31.501123,3.016024,2.8264241
-31.513086,3.0649693,2.9051085
-31.529245,3.1029372,2.9666138
-31.512459,3.206015,3.129869
-31.520182,3.2558575,3.2098665
-31.528961,3.301501,3.2832856
-31.547169,3.3273942,3.3258653
-31.564543,3.3538206,3.369286
-31.580492,3.381812,3.4151535
-31.600512,3.4015422,3.4481554
-31.620115,3.4213,3.4812174
-31.647198,3.4276903,3.493496
-31.675714,3.4315746,3.5019178
-31.726864,3.3985567,3.4530354
-31.760172,3.3954675,3.4507537
-31.789331,3.399131,3.459011
-31.814455,3.4090023,3.476945
-31.83871,3.419949,3.4965796
-31.868258,3.4227974,3.5037017
-31.90686,3.4125051,3.4905324
-31.9539,3.390666,3.45958
-31.984137,3.393312,3.46658
-32.011784,3.3995795,3.4792218
-32.038956,3.4064198,3.4927912
-32.068657,3.4097998,3.5010653
-32.101,3.409739,3.504088
-32.147392,3.391708,3.4795003
-32.18712,3.3828561,3.4691381
-32.218678,3.38463,3.475192
-32.24699,3.3904815,3.487564
-32.271507,3.4008842,3.5069647
-32.300007,3.4063725,3.5188646
-32.326313,3.414412,3.5347185
-32.36232,3.4111414,3.5333042
-32.395844,3.4109435,3.5366588
-32.437748,3.401493,3.5259452
-32.494568,3.3759804,3.4908128
-32.524563,3.3805723,3.5017157
-32.5545,3.3852448,3.5127926
-32.5807,3.3938985,3.5299788
-32.611412,3.3977494,3.539905
-32.647266,3.3963487,3.541914
-32.694633,3.3834443,3.5265489
-32.729805,3.3832612,3.5305681
-32.76357,3.3846312,3.5370073
-32.783066,3.4000282,3.564714
-32.817207,3.401084,3.5707865
-32.85942,3.3945987,3.565558
-32.908943,3.3815904,3.5505981
-32.949043,3.3777905,3.5496125
-32.982536,3.3802829,3.5581698
-33.0066,3.3913772,3.579702
-33.041576,3.3926308,3.5865202
-33.083527,3.387886,3.5844316
-33.133175,3.3767285,3.5728555
-33.171696,3.3755598,3.576314
-33.19381,3.3884819,3.600862
-33.21903,3.3986607,3.621354
-33.256386,3.3987184,3.62684
-33.321457,3.3762965,3.5990415
-33.35632,3.3789663,3.6086135
-33.393475,3.3799095,3.615704
-33.416763,3.3919349,3.639254
-33.457966,3.389893,3.6420817
-33.502213,3.3857238,3.641871
-33.553738,3.376283,3.634018
-33.597137,3.3733463,3.6358504
-33.623154,3.3835888,3.6571107
-33.667263,3.3804636,3.6588497
-33.710888,3.3779397,3.6615777
-33.76266,3.3697915,3.65621
-33.793495,3.3768964,3.6731915
-33.830513,3.3796756,3.6839485
-33.862476,3.3860917,3.7000675
-33.910286,3.3816502,3.700529
-33.979427,3.3629835,3.6805544
-34.01607,3.3667736,3.6931877
-34.05465,3.369382,3.704204
-34.08341,3.3785884,3.7247968
-34.13975,3.369825,3.7196727
-34.193024,3.3634212,3.7180867
-34.225758,3.3704357,3.7358189
-34.259754,3.3766992,3.7525535
-34.295044,3.3822222,3.768312
-34.35758,3.3710124,3.7604065
-34.42247,3.358797,3.751268
-34.443455,3.3735695,3.780459
-34.510098,3.3609395,3.77105
-34.553978,3.3622432,3.7814465
-34.604237,3.359994,3.7869763
-34.64965,3.3608055,3.7969368
-34.69654,3.3609648,3.8061118
-34.747803,3.3588557,3.8122616
-34.803497,3.3545122,3.8154588
-34.85283,3.3540125,3.824152
-34.902966,3.3532968,3.832692
-34.94879,3.355165,3.8449428
-35.01824,3.344485,3.840078
-35.057583,3.3503075,3.8580632
-35.113277,3.3476052,3.8645036
-35.146614,3.3568695,3.8874285
-35.25367,3.3280473,3.858682
-35.276554,3.343136,3.8898199
-35.331177,3.3420699,3.8991773
-35.382072,3.343136,3.91158
-35.454548,3.3337035,3.9100518
-35.498688,3.338632,3.9279912
-35.55756,3.3365397,3.9366999
-35.635277,3.3256612,3.9339278
-35.684265,3.3289485,3.9502013
-35.735626,3.3313053,3.9654024
-35.782265,3.3360775,3.9839487
-35.882156,3.31638,3.9705708
-35.90982,3.3304126,4.001627
-35.934067,3.3459752,4.034739
-36.060444,3.3156698,4.0084534
-36.109768,3.3204646,4.0279956
-36.18184,3.3154385,4.0350738
-36.236115,3.3185346,4.052825
-36.310898,3.3130121,4.0597734
-36.38175,3.309564,4.0696425
-36.461826,3.3025758,4.075304
-36.57116,3.2837918,4.066431
-36.66259,3.2730892,4.06814
-36.765175,3.2583375,4.0651703
-36.841232,3.2549424,4.076731
-36.946934,3.2400317,4.0743637
-37.085144,3.2128263,4.0573206
-37.155136,3.213316,4.0747824
-37.2806,3.1925347,4.0666227
-37.3569,3.191447,4.0828724
-37.531178,3.1533663,4.054865
-37.57267,3.1665154,4.089051
-37.747147,3.1300778,4.064291
-37.877243,3.1111488,4.0610943
-37.974678,3.1049242,4.0734596
-38.172737,3.0627658,4.044182
-38.277863,3.0551577,4.056069
-38.396385,3.0433462,4.063574
-38.551342,3.0193884,4.0576735
-38.708565,2.9955463,4.0526543
-38.85563,2.9761038,4.0533905
-39.003098,2.9573507,4.0556207
-39.162575,2.935383,4.054981
-39.301903,2.9210231,4.0635834
-39.466682,2.89903,4.064466
-39.655323,2.8701873,4.0586967
-39.874325,2.8326397,4.0444613
-40.075912,2.8019261,4.038735
-40.294426,2.7670236,4.0296044
-40.49083,2.7402794,4.0302773
-40.71694,2.705458,4.02353
-40.914413,2.6806726,4.0284495
-41.13987,2.6485205,4.026858
-41.361305,2.6188302,4.0290284
-41.628456,2.5768638,4.0200343
-41.845505,2.5510497,4.0287166
-42.1538,2.5000558,4.0137095
-42.43139,2.4595935,4.010815
-42.72734,2.415494,4.0060267
-43.027756,2.3718026,4.003385
-43.383102,2.314618,3.989779
-43.66817,2.278617,3.9981341
-44.10309,2.2037454,3.9723554
-44.454506,2.1536107,3.971828
-44.873623,2.087574,3.9592128
-45.12752,2.0669084,3.9894638
-12.024551,1.1570129,2.82718
-12.197847,1.1466913,2.7614703
-12.646921,1.2120485,2.7710767
-12.835638,1.208375,2.7146654
-14.30637,1.5619867,3.0182586
-14.666604,1.6124189,3.0225868
-14.684207,1.5674069,2.9310112
-14.716336,1.5263808,2.843564
-14.937081,1.5401309,2.8134966
-15.254956,1.5835962,2.8159604
-15.608677,1.6395142,2.8333855
-15.829625,1.6575165,2.811936
-16.188843,1.7187533,2.8384867
-16.47046,1.7582245,2.8431234
-16.7159,1.7880392,2.8385568
-17.0123,1.8352427,2.8545413
-17.085747,1.8132913,2.79461
-17.08568,1.7679067,2.7085457
-17.099777,1.7268014,2.6272464
-17.067078,1.670099,2.5280771
-16.198471,1.3353486,2.108305
-16.218134,1.2920887,2.0220313
-16.239346,1.2491231,1.9360976
-16.988703,1.4074037,2.0529943
-16.99909,1.3625646,1.9666076
-16.992664,1.3114758,1.8726902
-16.999273,1.2646143,1.7837243
-17.171875,1.2773857,1.7668805
-17.121326,1.209593,1.6526933
-17.153114,1.1713884,1.5743723
-17.186342,1.1335533,1.4965525
-17.139511,1.0653987,1.3812795
-17.134855,1.0125036,1.284648
-17.07145,0.93653846,1.1590605
-28.436016,3.1749392,3.0423326
-28.474812,3.1822958,3.051361
-28.519121,3.1994655,3.0759506
-28.56625,3.2224033,3.1097355
-28.617453,3.2536914,3.1568112
-28.655153,3.262095,3.16781
-28.695127,3.2752328,3.1863637
-28.734499,3.2879817,3.2043772
-28.774347,3.3023984,3.2251034
-28.799013,3.2875638,3.1995597
-28.83263,3.2903235,3.201932
-28.866158,3.293178,3.2045102
-28.898863,3.2945738,3.2048278
-28.931509,3.2960591,3.2053404
-28.964556,3.298671,3.207693
-28.997068,3.300336,3.2085943
-29.029516,3.3020895,3.2096891
-29.061901,3.3039315,3.2109747
-29.094633,3.306903,3.2141075
-29.126068,3.3068364,3.2124581
-29.158068,3.3084188,3.213482
-29.190197,3.3106096,3.2155242
-29.222073,3.3123643,3.2169213
-29.25371,3.3136818,3.2176714
-29.285126,3.3145597,3.2177687
-29.316998,3.3170931,3.2205544
-29.348953,3.3202372,3.2243614
-29.380358,3.3218923,3.2258434
-29.410385,3.3189025,3.2199636
-29.441029,3.3180923,3.2176046
-29.472754,3.32157,3.222136
-29.504255,3.3246064,3.2260113
-29.534935,3.3245661,3.225021
-29.565952,3.3261864,3.226729
-29.596918,3.3278885,3.2286134
-29.62752,3.3280885,3.2281446
-29.657806,3.326785,3.2253184
-29.688393,3.3271434,3.2251925
-29.717659,3.3196561,3.2125697
-29.749744,3.3296835,3.2279925
-29.779802,3.3271077,3.22331
-29.810324,3.327782,3.2238693
-29.840944,3.3295937,3.2262926
-29.87129,3.3293674,3.2255006
-29.901585,3.32869,3.2240324
-29.931757,3.3265023,3.2201915
-29.962202,3.3275692,3.221602
-29.992426,3.3255363,3.2180972
-30.022924,3.328349,3.2223907
-30.053295,3.3296514,3.2243109
-30.083593,3.3294415,3.223856
-30.113914,3.3308995,3.2261147
-30.144197,3.3303156,3.22515
-30.174519,3.3266304,3.219266
-30.204872,3.3256726,3.217791
-30.235247,3.3247929,3.2164845
-30.266079,3.313925,3.1992412
-30.296291,3.31903,3.2076015
-30.3266,3.3210337,3.2110434
-30.356987,3.321527,3.2121124
-30.38595,3.3379815,3.2387614
-30.41758,3.3243349,3.2172976
-30.448042,3.3240032,3.2171803
-30.477861,3.32904,3.2256942
-30.506355,3.3431427,3.2487483
-30.535154,3.3530838,3.2651873
-30.56482,3.356226,3.2707963
-30.594063,3.3615565,3.2799459
-30.623383,3.3659039,3.2875667
-30.652815,3.3692698,3.2936606
-30.680563,3.380621,3.3125558
-30.708744,3.3888767,3.3265424
-30.736748,3.3971996,3.3406763
-30.764193,3.40717,3.3574796
-30.793535,3.4087863,3.3609838
-30.822302,3.4125812,3.3680077
-30.852867,3.409617,3.3642893
-30.883217,3.407785,3.3624234
-30.910965,3.4149544,3.3749585
-31.30807,2.227772,1.4834032
-31.34852,2.238138,1.5016656
-31.390152,2.2444131,1.5134659
-31.444098,2.2147055,1.4680123
-31.47138,2.2619798,1.5452342
-31.484352,2.3453033,1.6798549
-31.521399,2.36026,1.7056632
-31.489153,2.551409,2.0117807
-31.511377,2.5965407,2.0855613
-31.493938,2.734756,2.307301
-31.492233,2.8286312,2.4584813
-31.524641,2.8399086,2.4784188
-31.490898,2.9973986,2.730514
-31.501047,3.0521314,2.8193936
-31.524954,3.0752916,2.8581748
-31.50335,3.190915,3.0435696
-31.512592,3.2392993,3.1222959
-31.523922,3.2814677,3.191156
-31.538086,3.316413,3.2485676
-31.554506,3.345701,3.2970238
-31.575907,3.3647363,3.3292685
-31.591455,3.3935366,3.3769684
-31.612522,3.4115994,3.4077053
-31.630222,3.4348016,3.446577
-31.662024,3.4335434,3.446859
-31.708445,3.4084451,3.4095926
-31.741262,3.4063876,3.408743
-31.770304,3.4105144,3.4176903
-31.799284,3.4147153,3.4267988
-31.82221,3.4280958,3.4503937
-31.850622,3.4329352,3.4605856
-31.88206,3.4333096,3.4638042
-31.92542,3.4166632,3.4403496
-31.965284,3.4056916,3.425891
-31.997478,3.405882,3.4290104
-32.020897,3.4181728,3.4511456
-32.05116,3.42102,3.4585228
-32.087444,3.4159722,3.453596
-32.128876,3.4045691,3.4388027
-32.169823,3.394299,3.4258633
-32.20669,3.389616,3.4217277
-32.236897,3.393455,3.4309545
-32.269493,3.394414,3.4357414
-32.279873,3.4220572,3.4821362
-32.31221,3.4231448,3.4872031
-32.344143,3.4248161,3.4932332
-32.385937,3.415326,3.4819856
-32.41757,3.4176924,3.4892225
-32.469406,3.3977475,3.4619274
-32.506165,3.3950002,3.4613867
-32.54033,3.395276,3.4655962
-32.569065,3.4014559,3.4789944
-32.59679,3.4086742,3.4940429
-32.631397,3.4087439,3.4981055
-32.678314,3.3964398,3.4831643
-32.71983,3.3900485,3.4774318
-32.750923,3.3943024,3.4881592
-32.777096,3.403404,3.5063882
-32.79917,3.4163666,3.530581
-32.841442,3.4099474,3.5250888
-32.896996,3.3913903,3.5011034
-32.939278,3.385766,3.497033
-32.969913,3.3910913,3.5097837
-32.990616,3.405402,3.5362973
-33.027317,3.4052641,3.540813
-33.070957,3.3991876,3.536364
-33.11639,3.3918695,3.5301256
-33.1561,3.3898058,3.53197
-33.181202,3.4003372,3.5529985
-33.21438,3.4040208,3.563694
-33.251415,3.404591,3.569745
-33.304176,3.3924732,3.5567112
-33.347656,3.3883052,3.555798
-33.382164,3.3915596,3.5661645
-33.403435,3.4053378,3.5924277
-33.441284,3.4060588,3.5991068
-33.50316,3.388452,3.578384
-33.561348,3.374231,3.5628972
-33.593143,3.380352,3.5779743
-33.61408,3.3945823,3.6052165
-33.654713,3.3941984,3.610703
-33.70943,3.3837776,3.6013494
-33.763206,3.3744478,3.5937586
-33.79126,3.3837693,3.6139698
-33.826035,3.388349,3.6272097
-33.861404,3.3926,3.640037
-33.94169,3.366121,3.6076016
-33.984985,3.3655155,3.6135106
-34.00781,3.3788557,3.640027
-34.037533,3.387517,3.659709
-34.085377,3.3842826,3.662024
-34.13729,3.378666,3.6609802
-34.21384,3.3575435,3.6374497
-34.21774,3.3832393,3.6823301
-34.257324,3.3861506,3.694059
-34.298935,3.387937,3.7042508
-34.37451,3.3689911,3.684538
-34.409576,3.3753097,3.701548
-34.4432,3.3825655,3.7199874
-34.498188,3.3771443,3.7202697
-34.57355,3.3600335,3.7039318
-34.621326,3.3595858,3.7116885
-34.646633,3.3723326,3.7384224
-34.68876,3.3754172,3.7514305
-34.78225,3.349619,3.7234793
-34.82469,3.3531299,3.7374105
-34.849815,3.3663764,3.7652287
-34.903046,3.3641737,3.771286
-34.977562,3.3506975,3.7616258
-35.027477,3.3509278,3.7714534
-35.050148,3.365849,3.8019996
-35.105247,3.3636522,3.808671
-35.15897,3.3624463,3.8168893
-35.2383,3.3483143,3.807312
-35.284817,3.3514323,3.8218958
-35.3321,3.3543375,3.8363197
-35.43808,3.328124,3.8107777
-35.45199,3.3481824,3.8491526
-35.517147,3.3430166,3.8529985
-35.589447,3.3347473,3.8528223
-35.658886,3.3282712,3.855331
-35.685562,3.3424623,3.8860998
-35.75442,3.3368223,3.8901203
-35.81795,3.3340337,3.8982167
-35.882404,3.3311396,3.9063854
-35.951767,3.3263345,3.9122162
-36.020508,3.3221786,3.9191537
-36.090214,3.31795,3.9262347
-36.11329,3.3346744,3.9612923
-36.191208,3.327366,3.964705
-36.29539,3.309126,3.954044
-36.325645,3.3232021,3.986068
-36.394268,3.3210163,3.9969769
-36.503395,3.3021748,3.9865165
-36.531876,3.3175044,4.0206566
-36.60251,3.3154964,4.0325527
-36.681595,3.3103924,4.040743
-36.724854,3.3201292,4.0681734
-36.834408,3.303552,4.0623217
-36.908073,3.3017871,4.075647
-37.045376,3.2755308,4.0584393
-37.167953,3.2558298,4.050027
-37.245754,3.2539902,4.064394
-37.3545,3.2408144,4.0650153
-37.450676,3.2329621,4.0726633
-37.567776,3.2178636,4.071824
-37.708603,3.1947289,4.0616846
-37.79783,3.1911697,4.0759335
-37.94732,3.1664019,4.064962
-38.050137,3.159121,4.075656
-38.209293,3.132554,4.063793
-38.359337,3.1101089,4.0575557
-38.522217,3.0841126,4.0478315
-38.617462,3.0821233,4.066989
-38.799862,3.0512059,4.052915
-38.982002,3.0214572,4.041074
-39.112022,3.0099783,4.05109
-39.248596,2.9970512,4.0600734
-39.42411,2.9722757,4.0563073
-39.607346,2.946031,4.051763
-39.78117,2.9238038,4.052618
-39.95182,2.9035366,4.0565186
-40.179237,2.8666549,4.0430546
-40.419197,2.8272517,4.0280333
-40.603256,2.8061476,4.0340314
-40.831703,2.7727687,4.0278606
-41.06904,2.738051,4.0214944
-41.307938,2.7042155,4.017343
-41.517014,2.680346,4.0248694
-41.741337,2.6532502,4.0302134
-42.00974,2.614917,4.0253363
-42.393135,2.5459433,3.9910374
-42.589542,2.530859,4.012797
-42.934673,2.4761734,3.9965377
-43.254524,2.4302635,3.9908795
-43.571396,2.3869271,3.9896002
-43.967915,2.3243377,3.97185
-44.22516,2.3002687,3.992785
-44.6979,2.2220669,3.9649572
-44.98848,2.1928763,3.9850187
-10.654488,1.0991404,2.7819996
-11.095146,1.150665,2.7720456
-11.640327,1.2313299,2.7932844
-11.926744,1.2480376,2.7541094
-14.429903,1.6982996,3.0111985
-14.66747,1.7133434,2.9818397
-14.723025,1.6790133,2.9014082
-14.711571,1.6258926,2.8010855
-15.06897,1.6773257,2.8134956
-15.567995,1.7715394,2.8743935
-15.739441,1.7733839,2.8364077
-16.331177,1.853648,2.848496
-16.60805,1.8905706,2.8531504
-16.872341,1.9252262,2.8566022
-17.06434,1.9391155,2.8375936
-17.093384,1.9032848,2.7621903
-17.094135,1.8584383,2.6763792
-17.040798,1.796067,2.5699944
-15.2887335,1.1864691,1.8192081
-15.316574,1.1431069,1.7303324
-16.207687,1.383414,1.9797473
-17.024086,1.604876,2.210867
-17.041704,1.5634675,2.128512
-17.03791,1.5145576,2.0370326
-17.0094,1.4567709,1.9345899
-16.979206,1.3978183,1.8304768
-17.109825,1.3946586,1.7950649
-13.932367,0.21956229,0.30399704
-17.166904,1.3169827,1.6366458
-17.185524,1.2742856,1.5526385
-17.169487,1.2186453,1.45228
-17.180124,1.1723311,1.3635731
-17.149586,1.1102927,1.254767
-17.101337,1.0408988,1.1362967
-17.095894,0.9870138,1.037458
-17.029577,0.9091666,0.9075146
-28.434769,3.2105067,3.0328703
-28.469234,3.2106757,3.0306664
-28.492208,3.1917577,2.9979315
-28.523264,3.186022,2.986352
-28.59497,3.2512505,3.0886517
-28.633917,3.2609859,3.1020474
-28.670103,3.26627,3.1083632
-28.705862,3.271151,3.1140919
-28.742008,3.2771547,3.1216822
-28.777985,3.2832644,3.1295013
-28.810991,3.283862,3.1285133
-28.844448,3.285573,3.1293664
-28.878325,3.2883992,3.1320672
-28.912342,3.2918327,3.1357985
-28.946253,3.295361,3.1397357
-28.979832,3.2984712,3.1430511
-29.011995,3.2985883,3.141592
-29.044132,3.2987921,3.1403203
-29.076653,3.3001118,3.1408968
-29.10932,3.302036,3.142498
-29.14153,3.303015,3.142622
-29.17369,3.304081,3.142933
-29.206905,3.3083363,3.1484466
-29.238407,3.3080232,3.146626
-29.269892,3.3077927,3.1449842
-29.302025,3.3097198,3.1468768
-29.333775,3.310695,3.1472764
-29.36579,3.312792,3.1495395
-29.398178,3.3165348,3.1545124
-29.430464,3.320364,3.1596742
-29.461021,3.318034,3.1549077
-29.491747,3.3163025,3.1511536
-29.523235,3.317778,3.152639
-29.555027,3.3209012,3.156839
-29.586618,3.3235857,3.160376
-29.616879,3.3200893,3.1539364
-29.6477,3.3192806,3.1518989
-29.679176,3.3222106,3.1559653
-29.710575,3.3252225,3.1602116
-29.739553,3.313149,3.1400309
-29.770891,3.3157961,3.1437721
-29.80209,3.3180022,3.146841
-29.833914,3.3260489,3.1594334
-29.86481,3.3273711,3.1611576
-29.894766,3.319343,3.14775
-29.925564,3.3192508,3.147264
-29.956358,3.3192377,3.1469498
-29.98673,3.3124886,3.135744
-30.017801,3.316828,3.142581
-30.048864,3.3238685,3.1538477
-30.079693,3.3283677,3.1610322
-30.109964,3.302005,3.1181545
-30.140982,3.3218703,3.150373
-30.171738,3.3187401,3.1452994
-30.202724,3.307823,3.1276274
-30.23368,3.305901,3.1246014
-30.264112,3.317166,3.1430292
-30.295122,3.313305,3.1369424
-30.325209,3.3247254,3.1557055
-30.356512,3.317354,3.1440077
-30.38747,3.3158278,3.1418414
-30.417032,3.3285263,3.1628046
-30.44654,3.3392017,3.1805243
-30.478228,3.3305798,3.1669712
-30.507547,3.340883,3.1841688
-30.53935,3.3329468,3.1718183
-30.570341,3.3313718,3.1698313
-30.600927,3.3324914,3.1722593
-30.62872,3.3488417,3.1994271
-30.657772,3.3569005,3.2131858
-30.687078,3.362942,3.2237144
-30.715801,3.3711429,3.237783
-30.743864,3.3814993,3.2553816
-30.772078,3.390359,3.2705922
-30.79957,3.4013689,3.2893233
-30.825716,3.4166067,3.3149347
-30.853395,3.4251413,3.3297272
-30.884647,3.4207509,3.323635
-31.250114,2.305762,1.5204864
-31.311817,2.2469006,1.4268522
-31.342104,2.289342,1.4971662
-31.3845,2.2929783,1.5047636
-31.43044,2.2863722,1.4958677
-31.536331,2.1139195,1.2190661
-31.493073,2.3536103,1.6082358
-31.522373,2.389628,1.668335
-31.490044,2.5793211,1.9765186
-31.527933,2.5859056,1.9890804
-31.50003,2.7489822,2.2541218
-31.505236,2.8265016,2.3810701
-31.535343,2.8438914,2.4110613
-31.500546,3.0028563,2.669187
-31.509815,3.0596325,2.7625837
-31.533772,3.0831187,2.8023672
-31.50263,3.2174988,3.0206113
-31.524027,3.2414238,3.061061
-31.529629,3.2949302,3.1490831
-31.547485,3.3229406,3.196105
-31.568304,3.344356,3.2325416
-31.585567,3.3713825,3.2780013
-31.600807,3.4009523,3.3275476
-31.627098,3.4102843,3.3446398
-31.655594,3.4156332,3.3553805
-31.698902,3.3963363,3.3266792
-31.735245,3.3892748,3.3176517
-31.76768,3.3888605,3.3193235
-31.796299,3.394562,3.3308287
-31.825804,3.398831,3.340084
-31.853912,3.4051764,3.3527007
-31.88767,3.4030998,3.3519106
-31.922201,3.400124,3.349743
-31.962088,3.3897848,3.3358936
-31.991573,3.3944793,3.3460727
-32.022076,3.3977625,3.3540473
-32.055107,3.3976614,3.3566837
-32.089676,3.395679,3.3563848
-32.125843,3.3918269,3.3531733
-32.17251,3.3748,3.3291087
-32.20986,3.370215,3.3248787
-32.24064,3.374076,3.3341079
-32.270973,3.3785083,3.3442898
-32.291492,3.394733,3.3731828
-32.32075,3.4002736,3.3851962
-32.353683,3.4015167,3.3904624
-32.387905,3.4013999,3.3936367
-32.426033,3.397031,3.3901615
-32.479496,3.3758926,3.360324
-32.52074,3.3689177,3.3529124
-32.549282,3.3760087,3.367715
-32.574112,3.3870034,3.388698
-32.606945,3.3894467,3.3962808
-32.64623,3.385308,3.3935895
-32.686592,3.3803449,3.3896842
-32.71862,3.384055,3.3994408
-32.75873,3.3798087,3.3968043
-32.788853,3.3856063,3.4099455
-32.82573,3.3848934,3.4129696
-32.86662,3.38054,3.4103847
-32.91215,3.3721082,3.4015284
-32.946335,3.3745751,3.4097323
-32.97696,3.3804014,3.4232225
-33.01008,3.3839893,3.4332867
-33.047844,3.3835063,3.4370937
-33.094078,3.3757572,3.4297175
-33.13948,3.3690917,3.42412
-33.1669,3.3781881,3.442986
-33.196335,3.3855205,3.4591699
-33.23548,3.3847198,3.46286
-33.269753,3.3881388,3.4731288
-33.32844,3.3717158,3.4529428
-33.361217,3.3767576,3.4658737
-33.406384,3.371985,3.463808
-33.424335,3.3889205,3.495101
-33.46154,3.3906596,3.5031562
-33.527203,3.3706625,3.4780784
-33.57757,3.3629322,3.4718843
-33.60103,3.3757641,3.497136
-33.637356,3.3789306,3.5077138
-33.673077,3.3826497,3.519205
-33.737816,3.3654375,3.4990215
-33.788364,3.3589685,3.495278
-33.804104,3.3774958,3.529451
-33.851704,3.373479,3.5295959
-33.883236,3.380868,3.5470438
-33.94799,3.3655317,3.5303578
-33.990986,3.3654656,3.5367827
-34.017464,3.3766541,3.560185
-34.06433,3.374288,3.5633378
-34.100315,3.3792973,3.5776253
-34.1656,3.365418,3.5638118
-34.209595,3.3656802,3.5712357
-34.22787,3.3824315,3.603272
-34.29977,3.3654156,3.5852275
-34.33928,3.369053,3.5979705
-34.410484,3.3533783,3.582262
-34.43457,3.3668344,3.609725
-34.484413,3.3647547,3.614355
-34.528873,3.366126,3.6241827
-34.609375,3.3465075,3.603352
-34.62211,3.3669112,3.6413078
-34.689854,3.3554628,3.6327648
-34.721954,3.3647575,3.6546307
-34.788696,3.354571,3.648254
-34.845745,3.350224,3.650538
-34.8965,3.349661,3.6584568
-34.931458,3.357955,3.679296
-35.006992,3.3444,3.668756
-35.049294,3.3491127,3.6846862
-35.080555,3.3597968,3.7092795
-35.157467,3.346611,3.6998258
-35.2028,3.3502855,3.7146468
-35.260834,3.3476176,3.7205725
-35.333267,3.337945,3.7167368
-35.35693,3.3531942,3.7483716
-35.463806,3.327043,3.7216606
-35.47904,3.3467321,3.7597795
-35.56139,3.3336124,3.7518983
-35.61945,3.3327165,3.7613792
-35.681477,3.3302042,3.768785
-35.728863,3.3349137,3.7864213
-35.78952,3.3335924,3.795837
-35.877785,3.3198109,3.7882338
-35.913536,3.330595,3.814757
-35.97849,3.3282146,3.8233056
-36.077824,3.3107555,3.811441
-36.119186,3.319637,3.8358397
-36.16287,3.3276045,3.859111
-36.228268,3.3262596,3.8699038
-36.307564,3.3192563,3.8732846
-36.36917,3.3202157,3.8876452
-36.448833,3.313846,3.8924
-36.51557,3.3132954,3.905201
-36.5824,3.3130198,3.9185975
-36.670025,3.3045685,3.9214084
-36.732956,3.3065777,3.9383307
-36.78759,3.3121805,3.960189
-36.922638,3.28616,3.940902
-36.94472,3.3052454,3.9808545
-36.990158,3.3152125,4.0090337
-37.12957,3.289257,3.9910288
-37.175983,3.2994764,4.0200405
-37.243633,3.3018484,4.039178
-37.345596,3.291759,4.0427217
-37.43838,3.2856085,4.0516634
-37.53913,3.2770417,4.057937
-37.651382,3.264872,4.0601115
-37.80132,3.2398975,4.0468044
-37.917805,3.2276192,4.0498857
-38.042473,3.2131264,4.0507364
-38.163986,3.2004204,4.054318
-38.29903,3.183763,4.053617
-38.44418,3.1644506,4.0503016
-38.589767,3.1458178,4.0484595
-38.733997,3.1284556,4.0488005
-38.856342,3.1190577,4.05927
-39.037064,3.0914183,4.048753
-39.21029,3.0672245,4.0431356
-39.34716,3.055526,4.0529003
-39.52761,3.030911,4.04837
-39.68506,3.0144372,4.054065
-39.86737,2.991208,4.052824
-40.085636,2.9581087,4.0413213
-40.28997,2.9304323,4.0370083
-40.482063,2.9075294,4.0390453
-40.71679,2.8732018,4.0294495
-40.9338,2.8453329,4.0281444
-41.159653,2.8161385,4.026537
-41.39992,2.784118,4.0230865
-41.62877,2.7566292,4.0257483
-41.886906,2.7222967,4.0224257
-42.183815,2.678804,4.0109506
-42.455406,2.643816,4.00992
-42.748184,2.6046696,4.006156
-43.022934,2.571897,4.0104985
-43.39867,2.5143044,3.9915886
-43.68982,2.480604,3.9984884
-44.114403,2.4145353,3.975481
-44.40979,2.383318,3.9886231
-44.93464,2.2967222,3.9508119
-10.816732,1.2464557,2.769588
-11.195055,1.280828,2.746211
-11.652782,1.3370852,2.7471695
-14.339527,1.81233,3.0411448
-14.608913,1.8339458,3.019753
-14.698402,1.8085651,2.9489503
-14.723303,1.765872,2.8596478
-14.827483,1.7448874,2.7942977
-15.260511,1.8159597,2.8317294
-13.031206,1.1385865,2.0323334
-13.103483,1.1030354,1.9465489
-16.220455,1.9464626,2.8628573
-16.429276,1.9611349,2.8432703
-16.703321,1.9961643,2.8482418
-17.057495,2.056669,2.8842444
-17.092299,2.0227952,2.8110723
-17.01913,1.9558742,2.6988826
-17.062443,1.9241264,2.6281447
-17.094524,1.8888571,2.5533066
-16.180817,1.554738,2.1176872
-16.208698,1.5146122,2.0347672
-16.980114,1.7144315,2.2452846
-17.023724,1.6346767,2.0837827
-17.034088,1.5906894,1.9979296
-16.980598,1.476548,1.7931471
-17.09205,1.4662588,1.7496271
-13.921268,0.3128109,0.25224304
-17.17182,1.3966177,1.6010804
-17.167057,1.3457692,1.5063329
-17.173473,1.2985041,1.4160919
-17.169477,1.2470963,1.320404
-17.168041,1.1961799,1.2252378
-17.148674,1.1381686,1.1206717
-17.117538,1.0751529,1.0093322
-17.141663,1.0324099,0.92454624
-17.074532,0.95442295,0.7929859
-28.467556,3.234888,3.0100555
-28.510777,3.2496014,3.031623
-28.582453,3.2558799,3.0373492
-28.625086,3.2714763,3.0605593
-28.66259,3.278661,3.0701542
-28.699623,3.2854543,3.0791717
-28.734863,3.2893312,3.0834985
-28.770504,3.294319,3.0896902
-28.80345,3.2943532,3.08786
-28.838104,3.2980206,3.0920048
-28.872643,3.3017857,3.0963607
-28.90659,3.3046334,3.0992718
-28.941597,3.3101156,3.106535
-28.974648,3.3116283,3.107368
-29.008074,3.3142498,3.1100602
-29.040985,3.3159435,3.1112843
-29.07404,3.3182368,3.1135378
-29.106411,3.3190882,3.1134796
-29.139324,3.3215604,3.1161194
-29.172155,3.3241215,3.1189532
-29.204905,3.3267725,3.1219811
-29.236681,3.326947,3.1210003
-29.268776,3.328233,3.1218843
-29.300985,3.3301175,3.1237955
-29.33329,3.3326027,3.1267362
-29.36429,3.3310583,3.123115
-29.39575,3.3311381,3.1222014
-29.426342,3.3282092,3.116394
-29.457663,3.3279357,3.114986
-29.490005,3.3318722,3.1205297
-29.52027,3.3276346,3.112701
-29.55144,3.3270893,3.1109743
-29.582605,3.3266244,3.1094232
-29.616497,3.3396873,3.1301317
-29.647203,3.3378386,3.1263947
-29.678219,3.3376212,3.12538
-29.709055,3.3364487,3.1228375
-29.739744,3.334319,3.1187634
-29.769133,3.3229375,3.099525
-29.800833,3.3271835,3.1060123
-29.8328,3.3346255,3.1177964
-29.86357,3.3328123,3.114409
-29.894474,3.3321157,3.1128993
-29.925434,3.332018,3.1124148
-29.95635,3.3314805,3.11125
-29.987339,3.3320613,3.1119642
-30.018387,3.33428,3.1154156
-30.049318,3.3350203,3.116477
-30.080162,3.3332427,3.1134386
-30.111015,3.3294666,3.1071548
-30.141964,3.329406,3.1070237
-30.172901,3.3309839,3.1096287
-30.203938,3.3258874,3.1012979
-30.234911,3.3265853,3.1025395
-30.265938,3.3258045,3.1013904
-30.29736,3.3183517,3.0893111
-30.32819,3.3224058,3.0961967
-30.358555,3.33121,3.1109352
-30.389664,3.3297095,3.1087694
-30.420864,3.3277707,3.105925
-30.451048,3.3352506,3.1186075
-30.481388,3.3402126,3.1271906
-30.51298,3.3354013,3.1197495
-30.54166,3.3508842,3.1457052
-30.574259,3.3400156,3.1283946
-30.603706,3.3489127,3.1436062
-30.632284,3.3615043,3.1649246
-30.661596,3.3689911,3.1778932
-30.691175,3.3744814,3.187622
-30.720068,3.3826292,3.2017517
-30.74818,3.3934295,3.2202744
-30.776556,3.4022315,3.2355514
-30.80474,3.4111013,3.2509756
-30.838121,3.3999357,3.2335658
-30.85836,3.4367702,3.2949357
-30.894287,3.41701,3.2635145
-31.260105,2.3136556,1.4556694
-31.302847,2.3165634,1.4619741
-31.322813,2.3889034,1.5821056
-31.33257,2.4863741,1.7434006
-31.37254,2.4915156,1.7534609
-31.45584,2.3774316,1.5683827
-31.503746,2.3649802,1.5498166
-31.486328,2.5218565,1.8083677
-31.50164,2.5876384,1.9178162
-31.526379,2.6268692,1.983839
-31.495314,2.7955496,2.2614555
-31.525879,2.8138149,2.2931714
-31.503813,2.9485664,2.515173
-31.502506,3.0313091,2.6521497
-31.524734,3.060189,2.7011685
-31.507229,3.1696398,2.88164
-31.515146,3.2227519,2.9701443
-31.518251,3.2828927,3.0700817
-31.537905,3.308652,3.1139674
-31.558067,3.3324156,3.154613
-31.57743,3.356706,3.1961288
-31.595419,3.382524,3.2401404
-31.617428,3.400327,3.2711258
-31.637299,3.421172,3.3070745
-31.669258,3.4210296,3.3089423
-31.707039,3.4114852,3.2955909
-31.747866,3.3975713,3.2752128
-31.776093,3.4042053,3.288237
-31.805489,3.408919,3.2981858
-31.838741,3.4077525,3.2986484
-31.867723,3.4131215,3.3097444
-31.904076,3.407683,3.303392
-31.94197,3.4003806,3.2940865
-31.978321,3.395661,3.28902
-32.012325,3.3944955,3.2897563
-32.03518,3.4086475,3.3152742
-32.067303,3.4101002,3.3203268
-32.104286,3.4052842,3.3153238
-32.155056,3.3830116,3.2822618
-32.191,3.3804088,3.2809696
-32.230175,3.3740256,3.2736564
-32.258858,3.3808649,3.2876701
-32.281807,3.3945522,3.3127227
-32.308556,3.4034498,3.3301105
-32.333496,3.414337,3.3507242
-32.369095,3.4127715,3.3514094
-32.414093,3.4007583,3.335425
-32.464134,3.3836348,3.3113518
-32.51027,3.37147,3.29531
-32.54134,3.376144,3.3062596
-32.567005,3.386606,3.3264961
-32.594284,3.3952262,3.3438263
-32.63237,3.3925571,3.3432074
-32.668255,3.3923686,3.3466043
-32.714474,3.3819327,3.3337688
-32.75862,3.3740077,3.3250155
-32.782936,3.3858998,3.3478093
-32.8109,3.394105,3.3647833
-32.841175,3.4000492,3.3782153
-32.894077,3.3847063,3.3580017
-32.93192,3.383921,3.3609223
-32.981934,3.3721678,3.3465896
-32.992027,3.396988,3.39007
-33.026833,3.3992763,3.3980227
-33.073605,3.3911345,3.3896165
-33.124294,3.3799627,3.3765435
-33.16151,3.380814,3.3824692
-33.191273,3.3881364,3.3986177
-33.22147,3.3950844,3.4142256
-33.259758,3.3953452,3.4194145
-33.31407,3.3826861,3.4044766
-33.3515,3.3841295,3.411686
-33.402985,3.3745189,3.4017258
-33.415707,3.3958337,3.4400535
-33.455986,3.3953838,3.4445171
-33.524555,3.373384,3.4155817
-33.56929,3.3701859,3.4159904
-33.608307,3.3715386,3.4235458
-33.633186,3.3835292,3.44764
-33.679302,3.3798594,3.4475694
-33.74118,3.3650436,3.4304042
-33.788322,3.3613079,3.4304633
-33.81488,3.3724227,3.4534736
-33.84249,3.382738,3.4752955
-33.87304,3.3909783,3.493977
-33.944687,3.3711143,3.4696732
-34.00049,3.3626075,3.462923
-34.033737,3.3695726,3.479929
-34.06307,3.379168,3.5010042
-34.100628,3.383373,3.5139284
-34.171204,3.366333,3.49466
-34.222656,3.3621006,3.4950013
-34.248657,3.3742652,3.5202894
-34.28505,3.379869,3.5357022
-34.334717,3.3773427,3.538927
-34.381836,3.376641,3.5450196
-34.444572,3.3667088,3.537354
-34.491974,3.3663864,3.54427
-34.51689,3.3796072,3.5715756
-34.594604,3.361817,3.5525842
-34.636757,3.3652418,3.5654478
-34.6838,3.3660111,3.574459
-34.7295,3.3677464,3.5850196
-34.817593,3.3458672,3.560697
-34.845882,3.3578982,3.586783
-34.904,3.3535113,3.5886927
-34.930676,3.3665462,3.6164107
-35.01208,3.350086,3.6008463
-35.058308,3.3529398,3.6138325
-35.09359,3.3617373,3.6356268
-35.14274,3.3633604,3.6470332
-35.218544,3.3514345,3.6388512
-35.284286,3.3451397,3.639073
-35.342026,3.3432655,3.6458874
-35.398388,3.3423681,3.6542754
-35.46241,3.3379512,3.657753
-35.528893,3.3326774,3.6601872
-35.54902,3.3502345,3.6955338
-35.64173,3.3328745,3.6810107
-35.69635,3.334217,3.6934385
-35.741734,3.340135,3.7125258
-35.795647,3.342235,3.7263246
-35.887936,3.3269062,3.71566
-35.931114,3.334529,3.7376266
-35.99081,3.334829,3.7494287
-36.09819,3.3141367,3.73203
-36.14153,3.3224218,3.7554321
-36.196796,3.325613,3.7718701
-36.287476,3.3137202,3.767568
-36.325172,3.3250346,3.7956347
-36.376522,3.3306327,3.8159308
-36.515045,3.2998915,3.7865353
-36.544617,3.3152652,3.820684
-36.619175,3.3121734,3.8297536
-36.703785,3.3053744,3.8340483
-36.750507,3.314259,3.8598394
-36.814617,3.3163671,3.8766472
-36.943924,3.2930963,3.8596418
-36.963097,3.313529,3.9014962
-37.064453,3.3021994,3.9011343
-37.14162,3.3006682,3.9141316
-37.224,3.297545,3.925309
-37.31249,3.292553,3.934337
-37.387493,3.2929988,3.950805
-37.473732,3.2896876,3.962662
-37.574753,3.2814608,3.968484
-37.60607,3.2987201,4.007537
-37.76281,3.2715816,3.9897604
-37.8045,3.285696,4.0252576
-37.90185,3.2806053,4.03652
-38.000267,3.275649,4.0483456
-38.12785,3.261303,4.048787
-38.273415,3.2416348,4.0431275
-38.435356,3.2173696,4.032396
-38.567688,3.2037668,4.035537
-38.673683,3.1994417,4.0506344
-38.842293,3.1755395,4.042323
-39.02486,3.1481757,4.0305843
-39.1425,3.142263,4.0455027
-39.307144,3.1223493,4.0442066
-39.44696,3.110979,4.0538197
-39.659485,3.0782657,4.038912
-39.833656,3.0583,4.0399504
-40.054688,3.0253787,4.0267687
-40.238976,3.0045123,4.028574
-40.448425,2.977355,4.024081
-40.65568,2.9519958,4.0226727
-40.8791,2.9232006,4.018436
-41.12246,2.8900566,4.0104814
-41.320267,2.870903,4.0192637
-41.5296,2.8496518,4.026762
-41.786728,2.8165882,4.022516
-42.07986,2.775316,4.0108094
-42.40641,2.7268517,3.9930253
-42.633816,2.706126,4.006285
-42.948765,2.6640131,3.998465
-43.28138,2.6191406,3.9895563
-43.631733,2.5716434,3.9798527
-43.99801,2.5221243,3.9701157
-44.26121,2.4999497,3.9897523
-44.733086,2.428525,3.9624362
-45.046806,2.3976345,3.9773154
-10.831913,1.4202399,2.840704
-10.928291,1.3846309,2.7475095
-13.777811,1.8626509,3.0443764
-14.09042,1.8909807,3.0294719
-14.411761,1.9232266,3.0204787
-14.68394,1.9444227,3.000937
-14.704447,1.9008045,2.910491
-14.722819,1.8564596,2.8192425
-15.217777,1.940445,2.8736944
-12.395088,1.122051,1.8973732
-13.059813,1.2479534,1.9965491
-16.040062,2.0247476,2.8566294
-16.331799,2.060832,2.8629217
-16.582508,2.0868177,2.858664
-16.880026,2.1277182,2.8733354
-17.070234,2.1389117,2.8537674
-17.102272,2.1042705,2.7796917
-17.056126,2.04614,2.6771202
-17.061447,2.0029774,2.5925627
-16.159946,1.6817958,2.1653986
-16.1845,1.6408961,2.0813627
-16.217716,1.6025388,2.0005183
-16.971802,1.792408,2.206151
-17.009882,1.6638026,1.9518099
-17.009537,1.6160972,1.860753
-17.046816,1.5806203,1.7853808
-13.851923,0.45123196,0.29129696
-17.112495,1.5063386,1.6305132
-17.151388,1.4710879,1.5556316
-17.164835,1.4268432,1.4689851
-17.167768,1.3785903,1.3769994
-17.161171,1.3265514,1.2799001
-17.15458,1.2740524,1.1820621
-17.157398,1.2245169,1.088069
-17.155926,1.1729932,0.9913125
-17.141756,1.1162853,0.88744307
-17.12939,1.059699,0.7835779
-17.091923,0.99299645,0.66577435
-28.370893,3.16642,2.8373656
-28.459475,3.2513053,2.9747376
-28.5092,3.2761953,3.0134888
-28.543503,3.2764792,3.0117836
-28.582983,3.2857916,3.025013
-28.613678,3.2803142,3.0139098
-28.650593,3.2858648,3.0210443
-28.684614,3.2865384,3.020184
-28.72072,3.2912986,3.0261226
-28.75642,3.295664,3.0314603
-28.793001,3.3021333,3.040331
-28.826162,3.3021946,3.0386581
-28.86318,3.3103743,3.0504622
-28.8995,3.3176582,3.0608397
-28.928448,3.3094547,3.045632
-28.960714,3.3083706,3.0422487
-29.002195,3.328546,3.0741315
-29.038902,3.3387594,3.089571
-29.071606,3.339986,3.090168
-29.095388,3.3190463,3.05405
-29.13196,3.3300464,3.070938
-29.16218,3.3249364,3.0611472
-29.192314,3.3193944,3.0506787
-29.22522,3.3215432,3.0530167
-29.260798,3.3319113,3.0690503
-29.292795,3.3322096,3.0684075
-29.325247,3.334119,3.0704846
-29.363005,3.353946,3.102384
-29.388622,3.3336093,3.067574
-29.42022,3.3332233,3.0659637
-29.456547,3.350789,3.0942502
-29.483646,3.3337195,3.0649776
-29.516928,3.340738,3.075811
-29.549675,3.3463128,3.0842876
-29.579609,3.3396916,3.0725102
-29.609999,3.3346815,3.0634522
-29.641386,3.3343582,3.0622358
-29.672396,3.332066,3.0577817
-29.704926,3.3385718,3.0680184
-29.737696,3.347729,3.082716
-29.767769,3.3400369,3.0693913
-29.799458,3.3432024,3.074191
-29.830061,3.3382323,3.0654783
-29.861338,3.338478,3.065495
-29.892803,3.3408597,3.0691113
-29.924028,3.3412666,3.0694785
-29.955162,3.340726,3.0683055
-29.986174,3.338208,3.0638785
-30.017187,3.3347414,3.057909
-30.048439,3.3354692,3.058971
-30.079727,3.3383348,3.0636368
-30.110912,3.3392231,3.0650473
-30.142067,3.3381338,3.063201
-30.173275,3.3340375,3.0563836
-30.20422,3.3475127,3.0788946
-30.23543,3.3430626,3.0715666
-30.266813,3.33715,3.061842
-30.298079,3.3359475,3.060008
-30.3299,3.3271127,3.0454946
-30.359512,3.3486927,3.0817108
-30.391727,3.3364213,3.061552
-30.42408,3.3257785,3.0441484
-30.45307,3.3465576,3.079144
-30.484518,3.3442945,3.075786
-30.515955,3.3426275,3.0734606
-30.547283,3.342068,3.073021
-30.57788,3.3462071,3.0804477
-30.60803,3.352474,3.0914574
-30.638615,3.3557408,3.0975084
-30.668522,3.3621593,3.1088452
-30.698072,3.3696744,3.122046
-30.727114,3.3787978,3.1379585
-30.755352,3.390548,3.158278
-30.783579,3.4013424,3.1770406
-30.811165,3.4137356,3.1984954
-30.848011,3.3909743,3.1615229
-30.870695,3.420349,3.211287
-31.236715,2.283162,1.3220038
-31.267931,2.3262424,1.3950377
-31.319904,2.3011837,1.3548894
-31.307512,2.4725351,1.6410542
-31.379498,2.3861575,1.4991574
-31.424152,2.3827734,1.4951725
-31.431084,2.4824438,1.6622796
-31.491085,2.4361446,1.5871663
-31.491323,2.545413,1.770185
-31.514141,2.592389,1.8498611
-31.493406,2.741392,2.098658
-31.498161,2.8225822,2.2349806
-31.53036,2.83718,2.2609591
-31.493807,3.0028472,2.5371203
-31.507683,3.0515914,2.6195989
