x,y,z
-29.87635,3.2366874,2.7652917
-29.909624,3.23804,2.767311
-29.94259,3.2359548,2.763474
-29.975924,3.238989,2.7684546
-30.00915,3.2416055,2.772757
-30.04221,3.2417905,2.7729287
-30.075262,3.2420595,2.7732835
-30.108282,3.240902,2.7712317
-30.141329,3.23983,2.7693634
-30.174362,3.2428727,2.7745905
-30.20746,3.2394516,2.7687721
-30.240509,3.2401452,2.7700472
-30.27354,3.240924,2.7715068
-30.306702,3.2392697,2.7688346
-30.3398,3.2392116,2.768937
-30.372862,3.2397416,2.7700863
-30.405962,3.2398536,2.770557
-30.439226,3.2385411,2.7686253
-30.472229,3.2398298,2.7711916
-30.505209,3.2412035,2.7739406
-30.538235,3.2421584,2.7760115
-30.57179,3.2396812,2.7722397
-30.604746,3.2413096,2.7755423
-30.63803,3.241015,2.7755876
-30.671333,3.2408056,2.7758198
-30.704142,3.2431915,2.7805352
-30.736689,3.2466629,2.7871485
-30.771338,3.2406979,2.7776408
-30.804941,3.2398336,2.7769098
-30.837822,3.2420595,2.781507
-30.871859,3.2398684,2.7785845
-30.905409,3.239767,2.7792783
-30.938545,3.2412515,2.7827253
-30.972116,3.241325,2.7837973
-31.005863,3.2409868,2.7842078
-31.038496,3.2442253,2.790771
-31.072424,3.2435641,2.790709
-31.106388,3.2429929,2.7908416
-31.140207,3.2430093,2.792019
-31.173304,3.2451,2.7967796
-31.207142,3.2452922,2.798339
-31.242594,3.2416112,2.7933278
-31.278978,3.236049,2.7851515
-31.315313,3.2310839,2.77804
-31.352879,3.2237515,2.7669396
-31.391317,3.2150483,2.753552
-31.428852,3.208921,2.744608
-31.475712,3.1837122,2.7031999
-44.390827,0.9297719,0.33771276
-44.367756,0.9927919,0.4542489
-44.395164,1.0377197,0.54526424
-44.44687,1.0740974,0.6243658
-44.335346,1.1656692,0.78019047
-44.355026,1.2120681,0.8730264
-44.369614,1.2598834,0.9677887
-44.388683,1.3059297,1.0600877
-44.376316,1.3618872,1.1658797
-44.427273,1.3970985,1.2433662
-44.388542,1.4606686,1.3592672
-44.384163,1.5128365,1.4595842
-44.32206,1.6322839,1.6799612
-44.373104,1.6663265,1.755827
-44.29275,1.7396419,1.883492
-44.327145,1.7781651,1.9651899
-44.430405,1.7964814,2.0206642
-44.50002,1.8248794,2.0895457
-44.59193,1.8470635,2.1506658
-45.728333,1.6785121,2.039692
-45.76918,1.7185986,2.126607
-44.456497,2.1222966,2.6656394
-44.470627,2.164979,2.7526984
-44.31044,2.2531755,2.8954964
-44.37933,2.280736,2.9637036
-44.45249,2.3073738,3.031055
-44.471336,2.3479333,3.1153402
-44.552982,2.3726807,3.1808753
-44.56328,2.415263,3.267717
-44.63569,2.442546,3.3366942
-44.777206,2.4534342,3.3870287
-44.941227,2.4596148,3.4326386
-45.148624,2.45641,3.4684072
-45.427986,2.4376087,3.4877195
-45.633003,2.4372094,3.5288858
-45.683525,2.4725578,3.6103234
-45.754444,2.5034466,3.687119
-45.84493,2.530245,3.7598429
-45.92837,2.5588741,3.8349361
-46.081184,2.572998,3.895256
-46.219475,2.59085,3.9602323
-46.411255,2.5982175,4.015267
-47.621223,2.3985732,3.8636055
-47.63559,2.4464138,3.9639049
-47.630936,2.4978867,4.0677404
-47.715294,2.5317097,4.154553
-48.30572,2.4683006,4.150247
-49.023026,2.383969,4.1302743
-49.658264,2.3188457,4.132304
-50.437225,2.230638,4.1178613
-51.164036,2.1560607,4.1204085
-52.06523,2.0542154,4.104495
-52.864548,1.9750876,4.1136227
-53.794785,1.8775506,4.113218
-3.4913177,1.6198003,3.8494468
-3.262123,1.5080669,3.6643043
-3.282465,1.4368722,3.512724
-3.6411095,1.4235013,3.4125004
-3.698141,1.3593221,3.2684288
-3.7852764,1.3005097,3.1295767
-3.8101616,1.2307091,2.9808035
-3.835102,1.1607661,2.831936
-3.850422,1.0888815,2.681212
-3.8745308,1.0184343,2.5318923
-3.945036,0.95668197,2.3913717
-3.8911762,0.8708813,2.2265182
-3.945387,0.8057282,2.0826888
-3.916998,0.72404766,1.9216342
-3.9387302,0.652025,1.7706108
-3.947178,0.57704735,1.6163888
-3.962473,0.5031929,1.4633183
-3.8901844,0.4105339,1.2893705
-3.5975647,0.26979923,1.061028
-5.339239,0.5694845,1.3300347
-4.116213,0.22538447,0.8708215
-8.664614,0.83500123,1.227839
-8.597017,0.7518215,1.0740147
-9.4152355,0.8849516,1.1861873
-9.746233,0.9018979,1.1579027
-10.063679,0.9171567,1.1289511
-10.473131,0.95748043,1.1329541
-10.968336,1.022151,1.1696391
-10.669228,0.882313,0.94709015
-11.137684,0.9429841,0.9810934
-11.143913,0.8826711,0.8603778
-11.764151,0.9882736,0.9558625
-11.795225,0.9360938,0.8470049
-11.969759,0.92352533,0.7904482
-13.2471485,1.2213559,1.1465611
-13.2911415,1.1769526,1.0511432
-13.784525,1.2616687,1.1291499
-13.388283,1.0905519,0.86381197
-13.285515,1.0027146,0.70973015
-13.4165,0.9833789,0.6485548
-14.175346,1.1537197,0.84782314
-14.508817,1.1993093,0.87821865
-14.526099,1.1493547,0.77760935
-14.483315,1.0803819,0.6505251
-15.773647,1.4312768,1.1097107
-14.784239,1.0635965,0.56557274
-15.420609,1.2130294,0.74625015
-16.419167,1.4849246,1.102602
-16.420311,1.4345229,1.0046592
-16.083447,1.2708867,0.745059
-16.365673,1.3133147,0.779294
-16.457088,1.2923117,0.72327423
-17.524914,1.5600297,1.06073
-17.506691,1.5045781,0.95697355
-17.549473,1.4703381,0.88401747
-17.27689,1.3222227,0.64437866
-17.310177,1.2830832,0.56379604
-17.458584,1.2862163,0.5455613
-17.302021,1.1763816,0.3606844
-17.305134,1.1249928,0.26188517
-24.39632,3.000469,2.7275457
-24.471035,3.0069396,2.7293835
-24.55045,3.0163257,2.736043
-24.619648,3.0207698,2.734983
-24.692131,3.0273705,2.7375288
-24.769913,3.0372915,2.7455635
-24.843197,3.0452375,2.750599
-24.91549,3.0530899,2.7556453
-24.985434,3.0600727,2.7594476
-25.057138,3.0684874,2.7657127
-25.128534,3.0771832,2.7725883
-25.188894,3.0799203,2.7699666
-25.261059,3.0899312,2.779265
-25.310406,3.0868514,2.7674537
-25.369564,3.0898652,2.7656455
-25.429846,3.0938907,2.765602
-25.493162,3.100131,2.7692924
-25.549158,3.1022093,2.7663126
-25.60564,3.1048908,2.7644258
-25.660688,3.1069698,2.76166
-25.714327,3.1084352,2.7579923
-25.77282,3.1133428,2.7600765
-25.826143,3.115199,2.7572565
-25.879326,3.117243,2.7548423
-25.936014,3.1219423,2.7569022
-25.990078,3.1251943,2.756681
-26.046364,3.1302962,2.7596135
-26.093517,3.1293607,2.752666
-26.14767,3.1335924,2.754353
-26.19871,3.13592,2.752983
-26.25018,3.138845,2.7526932
-26.302061,3.1423693,2.7534895
-26.35149,3.1443806,2.751861
-26.401346,3.146985,2.7513041
-26.447693,3.1472006,2.7468524
-26.49783,3.1505635,2.7477255
-26.5445,3.151522,2.7446704
-26.591063,3.1526344,2.7419481
-26.636974,3.153468,2.7388358
-26.68866,3.1592185,2.7440305
-26.732716,3.1590617,2.7394123
-26.777742,3.1599169,2.7365618
-26.826817,3.1644177,2.7399025
-26.869541,3.1638188,2.7347531
-26.914742,3.1655538,2.7335944
-26.96133,3.1687589,2.734982
-27.005775,3.1703463,2.7337189
-27.048628,3.1707444,2.730517
-27.092857,3.1726117,2.7298598
-27.13841,3.1759598,2.7317715
-27.181906,3.1776648,2.7309766
-27.22576,3.1799564,2.731238
-27.268553,3.1814864,2.7302775
-27.31216,3.184053,2.7311368
-27.352453,3.1835904,2.7269244
-27.393137,3.1837022,2.7237444
-27.434637,3.1848466,2.7223754
-27.475605,3.1856623,2.7205071
-27.517786,3.1879733,2.721239
-27.558563,3.1890402,2.7199163
-27.598406,3.189312,2.7172966
-27.640676,3.192464,2.7196398
-27.68281,3.1957474,2.7222662
-27.721966,3.1959243,2.7196546
-27.761055,3.1962156,2.7172918
-27.802444,3.1994088,2.7199368
-27.840977,3.1994703,2.7172894
-27.881363,3.201976,2.718872
-27.921633,3.2046027,2.720717
-27.959183,3.2040715,2.7172122
-27.99852,3.2059941,2.717958
-28.036674,3.2066224,2.7165384
-28.074053,3.206417,2.7137413
-28.113127,3.2086792,2.7152228
-28.150036,3.2082176,2.7120833
-28.18792,3.2092814,2.711609
-28.226057,3.2109282,2.7121844
-28.265081,3.2141118,2.7154503
-28.302383,3.2150278,2.7148695
-28.338985,3.215095,2.7128758
-28.374926,3.2143083,2.7094588
-28.412352,3.216014,2.7103763
-28.44969,3.2178252,2.711523
-28.487522,3.2207038,2.7145548
-28.52211,3.2183988,2.708702
-28.558664,3.2195582,2.7088633
-28.596241,3.222749,2.7125726
-28.631563,3.222181,2.709844
-28.667383,3.222677,2.708994
-28.703663,3.2242396,2.7100296
-28.739616,3.2254179,2.7104435
-28.775993,3.2276661,2.7127519
-28.811092,3.2275832,2.7110744
-28.847084,3.2295427,2.7129698
-28.882317,3.2301383,2.7125502
-28.917282,3.2303407,2.711492
-28.951998,3.2301488,2.7097921
-28.988348,3.2339628,2.715067
-29.022356,3.23249,2.7112317
-29.056957,3.232577,2.7101374
-29.091717,3.2332468,2.710092
-29.126617,3.2345006,2.7110996
-29.161459,3.2358482,2.7123094
-29.195898,3.2363038,2.7120142
-29.230469,3.2373435,2.712771
-29.264828,3.237982,2.712872
-29.298841,3.237724,2.7114563
-29.333134,3.238543,2.711948
-29.368235,3.2424173,2.717782
-29.402405,3.243419,2.7186704
-29.43705,3.24649,2.7231894
-29.470612,3.245691,2.7210302
-29.505468,3.2504306,2.7285247
-29.539188,3.2508001,2.7284713
-29.57267,3.2502654,2.7268844
-29.606647,3.2522998,2.7297964
-29.640188,3.2524362,2.7294507
-29.674408,3.2566345,2.7362008
-29.707943,3.2574432,2.7370982
-29.740997,3.2553556,2.7329993
-29.774712,3.2578294,2.7368665
-29.808416,3.260889,2.7417884
-29.841074,3.2555735,2.7321892
-29.874256,3.2543244,2.7296944
-29.90733,3.251666,2.7247868
-29.940882,3.2545724,2.729591
-29.974388,3.2580636,2.7354488
-30.007805,3.261642,2.7414966
-30.040947,3.260821,2.7399297
-30.073969,3.2551005,2.7298794
-30.107204,3.2544491,2.7286816
-30.140465,3.257373,2.7337375
-30.173698,3.2553973,2.730309
-30.206852,3.259488,2.7374682
-30.240005,3.2606745,2.7396116
-30.273247,3.259453,2.737605
-30.306519,3.258317,2.7357845
-30.339716,3.2587624,2.7367496
-30.372784,3.2607868,2.740497
-30.405994,3.2609036,2.740965
-30.439262,3.2606087,2.7407527
-30.472603,3.2599013,2.739861
-30.505901,3.2597778,2.7400208
-30.53871,3.2632222,2.7464194
-30.572376,3.2607834,2.742629
-30.60586,3.259923,2.741619
-30.638836,3.2621305,2.7459779
-30.67244,3.2609465,2.7444806
-30.706291,3.2588577,2.7414484
-30.739773,3.258842,2.7420568
-30.772697,3.2613914,2.7471561
-30.806177,3.2615485,2.7481375
-30.839287,3.2632768,2.7518854
-30.873432,3.261133,2.7489486
-30.906954,3.261551,2.7504964
-30.940485,3.2620566,2.7522345
-30.97402,3.2626493,2.7541618
-31.008345,3.260863,2.7519999
-31.040945,3.26459,2.759439
-31.07533,3.2629821,2.7576642
-31.108904,3.263927,2.7603536
-31.142296,3.26545,2.7640843
-31.177544,3.2621496,2.7594953
-31.213087,3.2584548,2.7542653
-31.248152,3.2563283,2.7517934
-31.28268,3.255766,2.752071
-31.320408,3.2479599,2.7398524
-31.357706,3.2417285,2.7304063
-31.39563,3.2346282,2.7195034
-31.434444,3.226175,2.7063103
-31.484512,3.1949587,2.6538148
-44.3703,1.0275004,0.30077648
-44.362576,1.0847065,0.40983438
-44.383965,1.1315169,0.50384045
-44.441704,1.165843,0.57997704
-44.366314,1.2971947,0.82155895
-44.365265,1.3499279,0.9237008
-44.41582,1.385678,1.0018549
-44.3781,1.4494252,1.1193209
-44.395634,1.4951687,1.2114415
-44.38683,1.54883,1.3145256
-44.40106,1.5949872,1.4071155
-44.37989,1.6516128,1.514061
-44.352432,1.7096169,1.6227107
-44.367825,1.7543843,1.7131419
-44.295506,1.8245952,1.8379912
-44.32273,1.8651662,1.9225335
-44.42152,1.8851268,1.9795027
-44.447716,1.9259455,2.0645819
-44.520477,1.953619,2.1322827
-45.717197,1.7741745,1.9956298
-45.75804,1.8142321,2.0824823
-45.7983,1.8543942,2.16956
-44.50866,2.2396817,2.6964726
-44.319862,2.3341932,2.8494081
-44.378624,2.3645546,2.9207983
-44.417465,2.400003,2.9987273
-44.46045,2.434414,3.0754743
-44.372314,2.500788,3.1915755
-44.428032,2.5317545,3.2640653
-44.641705,2.5253146,3.2916007
-44.764526,2.541244,3.3468876
-44.91072,2.55228,3.396912
-45.106842,2.5525758,3.4349885
-45.33428,2.5467758,3.466906
-45.560993,2.5422761,3.5014286
-45.68353,2.5617428,3.5643864
-45.74784,2.5943,3.6426764
-45.843132,2.6204073,3.7140417
-45.941895,2.6461253,3.785418
-46.044144,2.6714823,3.8568687
-46.180534,2.690245,3.9217186
-46.31479,2.710022,3.9883432
-46.50165,2.7199218,4.0453176
-47.61355,2.5497117,3.9173489
-47.633945,2.596113,4.0162444
-47.655586,2.6421797,4.1148405
-48.253975,2.5802846,4.1070633
-48.816593,2.5281777,4.1123786
-49.429554,2.4699216,4.1152716
-50.116318,2.4017403,4.112688
-50.83821,2.3310378,4.112124
-51.71217,2.237869,4.0960073
-52.634354,2.1411588,4.0824776
-53.389023,2.0773902,4.103366
-54.489735,1.960628,4.084864
-3.4841118,1.7586224,3.7763495
-3.0788803,1.6199739,3.5652304
-3.6331043,1.5618372,3.3392763
-3.7890835,1.4404235,3.0584106
-3.814972,1.3708625,2.909793
-3.838972,1.3008261,2.7607455
-3.8533497,1.228899,2.6097994
-3.8842602,1.1597786,2.4617376
-3.884325,1.084796,2.30757
-4.123602,1.0546436,2.2011523
-4.006178,0.9572048,2.0231228
-3.9210129,0.8650353,1.8501129
-3.9446926,0.79352355,1.6994672
-3.9895363,0.72604704,1.5533667
-3.9579544,0.64295006,1.3896146
-4.033537,0.5814066,1.2503719
-3.6281834,0.4193573,0.9945221
-7.830435,0.96317744,1.3371382
-8.242758,0.98881555,1.3150434
-8.32579,0.94079256,1.2033129
-8.737318,0.9695766,1.1880398
-9.038689,0.97449636,1.1444502
-9.164412,0.93884635,1.0505371
-9.366846,0.9222317,0.9814787
-9.599037,0.9138334,0.9238281
-9.916296,0.92771053,0.8960571
-11.121414,1.1671572,1.1647539
-11.140545,1.1110239,1.0492544
-11.1394005,1.0494018,0.9264574
-11.130983,0.9854901,0.80049944
-11.772543,1.0934868,0.9051199
-11.799067,1.0402055,0.79460144
-13.1971855,1.303009,1.0779028
-13.047892,1.2046323,0.90825176
-13.950529,1.401309,1.1450806
-13.180655,1.1267264,0.73173046
-13.183323,1.069474,0.618207
-13.212826,1.0196748,0.5150399
-14.515064,1.3458028,0.9410448
-14.471123,1.2780704,0.81501293
-14.5177555,1.2370386,0.72664833
-15.648532,1.5277698,1.1117473
-15.629539,1.4701383,1.0018067
-15.056299,1.183692,0.5341034
-16.5676,1.6129937,1.1291504
-16.602089,1.5742104,1.0478649
-16.123528,1.3670604,0.72045517
-16.410902,1.4099488,0.75818634
-16.464424,1.3761444,0.6838913
-17.62722,1.6706457,1.0727587
-17.51182,1.5822642,0.91937256
-17.442951,1.5088983,0.7879319
-17.293716,1.4060636,0.6120181
-17.529255,1.4396248,0.64053774
-17.468681,1.3672304,0.5100026
-17.318695,1.2611141,0.32817507
-17.299358,1.2017617,0.21670675
-24.381561,3.0332448,2.6929045
-24.4614,3.0419636,2.6989946
-24.543034,3.0521114,2.7075825
-24.602432,3.051095,2.6981716
-24.673649,3.0566313,2.699565
-24.752975,3.0669394,2.7089
-24.834015,3.0786953,2.7207751
-24.898829,3.0820866,2.7191186
-24.976433,3.0929391,2.7298346
-25.046871,3.100288,2.7349572
-25.114317,3.1063786,2.7381525
-25.183516,3.113884,2.7438145
-25.249092,3.1197248,2.7468681
-25.303175,3.1192133,2.7395515
-25.3611,3.1212342,2.7365255
-25.41821,3.1230736,2.7333064
-25.477106,3.1263008,2.7324953
-25.538387,3.1313238,2.734778
-25.59689,3.1349885,2.7349148
-25.650763,3.1360786,2.7308712
-25.70639,3.138559,2.7292418
-25.767466,3.1448534,2.7340794
-25.818382,3.1449232,2.7286253
-25.877794,3.1508355,2.7330356
-25.926601,3.1500587,2.726346
-25.978954,3.1518931,2.7241168
-26.030561,3.1535015,2.7215972
-26.080841,3.154466,2.718083
-26.128641,3.1539524,2.7121644
-26.186884,3.1610506,2.7191453
-26.239061,3.1642058,2.7195797
-26.289917,3.1667082,2.7189999
-26.341759,3.170223,2.720214
-26.382124,3.1655192,2.7076116
-26.43315,3.168942,2.7088265
-26.479559,3.1691585,2.7046905
-26.524776,3.1686778,2.6994443
-26.576452,3.1734505,2.7031865
-26.627922,3.1784027,2.707316
-26.671173,3.177106,2.7009006
-26.718601,3.1793833,2.700633
-26.765364,3.1813867,2.6999712
-26.808365,3.1805167,2.6944804
-26.860546,3.187589,2.7026072
-26.905867,3.1891866,2.7014656
-26.950563,3.1904936,2.6998959
-26.993656,3.190631,2.6963892
-27.037159,3.191342,2.6939273
-27.082514,3.1939511,2.694779
-27.12484,3.1940577,2.6914062
-27.171848,3.1987224,2.6959143
-27.217257,3.2022107,2.6984715
-27.259245,3.202729,2.695992
-27.30115,3.2033772,2.6937938
-27.342056,3.2032592,2.6903348
-27.383793,3.204162,2.6886883
-27.42455,3.2042937,2.6857696
-27.464794,3.2040966,2.6823392
-27.507572,3.2067323,2.6838493
-27.549366,3.2085948,2.684084
-27.58978,3.2092228,2.6822424
-27.631365,3.211338,2.6830244
-27.67242,3.2131236,2.6832924
-27.711748,3.213204,2.680664
-27.75341,3.2161508,2.6830473
-27.795725,3.2201438,2.6873012
-27.834387,3.2201235,2.6846538
-27.874903,3.2225225,2.6862516
-27.911907,3.2208812,2.6808915
-27.95335,3.2249043,2.685411
-27.990982,3.2244108,2.6821375
-28.02749,3.2226279,2.6766706
-28.066465,3.2242103,2.6770973
-28.106047,3.22684,2.6793966
-28.145166,3.2291186,2.6811333
-28.182156,3.2286987,2.6782207
-28.220428,3.2302616,2.6788058
-28.257961,3.2309928,2.6779895
-28.295748,3.2323022,2.678225
-28.332197,3.2318304,2.6754007
-28.368917,3.2319326,2.6736197
-28.405891,3.2326102,2.6728883
-28.4431,3.2338665,2.6732087
-28.478489,3.2323756,2.6687737
-28.517288,3.2366924,2.6745305
-28.554543,3.2387383,2.676363
-28.591705,3.2408893,2.6784244
-28.627705,3.2412317,2.6773648
-28.663132,3.2407153,2.6748428
-28.699554,3.2422118,2.6758862
-28.735653,3.2433295,2.6763082
-28.771442,3.2440658,2.6761022
-28.807177,3.244899,2.676107
-28.84355,3.2472765,2.6788583
-28.87938,3.248788,2.6801343
-28.914696,3.249432,2.6799283
-28.94975,3.2496872,2.67908
-28.985392,3.2514884,2.6809845
-29.019743,3.2504785,2.6779933
-29.05468,3.2510142,2.677753
-29.090141,3.253101,2.680276
-29.125523,3.2552838,2.6830053
-29.160112,3.2556148,2.6825218
-29.194666,3.2560375,2.6822376
-29.229017,3.2560635,2.681293
-29.264143,3.258621,2.684836
-29.298565,3.2593184,2.6851468
-29.333244,3.2610846,2.6873746
-29.367289,3.2609851,2.6863585
-29.401722,3.2624443,2.6881208
-29.43571,3.2625241,2.6874924
-29.469923,3.263673,2.6887822
-29.504559,3.2668743,2.6937208
-29.538763,3.2686946,2.6962662
-29.57259,3.2691314,2.6964126
-29.605398,3.264742,2.6880965
-29.639137,3.2648602,2.6877527
-29.673208,3.2670336,2.6910634
-29.707048,3.2683125,2.6928349
-29.74077,3.2691858,2.6939278
-29.77446,3.270147,2.695211
-29.807676,3.2677474,2.6906085
-29.841167,3.2674034,2.6896625
-29.874708,3.2676382,2.6897717
-29.9085,3.2709188,2.695282
-29.942013,3.2718205,2.6966367
-29.975561,3.2737951,2.6999173
-30.00916,3.2778296,2.7068634
-30.042395,3.275537,2.7026935
-30.075752,3.275797,2.7030559
-30.10909,3.2756488,2.702735
-30.142427,3.2741063,2.6999912
-30.175774,3.2756102,2.7026515
-30.209093,3.2767065,2.704627
-30.242352,3.2788744,2.7085276
-30.275787,3.2761943,2.703918
-30.309206,3.2750804,2.7021031
-30.342583,3.2750392,2.7022147
-30.375967,3.275084,2.7025108
-30.40921,3.2766936,2.7056007
-30.442421,3.2783878,2.7088747
-30.476013,3.2767186,2.706256
-30.509586,3.275629,2.7046943
-30.542767,3.277581,2.7085252
-30.576218,3.2776482,2.709072
-30.609594,3.2782946,2.7106729
-30.642965,3.2790267,2.7124615
-30.676523,3.2788615,2.7127037
-30.7103,3.2778008,2.7114058
-30.743793,3.2783017,2.7128916
-30.777174,3.2793794,2.7154288
-30.810543,3.2805438,2.7181535
-30.844912,3.277873,2.7141638
-30.87817,3.2797017,2.7181282
-30.91154,3.281126,2.7214174
-30.94518,3.281659,2.7231731
-30.979282,3.280813,2.7225404
-31.013111,3.2810333,2.7238193
-31.046793,3.2818305,2.7261481
-31.081322,3.280278,2.7243848
-31.114862,3.2817402,2.7279549
-31.14839,3.2832894,2.7317133
-31.183027,3.282009,2.7305398
-31.2183,3.2793648,2.7270088
-31.253265,3.2777865,2.725389
-31.289732,3.272912,2.7180223
-31.327192,3.266203,2.7074814
-31.365715,3.2576668,2.693779
-31.404253,3.2497275,2.6811686
-31.441875,3.2443113,2.6730309
-31.497742,3.2019093,2.6001163
-44.383095,1.1671422,0.3640747
-44.3658,1.2267313,0.4772563
-44.382008,1.2747126,0.57328033
-44.348923,1.3384604,0.6922755
-44.35558,1.3887393,0.7914791
-44.37188,1.4355915,0.8856554
-44.36554,1.4892929,0.9896741
-44.38816,1.53354,1.0800047
-44.38013,1.5870018,1.183506
-44.384468,1.6362684,1.2809148
-44.413715,1.677705,1.3671536
-44.33737,1.7503679,1.497468
-44.36502,1.7916002,1.5832644
-44.276604,1.8663688,1.7159443
-44.32418,1.9011812,1.7926245
-44.312748,1.9527125,1.8925428
-44.382626,1.9810715,1.9604354
-44.420444,2.0184512,2.0408802
-44.464066,2.0541828,2.119153
-45.70756,1.8681519,1.962265
-45.756615,1.9060361,2.046206
-45.783955,1.9495041,2.13765
-44.48516,2.329341,2.6706963
-44.49865,2.3717859,2.7579193
-44.348343,2.454565,2.897356
-44.403816,2.485877,2.969851
-44.442085,2.521428,3.0479326
-44.501312,2.5519795,3.1197786
-44.571342,2.580113,3.1887856
-44.544415,2.630906,3.2863007
-44.726254,2.633553,3.3240733
-44.885593,2.6421533,3.3699489
-45.08456,2.6426694,3.4067059
-45.290283,2.6426759,3.4437575
-45.533104,2.6356573,3.4733882
-45.6784,2.650694,3.5302148
-45.745544,2.682825,3.6076899
-45.86467,2.704341,3.6731586
-45.970165,2.7291288,3.7429194
-46.05813,2.757857,3.8176212
-46.218536,2.7724838,3.8769631
-46.32409,2.7985816,3.9497652
-46.46583,2.8180983,4.0159054
-47.576324,2.6540728,3.8855062
-47.623634,2.6952791,3.9788532
-47.628807,2.744316,4.0805683
-47.73873,2.7741618,4.162497
-48.35803,2.713416,4.153319
-49.130768,2.6289911,4.1242332
-49.798,2.5669718,4.121702
-50.549976,2.494066,4.1127872
-51.393776,2.409782,4.0978208
-52.215485,2.333623,4.095666
-53.025684,2.2636743,4.104374
-54.003242,2.1713598,4.0986238
-3.3306618,1.8185115,3.531485
-3.5541363,1.7796185,3.4110332
-3.6717854,1.724755,3.2761483
-3.7609825,1.665647,3.1376166
-3.7994518,1.5983608,2.9911728
-3.8253021,1.528889,2.8425846
-3.8463535,1.4584603,2.6930318
-3.863594,1.3872004,2.542604
-3.8876953,1.3169589,2.3932724
-3.8944798,1.2434394,2.2403545
-3.9042835,1.1702046,2.0876818
-3.9219208,1.098166,1.9363055
-3.9262104,1.0233917,1.7817779
-3.9364147,0.9494462,1.6281219
-3.8969536,0.86557674,1.4627647
-4.0289993,0.8149533,1.3365178
-5.388275,1.0103607,1.50565
-5.4469566,0.949301,1.3708544
-6.976959,0.98352575,1.1832905
-7.991949,1.1348381,1.3214741
-8.128323,1.0977235,1.2234035
-8.323378,1.0742407,1.1434026
-8.554222,1.0597291,1.0758142
-8.577484,0.9984796,0.94801664
-8.863825,0.9984052,0.90079975
-9.022354,0.9695196,0.81649494
-8.743824,0.83652425,0.5937195
-8.7853985,0.7791071,0.47126675
-11.214563,1.3087826,1.1432137
-11.126516,1.2264266,0.99188423
-11.124445,1.1648417,0.8685465
-11.819336,1.2809997,0.9899759
-11.760689,1.2062593,0.84960175
-11.776272,1.1502204,0.7349529
-13.067093,1.4323337,1.0939322
-13.190502,1.3524046,0.9148898
-13.17322,1.2907524,0.7947397
-14.008621,1.466296,1.0134339
-12.7337475,1.0516968,0.38776588
-12.783348,1.0062406,0.28976536
-14.480643,1.4369473,0.8818121
-14.507826,1.3905048,0.785563
-15.530369,1.6384883,1.119636
-15.539931,1.5898714,1.022008
-15.071575,1.2879384,0.49704456
-16.555782,1.699085,1.0837321
-16.711851,1.6989465,1.0600901
-16.313923,1.5216243,0.77084684
-16.426598,1.5068607,0.7251272
-17.468859,1.7980494,1.1423168
-17.484722,1.7073023,0.9622359
-17.573662,1.6889734,0.91341686
-17.33774,1.5591922,0.6940913
-17.32116,1.503454,0.58769083
-17.444149,1.4962535,0.5559621
-17.281773,1.3880756,0.36846924
-17.313217,1.3478787,0.28576088
-24.41622,3.0647306,2.6404362
-24.517336,3.0842013,2.6652374
-24.58255,3.085841,2.6606402
-24.651808,3.0899298,2.6602435
-24.725021,3.0964994,2.6641135
-24.799334,3.1040988,2.6698456
-24.876095,3.1134815,2.6787028
-24.94361,3.1183066,2.6800861
-25.012243,3.124143,2.6832924
-25.083315,3.1317554,2.689608
-25.148718,3.1366093,2.6914263
-25.236534,3.154671,2.7155805
-25.285423,3.1508923,2.7031264
-25.342827,3.1522765,2.699459
-25.40073,3.1542554,2.6968951
-25.459122,3.1568332,2.695444
-25.519264,3.160792,2.6964326
-25.579197,3.1649735,2.6979032
-25.635115,3.1670191,2.6958532
-25.688356,3.167687,2.6915588
-25.740223,3.16775,2.6863227
-25.793217,3.168788,2.6828299
-25.850996,3.1732047,2.6851816
-25.90917,3.1782322,2.6886716
-25.962278,3.1802528,2.6871247
-26.014032,3.1816514,2.6845994
-26.065649,3.1832292,2.6824627
-26.116535,3.1845782,2.680015
-26.164944,3.1844683,2.6751451
-26.214998,3.1857502,2.6727376
-26.271252,3.1917284,2.678474
-26.319843,3.1925404,2.6754174
-26.372278,3.1964154,2.6777058
-26.414438,3.1929882,2.6674967
-26.460472,3.1926117,2.6626043
-26.510273,3.195316,2.663095
-26.558825,3.1973484,2.6625
-26.605616,3.198279,2.6600714
-26.658175,3.2040143,2.6660223
-26.699383,3.2010236,2.6569448
-26.747395,3.2036908,2.6577258
-26.791098,3.2031014,2.6529284
-26.834217,3.202222,2.647687
-26.882357,3.2057726,2.6501975
-26.925797,3.2056055,2.6463156
-26.975632,3.211193,2.652501
-27.012926,3.2061126,2.6401901
-27.057577,3.207658,2.6394644
-27.107897,3.2145762,2.6481657
-27.146523,3.211174,2.6389365
-27.188925,3.21139,2.6360703
-27.234509,3.2148144,2.638863
-27.281311,3.2197075,2.6442852
-27.322002,3.219008,2.6399903
-27.361736,3.217545,2.63441
-27.402767,3.2175314,2.6314163
-27.445919,3.2198687,2.6325936
-27.486776,3.2201078,2.630148
-27.528841,3.2218125,2.630324
-27.571217,3.2240949,2.631567
-27.611801,3.2247083,2.6299329
-27.652302,3.225443,2.6285615
-27.693935,3.227654,2.629836
-27.73265,3.2268212,2.6258078
-27.7729,3.2279167,2.625218
-27.812668,3.228676,2.624086
-27.854656,3.2322886,2.6280284
-27.894981,3.2342014,2.6290264
-27.934828,3.235777,2.6294775
-27.97421,3.2370102,2.629373
-28.013506,3.2383595,2.6295195
-28.052708,3.2398233,2.6299143
-28.09147,3.2409399,2.6297412
-28.128777,3.240318,2.6265411
-28.167057,3.2411914,2.6260257
-28.205925,3.243102,2.6273904
-28.245018,3.2455914,2.6298232
-28.28304,3.2467961,2.6300273
-28.321293,3.2485762,2.6312923
-28.358528,3.2490628,2.63031
-28.395704,3.2496543,2.6295543
-28.433706,3.2517564,2.6315184
-28.471611,3.2539673,2.6337185
-28.50856,3.2548735,2.633646
-28.544882,3.2549405,2.632124
-28.580885,3.254635,2.6299796
-28.619263,3.2586825,2.6356053
-28.656973,3.2618928,2.6397877
-28.693539,3.2633145,2.640831
-28.72903,3.2629373,2.6387167
-28.764252,3.2621808,2.6359658
-28.800165,3.2629466,2.6359591
-28.83672,3.2652402,2.638708
-28.871597,3.2642941,2.6357307
-28.907564,3.2658296,2.637207
-28.942602,3.2655497,2.6354895
-28.97824,3.2667997,2.6365318
-29.013811,3.268146,2.6377835
-29.048534,3.2676692,2.6358223
-29.08381,3.2687244,2.636629
-29.119766,3.2717977,2.6410694
-29.154724,3.2725627,2.6414318
-29.188435,3.2700484,2.6359797
-29.223673,3.2719603,2.6384578
-29.258678,3.273484,2.6402793
-29.293312,3.2741349,2.6405792
-29.32761,3.27391,2.6393504
-29.3626,3.2761939,2.6426353
-29.39751,3.2785707,2.6461215
-29.431692,3.2786179,2.6454825
-29.465977,3.2792394,2.645903
-29.500107,3.2794652,2.6456523
-29.534325,3.2802653,2.6464605
-29.568718,3.282126,2.649198
-29.603144,3.2845628,2.6529994
-29.63675,3.2832007,2.6500463
-29.671158,3.2863028,2.6551046
-29.704988,3.2865748,2.6551394
-29.738949,3.287909,2.6571054
-29.773003,3.2903047,2.661003
-29.806732,3.2908406,2.6616092
-29.840157,3.289027,2.6580472
-29.873768,3.2887614,2.6572862
-29.9072,3.2866318,2.653224
-29.941175,3.2909281,2.6606874
-29.974974,3.2943368,2.6665955
-30.008495,3.2944183,2.6665864
-30.042032,3.2950735,2.6676369
-30.075464,3.292887,2.6636372
-30.108988,3.293226,2.664188
-30.142488,3.289748,2.6579428
-30.17601,3.2931879,2.664105
-30.209478,3.2952497,2.6678338
-30.242962,3.2954454,2.6682582
-30.276327,3.2981672,2.673233
-30.309772,3.2985346,2.6740298
-30.34328,3.298013,2.6732688
-30.376888,3.296602,2.670951
-30.410349,3.2972279,2.672308
-30.443638,3.2994022,2.676467
-30.477297,3.2982507,2.6747103
-30.510796,3.2986476,2.6757565
-30.544363,3.298644,2.6761193
-30.577553,3.3011606,2.6810198
-30.611023,3.3018155,2.6826253
-30.644941,3.3001256,2.6800723
-30.678623,3.2999823,2.6803179
-30.712324,3.2999258,2.6807513
-30.745714,3.301414,2.6839776
-30.779081,3.3029878,2.6873903
-30.812426,3.3046474,2.6909876
-30.846376,3.3039691,2.690444
-30.879833,3.3053172,2.6935525
-30.91355,3.3057837,2.6951199
-30.94713,3.3068216,2.69774
-30.981459,3.3055303,2.696238
-31.015684,3.3048131,2.695794
-31.049461,3.3056335,2.6981277
-31.083578,3.3055778,2.6989331
-31.117369,3.3065748,2.7016516
-31.15098,3.3081412,2.7054186
-31.185886,3.306431,2.7033777
-31.221247,3.3038547,2.699829
-31.256897,3.300895,2.6956344
-31.294086,3.2946794,2.6856785
-31.331669,3.2880912,2.675099
-31.370098,3.2801764,2.6622
-31.408533,3.272851,2.6503925
-31.446037,3.2680218,2.6430721
-31.512337,3.205194,2.5326004
-44.35703,1.2699838,0.3319502
-44.345642,1.3270943,0.44225073
-44.350548,1.3784306,0.54373837
-44.34939,1.4313219,0.64748573
-44.37952,1.4739168,0.7357631
-44.37059,1.5285246,0.84193563
-44.349346,1.5864713,0.9529381
-44.375427,1.6294508,1.0416799
-44.34266,1.6899734,1.1562295
-44.384888,1.7275586,1.23698
-44.388412,1.7764688,1.3343182
-44.376015,1.8296788,1.43783
-44.343987,1.8880963,1.5487423
-44.310062,1.9464893,1.6594162
-44.32094,1.9917493,1.7510648
-44.31398,2.0416977,1.8493571
-44.290855,2.0957062,1.9533029
-44.36284,2.1235237,2.020101
-44.403584,2.1598577,2.0990639
-44.463837,2.1910112,2.1708713
-45.719463,1.9615836,1.9118581
-45.741932,2.006312,2.0051312
-45.782127,2.0464325,2.0921197
-44.488266,2.4168313,2.627512
-44.54061,2.4496546,2.7020125
-44.356018,2.5397077,2.8533578
-44.377132,2.579358,2.9367328
-44.453552,2.6058903,3.0027814
-44.520298,2.6348944,3.0723357
-44.576355,2.6665118,3.1455197
-44.655434,2.693039,3.2122974
-44.78776,2.7079568,3.2644649
-44.931282,2.7209907,3.3147693
-45.123817,2.7240467,3.353075
-45.362827,2.718111,3.3809628
-45.55092,2.724106,3.4247117
-45.711506,2.7367072,3.4774141
-45.75209,2.7745936,3.5615973
-45.886536,2.7935736,3.623127
-46.017914,2.8137374,3.686668
-46.193092,2.8258812,3.741342
-46.33368,2.845508,3.8055725
-46.408737,2.8781931,3.8855162
-46.586285,2.8919315,3.9442034
-46.644226,2.9285245,4.0294704
-47.605072,2.8015037,3.9333973
-47.62761,2.847259,4.0316753
-47.655285,2.8920379,4.128949
-48.304817,2.8293004,4.112044
-48.846733,2.7883253,4.1215744
-49.476933,2.735436,4.1219454
-50.215195,2.6681085,4.111392
-51.001427,2.5969453,4.101412
-51.811314,2.5261889,4.0965757
-52.693733,2.4483895,4.0899944
-53.564686,2.3770084,4.0949197
-54.661148,2.2762475,4.0785685
-3.1083717,1.9406188,3.4228978
-3.6224957,1.9440904,3.3466377
-3.7137623,1.8848543,3.208157
-3.8010006,1.8252363,3.0696983
-3.8131523,1.7538314,2.9189677
-3.83317,1.683507,2.7693872
-3.849369,1.6123891,2.6189375
-3.8588638,1.5399532,2.4669929
-3.8820229,1.4696229,2.3174005
-4.084999,1.4304278,2.2038083
-4.0983715,1.3585484,2.0529003
-3.9211159,1.2521739,1.8610902
-3.9196434,1.1765716,1.7051749
-3.9289055,1.1026313,1.5511613
-2.7164059,0.7982247,1.1147537
-3.3299026,0.8357725,1.0956898
-5.3040543,1.1408434,1.4138174
-5.560213,1.1183982,1.3276873
-6.0771637,1.1493144,1.3105917
-6.5466766,1.1733179,1.2868538
-6.692297,1.1330285,1.181788
-8.4953575,1.2433774,1.1298361
-8.353712,1.1459002,0.95288897
-7.988291,0.99701834,0.7055292
-7.5509205,0.8291614,0.4306507
-10.112047,1.3492191,1.0994458
-7.8234653,0.7521181,0.23312473
-11.390387,1.4671297,1.1463127
-11.1331215,1.3450279,0.9377718
-11.128271,1.2830849,0.8133459
-11.800476,1.3896389,0.9287429
-11.766552,1.321739,0.7968507
-12.941828,1.5627353,1.1092267
-13.175991,1.45491,0.8582411
-14.217112,1.6784952,1.1556859
-14.215793,1.6246152,1.0478911
-14.492143,1.5936673,0.94621944
-14.474801,1.5350888,0.8316436
-15.378367,1.7395675,1.1111631
-15.431002,1.7034626,1.0316896
-15.044474,1.4316766,0.54509974
-15.084367,1.3897343,0.4562049
-16.007767,1.6192894,0.7834525
-16.808487,1.8169792,1.064601
-16.384975,1.6348383,0.7621608
-16.447403,1.6039212,0.69240093
-17.656668,1.8956609,1.1040678
-17.482597,1.791055,0.9212017
-17.449177,1.7316375,0.80855227
-17.316933,1.6382267,0.64229536
-17.41934,1.623441,0.5995078
-17.523495,1.6096346,0.5585041
-17.276224,1.4735577,0.32392073
-17.310188,1.4343612,0.24251223
-24.364424,3.085197,2.5765972
-24.444542,3.093281,2.5832257
-24.520796,3.0998888,2.5875053
-24.592539,3.1046298,2.5887594
-24.672401,3.114011,2.5980291
-24.73873,3.1167755,2.5961895
-24.811747,3.123461,2.6011486
-24.880362,3.1282213,2.6029549
-24.95485,3.1365795,2.6110296
-25.027653,3.1444871,2.6184678
-25.087389,3.1455765,2.6143584
-25.168295,3.1589046,2.6313348
-25.251396,3.1740692,2.6516123
-25.301147,3.170621,2.640049
-25.359995,3.1726706,2.638022
-25.413488,3.1718764,2.6311917
-25.468811,3.172422,2.6267543
-25.527193,3.1750922,2.6260724
-25.584124,3.1772,2.6245117
-25.640259,3.1791232,2.6227217
-25.693108,3.1792943,2.6179838
-25.747696,3.1808262,2.615685
-25.804596,3.1841254,2.616537
-25.85947,3.1864429,2.6157718
-25.912363,3.1877646,2.6133575
-25.969913,3.192457,2.61689
-26.019503,3.1921575,2.611814
-26.06663,3.1904192,2.6042986
-26.120132,3.1932688,2.6048565
-26.167078,3.1918554,2.5980458
-26.225462,3.1987147,2.6057658
-26.273304,3.1984522,2.6011086
-26.31879,3.1967123,2.5939298
-26.37991,3.2066073,2.607211
-26.41903,3.2006693,2.592803
-26.454895,3.1923647,2.5742865
-26.521397,3.2073755,2.596785
-26.569069,3.2084951,2.5949545
-26.621967,3.2139456,2.600812
-26.666695,3.2132978,2.596002
-26.704527,3.2073312,2.581873
-26.740858,3.2002065,2.5657449
-26.787556,3.2016368,2.5647578
-26.833618,3.2027946,2.5633516
-26.881578,3.205802,2.5652738
-26.929375,3.208967,2.5675387
-26.968136,3.2045865,2.556508
-27.009848,3.202892,2.55028
-27.055855,3.2051978,2.5511923
-27.104107,3.20981,2.5562534
-27.153576,3.21588,2.5639644
-27.210733,3.229496,2.5851417
-27.268393,3.2441874,2.6083102
-27.31787,3.2516663,2.6187363
-27.404036,3.2552757,2.6195793
-27.441452,3.2517817,2.6106415
-27.510769,3.239362,2.5832024
-27.550407,3.238386,2.5788722
-27.588749,3.2361925,2.572414
-27.679577,3.2477586,2.5881252
-27.717672,3.245929,2.5824547
-27.80779,3.2587755,2.600771
-27.886059,3.2591019,2.596881
-27.962955,3.258522,2.591537
-28.120203,3.2641635,2.5935516
-28.161304,3.2686071,2.5996084
-28.20091,3.2713394,2.6026373
-28.221825,3.2479894,2.558823
-28.273994,3.268863,2.594544
-28.30485,3.2594733,2.5758882
-28.378914,3.258959,2.5715375
-28.416622,3.2600148,2.5717835
-28.457745,3.266749,2.5822968
-28.748035,3.2657816,2.5689592
-28.899622,3.2837126,2.596428
-29.000757,3.2725706,2.5729508
-29.036026,3.2725072,2.5717907
-29.069935,3.2692134,2.5648198
-28.654892,1.9710357,0.2128439
-28.713907,1.990596,0.24690914
-29.217365,3.2893226,2.5975213
-29.252552,3.290786,2.5993323
-29.28691,3.2899563,2.5970216
-29.319489,3.2834804,2.5845141
-29.388592,3.2832158,2.5825782
-29.494562,3.2935662,2.5993996
-29.53056,3.3010437,2.6123762
-29.274137,1.9751387,0.20726585
-29.599253,3.303319,2.6154366
-29.377422,1.9814725,0.2172513
-29.663239,3.2809434,2.5739045
-29.698345,3.2859914,2.5826354
-29.52939,1.9780269,0.2090993
-29.768951,3.3021426,2.6111827
-29.87207,3.3159835,2.6354022
-29.904802,3.3056705,2.6164474
-29.939009,3.3108702,2.6256776
-29.884607,1.9816248,0.21281338
-30.005787,3.2988646,2.6035643
-30.039663,3.299502,2.6046062
-30.036427,1.9859526,0.22015285
-30.107464,3.3082764,2.6203942
-30.141176,3.3067622,2.6176233
-30.17486,3.3120906,2.6273031
-30.208385,3.3184705,2.6389213
-30.24214,3.3138394,2.6305828
-30.27592,3.3112247,2.625936
-30.309887,3.3067684,2.6179762
-30.344536,3.294684,2.5962029
-30.378958,3.2889593,2.5860047
-30.41229,3.295858,2.5987482
-30.445831,3.2994666,2.6055512
-30.480185,3.2959347,2.5994258
-30.515228,3.288158,2.58563
-30.548534,3.2934728,2.595621
-30.582418,3.2945404,2.5979357
-30.616539,3.2942524,2.5978217
-30.650137,3.2969372,2.6031327
-30.683004,3.303072,2.6147304
-30.716038,3.3078465,2.6238909
-30.749615,3.3098247,2.6280088
-30.783731,3.3094897,2.627964
-30.81727,3.3116412,2.6324577
-30.85318,3.304775,2.620636
-30.887022,3.3061464,2.6237807
-30.921682,3.3047347,2.6219115
-30.955818,3.305327,2.6237063
-30.990263,3.3050528,2.6239629
-31.022852,3.3105965,2.6347914
-31.057608,3.3095443,2.6337018
-31.09258,3.308108,2.63195
-31.12709,3.3081934,2.632987
-31.160357,3.311699,2.6402464
-31.194681,3.312438,2.6425304
-31.22979,3.3113692,2.6415749
-31.266348,3.3070753,2.6348205
-31.307558,3.2924654,2.6094441
-31.345367,3.2864957,2.5997367
-31.384443,3.2782712,2.5859914
-31.423092,3.2715766,2.5750527
-31.45965,3.2697072,2.5728726
-31.515568,3.2293365,2.5011802
-44.386574,1.3556895,0.27458715
-44.358032,1.417974,0.39379215
-44.389732,1.4605665,0.48239326
-44.357456,1.5229859,0.601552
-44.379765,1.5678983,0.69365025
-44.37603,1.6205316,0.79754925
-44.35476,1.6780441,0.9087939
-44.363255,1.726145,1.0055919
-44.379784,1.7715688,1.098288
-44.37169,1.8239133,1.2013931
-44.389343,1.8684366,1.2926474
-44.41519,1.9104023,1.3800588
-44.357334,1.9757109,1.5022459
-44.352066,2.0256965,1.601428
-44.315422,2.083915,1.7126689
-44.30301,2.1350052,1.8132238
-44.31053,2.1803677,1.9052768
-44.352676,2.2163312,1.983592
-44.406113,2.2493267,2.0576868
-44.472755,2.278976,2.12708
-44.51251,2.3156009,2.2066603
-45.679905,2.1193113,1.9833813
-45.71717,2.1599474,2.0709772
-45.72521,2.2075787,2.1684594
-44.287598,2.599224,2.7459912
-44.462284,2.602676,2.779191
-44.454803,2.6492047,2.8724103
-44.459637,2.6926205,2.9612632
-44.532948,2.7203693,3.0287504
-44.63119,2.7427819,3.0892644
-44.795826,2.7509854,3.131063
-44.902172,2.7725768,3.191331
-45.08936,2.7773287,3.229733
-45.27948,2.7823648,3.2692618
-45.47158,2.7879052,3.310224
-45.706444,2.7856262,3.3418975
-45.850296,2.8028574,3.3995218
-46.016853,2.8162122,3.4528294
-46.189056,2.8292246,3.5064182
-46.23406,2.8675346,3.5922055
-46.405872,2.8818364,3.6485877
-46.46151,2.9186308,3.7331324
-46.542572,2.9508638,3.812386
-46.727158,2.96462,3.8699698
-47.609688,2.8548744,3.7830753
-47.62328,2.9023185,3.8833885
-47.61972,2.9525964,3.9869497
-47.65997,2.9952242,4.0817585
-47.769447,3.0263362,4.16386
-48.374,2.9766712,4.157674
-49.1274,2.9062066,4.132277
-49.807083,2.851436,4.1277924
-50.557056,2.789311,4.1194553
-51.32085,2.729034,4.1173387
-52.237312,2.6498575,4.100641
-53.110085,2.5819638,4.1005707
-54.0046,2.5155103,4.1072016
-3.869812,2.3416238,3.7798834
-3.876522,2.2708178,3.6301212
-3.296877,2.115736,3.3915825
-3.6134243,2.088212,3.286498
-3.7290974,2.0322754,3.1520653
-3.7802029,1.9669368,3.0077376
-3.8001232,1.8968093,2.8581948
-3.8288555,1.8279178,2.7100782
-3.839178,1.7559731,2.558474
-3.856388,1.6849334,2.4078922
-3.881424,1.6150076,2.2586298
-4.0486603,1.5688927,2.1381345
-3.8998566,1.4692903,1.9530234
-3.9293842,1.324543,1.6484251
-4.016371,1.264821,1.5120487
-3.276722,1.054174,1.1835656
-3.33144,0.9864197,1.0355673
-5.3198547,1.2833481,1.3615065
-5.64184,1.2723818,1.2924795
-6.074112,1.2844212,1.2551689
-6.600788,1.3173151,1.2474174
-8.110355,1.4182363,1.239665
-8.366184,1.4054494,1.1771803
-8.541096,1.3766847,1.0935192
-7.944275,1.1823783,0.77979803
-9.962765,1.4934795,1.132709
-8.780115,1.1653891,0.62803507
-11.482658,1.5975595,1.1336842
-11.07552,1.4419842,0.8734064
-11.082716,1.3830745,0.75272655
-11.74707,1.4839215,0.8664732
-12.826302,1.6910686,1.1392975
-13.174606,1.6111627,0.9303484
-13.169004,1.5537193,0.8150387
-14.29821,1.7945437,1.1497645
-14.256996,1.7305949,1.0263004
-14.505401,1.6912098,0.9139757
-14.435322,1.6184866,0.7769685
-15.326998,1.8143194,1.0531325
-15.051295,1.5260739,0.51115227
-16.021072,1.7103691,0.7547846
-16.916004,1.9321606,1.0831604
-16.4286,1.7336426,0.7491908
-16.46928,1.6960185,0.66902447
-17.499056,1.9235733,0.99220276
-17.56954,1.8988497,0.9342141
-17.370743,1.7861855,0.73518896
-17.275093,1.7057447,0.5873985
-17.49497,1.729794,0.607913
-17.343279,1.629292,0.4274292
-17.276543,1.5562856,0.2910595
-24.25867,3.0767035,2.4697819
-24.375706,3.1021743,2.507001
-24.453804,3.1090083,2.5122676
-24.526672,3.113659,2.5138955
-24.595097,3.1164455,2.5124211
-24.64666,3.110854,2.496539
-24.823666,3.1712744,2.595286
-24.862083,3.1598115,2.5694933
-24.912891,3.1550326,2.5553746
-24.973145,3.1555648,2.550578
-25.043322,3.1618478,2.5559034
-25.093206,3.1572895,2.542418
-25.14042,3.15141,2.5266943
-25.19423,3.1494222,2.5178452
-25.292362,3.1731586,2.5541215
-25.343094,3.1701498,2.5436835
-25.410513,3.177164,2.5509057
-25.48594,3.1893816,2.5673752
-25.524786,3.180115,2.546187
-25.591438,3.1878467,2.554965
-25.761206,3.1946797,2.5530267
-25.879349,3.2040286,2.560614
-26.02039,3.230027,2.5980377
-26.114561,3.2264826,2.5834632
-26.157484,3.222146,2.571713
-26.19983,3.2175422,2.559537
-26.300957,3.2204304,2.5568748
-26.410408,3.230509,2.567297
-26.458456,3.2311447,2.5647607
-26.504206,3.2303007,2.5596433
-26.772346,3.2245476,2.5288506
-26.86718,3.2287984,2.5300813
-26.908148,3.2258866,2.5217323
-26.99735,3.2267897,2.51727
-27.149979,3.2469466,2.544846
-27.302114,3.2703717,2.5788817
-27.399319,3.2840986,2.5984674
-27.431515,3.275334,2.5800905
-27.471228,3.2740588,2.5752897
-27.506618,3.2685297,2.5628324
-27.542072,3.2630951,2.5505795
-27.582182,3.2625859,2.5472836
-27.667902,3.2681005,2.5526633
-27.786469,3.2671366,2.5443106
-27.951628,3.2771683,2.5543175
-27.987274,3.2733598,2.5454335
-28.022959,3.2696462,2.5367556
-28.106106,3.277871,2.5480123
-28.187267,3.2847815,2.557045
-28.210342,3.2643282,2.5180225
-28.326523,3.268508,2.5206652
-28.363657,3.2679856,2.518124
-28.396,3.2602298,2.5024037
-28.441305,3.2727594,2.5237775
-28.478823,3.2734725,2.5236015
-28.744865,3.2915938,2.5473886
-28.785488,3.300592,2.5626717
-28.224915,2.1037204,0.36864138
-28.314804,2.182355,0.51110744
-28.366505,2.184708,0.5138612
-28.9294,3.3031693,2.5629363
-28.96472,3.3028862,2.5613823
-28.998194,3.2984776,2.5522938
-29.068422,3.2974315,2.548459
-29.101482,3.2918742,2.5373492
-28.715775,2.0441282,0.24491549
-29.244913,3.3002102,2.5493174
-29.45696,3.3134453,2.5695581
-29.52688,3.3181305,2.5770545
-29.62859,3.3127677,2.5657406
-29.656147,3.2762578,2.498167
-29.764767,3.3081079,2.555637
-29.801239,3.3252735,2.5869055
-29.681183,2.031369,0.20613527
-29.731743,2.0311828,0.20541811
-29.832909,2.0321553,0.20658731
-29.96896,3.2965868,2.5330057
-29.933924,2.0326946,0.20712996
-29.984468,2.0345907,0.2104578
-30.034887,2.0342302,0.20967674
-30.085459,2.0430706,0.22586966
-30.140291,3.3268728,2.5883374
-30.185995,2.0520697,0.24240541
-30.236073,2.0574787,0.2524104
-30.241493,3.3367379,2.606594
-30.336128,2.0619972,0.26095438
-30.386623,2.0553806,0.24895763
-30.436977,2.0531895,0.24514675
-30.3774,3.3259668,2.5873122
-30.535555,2.072572,0.28137732
-30.447279,3.3077574,2.5542517
-30.480883,3.312379,2.5630188
-30.514246,3.3180387,2.5737247
-30.550125,3.3061562,2.552188
-30.839806,2.0522654,0.24674416
-30.647493,3.3353262,2.606979
-30.937494,2.0689077,0.27859974
-30.717146,3.3276007,2.5936732
-30.75355,3.3177013,2.5759683
-30.786448,3.3235683,2.5872793
-30.820415,3.3247736,2.5900478
-31.201889,2.0242116,0.20032501
-30.890303,3.3203387,2.583096
-30.925152,3.318971,2.5812254
-30.962374,3.3101268,2.565651
-30.994413,3.3184028,2.5815592
-31.02752,3.3229778,2.5906959
-31.062323,3.3224452,2.5904799
-31.092773,3.3342612,2.6129684
-31.614605,2.0226629,0.20604706
-31.194613,3.3395689,2.6252584
-31.23959,3.3145916,2.5803418
-31.2719,3.321188,2.593391
-31.314938,3.3030298,2.561067
-31.35235,3.2985787,2.5539217
-31.392515,3.2886233,2.5367217
-31.43319,3.2783206,2.5189238
-31.475306,3.2658076,2.4971166
-31.542675,3.2040563,2.385151
-44.33916,1.5081193,0.35901165
-44.337975,1.5607514,0.46373272
-44.361626,1.6568897,0.65855503
-44.365707,1.70682,0.75882626
-44.36106,1.7589793,0.86252356
-44.356415,1.8107326,0.9654956
-44.388817,1.8513799,1.0511198
-44.358646,1.9097581,1.1642284
-44.437534,1.936816,1.2288442
-44.380737,2.0018713,1.352045
-44.34868,2.05939,1.4634466
-44.35236,2.1066468,1.5590196
-44.34179,2.1574297,1.6598859
-44.322258,2.2101967,1.7636471
-44.30545,2.2618089,1.86553
-44.308624,2.307841,1.9589167
-44.391964,2.333147,2.0212998
-44.423054,2.3718631,2.1038337
-44.455383,2.4101827,2.185821
-45.57596,2.2309284,1.9751949
-44.523148,2.531695,2.4416084
-44.18923,2.6559997,2.648335
-44.293644,2.6759696,2.7033768
-44.47954,2.6776419,2.7325244
-44.637726,2.6864998,2.772554
-44.482605,2.766043,2.9132328
-44.601807,2.783983,2.9665346
-44.780823,2.7894313,3.0027738
-44.961815,2.7953136,3.040268
-45.124092,2.8060145,3.0850754
-45.27599,2.8196237,3.1344676
-45.462795,2.8267627,3.1756244
-45.65061,2.8345883,3.2184281
-45.847023,2.841599,3.2608714
-46.09104,2.8402166,3.2929482
-46.24575,2.8573036,3.3503509
-46.38028,2.878919,3.4142833
-46.53467,2.897386,3.4746785
-46.67645,2.9188654,3.5395684
-46.741238,2.9549298,3.6235557
-47.625473,2.8447983,3.524125
-47.611687,2.8973606,3.631043
-47.59999,2.949274,3.7370248
-47.610687,2.9971113,3.837925
-47.617775,3.0454144,3.9393668
-47.645454,3.0901794,4.036581
-47.671513,3.1351736,4.134136
-48.249897,3.0924368,4.1305666
-48.944023,3.0346954,4.1129427
-49.516502,2.9992692,4.123971
-50.221474,2.9469037,4.119411
-50.989998,2.8888617,4.112565
-51.87703,2.8176928,4.096046
-52.726177,2.756587,4.095083
-53.64607,2.6900716,4.093508
-54.78804,2.598019,4.071793
-3.8636303,2.4213223,3.555768
-4.120165,2.3848023,3.444017
-3.750389,2.188984,3.0824633
-3.7575817,2.1172018,2.9307914
-3.7911777,2.0491333,2.7834907
-3.8189602,1.9801164,2.6351256
-3.8390121,1.9098015,2.48522
-3.855257,1.8387339,2.3343897
-4.0304585,1.7928793,2.215145
-4.0534096,1.7229779,2.066134
-3.8987389,1.623538,1.8792777
-3.8854923,1.5467224,1.7209411
-3.990841,1.4898238,1.5885124
-3.2369843,1.2837362,1.2593536
-5.2513027,1.5625637,1.5734682
-5.30538,1.5003564,1.4371758
-5.3842506,1.442677,1.3071618
-5.9094257,1.4679534,1.2908792
-7.9371605,1.5822868,1.2639203
-7.9653435,1.5216675,1.1351781
-8.522219,1.568392,1.1598759
-8.5445,1.5078266,1.0322413
-7.944626,1.3168011,0.7157717
-9.7584,1.6344872,1.1377883
-8.883087,1.3834791,0.7333231
-7.7798595,1.0769391,0.24385595
-11.145157,1.6945491,1.0854845
-11.641573,1.7482371,1.1330695
-11.093599,1.5634236,0.8235564
-11.769047,1.661325,0.9393902
-12.662315,1.8148766,1.1418996
-13.16226,1.7140489,0.87471676
-13.205589,1.6693058,0.77841425
-14.373036,1.9132552,1.1318908
-14.384709,1.8638661,1.0301876
-14.453407,1.7763877,0.84448385
-15.192852,1.9230535,1.0527372
-15.010419,1.6648755,0.55257845
-15.0548935,1.6245174,0.46592522
-16.005926,1.8480256,0.80481863
-16.055523,1.812253,0.726974
-16.994123,2.0416467,1.0793366
-16.440422,1.8268983,0.7117152
-17.41168,2.0737112,1.0954728
-17.591496,2.0825298,1.0925021
-17.501694,2.0079389,0.9531503
-17.524368,1.9679234,0.87035465
-17.297588,1.847764,0.6554246
-17.358112,1.8186443,0.59030676
-17.489098,1.8126981,0.56367826
-17.272614,1.6920254,0.34678602
-17.264757,1.6393092,0.24240065
-24.196354,3.0928524,2.3937812
-24.28179,3.1019003,2.4034867
-24.367554,3.1116447,2.4145598
-24.438868,3.1147213,2.414009
-24.551153,3.1388776,2.4508061
-24.614805,3.1390643,2.4454064
-24.68589,3.1434066,2.4474573
-24.784805,3.1626987,2.4761162
-24.851109,3.1655016,2.4756799
-24.90503,3.1620493,2.46423
-24.968296,3.163869,2.4622278
-25.026707,3.163369,2.4561872
-25.091618,3.166745,2.4571357
-25.166176,3.1758883,2.468464
-25.232527,3.1808853,2.4725008
-25.273973,3.1720092,2.45184
-23.184029,1.9275877,0.22101402
-25.46325,3.2168717,2.522771
-25.57038,3.2156544,2.5116358
-25.740065,3.2213502,2.508975
-26.13765,3.2469993,2.5276275
-26.443676,3.2226527,2.458839
-26.446686,3.1892586,2.3947897
-26.726685,3.224411,2.442968
-26.778986,3.2297149,2.4496522
-26.831057,3.2351968,2.4567242
-26.89995,3.2174833,2.4186015
-26.986752,3.215233,2.4089084
-27.030823,3.17551,2.3307114
-27.003561,3.110374,2.2086024
-27.047977,3.1095543,2.2044177
-27.09005,3.106739,2.1966147
-27.37742,3.2971342,2.5413117
-27.414734,3.2930582,2.5314827
-27.497143,3.292984,2.526791
-27.696175,3.2888336,2.5084462
-27.752293,3.2619169,2.4547591
-27.74836,3.2113755,2.359478
-27.75284,3.1691008,2.2794323
-27.890465,3.2835958,2.489019
-28.039656,3.274446,2.4649315
-28.11692,3.274065,2.4608488
-28.161282,3.2818801,2.4736876
-28.213003,3.247098,2.4060616
-28.304903,3.2689228,2.443468
-28.340345,3.2651298,2.4349627
-28.37405,3.2587123,2.4216142
-28.439802,3.2429476,2.3895574
-28.471088,3.2322247,2.3682919
-28.509447,3.232971,2.368351
-27.864523,2.069017,0.20437431
-28.653292,3.288051,2.4669585
-28.482765,2.7466962,1.4564786
-28.82032,3.3290954,2.538816
-28.245306,2.084569,0.22166824
-28.892399,3.3302844,2.5389862
-28.348684,2.0810466,0.2121892
-28.398588,2.0755575,0.20057058
-28.840124,2.8714514,1.6805224
-28.898687,2.9131703,1.7572408
-28.950418,2.9406786,1.807538
-29.131561,3.307955,2.4911394
-28.714655,2.0853462,0.21131659
-29.167759,3.2110765,2.3089862
-29.230232,3.2865067,2.4488826
-28.868662,2.0837343,0.20513105
-29.383545,3.3264427,2.5207453
-29.486341,3.3209302,2.508792
-29.51943,3.314106,2.4955544
-29.588667,3.3129213,2.4924202
-29.653175,3.2866964,2.4426394
-29.482004,2.0916777,0.21088266
-29.720032,3.2673748,2.4058447
-29.585346,2.1073396,0.23917675
-29.635489,2.106424,0.23705053
-29.832012,3.3214874,2.5060363
-29.855,3.2151213,2.3071356
-29.898003,3.2917385,2.4500308
-29.835382,2.0950913,0.21460295
-29.88524,2.088687,0.20241547
-30.003836,3.3203921,2.5030947
-30.038736,3.3332722,2.5270562
-30.0732,3.3429399,2.545044
-30.086658,2.0912473,0.2066927
-30.136967,2.0953965,0.21441412
-30.17524,3.3540678,2.5657725
-30.20894,3.3631425,2.582758
-30.28734,2.1053145,0.23308706
-30.336897,2.1170557,0.2551446
-30.385807,2.1345832,0.28804922
-30.435318,2.1380832,0.2947893
-30.483261,2.1586866,0.33351374
