x,y,z
-24.87222,3.0177956,2.7939367
-24.93537,3.020978,2.7910128
-24.994923,3.022447,2.7855177
-25.06858,3.032366,2.7935467
-25.134487,3.0382466,2.7953315
-25.19078,3.0388439,2.7888598
-25.252935,3.043218,2.7885213
-25.318188,3.0498195,2.7918692
-25.372032,3.0498612,2.7848783
-25.43489,3.0557234,2.7873092
-25.496864,3.0614188,2.789607
-25.556677,3.0661294,2.7904544
-25.609272,3.0665827,2.784584
-25.666183,3.0700815,2.7837186
-25.719147,3.0713239,2.7793312
-25.775723,3.0752246,2.7793365
-25.830875,3.0785027,2.778448
-25.88708,3.0828078,2.7793303
-25.939438,3.084815,2.7766008
-25.992863,3.0878422,2.7756257
-26.044926,3.0902176,2.773694
-26.096842,3.0927744,2.7721562
-26.149784,3.0963573,2.772387
-26.200214,3.0984282,2.7702527
-26.251665,3.1015244,2.769884
-26.30353,3.1052258,2.7705994
-26.35465,3.1086788,2.7710052
-26.404476,3.1114478,2.7703834
-26.451912,3.1126592,2.7673001
-26.49979,3.114462,2.7652688
-26.54864,3.1172936,2.7650123
-26.597881,3.1207263,2.76583
-26.64373,3.121701,2.7626896
-26.692142,3.1250196,2.7634892
-26.737753,3.1262999,2.7610106
-26.78587,3.1299357,2.7624984
-26.830196,3.1306329,2.7592125
-26.873917,3.131028,2.7555003
-26.918566,3.132453,2.753564
-26.96411,3.134914,2.7534175
-27.010017,3.1379712,2.7543359
-27.05627,3.1416273,2.7563238
-27.099932,3.1431825,2.754898
-27.143484,3.1448755,2.7537723
-27.185974,3.1458006,2.7514372
-27.231663,3.1500378,2.7546844
-27.274858,3.1521459,2.7544584
-27.315638,3.152107,2.750719
-27.358166,3.154023,2.7503042
-27.398338,3.1537762,2.7463431
-27.43978,3.1550307,2.7449508
-27.483316,3.1587183,2.7476926
-27.523674,3.1593065,2.7453132
-27.566517,3.1627972,2.7478557
-27.607107,3.1640992,2.7467957
-27.648851,3.1669204,2.748344
-27.69006,3.1694036,2.7493877
-27.73236,3.1734157,2.7530613
-27.774109,3.1770911,2.7562323
-27.812958,3.1776054,2.7541504
-27.850962,3.1772928,2.75073
-27.8893,3.1775608,2.7483425
-27.930588,3.1817229,2.7525697
-27.966902,3.1798522,2.7466855
-28.006493,3.1823547,2.7482285
-28.044174,3.182597,2.7460113
-28.082859,3.1843762,2.7464442
-28.120407,3.1848364,2.7447
-28.156868,3.1839683,2.7407622
-28.194983,3.1855981,2.741098
-28.233671,3.188298,2.7432966
-28.271597,3.1901493,2.744112
-28.309433,3.1921096,2.745164
-28.347803,3.195143,2.7480865
-28.38421,3.1953878,2.7463322
-28.423586,3.2005754,2.7530122
-28.461018,3.2029703,2.7550063
-28.493994,3.198187,2.744864
-28.529037,3.1968925,2.7406864
-28.564348,3.1961796,2.7375417
-28.601002,3.1980016,2.738751
-28.636772,3.1984608,2.73769
-28.673014,3.1999958,2.738505
-28.707653,3.198692,2.7345371
-28.743532,3.1999338,2.7349448
-28.780563,3.2037294,2.7397475
-28.815805,3.204187,2.738913
-28.850079,3.2027705,2.7349277
-28.885706,3.2044022,2.7361813
-28.92126,3.2061312,2.7376456
-28.958025,3.2109218,2.7443776
-28.992981,3.2118578,2.7445803
-29.025871,3.207937,2.7365355
-29.06137,3.2105434,2.7396736
-29.094692,3.2077885,2.7337008
-29.130257,3.2110786,2.7380943
-29.16394,3.2094955,2.7342038
-29.198496,3.210487,2.7347546
-29.233168,3.2120686,2.7363558
-29.268415,3.215736,2.7415667
-29.302322,3.2155085,2.7401595
-29.336658,3.2168667,2.7415051
-29.370655,3.217317,2.7413397
-29.403269,3.2128575,2.732813
-29.436487,3.2104814,2.7278895
-29.47024,3.2101927,2.7265773
-29.503277,3.2069857,2.7203102
-29.535486,3.1998541,2.7073598
-29.567747,3.1923006,2.6937232
-29.59978,3.1828196,2.6768236
-29.631842,3.172414,2.6583734
-29.66154,3.147021,2.6142817
-29.689016,3.1041107,2.5402036
-29.720877,3.083871,2.5050025
-29.749039,3.0330377,2.4174018
-29.757076,2.8102503,2.0350986
-29.768478,2.569308,1.6216574
-29.764622,2.1169713,0.84581804
-40.70018,1.2890315,0.39274645
-40.716022,1.3316817,0.47493935
-40.71385,1.4304166,0.6593175
-40.73211,1.470799,0.73796463
-40.712948,1.5265892,0.83950996
-40.71122,1.5744808,0.9291849
-40.70784,1.6225708,1.0190606
-40.734375,1.658,1.0901666
-40.713177,1.7124338,1.1892285
-40.74489,1.7451687,1.256319
-40.697357,1.8089759,1.3688512
-40.737583,1.837743,1.4300823
-40.667397,1.9090257,1.5531116
-40.71378,1.9348416,1.6099982
-40.65392,2.0007522,1.7248068
-40.636364,2.0499911,1.8153458
-40.655754,2.085063,1.8854485
-40.654335,2.1275253,1.9660921
-40.675056,2.161611,2.0347428
-40.716484,2.1881022,2.0926366
-40.92576,2.1967888,2.14642
-40.605217,2.5057778,2.682272
-40.63958,2.5329778,2.7410173
-40.714767,2.546919,2.7817526
-40.8972,2.5267963,2.7764997
-40.887703,2.5684288,2.8553443
-40.83235,2.6240551,2.95288
-40.8791,2.6474276,3.0069823
-40.98613,2.6524208,3.036768
-41.088737,2.659231,3.0693512
-41.171623,2.6723783,3.1106496
-41.284065,2.6771016,3.1412206
-41.37762,2.68785,3.180058
-41.508183,2.688294,3.2059207
-41.63434,2.6906207,3.2347226
-41.756947,2.69454,3.2660627
-41.884174,2.6977372,3.2969813
-42.010563,2.70176,3.3294601
-42.148922,2.7031112,3.3591156
-42.28647,2.7053401,3.3904476
-42.432396,2.705996,3.4204235
-42.550724,2.7145886,3.4607549
-42.623646,2.7354634,3.5165224
-42.737144,2.7461865,3.5603313
-42.78916,2.7729304,3.6237974
-42.851063,2.7973046,3.6846423
-42.938805,2.8154745,3.738428
-42.986053,2.8438191,3.8044534
-43.089226,2.8588057,3.8552208
-43.94772,2.6951473,3.7020874
-43.942783,2.7385845,3.788044
-43.94002,2.7812672,3.8730478
-43.95176,2.820409,3.9540315
-43.961014,2.8599658,4.035457
-43.978233,2.8976011,4.114773
-44.048218,2.9235826,4.1816125
-44.518486,2.8633373,4.157441
-44.853184,2.8345513,4.168812
-45.348305,2.773838,4.149106
-45.789833,2.7269254,4.146303
-46.264847,2.6755462,4.141583
-46.786938,2.6172447,4.1328177
-47.32254,2.5590742,4.127307
-47.90738,2.4941523,4.118579
-48.561905,2.4189444,4.103769
-49.171154,2.355853,4.1042643
-49.766853,2.298543,4.113868
-50.612965,2.198279,4.0890474
-51.443073,2.1054668,4.076273
-52.145058,2.0399652,4.0923285
-53.30906,1.8969841,4.0484457
-54.29353,1.7913072,4.0429564
-0.97376823,1.2896879,3.6768265
-0.9995098,1.2134764,3.513298
-1.104536,1.1502757,3.3608675
-1.239769,1.0924637,3.2137022
-1.284214,1.0195527,3.0539064
-1.2975998,0.9411812,2.8893318
-1.3199158,0.8641598,2.7259722
-1.341423,0.78680587,2.5623198
-1.3801041,0.63069224,2.2336788
-1.3943996,0.551353,2.0680752
-1.4031124,0.47068572,1.9010897
-1.4178371,0.39088583,1.7349148
-1.4241161,0.30915117,1.5666828
-1.4594707,0.2328968,1.4041319
-2.7862968,0.33825803,1.3581262
-3.9000225,0.25639415,0.975276
-4.874712,0.3926642,1.0623841
-5.1710987,0.38277364,0.9853234
-5.05949,0.28184557,0.8032861
-8.368757,0.76433516,1.1422176
-8.69697,0.7760067,1.1035652
-9.24188,0.84246325,1.133853
-9.335241,0.79987526,1.0312467
-9.620266,0.80568266,0.9895048
-10.160349,0.87785125,1.0326061
-10.722786,0.9588523,1.0892963
-11.102926,0.9955101,1.0917697
-10.822651,0.8597386,0.87397385
-11.093527,0.86919355,0.8429208
-11.863743,1.0152414,0.9910159
-11.941931,0.9763031,0.8997469
-11.951584,0.91848373,0.78379536
-12.288378,0.9521785,0.78925514
-13.36705,1.198519,1.0799341
-12.867235,0.9979396,0.77510166
-13.799772,1.2102628,1.0253949
-13.339264,1.0185356,0.73119736
-13.563862,1.027266,0.7084141
-14.980256,1.3962388,1.1802721
-14.959735,1.3367531,1.0675535
-15.000375,1.2955949,0.9800272
-15.0628,1.2611263,0.9018712
-14.796017,1.1228418,0.67884064
-14.786868,1.0644355,0.5667496
-14.963844,1.0656099,0.53849363
-14.763664,0.9445405,0.3378148
-14.805186,0.90134573,0.24694252
-22.706232,2.906845,2.7990012
-22.802315,2.9136028,2.7969685
-22.899693,2.9214337,2.7968345
-22.99517,2.929007,2.7965689
-23.113136,2.946769,2.812192
-23.207876,2.955206,2.8137984
-23.296837,2.961652,2.8125877
-23.39946,2.974651,2.821734
-23.463104,2.9708183,2.8050814
-23.538208,2.9724379,2.797041
-23.62077,2.97785,2.795086
-23.700794,2.9825456,2.7922177
-23.780582,2.9875655,2.7900534
-23.854115,2.9900672,2.7841406
-23.939413,2.9985743,2.7878242
-24.01324,3.0020463,2.783802
-24.090553,3.0076158,2.7832565
-24.167614,3.013496,2.7833848
-24.247334,3.0211437,2.7864904
-24.319489,3.0254486,2.7844868
-24.389973,3.0293007,2.7819295
-24.455935,3.0312057,2.7764344
-24.529587,3.0374575,2.7780104
-24.598003,3.0413828,2.7760396
-24.671146,3.0482044,2.77885
-24.738403,3.0522935,2.7774487
-24.804752,3.0562625,2.776
-24.86743,3.0585794,2.77204
-24.934063,3.0634303,2.7722893
-24.99842,3.0673826,2.7712321
-25.06257,3.0715792,2.7707052
-25.12516,3.075242,2.7694488
-25.188225,3.0795305,2.7693343
-25.249079,3.0828812,2.7678294
-25.307762,3.085278,2.7648983
-25.369564,3.0898652,2.7656455
-25.430498,3.0942872,2.7662482
-25.487337,3.096545,2.763443
-25.547232,3.1010091,2.7643518
-25.601812,3.1024804,2.7604833
-25.654356,3.1029365,2.755054
-25.707415,3.1039805,2.7506866
-25.765335,3.1084633,2.7520647
-25.819954,3.1111174,2.7505455
-25.874413,3.113965,2.7494464
-25.926266,3.1153605,2.7460551
-25.980408,3.118588,2.7457795
-26.034374,3.1220074,2.7459202
-26.085192,3.123537,2.743033
-26.135286,3.1248248,2.7398357
-26.188183,3.128378,2.7404804
-26.23858,3.1304343,2.7387366
-26.291138,3.1343515,2.74017
-26.340662,3.1363351,2.7384806
-26.389484,3.1380615,2.7364492
-26.437616,3.1395261,2.7340631
-26.48729,3.1424353,2.734167
-26.532959,3.1425085,2.72962
-26.58235,3.1457443,2.7304325
-26.63104,3.1487157,2.730886
-26.679577,3.1518507,2.7316928
-26.72478,3.1525404,2.7284813
-26.771454,3.1546838,2.7277818
-26.815924,3.1552312,2.7244763
-26.862352,3.1576757,2.7244287
-26.906609,3.1585119,2.7217503
-26.951775,3.1603723,2.7208629
-26.997812,3.1632633,2.721784
-27.041735,3.1645288,2.7200356
-27.08555,3.1659336,2.7185893
-27.130703,3.1688168,2.719706
-27.173332,3.1696067,2.7173548
-27.21681,3.171427,2.7168097
-27.259706,3.172934,2.7157993
-27.303877,3.1759298,2.7173743
-27.346087,3.1772559,2.716185
-27.387745,3.178259,2.7145095
-27.427979,3.178025,2.710794
-27.468153,3.1779118,2.7073393
-27.51086,3.1806602,2.7088065
-27.553434,3.1835425,2.7105632
-27.593765,3.1842608,2.7086978
-27.634018,3.1850994,2.7070942
-27.676239,3.1883655,2.7096834
-27.718723,3.1922247,2.7133446
-27.760656,3.1957521,2.7165012
-27.80008,3.1966224,2.715178
-27.839424,3.1976087,2.7141085
-27.879068,3.1991775,2.714087
-27.918617,3.2008631,2.7143202
-27.959927,3.2050083,2.7188153
-27.997057,3.2041168,2.7147431
-28.035955,3.2056813,2.7149262
-28.070864,3.2021766,2.706472
-28.10964,3.203958,2.7071257
-28.147293,3.2044337,2.7055902
-28.185558,3.2059646,2.705914
-28.223074,3.2066557,2.7048464
-28.261175,3.208405,2.7056441
-28.298225,3.2088346,2.7042222
-28.33616,3.2108,2.7054892
-28.372768,3.2109616,2.7037005
-28.407814,3.2088315,2.6980128
-28.445242,3.2106316,2.6991348
-28.484615,3.215901,2.7062802
-28.52154,3.2174368,2.7070436
-28.557268,3.2171493,2.7047095
-28.593237,3.2174416,2.7034178
-28.628624,3.216866,2.700673
-28.665813,3.2197738,2.7039828
-28.701107,3.2193944,2.7016625
-28.737122,3.2205658,2.7020636
-28.772583,3.2208645,2.7009997
-28.808714,3.2227187,2.7026668
-28.844534,3.2241855,2.7037077
-28.879156,3.2233114,2.7007432
-28.914864,3.2249703,2.7022014
-28.949003,3.223306,2.6979508
-28.983358,3.22222,2.6947403
-29.019125,3.2246528,2.6976619
-29.053822,3.224732,2.69655
-29.089817,3.2283387,2.701589
-29.123857,3.2271311,2.6983294
-29.158968,3.228963,2.700376
-29.194008,3.2308896,2.7026277
-29.228477,3.2314315,2.70252
-29.26339,3.2335443,2.705175
-29.296995,3.2318025,2.7011838
-29.331211,3.2321227,2.700809
-29.36469,3.2300615,2.69634
-29.39942,3.2325375,2.6997838
-29.432772,3.230157,2.6948357
-29.46604,3.2273662,2.6892128
-29.499592,3.2256515,2.6854959
-29.532167,3.2195609,2.6742144
-29.563925,3.2090855,2.655353
-29.595924,3.1986876,2.6366582
-29.630121,3.1987972,2.6362548
-29.658377,3.1652071,2.57733
-29.687199,3.1301842,2.5159407
-29.71664,3.0937312,2.4520912
-29.74676,3.0558488,2.385785
-29.751566,2.8100097,1.9580078
-29.76743,2.6084173,1.6071267
-29.762901,2.15734,0.82248926
-40.70962,1.3581784,0.34798813
-40.712193,1.4063699,0.43921328
-40.68625,1.5144348,0.6392908
-40.72905,1.5442338,0.70218945
-40.71627,1.5969243,0.79996014
-40.726604,1.6395719,0.8823743
-40.701534,1.696178,0.9858537
-40.7402,1.7265964,1.0496669
-40.71984,1.7802839,1.1485305
-40.73608,1.8190272,1.2248311
-40.70901,1.8742664,1.3257751
-40.72377,1.9128275,1.4016814
-40.67502,1.9751899,1.5129352
-40.718132,2.0022933,1.5716996
-40.71331,2.0471427,1.6567488
-40.662502,2.1084497,1.7659292
-40.661835,2.1507742,1.8470001
-40.67479,2.1878376,1.9203005
-40.717632,2.214034,1.9777408
-40.739685,2.2475133,2.0458374
-40.763767,2.2801127,2.1126695
-40.856716,2.2889037,2.1452055
-40.896355,2.3161764,2.2045507
-40.958893,2.3357275,2.252931
-40.949463,2.4194403,2.4134717
-40.57931,2.5794508,2.6605058
-40.656464,2.5928164,2.6997523
-40.725605,2.6089952,2.7431736
-40.913433,2.5881326,2.7351604
-40.98437,2.6046004,2.7796345
-40.886776,2.6729867,2.8960357
-40.939053,2.694962,2.9481735
-41.04186,2.7018862,2.9798708
-41.19745,2.6936212,2.9912572
-41.31479,2.6973655,3.019483
-41.378227,2.7172477,3.0698643
-41.524426,2.7136338,3.0889812
-41.61656,2.7260299,3.1299753
-41.745804,2.7284274,3.1580634
-41.888798,2.7276413,3.1824565
-42.015533,2.731985,3.2141209
-42.145996,2.735913,3.245739
-42.326965,2.7270107,3.2613044
-42.434696,2.738288,3.3035107
-42.579224,2.7404685,3.334548
-42.678574,2.7549186,3.381709
-42.800022,2.7641716,3.4227347
-42.872215,2.7862737,3.4802814
-42.936684,2.8105054,3.5407348
-43.071735,2.8177135,3.580534
-43.153484,2.8383603,3.63728
-43.900387,2.7013464,3.5040646
-43.922028,2.7387028,3.5831342
-43.931816,2.7787051,3.6653738
-43.943832,2.8180342,3.746797
-43.949585,2.8586273,3.8296762
-43.9642,2.8970728,3.9100366
-43.975395,2.936144,3.9911137
-44.005974,2.9708855,4.067294
-44.063667,2.999824,4.1370974
-44.329964,2.9850457,4.158961
-44.722813,2.945407,4.155159
-45.17964,2.8948026,4.1417007
-45.622063,2.849574,4.1364737
-46.03457,2.8126593,4.1424274
-46.60468,2.7470984,4.1211395
-47.12966,2.6933231,4.115138
-47.717396,2.6304426,4.1030836
-48.306202,2.5705156,4.097433
-48.92411,2.5083728,4.0931835
-49.527527,2.452153,4.0983515
-50.217346,2.3837032,4.095826
-51.098904,2.2852266,4.0701256
-51.877758,2.2092352,4.070288
-52.96595,2.0847425,4.032887
-53.956375,1.9824424,4.0217843
-1.0077972,1.3678675,3.4356594
-1.2394161,1.2445786,3.1353135
-1.267334,1.1688719,2.97297
-1.2914944,1.0923941,2.809956
-1.3158016,1.0157773,2.6468406
-1.3383179,0.9386785,2.4832811
-1.3406391,0.85781074,2.3159542
-1.558176,0.81540823,2.1877804
-1.5519314,0.73296213,2.0192342
-1.393404,0.62184453,1.8203559
-1.4139595,0.5432732,1.6552052
-1.4462605,0.4667201,1.4922276
-1.3634396,0.36760402,1.3045559
-1.0874424,0.22950697,1.0730095
-2.8051662,0.48879838,1.2866316
-7.108286,0.8012984,1.1395173
-7.432768,0.8047762,1.0883965
-8.023523,0.8711872,1.1168647
-8.376707,0.8854251,1.0826674
-8.615339,0.8743925,1.0181036
-8.641333,0.8135309,0.8911505
-9.232893,0.8897202,0.93981934
-9.264948,0.83169556,0.81781626
-9.575613,0.84287167,0.78578806
-10.705841,1.0623443,1.0275965
-11.300831,1.1519642,1.1031823
-10.810459,0.9643223,0.81366587
-10.691084,0.8702848,0.64681625
-11.753347,1.0883975,0.8982887
-11.980471,1.0889022,0.8603425
-12.065493,1.051908,0.7723241
-13.266085,1.3219621,1.1037807
-12.075169,0.93379545,0.53645706
-12.879633,1.099525,0.72861147
-13.943743,1.3443592,1.0336165
-13.531031,1.1698289,0.7581134
-13.848076,1.2052071,0.7749567
-15.111356,1.4695134,1.085742
-14.995755,1.3816514,0.93208027
-14.88617,1.2944264,0.7788
-14.764986,1.202431,0.6181779
-15.021564,1.227488,0.6254568
-14.975046,1.1579461,0.49690104
-14.831361,1.0564997,0.32179546
-22.684961,2.9452868,2.7600675
-22.784376,2.9529045,2.7601671
-22.878702,2.958975,2.758113
-22.97432,2.9661036,2.7579527
-23.082998,2.979287,2.767517
-23.192795,2.9936104,2.7791514
-23.291214,3.0036998,2.7844095
-23.39856,3.0182693,2.7969785
-23.469181,3.0173025,2.785273
-23.541985,3.01764,2.7757936
-23.627619,3.0241194,2.776227
-23.706127,3.0278344,2.77247
-23.783655,3.031518,2.7688441
-23.861713,3.0358634,2.7664533
-23.943272,3.0422835,2.7675605
-24.015625,3.0447874,2.7625785
-24.095179,3.051136,2.7639294
-24.175922,3.0585222,2.76713
-24.245398,3.0608404,2.7623463
-24.317595,3.0648746,2.7604828
-24.388845,3.0688305,2.7586484
-24.45772,3.0719695,2.7556448
-24.527107,3.075743,2.7538147
-24.59699,3.0801551,2.75317
-24.666645,3.0848389,2.7531161
-24.733261,3.0883048,2.7512193
-24.80037,3.0923996,2.7504888
-24.865181,3.0956244,2.7484713
-24.92773,3.097962,2.74513
-24.996946,3.104331,2.748529
-25.053663,3.104103,2.7412267
-25.111618,3.1048458,2.73563
-25.177483,3.1104198,2.7381043
-25.240437,3.1146977,2.7385712
-25.301193,3.1180477,2.7376266
-25.355846,3.1181133,2.7313604
-25.401909,3.1132793,2.7170768
-25.466103,3.1196127,2.7213979
-25.527462,3.1246076,2.7236185
-25.583492,3.1266572,2.7210555
-25.636198,3.126916,2.7156105
-25.690046,3.1281595,2.7119002
-25.75,3.1336086,2.7153049
-25.80167,3.1340373,2.7104278
-25.852612,3.1342397,2.7052612
-25.907711,3.137462,2.7052402
-25.961422,3.1400638,2.7042747
-26.01437,3.142446,2.703034
-26.068947,3.1462462,2.7042656
-26.120974,3.14859,2.7031403
-26.178112,3.1548402,2.708683
-26.230362,3.1579733,2.7090693
-26.275543,3.1562831,2.7014017
-26.3258,3.1585057,2.7004142
-26.375345,3.1604798,2.6990886
-26.42643,3.1638856,2.7002654
-26.47623,3.1666217,2.7003918
-26.522577,3.166981,2.696566
-26.569916,3.168343,2.6945148
-26.618752,3.171143,2.6949801
-26.661554,3.1693947,2.6877851
-26.711721,3.1737962,2.691122
-26.7596,3.1766446,2.6918912
-26.804733,3.1774893,2.6893182
-26.850275,3.178913,2.687801
-26.897224,3.1817894,2.6888313
-26.942516,3.1835113,2.6879597
-26.986687,3.184503,2.6859064
-27.032234,3.1869526,2.6864119
-27.076668,3.1886687,2.6857276
-27.120022,3.189643,2.6838365
-27.163273,3.190754,2.682241
-27.206423,3.1920002,2.6809382
-27.250864,3.194717,2.6822248
-27.295628,3.1980217,2.6845841
-27.337507,3.1987844,2.6826344
-27.3793,3.1996758,2.680963
-27.419666,3.1993456,2.6772442
-27.459534,3.1986854,2.6730099
-27.501513,3.2004037,2.6729307
-27.544664,3.2036102,2.6754785
-27.584719,3.2037718,2.6728263
-27.624287,3.2035973,2.6696453
-27.667492,3.2076468,2.6738205
-27.708508,3.2095442,2.6743307
-27.749414,3.211566,2.6751099
-27.789421,3.2127922,2.6745648
-27.828949,3.2136762,2.6734786
-27.869545,3.2160614,2.6750464
-27.910398,3.219031,2.6776814
-27.948524,3.21888,2.674951
-27.985863,3.217909,2.670845
-28.024971,3.219371,2.67101
-28.063986,3.2209466,2.671423
-28.102562,3.2221687,2.67127
-28.13968,3.2216303,2.6681013
-28.176762,3.2211967,2.6651583
-28.21579,3.2236848,2.6673503
-28.253405,3.2244048,2.6665082
-28.291271,3.2257023,2.6667185
-28.328743,3.2266357,2.6663404
-28.365528,3.226729,2.6645403
-28.403473,3.2288198,2.6662707
-28.442211,3.2324426,2.6707225
-28.479942,3.2347522,2.672926
-28.51615,3.234788,2.6712022
-28.552032,3.2344472,2.668861
-28.587608,3.2337265,2.6658974
-28.623964,3.2345366,2.6656523
-28.661304,3.2373626,2.6689763
-28.698023,3.2393348,2.6708498
-28.734406,3.2409291,2.672103
-28.769495,3.2402194,2.6693635
-28.805038,3.2405663,2.6685143
-28.840538,3.24101,2.6678743
-28.876219,3.2420316,2.6682873
-28.91206,3.2436335,2.6697583
-28.947186,3.2438815,2.6688957
-28.982065,3.2437398,2.667386
-29.016716,3.2432058,2.665228
-29.052134,3.2447047,2.6666756
-29.088053,3.2477565,2.6708903
-29.123133,3.2489617,2.6719012
-29.157623,3.2487993,2.6705484
-29.191917,3.2482417,2.6685386
-29.227028,3.2502117,2.671008
-29.261906,3.2517874,2.6728234
-29.295954,3.2510142,2.670545
-29.329996,3.2503295,2.6684594
-29.3646,3.2516894,2.6700072
-29.399012,3.252652,2.6708932
-29.432343,3.2497852,2.6650782
-29.465727,3.247004,2.6594472
-29.498455,3.241364,2.6488214
-29.530527,3.2323697,2.6323233
-29.56291,3.2239456,2.6168609
-29.595287,3.2146175,2.5998387
-29.627787,3.2048776,2.5821257
-29.657644,3.1789846,2.5359955
-29.686914,3.1457765,2.4770088
-29.716024,3.1062312,2.4068842
-29.74871,3.0854619,2.3698606
-29.745049,2.7745914,1.821773
-29.770365,2.649412,1.6008148
-29.7671,2.214197,0.83357954
-40.590744,1.4824097,0.3997469
-40.65859,1.5019715,0.4465661
-40.696156,1.5822573,0.60482216
-40.72783,1.6166232,0.67492914
-40.705376,1.6728163,0.77894545
-40.735687,1.7071137,0.84890413
-40.689606,1.7716277,0.96555805
-40.741154,1.7968585,1.0214643
-40.806183,1.8168461,1.0694056
-40.72875,1.8918331,1.2017589
-40.731125,1.9353402,1.2856784
-40.689053,1.9952061,1.3944559
-40.717876,2.0278988,1.4617357
-40.71626,2.0716572,1.5457997
-40.74225,2.104951,1.6139812
-40.62696,2.189019,1.7586169
-40.734604,2.192301,1.7815495
-40.683628,2.2520123,1.8891897
-40.673923,2.2965736,1.9739952
-40.713646,2.3236697,2.032744
-40.77175,2.3444602,2.0822258
-40.822742,2.3677604,2.1355472
-40.848473,2.3995395,2.2014465
-40.886654,2.427082,2.2611637
-40.94616,2.4875011,2.3885593
-40.689117,2.608951,2.584412
-40.67562,2.651518,2.665493
-40.736916,2.6704094,2.7124596
-41.10017,2.596519,2.6269312
-40.97815,2.6725674,2.7561784
-41.068398,2.6836414,2.7928023
-41.17193,2.6911259,2.8246465
-41.187145,2.7249973,2.8938813
-41.320854,2.7243128,2.9148192
-41.43051,2.7311795,2.9467268
-41.532093,2.7408211,2.9828472
-41.648994,2.746602,3.0140004
-41.784046,2.7478893,3.039415
-41.921967,2.7490416,3.0651379
-42.029068,2.7591777,3.1035318
-42.201862,2.75225,3.1193428
-42.331936,2.7574608,3.1520643
-42.471245,2.7608705,3.1828814
-42.616173,2.763495,3.2131987
-42.724308,2.776146,3.2572436
-42.826805,2.7906606,3.3041315
-42.902298,2.8122716,3.3605976
-42.988674,2.8314674,3.4142303
-43.0916,2.8469872,3.4634962
-43.904785,2.693919,3.299594
-43.92855,2.7310638,3.37853
-43.925507,2.7743359,3.4651427
-43.9312,2.8153634,3.5488915
-43.940025,2.8554916,3.6314912
-43.9558,2.893908,3.7119818
-43.97289,2.9319148,3.7919846
-43.98941,2.969936,3.8720193
-44.049995,2.998439,3.940826
-44.262398,2.995131,3.9726954
-44.473076,2.993242,4.0072393
-44.74406,2.9800549,4.0299015
-44.897724,2.9919286,4.082274
-45.121246,2.9906163,4.1206717
-45.491776,2.9616158,4.1296687
-45.947525,2.9181232,4.1248636
-46.40989,2.8758087,4.123813
-46.90683,2.8294835,4.1210747
-47.427822,2.7813702,4.1192646
-48.001953,2.7263827,4.1133614
-48.641026,2.6628506,4.102146
-49.297703,2.5996346,4.0950193
-49.937958,2.5427537,4.098024
-50.732952,2.462918,4.082892
-51.55555,2.3826942,4.072325
-52.317947,2.316752,4.08011
-53.528862,2.1822205,4.030875
-54.554966,2.0835726,4.021205
-0.9833374,1.6158025,3.5236263
-1.0335693,1.5434203,3.3635406
-1.1631069,1.4833128,3.2152476
-1.2427044,1.4157867,3.060503
-1.2696209,1.3399837,2.8980012
-1.2937489,1.263591,2.7349625
-1.3209438,1.1875494,2.5723143
-1.3764687,1.1161351,2.4145117
-1.3592854,1.0322673,2.2437878
-1.3850174,0.95546484,2.0804157
-1.3751144,0.8721788,1.9100275
-1.4060669,0.7958567,1.7471409
-1.5606308,0.7419622,1.6093531
-1.3750534,0.6254828,1.401453
-1.3826237,0.5439875,1.2325392
-2.8088226,0.73365927,1.3779349
-3.4907722,0.7866645,1.3702202
-4.0366516,0.81646204,1.3383064
-4.8222466,0.8970809,1.3698988
-6.368225,0.852643,1.0188203
-6.741169,0.8621323,0.975852
-7.3099365,0.84711313,0.8508434
-8.619825,1.0746326,1.0951586
-8.59338,1.0021398,0.95280266
-8.581148,0.9324372,0.81390285
-9.237356,1.020365,0.8839421
-9.289806,0.9673538,0.7684498
-10.630583,1.2270722,1.0735006
-10.657381,1.1717448,0.9578028
-11.45372,1.3079457,1.1028652
-10.644543,1.0437393,0.7026801
-10.684128,0.9908664,0.5902653
-11.984755,1.2642534,0.9299536
-11.963251,1.1992269,0.8032298
-13.101658,1.4415064,1.106781
-12.038649,1.0994277,0.5918503
-11.732393,0.9557564,0.3535223
-14.081478,1.5408721,1.1504879
-13.9861355,1.4600282,1.0044765
-13.53985,1.2791464,0.7143698
-14.980732,1.6337776,1.1950121
-15.044473,1.5474749,1.0140057
-15.077778,1.5045223,0.9238415
-14.816859,1.3732979,0.704164
-14.759151,1.3014207,0.5709224
-14.886921,1.2856016,0.5203228
-14.746373,1.1870482,0.34721327
-14.813307,1.152179,0.26846123
-22.647293,2.9837615,2.7121997
-22.762878,2.9972372,2.7225213
-22.85575,3.0021815,2.719533
-22.956253,3.0107632,2.7225766
-23.061913,3.0220613,2.730215
-23.167936,3.0341427,2.739366
-23.276646,3.0480046,2.751637
-23.370146,3.0560143,2.7547374
-23.452503,3.0597289,2.7511206
-23.538467,3.065464,2.7509575
-23.619564,3.0695214,2.7482681
-23.6989,3.0732265,2.7451868
-23.774223,3.0755396,2.7400126
-23.850101,3.078497,2.7360501
-23.933245,3.085223,2.7384067
-24.000467,3.0849717,2.7295241
-24.08309,3.0923367,2.7332654
-24.162457,3.0986295,2.7354245
-24.225445,3.0974522,2.7254615
-24.29414,3.0993595,2.7207046
-24.364103,3.1022491,2.7177067
-24.437456,3.1072102,2.7182736
-24.509129,3.1117373,2.7182708
-24.574879,3.1136384,2.7140565
-24.639038,3.1150603,2.7091722
-24.706545,3.1185596,2.7078676
-24.774536,3.1226878,2.7077413
-24.836758,3.124113,2.7032356
-24.899506,3.1261437,2.6998572
-24.96345,3.1291575,2.6982408
-25.029236,3.133541,2.699037
-25.088718,3.1347766,2.6946764
-25.145365,3.1347122,2.6882386
-25.205223,3.1367583,2.68545
-25.26359,3.1382592,2.681849
-25.327057,3.1430483,2.683896
-25.385727,3.145373,2.6818972
-25.445518,3.148688,2.6816745
-25.504473,3.1518335,2.6812682
-25.561321,3.1540208,2.6793427
-25.616737,3.1556277,2.6765275
-25.669487,3.155854,2.6714606
-25.71775,3.1534925,2.6620789
-25.777733,3.1588469,2.6659079
-25.832558,3.161228,2.664772
-25.887827,3.1642041,2.66474
-25.939896,3.1653657,2.6617007
-25.99483,3.1687264,2.6625042
-26.043627,3.168228,2.6567917
-26.094105,3.1691136,2.6535254
-26.143288,3.1693547,2.649231
-26.198748,3.174271,2.6530356
-26.245934,3.1736238,2.6473718
-26.294748,3.174371,2.644175
-26.347404,3.1781821,2.646325
-26.39819,3.180929,2.6467228
-26.443815,3.1800938,2.6410208
-26.491018,3.1806614,2.637806
-26.54193,3.1843257,2.6400065
-26.5905,3.1864772,2.6396704
-26.636251,3.1866765,2.6360264
-26.684027,3.1887205,2.635642
-26.73481,3.1934767,2.6400256
-26.782791,3.1962707,2.6410823
-26.828564,3.197511,2.6395102
-26.871675,3.1967518,2.6345296
-26.917238,3.198281,2.633583
-26.962183,3.1995242,2.6322045
-27.00652,3.200478,2.6303816
-27.050266,3.2011375,2.628106
-27.095362,3.203242,2.6284075
-27.1408,3.2059278,2.629785
-27.18704,3.2096367,2.6330094
-27.231245,3.2117367,2.6334882
-27.2721,3.2108917,2.6288762
-27.314264,3.2114944,2.6268497
-27.35859,3.2144432,2.6289806
-27.4041,3.2188642,2.6337504
-27.445919,3.2198687,2.6325936
-27.492842,3.2263594,2.641108
-27.526703,3.2195742,2.6263967
-27.572483,3.2254407,2.6339297
-27.612633,3.2256076,2.6315126
-27.65107,3.2240903,2.6261845
-27.690287,3.223587,2.622685
-27.730652,3.224557,2.6218233
-27.772505,3.2274625,2.6244187
-27.815777,3.2323158,2.630495
-27.85772,3.2359364,2.6344543
-27.894604,3.2337446,2.6282206
-27.930368,3.2302816,2.6197863
-27.97055,3.2324219,2.6212773
-28.00774,3.2310023,2.6165328
-28.053417,3.2407444,2.6315417
-28.087284,3.2354,2.619954
-28.128433,3.2398553,2.6257238
-28.160646,3.232387,2.6104565
-28.197966,3.2319605,2.6076798
-28.236547,3.233499,2.6084223
-28.279518,3.2416713,2.6209536
-28.316265,3.2411084,2.6180654
-28.352053,3.2392447,2.6129131
-28.392677,3.2449713,2.6212535
-28.433706,3.2517564,2.6315184
-28.471611,3.2539673,2.6337185
-28.504284,3.2478151,2.6211205
-28.537064,3.241744,2.6086988
-28.577059,3.2480268,2.6182456
-28.618994,3.2582097,2.634766
-28.655142,3.2585793,2.6338997
-28.691494,3.259522,2.63409
-28.727783,3.2605636,2.6344972
-28.764252,3.2621808,2.6359658
-28.797073,3.2567594,2.6249518
-28.830458,3.2523732,2.6158123
-28.869337,3.259523,2.6272388
-28.907564,3.2658296,2.637207
-28.940676,3.261245,2.6278234
-28.97595,3.261533,2.62715
-29.009165,3.2571213,2.6181402
-29.04638,3.2623904,2.6264162
-29.082859,3.2663226,2.632348
-29.116453,3.2631426,2.625639
-29.15152,3.263899,2.6259823
-29.186369,3.2642672,2.6256685
-29.220684,3.2632809,2.6229744
-29.254839,3.2619014,2.6196122
-29.290695,3.2659237,2.6259246
-29.32495,3.265209,2.6238198
-29.359198,3.2645833,2.6219077
-29.392488,3.260658,2.6141381
-29.428839,3.26796,2.626449
-29.46202,3.2637265,2.618197
-29.4947,3.2571507,2.605792
-29.52786,3.2521124,2.5961652
-29.560707,3.245215,2.5832481
-29.59361,3.237913,2.5696397
-29.626495,3.2297208,2.5544705
-29.657131,3.20799,2.5151353
-29.685703,3.170757,2.4481173
-29.715496,3.1355307,2.384709
-29.746021,3.0993946,2.3196974
-29.750154,2.8513997,1.8759279
-29.771364,2.6969113,1.5993257
-29.764664,2.2358131,0.77446985
-40.564194,1.5694897,0.38146925
-40.682953,1.5677929,0.39390612
-40.678925,1.617409,0.4886999
-40.654964,1.6746459,0.59557056
-40.70078,1.7029927,0.65629053
-40.731766,1.7372029,0.726388
-40.721222,1.787648,0.82223797
-40.68715,1.8467512,0.9316726
-40.707077,1.8842359,1.0068321
-40.74999,1.9126713,1.0677443
-40.683716,1.9823499,1.1934385
-40.724487,2.0110133,1.2546606
-40.671635,2.074249,1.369906
-40.693764,2.1092215,1.4409156
-40.658775,2.164654,1.5436883
-40.637783,2.214417,1.6375041
-40.65444,2.2503195,1.7097888
-40.777374,2.2488096,1.7244854
-40.865067,2.2601001,1.7591534
-40.683907,2.363687,1.9352112
-40.703243,2.3977177,2.004549
-40.761326,2.4186032,2.0539079
-40.79514,2.4476235,2.1157174
-40.844864,2.471373,2.1696181
-40.878723,2.5003014,2.2314148
-40.91908,2.5270905,2.290053
-40.95905,2.55399,2.3489313
-40.846786,2.6283913,2.4785676
-40.907944,2.686769,2.6029177
-41.025124,2.6897578,2.6266265
-41.076103,2.7130103,2.6803765
-41.128548,2.7359118,2.7337356
-41.155777,2.7662392,2.7980094
-41.18344,2.796362,2.8620229
-41.803318,2.6582563,2.68393
-41.477158,2.7895114,2.89404
-41.58882,2.7969494,2.9262838
-41.78631,2.781385,2.9262543
-41.969814,2.7706695,2.9337754
-42.055622,2.7870157,2.9799614
-42.217785,2.7835345,2.9987192
-42.334534,2.7926989,3.035633
-42.50073,2.7896576,3.056087
-42.63319,2.7960174,3.0900683
-42.77215,2.801358,3.123138
-42.898254,2.8105297,3.161919
-42.94294,2.8401656,3.2287693
-43.06882,2.8502603,3.2695522
-43.10543,2.8821714,3.3398528
-43.228237,2.8938267,3.3834639
-43.905754,2.7773945,3.2594018
-43.919228,2.8168538,3.3414369
-43.92929,2.856937,3.4242678
-43.946262,2.895317,3.5048885
-43.96172,2.9339132,3.5857935
-43.976593,2.9725118,3.6667032
-44.06658,2.9949462,3.7273865
-44.25016,2.9980054,3.7644014
-44.457573,2.9970067,3.7972488
-44.655632,2.9989493,3.8346224
-44.869053,2.9987624,3.8703423
-45.08835,2.9984632,3.90693
-45.325012,2.9958477,3.9418306
-45.514877,3.003441,3.9897878
-45.772923,2.9989862,4.024776
-45.999428,3.0017295,4.0692573
-46.26358,2.9986455,4.10833
-46.716118,2.9627194,4.112318
-47.23802,2.916801,4.1077957
-47.79761,2.8670366,4.1019754
-48.352325,2.8210888,4.1033163
-49.009865,2.76059,4.092563
-49.650993,2.7063313,4.092004
-50.332047,2.6488972,4.0919685
-51.198383,2.5651124,4.0698137
-52.013405,2.4940865,4.0653214
-53.04466,2.3936162,4.0377436
-53.99825,2.3105333,4.0328574
-1.0578938,1.7151937,3.2849474
-1.24716,1.6634965,3.1459532
-1.2670822,1.5868955,2.9825926
-1.2969131,1.5116625,2.8206682
-1.3142014,1.434345,2.6566067
-1.3258152,1.3559315,2.4913592
-1.3483105,1.2790608,2.3277564
-1.555418,1.2325828,2.1978636
-1.4926662,1.1415248,2.018826
-1.3780804,1.0409241,1.8284645
-1.404213,0.9638462,1.6645818
-1.438242,0.88798475,1.5021448
-2.7790813,0.96827364,1.4555206
-3.0053425,0.9312992,1.3435087
-3.5147247,0.9486351,1.2990131
-4.1947136,1.0012276,1.3004761
-4.22406,0.9310632,1.1515832
-5.4601364,1.0986652,1.3027835
-5.4721413,1.0282326,1.156374
-5.979862,1.0582023,1.1389303
-6.0896606,1.0088427,1.0208406
-6.129196,0.9450977,0.8843336
-8.638725,1.2089417,1.0378032
-8.633738,1.1417658,0.9018612
-8.504742,1.0460091,0.72677135
-9.231216,1.1462305,0.8204322
-10.507055,1.3789313,1.1001754
-10.656435,1.2910779,0.899817
-11.616276,1.4624562,1.1031423
-11.169363,1.2322054,0.70456505
-11.955019,1.3693626,0.8650265
-12.943653,1.5632029,1.1098986
-12.977854,1.5157435,1.0093832
-12.552414,1.2304235,0.4983878
-14.229288,1.628293,1.0533104
-13.777626,1.4498401,0.76107836
-15.014199,1.6875954,1.0592747
-14.962405,1.6205244,0.9327564
-14.977364,1.5720601,0.83397865
-14.771423,1.4585624,0.63694096
-14.933916,1.452538,0.6020808
-14.969015,1.4090202,0.510623
-14.780913,1.2975378,0.3154006
-14.808525,1.2506065,0.21841335
-22.5922,3.0159307,2.653081
-22.694485,3.0233452,2.6546826
-22.782122,3.0254867,2.6479154
-22.891687,3.0369298,2.656548
-22.992159,3.045313,2.6604185
-23.105587,3.05962,2.6742392
-23.195126,3.064661,2.6730776
-23.306883,3.079567,2.688367
-23.42276,3.0969353,2.7079725
-23.472784,3.0866485,2.6820927
-23.555754,3.0908635,2.6803327
-23.639229,3.0957515,2.679862
-23.71865,3.0992954,2.6773276
-23.8016,3.1048553,2.6783133
-23.876034,3.1070013,2.6737704
-23.951756,3.1101289,2.6710148
-24.024296,3.112178,2.6666021
-24.095901,3.1141655,2.6622262
-24.167315,3.1164334,2.6584582
-24.245804,3.1224856,2.661193
-24.314602,3.1242719,2.6568913
-24.383934,3.1266787,2.6537642
-24.452353,3.128997,2.6506176
-24.516312,3.1294322,2.6444082
-24.587893,3.1340656,2.6454282
-24.652203,3.1353626,2.6409183
-24.715652,3.1365392,2.6363158
-24.772003,3.1343024,2.6260176
-24.83723,3.1370375,2.6242833
-24.904314,3.1411252,2.6249728
-24.967766,3.143618,2.6230545
-25.024952,3.1429987,2.615921
-25.087389,3.1455765,2.6143584
-25.140974,3.1435034,2.6049252
-25.224266,3.1585987,2.625051
-25.267632,3.1512902,2.606822
-25.33585,3.1585844,2.613782
-25.397291,3.1623168,2.6147223
-25.450157,3.1612852,2.6075454
-25.505482,3.1619787,2.6034298
-25.56194,3.1636436,2.601079
-25.602512,3.1557865,2.5823407
-25.679373,3.1707022,2.6031008
-25.732828,3.1714149,2.5993662
-25.784924,3.171526,2.594668
-25.835073,3.1706302,2.5882988
-25.88937,3.1726828,2.5871296
-25.944105,3.1753244,2.5870671
-25.997477,3.177359,2.586028
-26.044197,3.1751628,2.577691
-26.100815,3.1799695,2.5816417
-26.15779,3.1853836,2.586738
-26.208773,3.1869419,2.5851774
-26.247063,3.1797092,2.568305
-26.289953,3.1758578,2.5573988
-26.3362,3.1745996,2.551095
-26.363499,3.1594896,2.5205488
-26.659279,3.2074351,2.5856752
-26.754356,3.2111647,2.5850754
-26.84125,3.2091558,2.5745897
-26.925888,3.2059805,2.562255
-27.012772,3.2054672,2.554842
-27.28874,3.2237308,2.569066
-27.357391,3.209201,2.5375628
-27.477407,3.2048736,2.521708
-27.53352,3.220656,2.5472422
-27.81881,3.22577,2.5394278
-26.88666,1.9251165,0.2013278
-28.141401,3.2415907,2.5510802
-27.236399,1.9367976,0.20451498
-28.227364,3.255803,2.5728693
-27.349216,1.9381988,0.20159245
-28.34514,3.2640162,2.5823326
-28.386175,3.270067,2.591535
-28.426117,3.2748504,2.5984998
-28.500362,3.276397,2.5981064
-28.646206,3.277451,2.594092
-28.67532,3.2647278,2.5697398
-28.711454,3.2647355,2.5683951
-28.813349,3.2526274,2.5426526
-28.340807,1.9704185,0.22087193
-28.397394,1.9795609,0.23575544
-28.996113,3.2616718,2.553237
-29.039555,3.2810454,2.5872393
-29.070885,3.2715876,2.5691166
-28.612629,1.9963338,0.26003122
-29.138979,3.2657406,2.5566096
-28.713564,1.9896433,0.24518442
-29.242004,3.2592964,2.542297
-28.870043,1.9953873,0.2518487
-28.972551,1.9952853,0.24941349
-29.391169,3.2923102,2.59906
-29.431406,3.3138738,2.6374693
-29.456383,3.2785187,2.5727344
-29.486109,3.2590342,2.536789
-29.519762,3.254493,2.5279646
-29.552353,3.2447543,2.5097446
-29.585075,3.2346148,2.4908257
-29.618876,3.228881,2.479927
-29.653587,3.2275603,2.4770637
-29.680962,3.1825454,2.3949609
-29.712303,3.1558747,2.346159
-29.741493,3.1095314,2.2616873
-29.76403,3.003037,2.0680838
-29.771425,2.7443044,1.5982156
-29.763988,2.2806764,0.7564759
-40.612762,1.6735029,0.40628052
-40.708595,1.6818829,0.43432665
-40.72596,1.7221262,0.51459885
-40.71235,1.7743428,0.61436033
-40.720165,1.8175671,0.6993928
-40.693447,1.8738103,0.80550003
-40.73107,1.904686,0.8703995
-40.683853,1.9676511,0.98716545
-40.737244,1.9920282,1.0415511
-40.754303,2.029924,1.1177554
-40.734562,2.0810578,1.2151694
-40.71965,2.1298769,1.3087549
-40.679817,2.1871262,1.4156818
-40.68798,2.2266407,1.4942031
-40.657043,2.279565,1.593967
-40.66957,2.3168023,1.6687431
-40.674736,2.3563056,1.7470703
-40.717255,2.3828318,1.8049245
-40.69491,2.431086,1.896946
-40.686165,2.4743223,1.9809833
-40.75531,2.4916482,2.0245085
-40.810543,2.5136738,2.0754995
-40.85,2.5408432,2.1345773
-40.894238,2.5664759,2.1913457
-40.878284,2.610948,2.2772112
-40.921593,2.6366835,2.3342018
-40.902542,2.6814816,2.4204326
-40.973824,2.6985824,2.464322
-41.024715,2.7219863,2.517961
-41.04355,2.7549176,2.5861259
-41.13176,2.7674968,2.6236176
-42.08437,2.5316887,2.2884316
-41.853714,2.638591,2.468955
-41.8612,2.6767404,2.5462198
-41.834023,2.7242785,2.6373687
-41.47001,2.863667,2.8639765
-41.615036,2.8625572,2.8826866
-41.994335,2.7995377,2.8112736
-42.183044,2.7891066,2.8177776
-42.313103,2.794959,2.8485184
-42.428658,2.8051472,2.8859339
-42.57344,2.8084111,2.9137874
-42.755913,2.8029084,2.929615
-42.83674,2.8235142,2.9831476
-42.985485,2.8277886,3.0138721
-43.046623,2.8539093,3.0757852
-43.102795,2.8813615,3.1397343
-43.167873,2.9068398,3.2011065
-43.88371,2.7816148,3.054935
-43.923553,2.8152437,3.1292114
-43.926476,2.857217,3.2149377
-43.93811,2.8970382,3.2977004
-43.966034,2.9331295,3.375441
-43.983074,2.971524,3.4563031
-44.040077,3.001276,3.5257487
-44.21949,3.0054018,3.5617719
-44.42834,3.004288,3.5917134
-44.671535,2.9971924,3.6148157
-44.88558,2.997209,3.6480594
-45.089314,3.0003314,3.6861634
-45.28075,3.0068533,3.7294254
-45.52098,3.0048964,3.7629871
-45.75662,3.0050101,3.8001885
-45.9857,3.0075183,3.8413892
-46.245636,3.0054772,3.8781753
-46.551003,2.9965112,3.9079518
-46.76026,3.006225,3.9611983
-47.018745,3.0083098,4.0065894
-47.305374,3.0068164,4.0491614
-47.63672,2.9991684,4.0862226
-48.128403,2.9664512,4.097028
-48.72181,2.9196217,4.094947
-49.360897,2.8685606,4.091524
-49.993164,2.8219533,4.0963974
-50.81265,2.7495255,4.077812
-51.60217,2.6860232,4.0731297
-52.460304,2.6163802,4.066883
-53.52037,2.521495,4.040818
-54.451637,2.4508502,4.0446625
-1.0750809,1.956142,3.3900242
-1.1379356,1.885603,3.2323866
-1.2458706,1.8216205,3.0819178
-1.2627964,1.7446716,2.918054
-1.29356,1.669611,2.7562494
-1.3137169,1.59284,2.5926147
-1.3330612,1.5157764,2.4286594
-1.3418694,1.4368789,2.2626066
-1.3907013,1.3641427,2.1036491
-1.3523388,1.2771828,1.9281011
-1.3849773,1.12011,1.5964661
-0.55887794,0.8969097,1.2539167
-0.62430763,0.8239474,1.092905
-2.7959728,1.1238899,1.3978224
-3.1778488,1.1139634,1.3216548
-3.8817463,1.1647701,1.3245559
-4.186146,1.1451349,1.2398643
-4.021511,1.0384703,1.0433588
-5.4492188,1.2354877,1.2441158
-5.8751926,1.2457376,1.2040205
-5.960552,1.190917,1.0788975
-6.321253,1.0490239,0.73586273
-8.665606,1.3377862,0.9963412
-8.607143,1.2593236,0.8440709
-9.258703,1.3374763,0.91252565
-10.397354,1.5287299,1.144002
-10.627172,1.39734,0.8444071
-11.715757,1.5938501,1.0940142
-11.969177,1.5380223,0.94588137
-11.922825,1.4680927,0.81038904
-12.856323,1.6425004,1.0368118
-12.502666,1.3805594,0.5548401
-13.459547,1.5738184,0.8166547
-14.322708,1.7481079,1.0528431
-13.814823,1.5578022,0.7369914
-15.099902,1.8023672,1.0590024
-15.058431,1.739089,0.93730545
-14.838118,1.6244471,0.7360287
-14.732305,1.5407691,0.5820017
-14.96454,1.5541906,0.5786891
-14.753681,1.4385471,0.3744583
-14.784005,1.3927963,0.2790203
-22.596836,3.0354578,2.5713787
-22.704025,3.044488,2.5767088
-22.805283,3.0517807,2.579368
-22.905403,3.0591872,2.5824308
-22.983221,3.0581112,2.5714865
-23.093655,3.070792,2.5837922
-23.220695,3.0910373,2.609055
-23.29919,3.09175,2.601674
-23.437447,3.118213,2.6379137
-23.497675,3.1121614,2.6194692
-23.569298,3.1112816,2.60989
-23.660452,3.1193137,2.6155615
-23.736198,3.1210468,2.6107068
-23.801266,3.1183786,2.5985012
-23.878895,3.121698,2.5966177
-23.956287,3.125328,2.5954075
-24.03933,3.132,2.5995383
-24.122787,3.1393533,2.604991
-24.181164,3.1353047,2.5910459
-24.248896,3.1359808,2.58531
-24.32222,3.1397102,2.5849404
-24.395306,3.143727,2.585194
-24.47028,3.1490886,2.5878944
-24.492676,3.1285093,2.545937
-24.616585,3.159275,2.5927567
-24.669092,3.1544116,2.5781407
-24.937386,3.1681821,2.5782485
-24.99545,3.1676757,2.5716696
-25.095016,3.1902401,2.6054063
-25.306728,3.1814203,2.5685902
-25.503853,3.1675038,2.5240116
-25.970942,3.1972587,2.5399857
-26.01374,3.1921117,2.5266342
-26.061245,3.1902792,2.519216
-26.127855,3.20178,2.5355406
-26.211926,3.1917448,2.5097117
-26.259647,3.1909559,2.5043993
-26.330278,3.206936,2.5290256
-26.348162,3.1849651,2.4860864
-26.755884,3.211183,2.5048838
-26.80685,3.2159119,2.5101266
-26.845009,3.2103071,2.4968772
-26.894684,3.214505,2.5012822
-27.003695,3.232303,2.5271878
-27.05797,3.2417004,2.541144
-27.145733,3.2430966,2.537908
-27.197392,3.2512932,2.5498862
-27.234007,3.2459002,2.5374103
-27.269766,3.2397451,2.5235953
-27.388035,3.2322876,2.5022593
-27.418753,3.221311,2.4798694
-27.50911,3.2289207,2.4886966
-27.54548,3.2239356,2.477261
-27.364637,2.986582,2.044685
-27.790852,3.2263668,2.4681282
-27.92195,3.2408583,2.4882736
-27.962748,3.2428136,2.4898515
-28.126493,3.254098,2.5028877
-28.165358,3.2548394,2.5024605
-28.186855,3.2316036,2.4583445
-28.204727,3.2024708,2.4034777
-28.373352,3.2826333,2.5448723
-28.411152,3.2836137,2.5451188
-28.603018,3.2970335,2.5624719
-28.76977,3.2698765,2.5064096
-28.89254,3.2227225,2.4154449
-28.404573,2.0437417,0.25237656
-28.47176,2.0786984,0.31501627
-28.516409,2.0622478,0.2834196
-28.560858,2.0444899,0.24945879
-29.103693,3.297517,2.5477061
-28.65758,2.026695,0.21416426
-28.708197,2.0233958,0.20685387
-29.202652,3.2794707,2.5120225
-28.812597,2.0261579,0.20955467
-29.274591,3.284227,2.5192046
-29.311024,3.2886417,2.5265827
-28.971956,2.0424576,0.2362833
-29.021008,2.035233,0.22202778
-29.071898,2.0342917,0.21936178
-29.450893,3.2902076,2.5268474
-29.480127,3.2680495,2.485538
-29.51136,3.2521274,2.4557133
-29.54805,3.259083,2.4679756
-29.581558,3.2518759,2.4542284
-29.615234,3.2447524,2.4406624
-29.64934,3.2391403,2.429903
-29.678377,3.2031446,2.3632894
-29.708698,3.1695912,2.301186
-29.738901,3.1294332,2.2269554
-29.761005,3.0202267,2.025721
-29.76978,2.7756364,1.575418
-29.762787,2.3235393,0.7433157
-40.504944,1.7849019,0.44336033
-40.683968,1.7598841,0.41479635
-40.733753,1.787019,0.47362947
-40.7688,1.819881,0.5420613
-40.70245,1.8917384,0.6753135
-40.71426,1.9327333,0.7571516
-40.721306,1.9751897,0.84137535
-40.67729,2.036336,0.9564142
-40.737206,2.0583353,1.0067744
-40.79438,2.0814202,1.0590196
-40.673733,2.1687376,1.2167096
-40.674255,2.2114449,1.3010073
-40.65496,2.2607627,1.3960366
-40.684677,2.2924569,1.4622502
-40.653732,2.3449314,1.5622454
-40.681362,2.376838,1.6287627
-40.673954,2.4204113,1.7141566
-40.699585,2.452577,1.7810783
-40.702637,2.4920325,1.859735
-40.701603,2.5325081,1.9399772
-40.721237,2.5659997,2.0089917
-40.848457,2.5651171,2.0232053
-40.842422,2.6067312,2.1052895
-40.88234,2.6337214,2.164123
-40.876762,2.674658,2.2450514
-40.92966,2.6975217,2.2974415
-41.005844,2.713496,2.3391218
-41.08539,2.7287283,2.3798218
-41.994804,2.5015035,2.0426393
-41.04651,2.817238,2.5519962
-41.08963,2.8430119,2.6092882
-41.84437,2.6681252,2.3570876
-41.88098,2.6982253,2.42235
-41.91536,2.7289102,2.4885664
-41.8122,2.796931,2.6117787
-41.51724,2.9154594,2.8113046
-41.64803,2.918917,2.835711
-42.239056,2.8025575,2.6800318
-42.375946,2.8072019,2.7077947
-42.513866,2.8122294,2.736545
-42.62181,2.8254528,2.7778988
-42.811954,2.8186953,2.790021
-42.929146,2.830816,2.8305502
-43.016888,2.8505726,2.8826237
-43.086006,2.8750963,2.9419017
-43.174213,2.8953166,2.9951372
-43.861256,2.776553,2.8483377
-43.912445,2.807785,2.9190283
-43.925987,2.8476176,3.0021043
-43.94451,2.8861847,3.083376
-43.95684,2.9259977,3.1664095
-43.974182,2.9645708,3.247694
-44.025684,2.9957147,3.3186626
-44.204727,3.0000348,3.3527699
-44.432926,2.994997,3.3747277
-44.631187,2.9972548,3.4074936
-44.819187,3.0025587,3.4451427
-45.08793,2.9926982,3.4632196
-45.261993,3.0027866,3.508892
-45.551315,2.991431,3.527017
-45.71316,3.0058136,3.579965
-45.936115,3.009492,3.6197257
-46.232944,3.0006423,3.6443796
-46.438965,3.00979,3.6931796
-46.674793,3.0146012,3.737432
-46.964634,3.0110755,3.772377
-47.246994,3.0103023,3.812036
-47.57688,3.00286,3.8449097
-47.868362,3.0035145,3.8890738
-48.176476,3.0028892,3.9331245
-48.469227,3.0062861,3.9833927
-48.833984,2.9997015,4.0236034
-49.194145,2.9956822,4.068596
-49.910225,2.9389522,4.056452
-50.558144,2.8962598,4.0636263
-51.312447,2.841248,4.061002
-52.07661,2.7887712,4.065282
-53.136604,2.698239,4.0341806
-54.092278,2.6278563,4.029856
-1.1641922,2.0573032,3.1563497
-1.2163105,1.9852843,2.9976501
-1.2479572,1.9104257,2.8359098
-1.2875385,1.8366182,2.675459
-1.3106346,1.7603602,2.5122428
-1.3319378,1.683692,2.3485599
-1.5188084,1.6319261,2.214941
-1.5508842,1.5570519,2.053876
-1.3618927,1.4473674,1.8497629
-1.3587265,1.3660133,1.68017
-1.3925762,1.2903516,1.5176792
-0.73610306,1.1003733,1.2087202
-2.796999,1.3635707,1.4837079
-2.909937,1.3048654,1.3465128
-3.5396595,1.3363957,1.3289213
-4.0753307,1.3545861,1.2961445
-3.9687347,1.260102,1.1139431
-5.4406414,1.4529767,1.3211365
-5.4677486,1.3859963,1.1787443
-6.309681,1.1899805,0.66425514
-8.62632,1.5247097,1.0565271
-8.645586,1.4635639,0.9282007
-8.632082,1.3952365,0.7894025
-10.202995,1.6678898,1.1498876
-10.651737,1.5836494,0.92036915
-10.61738,1.5148396,0.78377914
-11.846668,1.7374058,1.0852294
-11.952593,1.6464059,0.88608646
-12.738657,1.7772651,1.0556779
-14.554062,2.1132557,1.5165315
-12.493717,1.4887915,0.4983287
-13.497936,1.6884608,0.7817111
-14.384709,1.8638661,1.0301876
-13.918644,1.6883049,0.73039675
-14.935875,1.905165,1.0473704
-14.956368,1.8591311,0.95166826
-15.008728,1.8216071,0.8694606
-14.775181,1.7048435,0.66118526
-14.966547,1.7053337,0.6394491
-15.0262785,1.6693816,0.5597997
-14.746631,1.5358579,0.32339954
-14.767353,1.4874203,0.22333431
-22.473146,3.041591,2.4648814
-22.571396,3.0461178,2.4635105
-22.672514,3.052293,2.4651465
-22.76305,3.0548599,2.4607992
-22.832949,3.0496743,2.4433246
-23.006582,3.0865936,2.4983082
-23.076628,3.082526,2.4831176
-23.158955,3.0838256,2.4772973
-23.28105,3.102125,2.5009723
-23.374985,3.1093502,2.505735
-24.109919,3.2108028,2.6325245
-24.159313,3.20242,2.6113763
-25.009933,3.1863856,2.5022683
-25.182621,3.185096,2.4848871
-25.22469,3.1764452,2.4645734
-25.329006,3.1381292,2.3817816
-25.978745,3.2080092,2.4647555
-26.021744,3.1335657,2.318643
-26.050816,3.118242,2.2871175
-26.190546,3.1806264,2.3964643
-26.323692,3.2053807,2.434276
-26.3709,3.204448,2.4291387
-26.512018,3.2025626,2.4157047
-26.609848,3.205336,2.4143548
-26.641926,3.1938188,2.390233
-26.729237,3.1514237,2.3036938
-26.737751,3.1197987,2.2429132
-26.682829,3.033879,2.0828218
-27.053375,3.2731643,2.5149713
-27.094032,3.2707238,2.5078397
-26.694921,2.7375524,1.5189247
-27.375938,3.1708689,2.3020992
-27.353071,3.1036556,2.1760516
-27.389257,3.0499082,2.072404
-27.670147,3.2604396,2.4560885
-27.738672,3.2465568,2.426412
-27.8235,3.2515352,2.4316845
-27.938007,3.24554,2.4150023
-28.105864,3.1528986,2.2331157
-28.154995,3.1656835,2.2551718
-27.423946,2.061996,0.20741796
-27.53427,2.0622625,0.2036066
-27.588566,2.0614936,0.20009899
-27.646011,2.065866,0.2061801
-27.701271,2.067222,0.20671272
-28.516665,3.3064227,2.5060835
-27.80873,2.0658376,0.20031166
-28.62865,3.3093188,2.50769
-28.116018,2.2354226,0.50852823
-28.183582,2.2665374,0.5648036
-28.221699,2.2426913,0.51890755
-28.226933,2.152612,0.34979725
-28.78703,3.1883285,2.275807
-28.819916,3.178409,2.2562833
-28.86309,3.1902895,2.277369
-28.406506,2.093141,0.23331404
-28.458498,2.0928936,0.23150349
-28.805567,2.789828,1.5284715
-28.844059,2.779926,1.5089855
-28.879635,2.7622163,1.4749761
-29.092943,2.8867018,1.703392
-29.131483,2.879834,1.6897769
-29.219517,2.9009953,1.7277279
-29.44301,3.2884643,2.448738
-29.472918,3.2674618,2.409007
-29.508265,3.267175,2.4079604
-29.541275,3.2566483,2.3878279
-29.575535,3.2509007,2.3766398
-29.60974,3.2442987,2.363883
-29.644361,3.2391927,2.3539453
-29.679342,3.2355862,2.3468342
-29.705694,3.177461,2.2379432
-29.738024,3.1499937,2.1863184
-29.762316,3.0571158,2.0125566
-29.771194,2.8162975,1.5624967
-29.76424,2.3699055,0.7284584
-40.766876,1.7570937,0.23226547
-40.680275,1.838311,0.38371944
-40.65148,1.8958838,0.49452782
-40.757866,1.9009373,0.51567984
-40.687405,1.9734759,0.6518574
-40.72969,2.0027268,0.7142868
-40.710114,2.054819,0.8154793
-40.678986,2.110552,0.92272425
-40.690804,2.1500657,1.0024476
-40.80099,2.154062,1.0222998
-40.652336,2.2501538,1.1972241
-40.672558,2.2855759,1.2699194
-40.67975,2.3252873,1.349791
-40.695396,2.3617935,1.4242697
-40.692875,2.404199,1.5085645
-40.659386,2.4565709,1.6093717
-40.661972,2.4964242,1.6892662
-40.684155,2.5295613,1.757998
-40.69901,2.5648968,1.8303638
-40.716682,2.5991182,1.9008803
-40.73721,2.6322503,1.9696007
-40.77523,2.6597745,2.0291362
-40.832664,2.6813,2.0789223
