x,y,z
-26.442013,1.229315,2.8313398
-26.498358,1.2436407,2.8340006
-26.556377,1.2606685,2.839532
-26.618374,1.2835572,2.8510447
-26.672485,1.2965846,2.8531337
-26.723125,1.3053739,2.8512645
-26.777283,1.3193867,2.854743
-26.828928,1.3304121,2.8554792
-26.872759,1.3308136,2.8458881
-26.917454,1.3326159,2.8378382
-26.969557,1.3453825,2.840856
-27.02317,1.3608727,2.8467903
-27.070955,1.3682301,2.8448062
-27.129171,1.3917477,2.8591766
-27.177807,1.4013536,2.8598266
-27.227922,1.4136841,2.8633943
-27.273344,1.4190955,2.86018
-27.322279,1.4304469,2.8631186
-27.366259,1.434205,2.8585625
-27.411337,1.4400339,2.8562536
-27.460546,1.4531231,2.8614655
-27.506105,1.4605308,2.861085
-27.548153,1.46223,2.8550534
-27.60014,1.4816167,2.8671942
-27.646694,1.4920526,2.8703904
-27.688755,1.4948022,2.8658895
-27.736414,1.5081277,2.8723607
-27.78036,1.5150588,2.8724422
-27.823149,1.5201552,2.8707876
-27.866852,1.5273452,2.871429
-27.91175,1.5372915,2.8750587
-27.953861,1.5421116,2.8735528
-27.997162,1.5496876,2.875032
-28.04064,1.5580506,2.8774705
-28.083656,1.5658822,2.8795033
-28.126226,1.573179,2.8811245
-28.167767,1.5786142,2.880952
-28.20891,1.5835061,2.8803477
-28.25025,1.5891778,2.8806882
-28.2912,1.5943031,2.8805914
-28.332054,1.5995455,2.8807464
-28.370913,1.6002443,2.8762832
-28.414524,1.613039,2.884594
-28.454014,1.6159618,2.88271
-28.492174,1.615655,2.8775625
-28.527843,1.6087694,2.8656216
-28.569693,1.6186922,2.8714414
-28.604483,1.609323,2.8571067
-28.632704,1.5806091,2.8225007
-28.652813,1.5264642,2.761156
-28.665455,1.4468253,2.6729336
-28.683296,1.3792477,2.5974107
-28.704155,1.3177145,2.5282674
-28.732143,1.2763741,2.4804845
-25.429419,1.0423698,2.8095965
-25.480482,1.0434623,2.7958293
-25.56248,1.0777335,2.8136578
-25.615454,1.0816386,2.8030543
-25.677208,1.0953672,2.8020148
-25.748611,1.1201963,2.8118405
-25.81743,1.142869,2.8199244
-25.886415,1.166404,2.8291454
-25.932568,1.1646273,2.8142905
-25.994093,1.1806829,2.8168292
-26.063217,1.2061284,2.8287244
-26.123083,1.2214129,2.8310575
-26.183205,1.2375207,2.834444
-26.237442,1.2470698,2.8316765
-26.291513,1.2568004,2.8293023
-26.345913,1.267329,2.8279266
-26.416466,1.2984769,2.8470526
-26.465425,1.3032045,2.8404322
-26.523512,1.319902,2.8458295
-26.57315,1.3262079,2.841165
-26.626,1.3370426,2.841185
-26.676775,1.3455491,2.8390923
-26.729721,1.3573542,2.8404827
-26.782461,1.369334,2.8422523
-26.831352,1.3764551,2.839356
-26.886856,1.3931854,2.8462906
-26.93896,1.405684,2.8491855
-26.99128,1.4189866,2.8530893
-27.0412,1.4292934,2.8541656
-27.087076,1.4340475,2.8498044
-27.133282,1.4395771,2.8463912
-27.181055,1.4477961,2.8458743
-27.231571,1.4606309,2.8502312
-27.28145,1.47299,2.8542905
-27.325476,1.476548,2.8495355
-27.372208,1.4847245,2.8496604
-27.41644,1.4891922,2.8461442
-27.470245,1.5098708,2.8594394
-27.515688,1.5172029,2.8592005
-27.562874,1.5278986,2.8625875
-27.607275,1.534219,2.8616219
-27.650095,1.5380845,2.8582668
-27.694635,1.5453146,2.8585396
-27.740105,1.5546246,2.8611236
-27.784357,1.562124,2.86198
-27.832249,1.5769134,2.8705745
-27.875824,1.5840349,2.8713465
-27.915274,1.5834577,2.8642254
-27.961264,1.5960522,2.8709974
-28.00124,1.5970161,2.8657513
-28.043083,1.6020193,2.8648643
-28.086071,1.6097665,2.8669915
-28.127392,1.6143565,2.865942
-28.17042,1.6230083,2.869298
-28.212406,1.6298132,2.8708496
-28.25196,1.6314692,2.8671045
-28.292322,1.6352122,2.8656845
-28.334272,1.6430297,2.8686986
-28.377167,1.6536119,2.8747735
-28.41774,1.6590278,2.8755145
-28.45691,1.6612463,2.8729887
-28.495775,1.662909,2.8699923
-28.534603,1.6646771,2.8672256
-28.572659,1.6645579,2.862567
-28.610468,1.6638765,2.857421
-28.640383,1.6406684,2.828372
-28.660488,1.5875483,2.7674747
-28.653215,1.4491086,2.6154752
-28.68746,1.431967,2.59298
-28.703133,1.3548069,2.5063653
-28.725819,1.2963412,2.4397454
-25.102245,1.0213659,2.800084
-25.158102,1.0254574,2.7880878
-25.24326,1.0591462,2.8042836
-25.300476,1.0654562,2.794939
-25.367987,1.0826027,2.7961373
-25.437508,1.1023676,2.8001337
-25.50784,1.1235785,2.8058262
-25.587975,1.155772,2.8223782
-25.649681,1.1691728,2.8212113
-25.711714,1.1833911,2.821097
-25.771305,1.19543,2.8191357
-25.829052,1.2058728,2.8158736
-25.89472,1.225555,2.8218498
-25.968092,1.2545371,2.8371959
-26.029839,1.2710838,2.840691
-26.088144,1.2842097,2.8410864
-26.149351,1.3011866,2.8455133
-26.202526,1.3092382,2.8413844
-26.258621,1.3211308,2.8412647
-26.312988,1.3313782,2.8397374
-26.36517,1.339355,2.836164
-26.418194,1.348732,2.834188
-26.48284,1.3730671,2.8473744
-26.539293,1.3877625,2.8511724
-26.595009,1.4020326,2.8547688
-26.648571,1.4140143,2.8562813
-26.698622,1.421828,2.8537946
-26.747597,1.4285588,2.8503995
-26.796444,1.4354451,2.8473406
-26.849262,1.4481072,2.850328
-26.902308,1.4615695,2.8543324
-26.953777,1.4733286,2.856801
-27.003275,1.482744,2.8570676
-27.05434,1.4948349,2.8602562
-27.1039,1.5052018,2.8618646
-27.154121,1.51699,2.865118
-27.202034,1.5257795,2.8654652
-27.249783,1.5347197,2.8661404
-27.299412,1.5469828,2.8704205
-27.3464,1.5555923,2.8710995
-27.393229,1.5643485,2.8720942
-27.4395,1.5726128,2.8727427
-27.484846,1.5797424,2.8723712
-27.53082,1.58829,2.8736334
-27.575504,1.595057,2.8731952
-27.61969,1.6013184,2.8723783
-27.66412,1.6083536,2.872521
-27.707336,1.6135929,2.8709292
-27.75329,1.624114,2.8750315
-27.798702,1.6341321,2.8787627
-27.843586,1.6436424,2.882113
-27.88728,1.6513481,2.88371
-27.930494,1.6585367,2.884904
-27.96931,1.6574209,2.8774476
-28.010391,1.6609573,2.8750405
-28.053614,1.6691623,2.8777199
-28.096684,1.6774957,2.8806767
-28.137764,1.6820447,2.8797464
-28.179054,1.6873639,2.879765
-28.221714,1.6960685,2.8835278
-28.263924,1.7042439,2.8868628
-28.304848,1.7099233,2.8876624
-28.34483,1.7137523,2.886611
-28.384733,1.7176929,2.8858
-28.425625,1.7243736,2.888051
-28.465607,1.729197,2.8884363
-28.50447,1.7314999,2.8862329
-28.542538,1.7319307,2.8821301
-28.580341,1.7318044,2.8775392
-28.616703,1.7278175,2.868895
-28.644512,1.69947,2.8340564
-28.653036,1.6136203,2.7371469
-28.658155,1.5131552,2.62438
-28.678799,1.4550331,2.557366
-28.717867,1.4519653,2.549995
-28.718153,1.3228891,2.4061356
-28.745481,1.2767484,2.352147
-24.830563,0.99966216,2.7914176
-24.898695,1.013732,2.787899
-24.986004,1.0465622,2.8023734
-25.050507,1.0582807,2.7973018
-25.125565,1.0806997,2.80267
-25.186024,1.0894105,2.79533
-25.254566,1.1065173,2.7962694
-25.361351,1.162559,2.8348436
-25.407581,1.1585279,2.8161798
-25.47167,1.172898,2.8154387
-25.549187,1.2016716,2.8289146
-25.613796,1.2177207,2.8303967
-25.682056,1.2381585,2.836432
-25.743858,1.2523048,2.8366237
-25.804316,1.2654784,2.8361235
-25.868366,1.2830496,2.8401961
-25.929413,1.2978563,2.8418202
-25.982155,1.3038719,2.8350148
-26.03957,1.3154788,2.8339534
-26.096249,1.32668,2.8327222
-26.152208,1.3374705,2.8313084
-26.227612,1.3714759,2.8532925
-26.280436,1.3796608,2.849774
-26.335642,1.3910637,2.849687
-26.388636,1.4002137,2.8475528
-26.44345,1.4119852,2.8482647
-26.500023,1.4263906,2.8518538
-26.557802,1.4428313,2.8577285
-26.610474,1.4533243,2.8577962
-26.663431,1.4646077,2.8588696
-26.71194,1.4705112,2.8546581
-26.764534,1.4821355,2.8564692
-26.82061,1.4988925,2.8637385
-26.863613,1.4984558,2.8535771
-26.915178,1.5099647,2.855847
-26.969656,1.5260053,2.8629808
-27.01856,1.5347381,2.8627758
-27.066431,1.5423758,2.8616152
-27.109854,1.5438976,2.8542824
-27.161736,1.5581024,2.860271
-27.215881,1.5762506,2.8705583
-27.263489,1.585134,2.8713894
-27.31011,1.592906,2.8712273
-27.355778,1.5995584,2.8700562
-27.401316,1.6063509,2.8691888
-27.449085,1.6170871,2.87262
-27.494328,1.6241634,2.8723674
-27.5402,1.6326501,2.8737564
-27.585535,1.6406415,2.8747797
-27.625141,1.6392016,2.8659878
-27.670986,1.6487329,2.8689308
-27.716656,1.6584051,2.872182
-27.758944,1.6624503,2.8696122
-27.80465,1.6730366,2.874133
-27.849815,1.6831203,2.8782763
-27.893776,1.6914115,2.8806577
-27.93391,1.6927474,2.8757572
-27.976633,1.6993568,2.8766203
-28.019228,1.7060921,2.8777556
-28.061695,1.7129529,2.8791623
-28.10216,1.7160518,2.876667
-28.14225,1.718617,2.873722
-28.182886,1.7225928,2.8724184
-28.22521,1.7305834,2.8755665
-28.267962,1.739999,2.8803868
-28.31054,1.7495413,2.8854814
-28.351547,1.7559476,2.887322
-28.392162,1.7618186,2.888709
-28.431595,1.7651901,2.8875136
-28.472,1.7712889,2.8893943
-28.510757,1.7735717,2.8872561
-28.54796,1.7720284,2.881075
-28.586647,1.7745197,2.8793883
-28.620502,1.7639806,2.8636255
-28.651264,1.7443185,2.8380075
-28.65916,1.6576045,2.7393098
-28.664557,1.5589845,2.6275563
-28.66128,1.4286587,2.4810867
-28.700209,1.423564,2.4714575
-28.716097,1.3439622,2.3803844
-28.73634,1.2742538,2.3001275
-24.565304,0.99991417,2.7983403
-24.639982,1.0178897,2.797615
-24.712488,1.034446,2.7959018
-24.782856,1.049566,2.7931623
-24.85112,1.0632353,2.7893677
-24.922213,1.0800185,2.7888427
-25.007612,1.1108494,2.8020592
-25.102762,1.1518073,2.8253927
-25.152346,1.1498554,2.8079267
-25.232243,1.1775813,2.8192878
-25.30932,1.2032979,2.8290777
-25.37369,1.217092,2.827643
-25.440723,1.2340362,2.8295565
-25.50574,1.2494721,2.8302884
-25.57049,1.2651436,2.831532
-25.630444,1.2763484,2.8286624
-25.686829,1.2842281,2.8227634
-25.757538,1.307658,2.832469
-25.950344,1.4628029,2.973137
-26.072245,1.5446479,3.0419374
-26.134785,1.5633662,3.0483942
-26.184109,1.5680017,3.0410318
-26.212572,1.5494885,3.0106435
-26.24818,1.5388169,2.988203
-26.193005,1.4237669,2.8606396
-26.23444,1.4184601,2.8435616
-26.292866,1.433171,2.8469014
-26.344938,1.4408338,2.843317
-26.402395,1.4553301,2.846888
-26.457602,1.4675977,2.8484125
-26.512094,1.4794447,2.8497214
-26.568811,1.4945233,2.8545551
-26.619467,1.5024686,2.8522797
-26.669493,1.5099666,2.849731
-26.721739,1.5206919,2.850698
-26.786407,1.5481789,2.8692021
-26.82656,1.5438919,2.8550305
-26.878193,1.555136,2.857122
-26.928715,1.5653131,2.858294
-26.98039,1.5775125,2.8617597
-27.027424,1.5836804,2.8591137
-27.07783,1.5949655,2.8619895
-27.129318,1.6082823,2.8671827
-27.18227,1.6242628,2.8753648
-27.22694,1.6285527,2.8714314
-27.274427,1.637357,2.8724127
-27.319698,1.6431773,2.8704062
-27.362425,1.645369,2.8647094
-27.406296,1.6495724,2.8612866
-27.456383,1.6639855,2.8688564
-27.500376,1.6690977,2.8667073
-27.547333,1.6793971,2.870232
-27.591827,1.6860459,2.8700228
-27.632841,1.6871247,2.8640032
-27.677124,1.6940341,2.8643575
-27.718739,1.6966262,2.8602276
-27.769558,1.7158921,2.8741388
-27.812664,1.7219348,2.8740077
-27.852886,1.7229984,2.8686514
-27.894093,1.7260928,2.8656101
-27.942257,1.7427495,2.877347
-27.986828,1.7531495,2.8824835
-28.025383,1.7521298,2.8753982
-28.067757,1.7589288,2.8769054
-28.110935,1.7677817,2.8807778
-28.15272,1.7741861,2.8821268
-28.193474,1.7787766,2.8816319
-28.236502,1.7886508,2.8870215
-28.278183,1.7960653,2.889865
-28.320292,1.8048964,2.8943844
-28.360283,1.8093138,2.8942118
-28.39991,1.8131955,2.8935742
-28.438387,1.8145895,2.8903284
-28.478136,1.8193402,2.8908763
-28.51651,1.8209474,2.888094
-28.55409,1.8207047,2.8833885
-28.592888,1.8238237,2.8824883
-28.624918,1.8087714,2.8616939
-28.656733,1.792485,2.8396158
-28.655317,1.6801386,2.7116466
-28.673847,1.6207106,2.6419983
-28.594465,1.2619047,2.2415442
-28.685955,1.4146583,2.4062796
-28.732727,1.2989836,2.2703972
-28.756935,1.2388744,2.1999688
-24.276808,0.99314666,2.7898302
-24.356506,1.0130599,2.79003
-24.441675,1.038291,2.7956228
-24.520674,1.0588365,2.797195
-24.589798,1.0712907,2.7914557
-24.69153,1.1131954,2.8140993
-24.76814,1.133564,2.8166528
-24.834455,1.1451926,2.8111691
-24.916012,1.1712198,2.8198514
-24.987936,1.1890492,2.8209915
-25.067472,1.2145526,2.8299026
-25.127851,1.222666,2.8222542
-25.200075,1.2424421,2.826251
-25.271961,1.2624912,2.83084
-25.33406,1.2736025,2.8269625
-25.39596,1.2849352,2.823567
-25.512281,1.3508754,2.8744497
-25.735302,1.5257881,3.0340457
-25.818254,1.5621762,3.057006
-25.889826,1.5878198,3.069631
-25.933971,1.5856848,3.05477
-25.99263,1.5989177,3.0554943
-26.05105,1.6123607,3.0566726
-26.106493,1.6230676,3.0553312
-26.159023,1.6310163,3.0514193
-26.208178,1.6355946,3.044292
-26.239637,1.6207669,3.0176005
-26.267096,1.6012559,2.9862118
-26.270254,1.5537996,2.9262924
-26.275736,1.5080588,2.8680458
-26.309177,1.4939618,2.8422565
-26.361649,1.5021276,2.8394966
-26.418999,1.5164759,2.8433218
-26.472103,1.5262058,2.8425894
-26.527985,1.5397336,2.8459988
-26.580688,1.549824,2.8460484
-26.631752,1.5582726,2.844585
-26.684566,1.5693169,2.8460207
-26.743801,1.5890548,2.8567562
-26.793324,1.5968094,2.8551507
-26.844082,1.6065555,2.8558187
-26.887787,1.6072874,2.8471737
-26.938251,1.6173475,2.8485222
-26.988525,1.6275713,2.8502254
-27.039934,1.6398053,2.8542404
-27.091114,1.6522088,2.8586226
-27.139908,1.6616917,2.860084
-27.191504,1.6756628,2.8665013
-27.231892,1.6736867,2.8560777
-27.28394,1.6892116,2.8644986
-27.33981,1.7111306,2.8799634
-27.380695,1.7108102,2.8717651
-27.436369,1.7336991,2.8886504
-27.48492,1.7461529,2.894506
-27.537914,1.7662761,2.9088054
-27.58056,1.770272,2.9058723
-27.615551,1.7618306,2.889617
-27.657011,1.7641721,2.8851433
-27.703194,1.7748239,2.8898215
-27.75171,1.7900367,2.899613
-27.778898,1.7681217,2.8691492
-27.821203,1.7728336,2.8677692
-27.86583,1.782105,2.871501
-27.906876,1.7851663,2.868589
-27.951202,1.7947001,2.8728886
-27.992052,1.7980051,2.870504
-28.034124,1.8039756,2.8711705
-28.075441,1.8087926,2.8707004
-28.117596,1.8156447,2.8725986
-28.158695,1.8207023,2.8726492
-28.199389,1.8252375,2.8722496
-28.241468,1.8330941,2.8756428
-28.281654,1.837223,2.8750448
-28.322609,1.8433936,2.8768268
-28.363998,1.8509679,2.880289
-28.404968,1.8580182,2.883296
-28.446068,1.8658309,2.8872762
-28.481773,1.8608527,2.877164
-28.521658,1.8663039,2.8787508
-28.559929,1.8679864,2.8762608
-28.597912,1.8691263,2.8732743
-28.628916,1.8515744,2.8495445
-28.661385,1.8373339,2.8295813
-28.654623,1.7108474,2.6842594
-28.67143,1.6466184,2.6084385
-28.591188,1.2877538,2.2028012
-28.628654,1.272084,2.1811056
-28.698196,1.35748,2.2728057
-28.73111,1.3283737,2.236301
-28.750769,1.2530048,2.1479225
-23.983738,0.9948733,2.7979121
-24.047874,0.9997268,2.7830296
-24.139753,1.0277045,2.790207
-24.223934,1.0500388,2.7925029
-24.30317,1.0688667,2.791874
-24.383387,1.089102,2.792963
-24.479406,1.1234465,2.8079271
-24.563965,1.1487749,2.8147078
-24.650011,1.1761041,2.823822
-24.706514,1.1781652,2.8089032
-24.803152,1.2161558,2.8290987
-24.87859,1.2360637,2.832151
-24.95245,1.2551382,2.8347316
-25.019836,1.2688622,2.8323994
-25.080887,1.2771876,2.825045
-25.20292,1.342927,2.874652
-25.440418,1.5193598,3.034565
-25.514072,1.5431755,3.044083
-25.595596,1.5752692,3.0621905
-25.651344,1.5830736,3.0563822
-25.717422,1.6014047,3.0613618
-25.77452,1.6113498,3.0581894
-25.823414,1.6134202,3.0473027
-25.893272,1.6370504,3.0584235
-25.95427,1.6522493,3.0612931
-26.011086,1.6636012,3.060501
-26.075447,1.6833112,3.0684714
-26.129581,1.692745,3.0661964
-26.174835,1.6929984,3.0547118
-26.222218,1.6957407,3.0459495
-26.253506,1.6809859,3.019308
-26.27443,1.6545088,2.9806185
-26.272697,1.602042,2.914997
-26.280136,1.558953,2.8590117
-26.325323,1.5585549,2.8474503
-26.385784,1.5761437,2.8548326
-26.443403,1.5909655,2.8595605
-26.492258,1.5958297,2.8540616
-26.545956,1.606839,2.8552017
-26.597488,1.6156287,2.8542027
-26.650303,1.6263921,2.8554778
-26.70483,1.6397431,2.8596888
-26.756264,1.6496563,2.8604565
-26.806103,1.6579232,2.859663
-26.880365,1.6984847,2.8934546
-26.953917,1.7393317,2.927867
-27.002256,1.7475975,2.9277377
-27.045055,1.7487013,2.9201035
-27.09712,1.7627616,2.9265208
-27.1371,1.7604713,2.9155378
-27.197002,1.7864995,2.9352016
-27.238914,1.7875566,2.9281344
-27.277409,1.7838142,2.9160085
-27.315117,1.778944,2.9027753
-27.351242,1.7717056,2.8870811
-27.392347,1.7719822,2.8796592
-27.438639,1.7804322,2.8812666
-27.481997,1.7846823,2.878447
-27.524872,1.7884402,2.8752303
-27.566893,1.7910795,2.8709245
-27.609228,1.794466,2.8675709
-27.652983,1.8004746,2.867228
-27.700666,1.8134961,2.8747349
-27.751371,1.8323069,2.8887787
-27.799229,1.8468928,2.8983421
-27.830265,1.8321023,2.8756323
-27.873674,1.8394008,2.877418
-27.917622,1.8480892,2.8808794
-27.959385,1.8531253,2.8804326
-28.000711,1.8576505,2.879549
-28.044216,1.8667247,2.8838458
-28.08818,1.8771963,2.8898368
-28.128185,1.8801901,2.8876367
-28.170277,1.8877423,2.8906417
-28.212822,1.8966901,2.8953333
-28.253416,1.9019444,2.8960285
-28.292448,1.9041276,2.8934078
-28.332851,1.9096105,2.8946
-28.375103,1.9196806,2.9010577
-28.412775,1.9196427,2.8962946
-28.450972,1.9209869,2.8931913
-28.490181,1.924999,2.8932004
-28.529562,1.9297619,2.894168
-28.568344,1.933351,2.8939276
-28.605326,1.9325471,2.8888416
-28.633188,1.9073868,2.8563514
-28.668045,1.9003141,2.8443599
-28.654766,1.7572858,2.6786542
-28.654049,1.6431403,2.545487
-28.577368,1.2970202,2.1493654
-28.625252,1.3124261,2.1627111
-28.687244,1.3732591,2.2277532
-28.72715,1.3663149,2.2160401
-28.741919,1.2752297,2.1088047
-28.770546,1.2262695,2.049449
-39.241405,0.6103871,3.3835845
-23.75186,0.9932251,2.7960925
-23.82061,1.0003452,2.7826066
-23.931847,1.0414929,2.8014889
-24.012844,1.0594478,2.7990055
-24.0902,1.0750203,2.7946448
-24.209106,1.1249917,2.8234549
-24.277746,1.1347508,2.8143759
-24.354073,1.1513002,2.8121328
-24.441833,1.1779771,2.8200154
-24.519451,1.1967852,2.8206983
-24.594822,1.2142456,2.8204298
-24.672443,1.2341995,2.8229399
-24.75479,1.258878,2.8304338
-24.817225,1.2666905,2.8217363
-24.91822,1.3092082,2.8475313
-25.206926,1.5217102,3.0420537
-25.274357,1.5375814,3.0429416
-25.3525,1.563803,3.0544386
-25.414436,1.5757072,3.0519838
-25.48037,1.5917864,3.0539804
-25.54721,1.6092427,3.0576468
-25.61789,1.6309209,3.065866
-25.684078,1.6488888,3.0706425
-25.737123,1.6545618,3.0632238
-25.80162,1.671849,3.0678382
-25.868103,1.6916678,3.075313
-25.929115,1.7065661,3.078034
-25.984219,1.7159255,3.0753222
-26.044739,1.7312522,3.0789714
-26.093336,1.7346413,3.0705442
-26.146801,1.7434125,3.0678697
-26.196829,1.7488775,3.0619707
-26.234325,1.7410963,3.042471
-26.258556,1.7188044,3.0079412
-26.277836,1.6906874,2.9673567
-26.283386,1.646723,2.9101605
-26.304745,1.619765,2.8707724
-26.349205,1.6187787,2.8587742
-26.39621,1.6208832,2.8501906
-26.457811,1.6403182,2.8601193
-26.506552,1.6451287,2.854773
-26.560637,1.6566417,2.856729
-26.612051,1.6653557,2.8559031
-26.658928,1.6688609,2.849699
-26.716763,1.6862864,2.8585582
-26.794218,1.7291186,2.8948946
-26.83945,1.7319658,2.8885784
-26.886003,1.7367601,2.884513
-26.944397,1.757396,2.8977022
-26.987427,1.7582777,2.8897543
-27.035805,1.7665596,2.8899622
-27.077808,1.7664964,2.881281
-27.124174,1.772639,2.8794804
-27.173014,1.7825828,2.881978
-27.214811,1.7829161,2.874155
-27.259964,1.788264,2.8719459
-27.304586,1.7931378,2.8693666
-27.352812,1.8036714,2.8731427
-27.393105,1.8026779,2.8644156
-27.43219,1.7999506,2.853901
-27.462593,1.7837596,2.8286567
-27.513178,1.7991445,2.8383503
-27.558851,1.8072684,2.840188
-27.6112,1.8266909,2.8546915
-27.66843,1.854981,2.8792176
-27.717766,1.8710346,2.8903613
-27.750809,1.8598487,2.8713665
-27.806225,1.8874071,2.8956223
-27.84034,1.8783076,2.8791795
-27.882578,1.883677,2.8789897
-27.918898,1.8785226,2.8671565
-27.964699,1.8910251,2.8752017
-28.005634,1.8948767,2.873693
-28.04746,1.900733,2.874559
-28.090122,1.9086013,2.8778138
-28.13106,1.9134426,2.8777943
-28.172205,1.919034,2.8787417
-28.213837,1.9260087,2.8813753
-28.255924,1.9343705,2.8857012
-28.297848,1.9428568,2.890296
-28.33932,1.9508312,2.8944407
-28.37643,1.9493997,2.88805
-28.41767,1.9576051,2.8926935
-28.456596,1.9608378,2.8918157
-28.4944,1.9616301,2.8882742
-28.533978,1.9669898,2.8900352
-28.571178,1.9667146,2.8854942
-28.609108,1.9684563,2.8833537
-28.6381,1.9466264,2.8544297
-28.670753,1.933821,2.8358674
-28.64799,1.7653184,2.6394582
-28.65211,1.6652629,2.5211205
-28.584066,1.3467901,2.1527076
-28.601532,1.2701888,2.060903
-28.67741,1.3717613,2.173327
-28.718422,1.3673861,2.1644979
-28.737137,1.2890205,2.070838
-28.762907,1.229991,1.9993815
-39.186825,0.46762657,3.0460968
-23.431103,0.9814451,2.8035712
-23.495039,0.9830594,2.7838402
-23.60821,1.0221696,2.79959
-23.678663,1.0296335,2.786089
-23.779158,1.060611,2.7951765
-23.895506,1.1047289,2.8172665
-23.973198,1.1195567,2.8119888
-24.062757,1.1442909,2.8165746
-24.142536,1.1618905,2.8147244
-24.245281,1.1986003,2.8317227
-24.307789,1.2034106,2.818277
-24.395792,1.2295237,2.8258505
-24.473576,1.2478578,2.826239
-24.55687,1.271388,2.832086
-24.622398,1.28052,2.8241367
-24.913857,1.483582,3.0082254
-25.03202,1.5409658,3.0493994
-25.10955,1.564187,3.057157
-25.164795,1.5683923,3.04627
-25.247263,1.5971491,3.0602217
-25.307053,1.6062489,3.0547853
-25.385635,1.6328249,3.067236
-25.44858,1.6457527,3.066227
-25.519121,1.6661916,3.0731144
-25.586313,1.6840932,3.0777268
-25.649626,1.6988714,3.0794396
-25.701487,1.7031579,3.0706644
-25.765516,1.719506,3.07449
-25.835045,1.7417667,3.0846825
-25.878897,1.7392578,3.0695639
-25.941002,1.7551386,3.0736666
-25.995472,1.7638128,3.0705338
-26.049213,1.7721026,3.0672116
-26.10557,1.7834513,3.067297
-26.153452,1.7863564,3.0587535
-26.214361,1.8032794,3.065117
-26.244131,1.7874207,3.0371833
-26.275219,1.7727854,3.0106149
-26.27892,1.7279668,2.9521594
-26.28283,1.6824942,2.89293
-26.313023,1.6655891,2.8640203
-26.362062,1.6698353,2.857739
-26.419184,1.6836333,2.861844
-26.46744,1.6876261,2.8556604
-26.520615,1.6976712,2.856144
-26.58401,1.7203062,2.8703737
-26.63079,1.7236269,2.8640223
-26.681862,1.7324364,2.8637638
-26.734201,1.7431984,2.8658028
-26.792992,1.7624793,2.8772774
-26.851894,1.7825661,2.889854
-26.899725,1.7890975,2.8878832
-26.937296,1.7825902,2.8718386
-26.979052,1.78159,2.8619266
-27.023048,1.7837207,2.855577
-27.070099,1.7902067,2.8541512
-27.112621,1.7907977,2.8463993
-27.177244,1.8223877,2.8729463
-27.209139,1.8087299,2.8497868
-27.27597,1.8449638,2.8818865
-26.841684,1.1528974,2.1073322
-26.881382,1.1407917,2.0849576
-26.88623,1.0762553,2.0043993
-26.925556,1.0624168,1.9802027
-26.929794,0.9941282,1.895381
-27.565983,1.9152725,2.9155922
-27.601683,1.9086778,2.9012942
-27.639,1.9046388,2.889955
-27.673367,1.8957646,2.8732958
-27.714893,1.8987126,2.8700085
-27.767273,1.9203424,2.887867
-27.821402,1.9458666,2.9102974
-27.850689,1.9287584,2.8848186
-27.887562,1.9247601,2.8742132
-27.930988,1.9326828,2.8771963
-27.972572,1.9376211,2.8769317
-28.020672,1.9551613,2.8910866
-28.062256,1.9609842,2.892095
-28.103079,1.9656763,2.8919444
-28.143486,1.9698606,2.8913364
-28.184727,1.9760418,2.8931231
-28.225842,1.9823434,2.8951716
-28.266825,1.9887652,2.897478
-28.30651,1.9927866,2.8971639
-28.34439,1.9931378,2.8927636
-28.386177,2.002429,2.8987103
-28.42503,2.0055242,2.8976784
-28.46516,2.0118897,2.9005098
-28.500677,2.0076058,2.8912215
-28.536,2.002779,2.881402
-28.57417,2.0050228,2.8798141
-28.616722,2.0188046,2.8916264
-28.651546,2.0130024,2.880982
-28.66953,1.9614644,2.817636
-28.651037,1.8060915,2.6343431
-28.647408,1.6849658,2.490457
-28.5882,1.394608,2.1506524
-28.564772,1.1958325,1.9164901
-28.69538,1.462867,2.221859
-28.714619,1.3907225,2.1344852
-28.719755,1.2679904,1.9884057
-28.75073,1.22528,1.9351664
-39.071922,0.5929446,3.0756683
-40.419453,0.69344735,3.814334
-23.165668,0.98172116,2.789106
-23.279255,1.0176504,2.8007684
-23.370333,1.0381145,2.7984543
-23.470917,1.0661745,2.8037782
-23.587824,1.107085,2.821826
-23.656094,1.1126254,2.8067117
-23.787148,1.1658888,2.8376627
-23.859629,1.1757574,2.827518
-23.935345,1.1885269,2.8205066
-24.028479,1.2152872,2.8274298
-24.117115,1.2392557,2.8320842
-24.197973,1.2577467,2.831801
-24.28051,1.2781515,2.833776
-24.346151,1.2855377,2.8232942
-24.44583,1.3210104,2.8409057
-24.515526,1.3327231,2.8353906
-24.576574,1.3376915,2.8234515
-24.931273,1.5893629,3.0587416
-25.023361,1.6237102,3.0776978
-25.07738,1.6263521,3.065133
-25.16729,1.6602709,3.084422
-25.239079,1.6792421,3.088965
-25.293118,1.6831269,3.078463
-25.360033,1.6987548,3.0801744
-25.428505,1.7162907,3.0841289
-25.490576,1.7285528,3.0829582
-25.553024,1.7415981,3.0828543
-25.615229,1.754873,3.083249
-25.674809,1.7661452,3.0818229
-25.740664,1.7837877,3.0872712
-25.796835,1.7927,3.0838852
-25.848772,1.7978735,3.0768065
-25.910381,1.8128116,3.0801764
-25.967144,1.8234522,3.0792751
-26.01861,1.8291905,3.0734224
-26.076126,1.8413568,3.0745664
-26.131187,1.8514485,3.0737367
-26.179983,1.8554482,3.0666375
-26.215567,1.8458636,3.0452256
-26.24858,1.8335011,3.0209455
-26.27802,1.8171904,2.9925203
-26.279526,1.7703657,2.9313712
-26.29709,1.7402272,2.8881044
-26.333416,1.7303727,2.8667378
-26.385914,1.7386198,2.8650632
-26.442339,1.7517009,2.8688216
-26.493443,1.7591426,2.866662
-26.542885,1.7649987,2.862957
-26.592201,1.7710147,2.8595996
-26.642864,1.7789531,2.8585167
-26.706503,1.8029518,2.8752222
-26.818819,1.8873532,2.9585452
-26.858177,1.8835673,2.94529
-26.847149,1.8165112,2.8623548
-26.926292,1.8626769,2.9044118
-26.984787,1.8835809,2.9188251
-27.032864,1.891583,2.9191413
-27.07402,1.8907831,2.9098377
-27.118729,1.8948889,2.9061227
-27.151901,1.8835495,2.8853207
-26.62708,1.1012468,2.0029454
-27.238527,1.8887792,2.8752122
-26.82539,1.243078,2.1432862
-26.84745,1.2062099,2.093
-26.878407,1.1814458,2.0563393
-26.898754,1.1403728,2.0013528
-26.893223,1.0592384,1.9011407
-26.90977,1.009582,1.8363743
-26.936575,0.9745159,1.7881012
-27.613344,1.9642725,2.902
-27.636417,1.9376366,2.865067
-27.715914,2.0022106,2.9318967
-27.750927,1.9953876,2.917735
-27.794792,2.003387,2.9205685
-27.818378,1.977092,2.8843746
-27.853027,1.9692991,2.8693695
-27.901724,1.9862564,2.8827958
-27.942215,1.9891694,2.88028
-27.98196,1.990962,2.876596
-28.023643,1.996583,2.877428
-28.065207,2.0023258,2.8785233
-28.105686,2.0063274,2.877738
-28.14576,2.0098238,2.8764863
-28.188847,2.0196588,2.8826709
-28.22961,2.0252616,2.8840942
-28.270258,2.0309818,2.8857708
-28.311367,2.038069,2.8891516
-28.354914,2.0509062,2.899321
-28.396807,2.0607433,2.9061408
-28.432444,2.0569108,2.8971996
-28.469484,2.0563085,2.8921094
-28.515762,2.0778008,2.9128432
-28.559568,2.0944066,2.9280295
-28.61064,2.1300383,2.9655423
-28.644995,2.1248665,2.9555902
-28.69342,2.1563804,2.9885907
-28.686152,2.0402515,2.8490944
-28.659151,1.8639381,2.6390371
-28.55425,1.4583209,2.1601768
-28.586365,1.4283044,2.1209602
-28.542728,1.1707671,1.8149137
-28.71423,1.4281583,2.1092887
-28.749601,1.4048212,2.078246
-28.746761,1.2518167,1.8947544
-39.44136,0.29575968,2.6474133
-39.477787,0.32253957,2.701692
-39.57921,0.310148,2.7233996
-39.17966,0.7327676,3.198751
-39.182816,0.7754531,3.2648044
-39.299248,0.75311136,3.2788177
-40.601498,0.76124144,3.8578978
-40.858673,0.677428,3.840827
-40.90334,0.69950485,3.896895
-41.037483,0.6780689,3.9242258
-41.101673,0.69105864,3.9751005
-41.236008,0.6706526,4.004666
-41.375755,0.6483748,4.0339575
-22.7979,0.9668472,2.7886343
-22.896568,0.9890282,2.7861514
-22.991251,1.0091043,2.7821884
-23.118029,1.0522478,2.8004866
-23.221174,1.0797544,2.8046165
-23.30391,1.093476,2.7961273
-23.429634,1.1386044,2.818111
-23.518686,1.1582003,2.8161912
-23.613007,1.18226,2.8190155
-23.705528,1.2056761,2.8216782
-23.799038,1.2305026,2.8261642
-23.887995,1.2526,2.8284345
-23.977255,1.2755766,2.8319936
-24.045725,1.2832532,2.8208838
-24.156609,1.3241813,2.8430123
-24.225178,1.3330007,2.8337626
-24.30292,1.3494558,2.8324347
-24.386332,1.3709741,2.836533
-24.464096,1.3885784,2.83708
-24.535006,1.4011626,2.8329082
-24.855837,1.6195982,3.0376039
-24.961365,1.6638885,3.0670228
-25.052036,1.6968081,3.0853553
-25.108402,1.7015378,3.0752568
-25.145702,1.690249,3.0489306
-25.267254,1.7517142,3.097701
-25.32109,1.7555254,3.0874605
-25.384733,1.768249,3.0866766
-25.448751,1.7817557,3.0869741
-25.514954,1.7976954,3.0900793
-25.577232,1.8105841,3.090269
-25.636868,1.8214958,3.0886402
-25.690931,1.8276446,3.0822353
-25.75491,1.8434114,3.0861993
-25.812143,1.8532982,3.084198
-25.869186,1.86339,3.0826402
-25.932945,1.880394,3.0886698
-25.986671,1.8881047,3.0850353
-26.037968,1.8937521,3.0793939
-26.09364,1.9040837,3.0789733
-26.14632,1.9117851,3.0759363
-26.193869,1.9145706,3.0677881
-26.236963,1.9129663,3.05506
-26.267574,1.8984013,3.0284138
-26.28819,1.873061,2.9901242
-26.295364,1.8328638,2.935659
-26.30743,1.7972009,2.8860898
-26.345713,1.789671,2.8672976
-26.40119,1.8012571,2.869597
-26.45644,1.8130343,2.872312
-26.508917,1.822109,2.87225
-26.560204,1.8301997,2.8712893
-26.61132,1.83846,2.870696
-26.656355,1.8398995,2.8627148
-26.716938,1.8601601,2.8758054
-26.815739,1.9274473,2.941516
-26.860346,1.9300644,2.935473
-26.203712,1.0603058,1.9538655
-26.231115,1.0302019,1.9095654
-27.01589,1.9670601,2.950924
-27.046247,1.952549,2.9262457
-27.096695,1.9641643,2.931076
-27.146467,1.975354,2.9356008
-26.5793,1.1548746,1.9997811
-26.628172,1.1540933,1.9894528
-26.685204,1.164793,1.9922981
-26.824875,1.2922714,2.1280713
-26.85147,1.2622156,2.0851088
-26.876505,1.2291899,2.0387897
-26.881657,1.1661279,1.9581866
-26.890736,1.1072001,1.8822293
-26.884117,1.0228748,1.777111
-26.927288,1.0127261,1.756957
-26.934982,0.9470043,1.6730533
-27.651772,2.0051472,2.8823957
-27.706995,2.0303473,2.904962
-27.750986,2.0381024,2.9075904
-27.787872,2.0344193,2.8971376
-27.829483,2.038765,2.8960762
-27.869577,2.0407896,2.8924475
-27.91031,2.0441527,2.8904872
-27.951305,2.0482469,2.8894954
-27.992882,2.053687,2.8901892
-28.034008,2.0586357,2.8904343
-28.076004,2.0655506,2.8930902
-28.118177,2.073205,2.8967352
-28.157982,2.0766668,2.8956065
-28.198326,2.0814779,2.8961687
-28.23978,2.0888793,2.8998814
-28.279886,2.0939255,2.9009533
-28.321348,2.1021867,2.9059138
-28.362066,2.1093295,2.9096813
-28.40123,2.1134822,2.9100509
-28.43892,2.114634,2.9069972
-28.476028,2.1146426,2.9026995
-28.511799,2.1116335,2.8949413
-28.548386,2.110591,2.889597
-28.610046,2.1715224,2.9575634
-28.644833,2.16761,2.9490805
-28.663237,2.1211991,2.8903933
-28.678463,2.0641358,2.8190956
-28.64959,1.8840709,2.601994
-28.588758,1.6051586,2.2674088
-28.580942,1.4635208,2.0953856
-28.536316,1.2053382,1.7847762
-28.71313,1.6055512,2.2565422
-28.720652,1.4998047,2.127182
-28.748098,1.4520292,2.0667691
-28.734661,1.2654064,1.8410025
-28.760519,1.2018073,1.7617006
-39.28745,0.40582633,2.619512
-39.478634,0.3387301,2.5924544
-39.516815,0.36463642,2.6461577
-39.596443,0.3658285,2.6789627
-39.296417,0.63680935,2.971065
-39.115097,0.787379,3.127914
-39.160316,0.8058677,3.174169
-39.213326,0.81991506,3.2169619
-39.322754,0.8022425,3.2341533
-39.358505,0.8263159,3.2857323
-39.41918,0.83648133,3.3262758
-39.500168,0.83563113,3.358354
-39.61155,0.8185549,3.3780723
-39.748722,0.78815866,3.38803
-39.84986,0.7778704,3.4144487
-39.96774,0.75919247,3.435011
-40.436375,0.6922324,3.5303693
-40.461403,0.7238741,3.5915723
-40.549614,0.72345495,3.629521
-40.605434,0.7395799,3.6799011
-40.649902,0.76140976,3.7346334
-40.69661,0.78211546,3.7887778
-40.736984,0.8059082,3.8452978
-40.862373,0.78854084,3.8736372
-40.936035,0.79661846,3.9201393
-41.052048,0.78477573,3.953672
-41.15336,0.78042006,3.9929538
-41.296555,0.7569151,4.0203185
-42.32717,0.5095501,4.0927377
-42.333023,0.55271983,4.1678343
-22.410336,0.937783,2.7871275
-22.516384,0.96191406,2.785026
-22.608706,0.9776604,2.7756305
-22.742775,1.021846,2.7934275
-22.826271,1.0330098,2.780748
-22.981049,1.0931246,2.8149424
-23.031115,1.0827188,2.7827067
-23.19388,1.150451,2.8255553
-23.27303,1.1612213,2.8144417
-23.371962,1.1863997,2.817634
-23.469051,1.2109773,2.8207345
-23.575598,1.2430553,2.8316312
-23.659159,1.2592943,2.827536
-23.743828,1.2768865,2.8251648
-23.847595,1.3091686,2.8377132
-23.926008,1.3233685,2.8328247
-24.013067,1.3445837,2.8352861
-24.092949,1.3609703,2.8333244
-24.176592,1.3807878,2.835174
-24.255177,1.3972881,2.8340645
-24.333466,1.4140961,2.8336215
-24.410118,1.4301596,2.8327737
-24.48648,1.4465203,2.8325706
-24.565163,1.4652894,2.8351703
-24.919315,1.7090275,3.0691576
-25.007072,1.7386851,3.0844803
-25.001266,1.6913905,3.0206366
-25.054209,1.6926448,3.0070305
-25.112795,1.6989086,2.9988413
-25.27742,1.796315,3.0860767
-25.335594,1.8038073,3.079947
-25.39857,1.8158371,3.0788202
-25.466227,1.8324442,3.0827794
-25.530527,1.8465858,3.0844154
-25.58911,1.8560536,3.0813608
-25.650505,1.86847,3.081676
-25.712854,1.8822098,3.0836506
-25.772575,1.8939776,3.0837693
-25.82972,1.9037542,3.0819879
-25.886086,1.9131808,3.0800533
-25.93995,1.9205873,3.076157
-25.991373,1.9259541,3.0702581
-26.05005,1.9387505,3.0726066
-26.107357,1.9506397,3.0741963
-26.16052,1.9588068,3.07195
-26.204666,1.9581594,3.060267
-26.244408,1.9531398,3.0439405
-26.271713,1.935235,3.0135856
-26.288534,1.9060493,2.9708648
-26.296234,1.866637,2.9168568
-26.31622,1.8396995,2.8765917
-26.36387,1.842449,2.8692503
-26.415075,1.8493543,2.8666859
-26.471262,1.8621633,2.8708758
-26.52313,1.8705704,2.8703585
-26.5718,1.8756955,2.8663526
-26.625336,1.88675,2.8691578
-26.678646,1.8979869,2.872357
-26.72441,1.9007082,2.8661637
-26.838676,1.986078,2.953302
-26.851063,1.9496653,2.903378
-26.20663,1.1015942,1.9347501
-26.208775,1.0400629,1.8545513
-27.024145,2.007842,2.9436502
-27.065859,2.0080736,2.9356866
-27.114769,2.01784,2.9387217
-27.155443,2.0171585,2.9299874
-26.561146,1.166816,1.9491792
-26.630331,1.1931477,1.9699893
-26.708916,1.2333584,2.0069842
-26.819498,1.3195896,2.0972004
-26.851223,1.2968056,2.062313
-26.878351,1.2669251,2.0192962
-26.89494,1.2209554,1.9577193
-26.888096,1.1390741,1.8545628
-26.879913,1.052856,1.7462358
-26.89645,1.0018961,1.678679
-27.642616,2.0811415,2.9248009
-27.665607,2.0554743,2.8884983
-27.723698,2.085324,2.9169369
-27.754866,2.072489,2.8957605
-27.803802,2.0887668,2.90868
-27.829721,2.0670266,2.8772655
-27.876945,2.081138,2.8879056
-27.916557,2.0826359,2.8838983
-27.957151,2.0860727,2.8822784
-27.996986,2.088407,2.8794804
-28.039417,2.0957391,2.8826785
-28.081366,2.1025867,2.8854322
-28.123491,2.1101708,2.8891768
-28.163246,2.1135898,2.8881245
-28.20416,2.1195767,2.8902206
-28.245249,2.1262977,2.8933048
-28.285599,2.1319084,2.8951898
-28.326706,2.1394842,2.8995214
-28.36708,2.145946,2.9026484
-28.406754,2.1512907,2.9045606
-28.444378,2.1524205,2.901568
-28.481153,2.151796,2.896587
-28.513155,2.1401167,2.87852
-28.569971,2.1874435,2.9309435
-28.600557,2.1728706,2.9096274
-28.626198,2.145312,2.8728538
-28.658138,2.1327298,2.8540382
-28.661247,2.043607,2.7436466
-28.65908,1.9357071,2.610682
-28.593754,1.6467271,2.2604632
-28.591757,1.5228498,2.107975
-28.525778,1.2044294,1.7217393
-28.711082,1.6264322,2.224926
-28.734026,1.5689287,2.1522508
-28.72308,1.2557588,1.7683287
-28.754332,1.2094619,1.7090673
-39.49903,0.28862143,2.409401
-39.528244,0.3206861,2.4686441
-39.530357,0.36869335,2.5418935
-39.112022,0.7110739,2.9008656
-39.14195,0.7392323,2.955267
-39.18422,0.76009154,3.0035162
-39.05969,0.87623334,3.1325812
-39.033943,0.93470335,3.2121887
-39.075138,0.95485973,3.2595196
-39.298347,0.8735893,3.2229934
-39.3535,0.88681364,3.2655735
-39.40192,0.903805,3.3114834
-39.475506,0.90715575,3.3465633
-39.573715,0.89750504,3.3715954
-39.65718,0.89620256,3.4038424
-39.820244,0.8531246,3.4035625
-39.910652,0.8492098,3.4349842
-40.05371,0.81830215,3.4459743
-40.20974,0.7815552,3.4533749
-40.39064,0.7330482,3.4528131
-40.389847,0.7778115,3.5238667
-40.423145,0.80502224,3.5816545
-40.49344,0.81367755,3.6258178
-40.538,0.8352461,3.6798382
-40.585655,0.85527873,3.7329469
-40.65361,0.8654604,3.77921
-40.723965,0.8746605,3.825159
-40.798477,0.8820739,3.870257
-40.88757,0.88280916,3.9111557
-41.0018,0.8720832,3.9447393
-41.08038,0.8785012,3.9907026
-41.248848,0.8436661,4.009505
-42.322327,0.5354073,3.9893646
-42.300358,0.5910549,4.072528
-42.29452,0.63909245,4.150679
-42.56336,0.5672016,4.1556535
-42.93837,0.45112848,4.1361837
-22.412811,1.037955,2.8331814
-22.455072,1.0205324,2.7924442
-22.573671,1.0526032,2.7986164
-22.706589,1.094902,2.8151217
-22.787134,1.1036325,2.8002968
-22.92701,1.1523497,2.824204
-23.02152,1.1716948,2.820551
-23.127327,1.1993232,2.8253813
-23.23122,1.2264059,2.8302135
-23.327465,1.2489514,2.8311296
-23.413315,1.2649062,2.8260474
-23.509544,1.2887185,2.8291163
-23.598291,1.3078992,2.8280678
-23.69162,1.3309705,2.8313088
-23.781748,1.3523984,2.833355
-23.87775,1.3787653,2.8407803
-23.938091,1.3795223,2.8228798
-24.057388,1.4244983,2.8499255
-24.134325,1.4386687,2.8463044
-24.210999,1.4531391,2.8433318
-24.28875,1.46894,2.842062
-24.366879,1.4855635,2.8419814
-24.444035,1.5019722,2.8420267
-24.512302,1.5118935,2.8357062
-24.84278,1.7315743,3.0473108
-24.953205,1.7784078,3.0807524
-25.028513,1.7977788,3.0860372
-25.073898,1.7931228,3.0664663
-25.114223,1.7843664,3.0427446
-25.246574,1.852874,3.100679
-25.30599,1.8611312,3.0954862
-25.366486,1.8706746,3.0918984
-25.427408,1.8809755,3.0893617
-25.49059,1.8936534,3.0896091
-25.554132,1.9071064,3.0909457
-25.61317,1.9170053,3.0887203
-25.674417,1.92929,3.089301
-25.733631,1.940166,3.088602
-25.791441,1.9501646,3.0871868
-25.847286,1.9587271,3.084434
-25.904701,1.9691355,3.0839052
-25.963642,1.9814017,3.085629
-26.017178,1.9889114,3.0823698
-26.07169,1.9977143,3.0807304
-26.124891,2.005598,3.0782814
-26.164509,2.0003076,3.061482
-26.215826,2.006851,3.0579038
-26.250523,1.9967854,3.03608
-26.2723,1.9733486,2.9994774
-26.296082,1.9516218,2.9648051
-26.303112,1.9118919,2.910049
-26.335167,1.898097,2.884284
-26.382648,1.9007986,2.8771143
-26.436802,1.9110322,2.8785763
-26.489716,1.9203134,2.8791575
-26.540909,1.9280627,2.8781948
-26.590923,1.93484,2.876307
-26.641289,1.9423542,2.8754263
-26.6821,1.9391253,2.862504
-26.772823,1.9947112,2.916699
-26.850426,2.036251,2.955246
-26.90284,2.0486226,2.9607515
-26.94364,2.0472732,2.9507198
-26.18775,1.0588219,1.8077722
-27.041437,2.065287,2.9548388
-27.080206,2.0620058,2.942987
-26.26526,0.9575465,1.6604347
-26.28941,0.9201226,1.6071253
-26.469831,1.0890596,1.7927961
-26.612217,1.2118139,1.9257083
-26.721712,1.2934022,2.0114117
-26.812649,1.3518577,2.0706449
-26.846521,1.3321123,2.0390854
-26.88363,1.3165762,2.0125055
-26.890644,1.2572558,1.9348164
-26.861877,1.1438241,1.7936931
-26.792023,0.9658904,1.5766721
-27.59743,2.1068056,2.9080658
-27.637339,2.107454,2.9023652
-27.664574,2.0884862,2.8736758
-27.724976,2.1216705,2.9065409
-27.76875,2.12928,2.90942
-27.81749,2.1454344,2.9225354
-27.841724,2.121434,2.8882627
-27.878462,2.117958,2.8783574
-27.92189,2.1260471,2.8822765
-27.964117,2.1324556,2.884328
-28.00654,2.1395953,2.887372
-28.04681,2.1432247,2.8863587
-28.087976,2.1487918,2.8877692
-28.128696,2.1538715,2.8887172
-28.170885,2.1621134,2.893559
-28.211035,2.1668246,2.8942986
-28.251383,2.172262,2.8960204
-28.29191,2.178427,2.8987284
-28.332304,2.1847093,2.9016905
-28.371696,2.1892722,2.9027004
-28.410706,2.1933334,2.9032164
-28.448788,2.1956632,2.901753
-28.485725,2.1956394,2.8975558
-28.522911,2.1963305,2.894318
-28.559547,2.195891,2.8898115
-28.59338,2.1887648,2.8773222
-28.62708,2.1811051,2.8642673
-28.659452,2.169821,2.8469071
-28.653189,2.0571551,2.706851
-28.65594,1.9629459,2.5890465
-28.591965,1.6802311,2.2425504
-28.589867,1.5571613,2.0894132
-28.68854,1.7202427,2.2837067
-28.710781,1.6643317,2.212225
-28.735062,1.6115453,2.144555
-28.720856,1.291096,1.7476306
-28.741945,1.2107868,1.6463447
-39.49002,0.3032105,2.3078156
-39.483276,0.35718036,2.3869333
-39.479637,0.4086783,2.4636502
-39.391304,0.5096276,2.5842247
-39.11361,0.7658682,2.8709521
-39.103027,0.81730485,2.9457607
-39.157124,0.8312566,2.9878545
-39.081192,0.91880465,3.093583
-39.139168,0.93007493,3.1334162
-39.242218,0.9164007,3.152327
-39.268402,0.9456246,3.2079906
-39.304745,0.96910405,3.2588983
-39.34892,0.98824906,3.3063293
-39.452732,0.97535753,3.32753
-39.543537,0.96992683,3.3554301
-39.61869,0.97316265,3.390871
-39.735294,0.95497847,3.4094777
-39.866302,0.92995644,3.4233246
-39.975903,0.9166982,3.4472828
-40.14441,0.87396216,3.448779
-40.273064,0.8524368,3.4678392
-40.355503,0.85477805,3.5060782
-40.37937,0.88652706,3.5672174
-40.424904,0.90741014,3.6201935
-40.476955,0.9251015,3.6709871
-40.521027,0.9467063,3.7249355
-40.61203,0.9457567,3.7625523
-40.66939,0.9611945,3.8126054
-40.754177,0.96378016,3.8537421
-40.8571,0.9581919,3.8895912
-40.92699,0.9683895,3.9371653
-41.05778,0.95076036,3.9658575
-41.164238,0.94489837,4.003484
-42.340107,0.50275326,3.7933455
-42.309837,0.5627725,3.8802485
-42.277863,0.6229379,3.9668765
-42.288563,0.66384435,4.040764
-42.296906,0.70549154,4.1150737
-42.370686,0.7187319,4.171613
-42.78501,0.58709645,4.139656
-43.051964,0.5203805,4.150154
-22.062244,1.0565307,2.865292
-22.166393,1.0761509,2.8581567
-22.232105,1.0726464,2.8297634
-22.34563,1.0991907,2.830131
-22.45494,1.1238439,2.829286
-22.539057,1.1332171,2.8143735
-22.668575,1.1721408,2.8282957
-22.766973,1.1919148,2.8243814
-22.884995,1.2251315,2.8340163
-22.968618,1.2365606,2.8229828
-23.052761,1.2488077,2.8131466
-23.14978,1.2701814,2.8127003
-23.259457,1.3007808,2.8218598
-23.344849,1.3156047,2.8158765
-23.448584,1.3436136,2.8234634
-23.53973,1.3636286,2.8235373
-23.630518,1.3840141,2.8244143
-23.722347,1.4057682,2.8271036
-23.81379,1.427897,2.830605
-23.896488,1.4443619,2.8287573
-23.985104,1.4656982,2.832274
-24.06715,1.4828343,2.831882
-24.14683,1.4987702,2.8306203
-24.229605,1.5175703,2.8326802
-24.304615,1.5310681,2.8295994
-24.387405,1.551019,2.833578
-24.465168,1.5676923,2.8344927
-24.53071,1.5753627,2.8262858
-24.877296,1.8052852,3.052733
-24.957596,1.827688,3.061449
-25.059525,1.8681626,3.0897098
-25.110516,1.8682194,3.0753913
-25.179375,1.8831587,3.077168
-25.292383,1.9352527,3.1190686
-25.32883,1.9243996,3.0938053
-25.376698,1.9231904,3.079053
-25.437595,1.9333067,3.076725
-25.50014,1.9452465,3.0766191
-25.566114,1.9606278,3.0805101
-25.624504,1.9698195,3.0779114
-25.682098,1.978684,3.075182
-25.740105,1.9882951,3.0734925
-25.79969,1.999738,3.0740433
-25.856691,2.009227,3.0726662
-25.915245,2.0205526,3.0735393
-25.97183,2.0304525,3.0730543
-26.027061,2.0394602,3.0717883
-26.079824,2.0464673,3.0684981
-26.133562,2.054757,3.0668316
-26.186003,2.062131,3.0643349
-26.221632,2.0530944,3.0435877
-26.251888,2.0386076,3.0167994
-26.273102,2.014739,2.979488
-26.294168,1.9903324,2.9415889
-26.297974,1.9475093,2.8828225
-26.33857,1.9426963,2.8671885
-26.383945,1.9430525,2.857562
-26.44593,1.9615555,2.8687983
-26.49622,1.967876,2.8663282
-26.545855,1.9737966,2.8635697
-26.59737,1.9821467,2.8637676
-26.645704,1.987262,2.8604174
-26.719652,2.0221326,2.8915453
-26.827223,2.0972252,2.9694476
-26.86556,2.092733,2.9556642
-26.915936,2.1026726,2.9587317
-26.944284,2.0863676,2.931467
-26.171728,1.0873046,1.760005
-26.14227,0.985456,1.6310229
-27.08321,2.1036625,2.9273748
-26.276031,1.0200934,1.6512465
-26.34709,1.043843,1.6692386
-26.451773,1.1126006,1.740336
-26.479042,1.0804393,1.6931329
-26.517668,1.0628939,1.663178
-26.812675,1.3962095,2.0473723
-26.841917,1.3701155,2.0081253
-26.879925,1.3558006,1.9828639
-26.886951,1.2968953,1.9048243
-26.829365,1.1425164,1.7133555
-26.76299,0.9706261,1.5006714
-27.612545,2.1657703,2.915317
-27.643711,2.1533747,2.894218
-27.680449,2.149351,2.8831835
-27.72442,2.1567109,2.8858547
-27.792824,2.2034688,2.9358263
-27.818487,2.18256,2.9049325
-27.845238,2.1628873,2.8755636
-27.88586,2.1659753,2.8735957
-27.92745,2.170977,2.874042
-27.967892,2.1743033,2.8725905
-28.009605,2.1801486,2.8742886
-28.051521,2.1867187,2.8769808
-28.093292,2.1934135,2.8799438
-28.134272,2.1990263,2.8817158
-28.17354,2.2017403,2.8800917
-28.213982,2.2069838,2.881641
-28.254,2.2117395,2.88271
-28.294806,2.2184293,2.886239
-28.335468,2.2252378,2.8900256
-28.373674,2.227304,2.8881521
-28.412106,2.2300854,2.887251
-28.449911,2.2317553,2.8850942
-28.487665,2.2335296,2.8831654
-28.526167,2.237239,2.883699
-28.564058,2.2398343,2.8829718
-28.602648,2.2443695,2.884719
-28.628704,2.218388,2.8491807
-28.661058,2.2071667,2.8317814
-28.648323,2.0787961,2.6707125
-28.604445,1.8611932,2.3999267
-28.597803,1.7336702,2.2395391
-28.61706,1.671876,2.159855
-28.667845,1.6975594,2.1878142
-28.697315,1.6617391,2.1401868
-28.724861,1.3444135,1.7386751
-28.739916,1.244921,1.6124907
-39.4807,0.33049393,2.2055044
-39.469955,0.38702393,2.2876372
-39.492615,0.42304778,2.3507247
-39.565575,0.42916274,2.3865113
-39.39728,0.5762129,2.5505352
-39.35459,0.6483848,2.6457882
-39.087337,0.8483012,2.8551207
-39.082123,0.89618444,2.9271708
-39.10817,0.92593837,2.983017
-39.162674,0.9396,3.0247679
-39.16056,0.9846599,3.0941615
-39.16345,1.0265048,3.1606288
-39.259163,1.0174656,3.183197
-39.283222,1.0475163,3.239688
-39.32404,1.068408,3.2884502
-39.362904,1.0902879,3.3382
-39.471603,1.0754399,3.3574157
-39.532455,1.086072,3.3983755
-39.640545,1.0724678,3.4197102
-39.70542,1.0815315,3.4601564
-39.756752,1.0976355,3.5066252
-40.012947,1.0107875,3.4708176
-40.178394,0.9710026,3.47409
-40.33168,0.9382546,3.483955
-40.353745,0.97070646,3.5456514
-40.405163,0.98869395,3.5962043
-40.446903,1.0113857,3.6506028
-40.50461,1.0264232,3.69938
-40.56122,1.0420773,3.748917
-40.640896,1.0469978,3.7907772
-40.717873,1.0534515,3.834229
-40.793858,1.060617,3.8786464
-40.88452,1.0613158,3.9188633
-40.98562,1.0576429,3.9565325
-41.074444,1.0599229,3.999021
-42.277866,0.5659046,3.6978855
-42.261265,0.61970305,3.781026
-42.263367,0.66480875,3.858029
-42.280796,0.7029085,3.9302402
-42.292347,0.74330807,4.003969
-42.312237,0.7798784,4.075172
-42.34054,0.8126867,4.1439953
-42.645203,0.72945666,4.1397157
-42.948093,0.64883375,4.1393566
-43.21945,0.58304787,4.1503696
-43.398525,0.55656147,4.1870966
-21.831867,1.0671806,2.8428545
-21.902771,1.0651882,2.8148694
-22.005268,1.0824165,2.8054557
-22.178782,1.1432521,2.8381867
-22.238365,1.1358721,2.8064084
-22.403599,1.193783,2.8378706
-22.492313,1.2054262,2.8253632
-22.606379,1.2334793,2.8292766
-22.699018,1.2487466,2.8212457
-22.791382,1.2643924,2.814034
-22.913082,1.2995288,2.8265448
-23.01503,1.3227186,2.8278027
-23.095322,1.332367,2.8160415
-23.21988,1.3718257,2.8345418
-23.28795,1.3744509,2.8165684
-23.389103,1.3997431,2.8218207
-23.506292,1.4367063,2.839419
-23.58506,1.4481552,2.8315606
-23.681324,1.4722316,2.8369946
-23.76377,1.4873087,2.833623
-23.85083,1.5061884,2.8345509
-23.936844,1.5249207,2.835723
-24.02251,1.5439987,2.8376455
-24.1092,1.564425,2.841363
-24.188671,1.5801654,2.8405557
-24.272596,1.5997548,2.84415
-24.351429,1.6161318,2.8447232
-24.433304,1.6353624,2.8486652
-24.50415,1.6467505,2.8446207
-24.677414,1.7377906,2.9259372
-24.885267,1.8578856,3.0392585
-24.923088,1.8464637,3.01224
-25.065565,1.9184146,3.0752687
-25.122974,1.923553,3.0666895
-25.202024,1.9465945,3.0777683
-25.286362,1.9746513,3.0946498
-25.340517,1.9784341,3.0853834
-25.404596,1.9908125,3.0857396
-25.465939,2.0013232,3.084299
-25.52583,2.0110025,3.0821838
-25.586128,2.0214305,3.0811276
-25.647429,2.033143,3.08173
-25.712107,2.0482817,3.086379
-25.765709,2.0540361,3.0808253
-25.823927,2.0642679,3.080471
-25.881931,2.074711,3.0805745
-25.940302,2.0859022,3.0817366
-25.99438,2.0935185,3.0790935
-26.04829,2.101325,3.07686
-26.099749,2.1071439,3.0725727
-26.151632,2.113684,3.0692859
-26.198322,2.1154819,3.0607872
-26.238836,2.1114008,3.045741
-26.267273,2.0953481,3.0171347
-26.286686,2.069986,2.9779224
-26.301653,2.0396633,2.9330254
-26.311237,2.0032368,2.881092
-26.35542,2.0023005,2.8700466
-26.402216,2.0042818,2.8625107
-26.456234,2.0142224,2.8643417
-26.511587,2.026026,2.8685222
-26.567205,2.0385823,2.8737707
-26.617504,2.0457141,2.8728938
-26.66664,2.0518866,2.8710623
-26.719593,2.0627353,2.8748627
-26.828705,2.1388164,2.9552999
-26.862167,2.128625,2.9348946
-26.914503,2.1406753,2.9407353
-26.209755,1.245286,1.8772593
-26.140755,1.0988402,1.6944084
-26.059074,0.9330616,1.4882364
-26.187922,1.0257478,1.5877709
-26.379017,1.1999328,1.7845607
-26.407179,1.1701615,1.7397332
-26.435408,1.139847,1.6942906
-26.463284,1.1084089,1.6475391
-26.762959,1.439862,2.0343037
-26.787714,1.4080179,1.9878001
-26.821041,1.3872328,1.9545655
-26.865965,1.3822243,1.9403267
-26.880934,1.3347743,1.8751988
-26.81601,1.1710548,1.6701088
-26.74929,0.9998729,1.4556007
-26.779303,0.9671602,1.4077764
-26.82897,0.9632549,1.3948021
-27.72219,2.251698,2.9459238
-27.733389,2.2089763,2.8882298
-27.791233,2.238808,2.9185386
-27.817629,2.2191968,2.8889775
-27.8545,2.2162075,2.8796806
-27.895323,2.2198408,2.8785415
-27.937807,2.226562,2.8812819
-27.98014,2.2334113,2.8842998
-28.021301,2.2386017,2.8854103
-28.062344,2.2439127,2.8867836
-28.102276,2.2475524,2.8862228
