x,y,z
-17.107431,2.7938137,1.1497245
-17.22894,2.7795935,1.115407
-17.330315,2.7608624,1.0722098
-17.426554,2.7412152,1.0272617
-17.472576,2.7090209,0.9573798
-17.522526,2.6778502,0.88956213
-17.945988,2.7452726,1.018548
-18.346573,2.809242,1.1409898
-18.486687,2.8051558,1.1277037
-18.567726,2.7855341,1.0834365
-18.631092,2.7612572,1.0298996
-18.735332,2.7486346,0.99975014
-18.808369,2.727535,0.9526706
-18.832108,2.692379,0.87742615
-18.864796,2.65968,0.8071165
-18.606707,2.540596,0.56321955
-18.750225,2.539888,0.55714035
-18.80588,2.513165,0.49880934
-18.82326,2.4747,0.41685963
-18.81923,2.4293063,0.32094383
-20.734974,2.8388002,1.127244
-20.784765,2.816804,1.0792398
-20.843575,2.797922,1.0375557
-20.837872,2.7569284,0.95114136
-20.824354,2.712779,0.8583164
-20.64056,2.6079996,0.64261436
-20.66238,2.5747252,0.571723
-20.761433,2.5691648,0.557044
-20.633144,2.4808035,0.37439203
-20.642605,2.441927,0.29209757
-26.443123,2.9119053,1.1356463
-26.548103,2.9541962,1.2220912
-26.628935,2.9775414,1.2694168
-26.727476,3.0171251,1.3503456
-26.806509,3.0411253,1.3990908
-26.883425,3.0642502,1.4460568
-26.973911,3.1006014,1.5204067
-26.998476,3.0779443,1.4727321
-27.149761,3.1727962,1.6681638
-27.235157,3.208623,1.7415333
-27.27573,3.2027678,1.7286811
-27.57529,3.1299179,1.5723758
-27.620773,3.129433,1.5707364
-27.660488,3.1225784,1.5559139
-27.708708,3.125597,1.5615582
-27.752625,3.123864,1.5573697
-27.928831,3.2821493,1.8848124
-27.971745,3.2826371,1.885282
-28.016201,3.285301,1.890275
-28.021336,3.2378945,1.7914853
-27.958384,3.0997124,1.5044956
-27.956001,2.9748368,1.2445154
-27.973572,2.9348354,1.161037
-27.955128,2.842059,0.9681072
-27.954103,2.7707212,0.81962395
-27.823933,2.5041616,0.26619864
-27.98146,2.6636183,0.596416
-28.031908,2.6639614,0.5966115
-28.098011,2.689583,0.6492653
-28.126642,2.6554136,0.5778823
-28.169195,2.643129,0.5519128
-28.438751,3.0211523,1.335886
-28.481827,3.0193372,1.3317165
-28.703346,3.3414361,1.999804
-28.742956,3.3424163,2.0014982
-28.776968,3.3329217,1.9814606
-28.817642,3.3362234,1.9879918
-28.640644,2.4810376,0.21089077
-28.691725,2.4814916,0.21148252
-28.741705,2.4795167,0.2070446
-28.792023,2.478528,0.20466566
-29.16882,3.1297534,1.5562716
-29.205952,3.118266,1.5321875
-29.25155,3.132652,1.561852
-29.292152,3.132115,1.5605302
-29.38121,3.160217,1.6185226
-29.422134,3.1630335,1.6241989
-29.551088,3.2036533,1.708118
-29.594103,3.2216072,1.7452822
-29.633171,3.2215257,1.7449875
-29.709665,3.211714,1.7243795
-29.818838,3.1425025,1.5803099
-29.857489,3.1291385,1.5524712
-29.840351,2.4836152,0.2111516
-29.889973,2.4876509,0.2194705
-29.93952,2.4926817,0.22986889
-30.019712,3.1625104,1.6216149
-30.037418,2.480145,0.20374489
-30.0868,2.4838214,0.21136332
-30.136042,2.4793851,0.20213747
-30.253065,3.2820094,1.8698988
-30.289154,3.3178742,1.9444475
-30.367496,3.2763083,1.8581648
-30.408218,3.248752,1.8009634
-30.62446,3.1075256,1.5079613
-30.66535,3.1062028,1.5053272
-30.746836,3.1060355,1.505239
-30.78602,3.1132336,1.5203366
-30.825127,3.1200972,1.5347486
-30.901901,3.1375628,1.571363
-30.940317,3.1451442,1.5872912
-31.01047,3.1803665,1.66084
-31.144026,3.2547176,1.8161297
-31.380735,3.165143,1.6314354
-31.426495,3.154733,1.6101179
-31.46621,3.1580644,1.617341
-31.543377,3.169275,1.6412554
-31.624329,3.249339,1.8084645
-31.696896,3.2642756,1.8401837
-31.733559,3.2708242,1.854146
-31.78098,3.259402,1.830831
-31.830849,3.244772,1.8008733
-31.928745,3.221005,1.7523975
-32.228687,3.097605,1.4987898
-32.345715,3.1194534,1.5456519
-32.428562,3.127663,1.5637646
-32.468586,3.1335697,1.5765715
-32.503067,3.146116,1.6031475
-32.537273,3.158737,1.6298847
-32.658413,3.224083,1.7676883
-33.00456,3.1962028,1.7146816
-33.04646,3.200817,1.7249608
-33.087566,3.2497668,1.8277235
-33.37305,3.2480683,1.8289762
-33.823895,3.0861833,1.4990163
-33.97121,3.1349232,1.6036358
-34.016914,3.17902,1.6966982
-34.047146,3.1953282,1.7313914
-34.07388,3.2139132,1.7707858
-34.112495,3.2240465,1.792757
-34.17305,3.2192037,1.7838616
-34.5091,3.1429586,1.6313581
-34.64273,3.1310885,1.6093822
-34.680725,3.1437573,1.636734
-34.70172,3.1668499,1.6855483
-34.73634,3.2165818,1.7904773
-34.747986,3.3119934,1.9906478
-34.849663,3.287072,1.9407649
-34.89818,3.292979,1.954279
-34.964016,3.2894106,1.9483433
-35.022007,3.2905347,1.9520731
-49.37912,2.3032713,0.3213582
-49.512085,2.336968,0.3979826
-49.64103,2.3719065,0.4771428
-49.55759,2.4458375,0.6319151
-49.549232,2.5055811,0.75913906
-49.57446,2.5590987,0.87431145
-49.561394,2.6190848,1.0019431
-49.562347,2.6763425,1.1242862
-49.56991,2.7322369,1.2439866
-49.547348,2.7928388,1.3726792
-49.553062,2.8485086,1.4918919
-49.566425,2.9027553,1.6083722
-49.579887,2.956818,1.7244925
-49.60487,3.008967,1.8369741
-49.63668,3.060007,1.9473629
-49.7336,3.1014788,2.039709
-49.900772,3.1332033,2.1138206
-50.29859,3.1332352,2.1286569
-50.47525,3.1657586,2.2048912
-50.814148,3.1771698,2.2419715
-50.073586,3.3328955,2.5480418
-50.100513,3.3850136,2.660767
-50.183685,3.429965,2.7602673
-52.83042,3.1578512,2.2760763
-52.89219,3.2130136,2.3967366
-53.18039,3.2415295,2.4687867
-54.029575,3.2066154,2.4259124
-54.666985,3.2000353,2.4358916
-7.224573,2.5870433,0.7142105
-7.7651615,2.6023977,0.7346916
-7.798374,2.5429034,0.60604143
-8.663328,2.6130848,0.7369151
-9.705534,2.7161837,0.934463
-10.095541,2.7195385,0.9327135
-10.768019,2.7714558,1.028831
-10.939611,2.7430506,0.9638996
-11.009577,2.6980433,0.8656521
-11.097843,2.6563547,0.7741332
-11.203344,2.6179585,0.6893096
-11.202681,2.5608351,0.56671
-12.314243,2.7066245,0.85450745
-12.372591,2.6632454,0.7601104
-13.805395,2.7279618,0.86688995
-15.092984,2.8410735,1.0808864
-15.229676,2.8220096,1.0370202
-15.673987,2.8693228,1.1286616
-15.833093,2.857289,1.0994
-15.943762,2.8353255,1.0499344
-16.073269,2.8180032,1.010016
-16.116592,2.7816832,0.931293
-16.179934,2.7499576,0.86199
-17.001945,2.8954813,1.1558752
-17.167427,2.8907113,1.1421142
-17.264187,2.8702514,1.0962543
-17.375057,2.8535838,1.0582228
-17.485947,2.8373742,1.021184
-17.4684,2.7894547,0.9190321
-17.601381,2.7793188,0.8945484
-18.166801,2.8810906,1.1003566
-18.387184,2.8964963,1.1286936
-18.534855,2.8939197,1.1201081
-18.606339,2.8716636,1.0710416
-18.661064,2.8450518,1.0130234
-18.79987,2.8416536,1.0029011
-18.802727,2.8010304,0.91602755
-18.849976,2.7726386,0.85439587
-18.875895,2.7381544,0.7801933
-18.899065,2.702723,0.70403624
-18.928646,2.6689987,0.63140774
-20.738579,2.9055078,1.1004357
-20.814651,2.8921335,1.0704298
-20.955807,2.9007168,1.0860157
-20.827988,2.819335,0.9149008
-20.83964,2.7841616,0.83967257
-20.664324,2.684028,0.62949896
-20.819057,2.6975818,0.655468
-20.815145,2.6558235,0.5665269
-20.633404,2.5497956,0.34394264
-26.379826,2.9492924,1.1023321
-26.473022,2.9802709,1.1668668
-26.552256,3.0009549,1.2097716
-26.623917,3.0162067,1.2412667
-26.737875,3.0681102,1.3498931
-26.8159,3.0909026,1.397295
-26.901516,3.12131,1.460741
-26.9844,3.1505048,1.5216556
-27.052599,3.1676168,1.557159
-27.140104,3.2032435,1.63165
-27.218534,3.2318099,1.6912994
-27.22963,3.197749,1.6191211
-27.550385,3.1417856,1.4977336
-27.607464,3.1535485,1.5221066
-27.664825,3.166301,1.5485768
-27.707026,3.1623762,1.5399194
-27.733408,3.1400483,1.4924922
-27.900177,3.2843616,1.796217
-27.939587,3.279842,1.786344
-27.986893,3.285149,1.7971873
-28.022726,3.276392,1.7783971
-27.9802,3.1664345,1.54631
-27.973871,3.0997744,1.4054666
-27.95753,3.0170548,1.230763
-27.985777,2.9922452,1.1781273
-27.968227,2.9023008,0.9881768
-27.963194,2.8265314,0.8281007
-27.949041,2.7341723,0.6330371
-27.986843,2.7158012,0.5939679
-28.012741,2.6785188,0.51502657
-28.066147,2.6830094,0.52417374
-28.117294,2.6843407,0.5266671
-28.166824,2.6833253,0.5242181
-28.43314,3.0504973,1.2982807
-28.478975,3.0532112,1.3037472
-28.492542,2.9985573,1.1882234
-28.724932,3.3435724,1.9156966
-28.76273,3.3403766,1.9087424
-28.801214,3.3385334,1.9046474
-28.93646,3.2909667,1.8035312
-29.024212,3.112478,1.4262486
-29.165726,3.157633,1.5210538
-29.208109,3.1615136,1.529099
-29.251028,3.1676295,1.5418677
-29.293085,3.1717393,1.5504098
-29.336235,3.180211,1.5681639
-29.422382,3.2000623,1.609828
-29.505877,3.2144208,1.6399269
-29.548588,3.2277367,1.6679373
-29.58853,3.2296538,1.6718974
-29.630596,3.243198,1.7004023
-29.665997,3.2214193,1.6543632
-29.697016,3.168969,1.543592
-29.730154,3.1208525,1.4419718
-29.771608,3.1249552,1.450572
-29.814661,3.1437051,1.4900942
-29.89938,3.184545,1.5762081
-29.939268,3.18438,1.5758262
-29.979813,3.1950178,1.5982513
-30.019356,3.191207,1.5901852
-30.17784,3.246768,1.7074308
-30.216694,3.2511706,1.7167306
-30.255972,3.2415464,1.6964288
-30.292482,3.2893813,1.7974133
-30.33363,3.2482831,1.7106905
-30.373194,3.2411034,1.6955662
-30.410873,3.255844,1.7267151
-30.66488,3.1451252,1.4933686
-30.705202,3.1469262,1.4972501
-30.74612,3.1458468,1.4950566
-30.78478,3.155102,1.5146813
-30.82514,3.1563592,1.5174313
-30.864838,3.160274,1.5257974
-30.903187,3.1689694,1.5442562
-30.943,3.1718066,1.5503588
-30.978832,3.1879132,1.5844693
-31.016623,3.1964605,1.602633
-31.05253,3.2101896,1.6317358
-31.083294,3.2379827,1.6905217
-31.120392,3.2459345,1.7074423
-31.16923,3.2218328,1.656734
-31.234941,3.1560514,1.5180922
-31.269756,3.1723988,1.5527496
-31.3108,3.172798,1.5537615
-31.35278,3.1711988,1.5505657
-31.388851,3.183177,1.5760202
-31.42656,3.1910346,1.5927854
-31.46787,3.1910083,1.5929255
-31.50266,3.204507,1.6216044
-31.541548,3.2092903,1.6319003
-31.578827,3.2170985,1.6485839
-31.639791,3.256752,1.732667
-31.680204,3.2577164,1.7349291
-31.720161,3.2596192,1.7391777
-31.76852,3.247513,1.7138891
-31.853754,3.2440295,1.7070494
-32.095596,3.1365564,1.4815516
-32.138947,3.1375043,1.4838533
-32.195587,3.1201406,1.4475589
-32.228176,3.1364882,1.482338
-32.268944,3.1414726,1.4931698
-32.306206,3.1510422,1.5136733
-32.427353,3.167321,1.549017
-32.467358,3.173225,1.5618176
-32.504887,3.1820529,1.5807862
-32.571686,3.2088063,1.637907
-32.612877,3.2130783,1.6472926
-32.6402,3.2326393,1.6888933
-32.78239,3.1776612,1.573895
-32.959816,3.1870403,1.595387
-32.99385,3.199808,1.6227236
-33.08596,3.2463286,1.722064
-33.110733,3.266736,1.7655001
-33.2021,3.2694118,1.7721124
-33.32106,3.2492213,1.730648
-33.391563,3.2306378,1.6920757
-33.448948,3.2237601,1.6781487
-33.602226,3.1802685,1.5877838
-33.67237,3.1650095,1.5562735
-33.80121,3.145406,1.5162535
-33.853706,3.145488,1.5170455
-33.898888,3.1513293,1.5299559
-34.003963,3.1913943,1.6161108
-34.036774,3.206128,1.647737
-34.074005,3.217632,1.6725817
-34.133762,3.2135339,1.6646543
-34.271816,3.194006,1.6250439
-34.322166,3.1974332,1.6329665
-34.58836,3.172236,1.5831037
-34.630966,3.1819248,1.6042333
-34.66427,3.1973653,1.6374407
-34.735966,3.2597432,1.7707696
-34.761242,3.3131514,1.8844528
-34.847885,3.2972581,1.851985
-34.888866,3.307672,1.8746881
-34.94138,3.3117397,1.8840966
-35.006935,3.3088737,1.8789892
-49.545326,2.4460292,0.3304224
-49.54077,2.5053716,0.45768452
-49.577072,2.5572221,0.56981087
-49.5753,2.6155672,0.695035
-49.566956,2.6747327,0.8218889
-49.56044,2.733268,0.9474511
-49.61022,2.7822847,1.0538764
-49.549217,2.8491285,1.1960754
-49.546417,2.9061754,1.318583
-49.566322,2.9594395,1.4335032
-49.59298,3.0115476,1.5461135
-49.63592,3.0611405,1.6537123
-49.681946,3.1102934,1.760457
-49.739647,3.157806,1.8639636
-49.931282,3.1866066,1.930367
-50.04625,3.2268264,2.0195613
-50.037155,3.2842047,2.142788
-50.02426,3.341821,2.2664561
-50.05468,3.3935611,2.3785148
-50.09397,3.444149,2.4883204
-50.131554,3.494968,2.5986023
-52.876427,3.2185552,2.0682817
-53.197617,3.2433908,2.1293578
-54.07827,3.2052472,2.06807
-54.598442,3.212328,2.0956664
-7.238449,2.5847766,0.37858486
-7.793049,2.6020846,0.4103036
-8.886942,2.643103,0.48775434
-9.45149,2.6707737,0.54177904
-9.892815,2.6815033,0.5604806
-10.249983,2.6806636,0.5550618
-11.059132,2.7575884,0.71298647
-11.135914,2.7138307,0.6177535
-11.175261,2.663737,0.50922966
-11.185766,2.6084907,0.38987875
-11.1944065,2.5526788,0.26933527
-12.506504,2.7352152,0.6502285
-12.906218,2.755669,0.6904049
-13.307446,2.7785757,0.73586655
-13.607016,2.7841258,0.74488735
-13.982246,2.8060296,0.7884569
-14.312686,2.8210976,0.8177242
-14.609537,2.8311775,0.83656645
-14.846874,2.8306553,0.83312607
-15.101651,2.8349774,0.83997345
-15.696537,2.9124622,1.0013328
-15.962297,2.9229162,1.0213103
-16.036484,2.893108,0.9563136
-16.130562,2.8678868,0.9010229
-16.192966,2.8358874,0.83142614
-17.001774,2.973795,1.1210608
-17.176939,2.9705257,1.1123476
-17.301731,2.9563403,1.0805831
-17.394993,2.9352114,1.0341539
-17.46836,2.9096234,0.9783077
-17.711262,2.925656,1.0105877
-17.917774,2.9340367,1.026721
-18.326122,2.9942474,1.1526842
-18.423145,2.9776974,1.1161189
-18.574112,2.9754548,1.1098909
-18.635216,2.9504476,1.0554438
-18.69577,2.9254189,1.0009604
-18.784542,2.9080968,0.9628296
-18.807669,2.8732042,0.88744736
-18.847336,2.842723,0.82142305
-18.872421,2.8081195,0.7466569
-18.898926,2.7737656,0.67242146
-18.919378,2.7375255,0.594182
-18.942116,2.7017536,0.5169363
-18.93341,2.6565213,0.4196024
-20.705196,2.99456,1.1319418
-20.765804,2.975954,1.0913625
-20.840952,2.9621763,1.0610566
-20.820957,2.9175808,0.9652324
-20.832703,2.882956,0.8906045
-20.753962,2.8177521,0.75093174
-20.69006,2.7565386,0.61972713
-20.79721,2.7531285,0.61148787
-20.697392,2.678277,0.45124578
-20.625587,2.612016,0.30925894
-20.653456,2.5802271,0.24062824
-26.404564,3.0106058,1.125298
-26.485329,3.0313547,1.1694069
-26.565353,3.0524073,1.2141747
-26.656507,3.0835547,1.280549
-26.743465,3.1124153,1.3420401
-26.827229,3.1397195,1.4002104
-26.90831,3.1658254,1.4558272
-26.978077,3.1830919,1.492538
-27.049368,3.2025232,1.5338883
-27.109808,3.2130134,1.5561123
-27.172338,3.226018,1.5837235
-27.228601,3.2338414,1.6002531
-27.269066,3.1814222,1.4876504
-27.306702,3.1713498,1.4658861
-27.50872,3.18419,1.4925895
-27.568195,3.1979234,1.5218024
-27.617044,3.2008102,1.5278006
-27.669632,3.2081952,1.5434337
-27.713854,3.2066293,1.5399089
-27.761131,3.2087631,1.5443082
-27.812998,3.216612,1.560946
-27.919817,3.2908645,1.7197604
-27.961254,3.2883823,1.7142916
-27.986614,3.2659771,1.6661687
-28.019485,3.2524374,1.6370287
-27.957903,3.1158485,1.3444138
-27.96037,3.058668,1.2218223
-27.979017,3.0211864,1.1414118
-27.974424,2.9501069,0.9890547
-27.977081,2.8160913,0.7017684
-27.984089,2.7532005,0.5669389
-28.04441,2.7684793,0.59951353
-28.086872,2.757004,0.5747962
-28.142685,2.7664828,0.5949559
-28.195135,2.771213,0.60495234
-28.242722,2.7682993,0.5985813
-28.480494,3.0925133,1.2928543
-28.390808,2.85624,0.78668356
-28.70377,3.3379412,1.8183098
-28.743895,3.3379867,1.8183107
-28.78203,3.334422,1.8105826
-28.926283,3.3020463,1.7408834
-28.958836,3.2852325,1.7047868
-28.98682,3.2568345,1.6438756
-29.005213,3.203484,1.5295134
-29.04663,3.20393,1.5303931
-29.08269,3.190709,1.5019989
-29.125744,3.1955395,1.5122776
-29.166536,3.1946325,1.5102673
-29.2096,3.20053,1.5228381
-29.251226,3.202774,1.5275836
-29.292624,3.2047093,1.531672
-29.334429,3.2084332,1.5395942
-29.460377,3.2257402,1.5765224
-29.501232,3.228648,1.5827074
-29.542917,3.2358744,1.5981483
-29.58542,3.2482684,1.6246638
-29.62387,3.2418106,1.6107912
-29.656672,3.2029736,1.5275512
-29.690443,3.1633627,1.4426532
-29.72838,3.144084,1.4013195
-29.769775,3.1464312,1.406322
-29.812923,3.1640916,1.4441361
-29.8555,3.1814451,1.4812965
-29.938385,3.207193,1.5364285
-29.979118,3.218116,1.5598183
-30.01908,3.2198424,1.5635071
-30.05887,3.2182884,1.5601702
-30.178099,3.2527273,1.6339507
-30.217123,3.2663827,1.6632128
-30.256409,3.263223,1.6564484
-30.29466,3.2813053,1.695199
-30.373854,3.2661874,1.6628318
-30.413868,3.2579384,1.6451745
-30.45432,3.248105,1.624125
-30.497782,3.2168403,1.5571609
-30.62264,3.1887648,1.4970899
-30.662292,3.1934044,1.5070629
-30.704676,3.1838145,1.4865527
-30.743938,3.1903467,1.5005851
-30.783417,3.1952927,1.5112224
-30.823591,3.1969724,1.5148635
-30.859842,3.213892,1.551158
-30.902832,3.2044225,1.5309196
-30.942148,3.208928,1.5406227
-30.980349,3.2168887,1.5577312
-31.05961,3.2226183,1.5701213
-31.09214,3.2459328,1.6201296
-31.1539,3.1865199,1.4929156
-31.207062,3.154896,1.4252386
-31.234608,3.1914687,1.5036573
-31.390913,3.2130015,1.5500941
-31.473255,3.2141957,1.552824
-31.506775,3.2304814,1.5877995
-31.61394,3.2628436,1.6574016
-31.652882,3.2670674,1.6665497
-31.737064,3.264728,1.6617484
-31.78411,3.2557385,1.6426039
-32.18734,3.1675959,1.454843
-32.232075,3.1672325,1.4542065
-32.266796,3.1802895,1.4823112
-32.308704,3.183771,1.4899135
-32.433613,3.1956842,1.5158849
-32.470715,3.2051928,1.5364032
-32.50626,3.21638,1.5605183
-32.542953,3.2260594,1.5814071
-32.63187,3.2278926,1.5856748
-32.680607,3.2244658,1.5785155
-32.75281,3.19641,1.5186391
-32.795906,3.2000117,1.526535
-32.853085,3.1892512,1.5036926
-32.903713,3.1857092,1.496305
-33.106995,3.263445,1.6639056
-33.28485,3.2756567,1.6909251
-33.670944,3.2046733,1.5405426
-33.796345,3.1881778,1.5057955
-33.854195,3.1843188,1.497818
-33.908813,3.1832273,1.4957662
-33.941013,3.1988006,1.5293593
-33.977978,3.210785,1.5552778
-34.1033,3.2364233,1.6109953
-34.15437,3.2387183,1.6162109
-34.279358,3.2287986,1.5956345
-34.362946,3.2106555,1.5571752
-34.55225,3.2355318,1.6117067
-34.70608,3.283312,1.7152486
-34.70004,3.321102,1.79636
-34.78754,3.304541,1.7613521
-34.837345,3.3100584,1.77352
-34.890182,3.3140428,1.7824202
-34.970474,3.3030648,1.7593646
-35.01934,3.3098106,1.7741752
-49.562977,2.5515733,0.27150345
-49.537132,2.6143553,0.4067583
-49.567863,2.6670818,0.52088404
-49.62948,2.714553,0.6239829
-49.630615,2.7720256,0.7480726
-49.557755,2.8411474,0.89657545
-49.62069,2.8881116,0.9986181
-49.656628,2.939372,1.1096735
-49.57016,3.0092235,1.2596388
-49.605247,3.0601716,1.3700275
-49.681236,3.1050894,1.4678178
-49.735764,3.1532893,1.5724864
-49.90466,3.1854722,1.6437373
-50.12477,3.2113261,1.7018518
-50.433617,3.2262204,1.7372117
-50.87184,3.2255287,1.7402401
-51.56182,3.1944993,1.6803303
-50.073498,3.4429626,2.2018037
-50.15883,3.4880157,2.3000503
-52.852043,3.217638,1.7437291
-53.279297,3.2300334,1.7749696
-53.958252,3.2154968,1.7506361
-54.674225,3.2003143,1.7253017
-10.272362,2.6871786,0.24043274
-11.155365,2.7762153,0.43760538
-11.160444,2.720196,0.31593466
-11.190426,2.6682506,0.20321655
-13.599916,2.7828407,0.46229744
-13.919598,2.7935882,0.48697996
-14.220275,2.8022728,0.5070977
-14.550638,2.8185494,0.54383135
-14.853,2.8308887,0.57189226
-15.253606,2.8653119,0.64834213
-15.3558655,2.8389552,0.591485
-15.588907,2.8410275,0.5969405
-16.144499,2.914587,0.75906706
-16.236637,2.8889983,0.70382786
-16.434551,2.8874588,0.70128345
-16.841515,2.9345462,0.8052659
-16.952961,2.9157515,0.7648635
-17.422335,2.9813347,0.90929174
-17.526537,2.9629266,0.8696966
-17.568539,2.9299176,0.7981138
-17.915165,2.9714465,0.8897586
-18.12873,2.9820378,0.9136262
-18.453552,3.0218132,1.001369
-18.625906,3.0246496,1.0082116
-18.718784,3.0078304,0.9720106
-18.782967,2.9838345,0.92009306
-18.825518,2.954232,0.8558998
-18.870188,2.9251873,0.7929263
-18.87935,2.88644,0.7087188
-18.912529,2.8540783,0.6384835
-18.916397,2.8133965,0.5500455
-18.937546,2.7773116,0.47166538
-18.960152,2.7414532,0.39378023
-18.95311,2.6967492,0.29654694
-20.69796,3.0589197,1.0906234
-20.787441,3.0491467,1.0697002
-20.85135,3.0316782,1.0319443
-20.624409,2.921416,0.79131365
-20.65923,2.8936737,0.7311039
-20.661518,2.8551798,0.64739037
-20.69897,2.8280008,0.58841133
-20.768753,2.8116179,0.5530281
-20.634352,2.7259092,0.36612415
-20.640724,2.6871805,0.2819066
-26.411041,3.0601935,1.1110139
-26.485176,3.075333,1.1441469
-26.560108,3.0918524,1.180284
-26.646278,3.1182907,1.2380471
-26.728374,3.142457,1.2908516
-26.79671,3.1561117,1.3207331
-26.865831,3.171134,1.3535929
-26.93612,3.187906,1.3902645
-27.005789,3.204933,1.4274883
-27.068062,3.2161684,1.4520822
-27.122364,3.2208004,1.4622769
-27.180122,3.2290254,1.4803033
-27.228987,3.2294447,1.4813075
-27.577656,3.2473264,1.5208807
-27.628178,3.2520428,1.5312386
-27.674196,3.2522388,1.5317416
-27.716967,3.2490523,1.5248709
-27.767647,3.2549882,1.5378823
-27.816368,3.25912,1.5469599
-27.864878,3.2633986,1.556356
-27.932442,3.2910762,1.6167555
-27.964136,3.27595,1.5838485
-28.01131,3.2798812,1.592483
-27.985348,3.0699697,1.1351252
-27.978418,2.9966528,0.9753828
-27.992577,2.8087668,0.56605196
-27.954094,2.6759284,0.27658176
-28.389694,3.2647357,1.559988
-28.144056,2.8112144,0.5715699
-28.198511,2.8190393,0.5886817
-28.24704,2.8177233,0.5858693
-28.292673,2.8116777,0.5727477
-28.569471,3.132202,1.2714219
-28.718763,3.3266978,1.6953597
-28.767263,3.3413992,1.7274413
-28.801517,3.32933,1.7011771
-28.882917,3.3303685,1.703515
-28.908379,3.2985036,1.6341062
-28.947823,3.295773,1.62819
-29.168839,3.236162,1.4984665
-29.209578,3.2353437,1.4967098
-29.25139,3.2379365,1.502387
-29.292831,3.239814,1.506504
-29.458424,3.2513206,1.5316677
-29.499855,3.2558203,1.541491
-29.579277,3.2510214,1.5310688
-29.6176,3.2412922,1.5098834
-29.692972,3.209636,1.4409256
-29.732454,3.2014377,1.4230723
-29.773804,3.2054136,1.4317479
-29.898952,3.238825,1.5045838
-29.977896,3.2168944,1.4568048
-30.099895,3.253571,1.5367389
-30.219015,3.275333,1.5841603
-30.296997,3.2967389,1.6308022
-30.337221,3.2834094,1.6017494
-30.377203,3.2776887,1.5892782
-30.417444,3.2712398,1.5752168
-30.456978,3.2728107,1.5786333
-30.497822,3.2640722,1.5595803
-30.662613,3.236864,1.5002408
-30.85575,3.2725163,1.577848
-31.100039,3.2650092,1.561347
-31.357874,3.2359707,1.4978771
-31.48632,3.228993,1.4825602
-31.744585,3.292788,1.6213002
-32.03122,3.2442641,1.5152354
-33.175213,3.2879808,1.6086073
-33.213696,3.2965577,1.6272135
-34.085117,3.3308573,1.6999803
-34.603867,3.3215122,1.6783161
-34.68909,3.3058457,1.6439819
-34.740444,3.3104622,1.6538949
-34.796555,3.3125498,1.658289
-34.85872,3.311476,1.6557813
-34.923492,3.309288,1.6508398
-34.972794,3.3159623,1.6652336
-35.05376,3.3056116,1.6424751
-49.551933,2.7385597,0.35406446
-49.57705,2.7921267,0.47031736
-49.595734,2.8465965,0.58855534
-49.625694,2.899129,0.70253277
-49.771027,2.9337516,0.7771101
-49.616547,3.014402,0.9529443
-49.720165,3.0555303,1.0418253
-49.805397,3.0996912,1.1373668
-49.736015,3.1661923,1.282094
-49.949562,3.1924424,1.3381739
-50.194405,3.2153876,1.3869376
-50.95857,3.169741,1.2844796
-51.607635,3.143332,1.2242956
-51.957527,3.1588502,1.2564607
-52.10977,3.2009807,1.3472748
-53.52562,3.088243,1.0962629
-52.866158,3.2327712,1.4129744
-53.566124,3.2136874,1.3684535
-54.60856,3.1589768,1.2450643
-15.287558,2.8724442,0.4197793
-15.353533,2.8382413,0.3460245
-15.526759,2.8271797,0.32476234
-16.208282,2.9276934,0.5564952
-16.2486,2.8905673,0.47586584
-16.586632,2.9202437,0.54659224
-16.713285,2.9037058,0.51249933
-16.836418,2.886897,0.47774076
-17.052921,2.8925157,0.49368143
-17.596188,2.9770787,0.6880698
-17.646051,2.9459128,0.6205921
-17.963268,2.9802666,0.70115423
-18.0275,2.9536655,0.6438999
-18.108181,2.9313428,0.5962863
-18.43518,2.9722054,0.69124746
-18.821112,3.030344,0.82504606
-18.86492,3.0010676,0.7615504
-18.884083,2.9652243,0.68324137
-18.916365,2.932735,0.6124935
-18.927624,2.8943973,0.528564
-18.939594,2.8559997,0.44450712
-18.944876,2.8154638,0.35564137
-18.933746,2.769938,0.25555325
-20.733162,3.0623734,0.9257369
-20.612932,2.9869516,0.7582412
-20.651712,2.9605026,0.70074177
-20.64377,2.919031,0.6095209
-20.71098,2.901513,0.5720568
-20.681862,2.852503,0.46393538
-20.639912,2.798586,0.3448286
-20.619244,2.7510874,0.24013853
-26.45789,3.1001542,1.0828133
-26.54607,3.1264029,1.141603
-26.61779,3.1405735,1.1735554
-26.697067,3.1615994,1.2207141
-26.771118,3.179247,1.2603574
-26.83394,3.1883163,1.2809415
-26.904184,3.204259,1.3167729
-26.966953,3.2145193,1.3399782
-27.028864,3.2246232,1.3628244
-27.088675,3.233447,1.3828182
-27.13861,3.2338653,1.3841462
-27.191263,3.2370615,1.391633
-27.257347,3.253218,1.4278703
-27.298695,3.2465916,1.4135408
-27.351048,3.2506661,1.4229507
-27.60228,3.4514017,1.8686848
-27.537231,3.3418372,1.6259351
-27.525347,3.2829373,1.4956036
-27.565075,3.2758615,1.4802432
-27.616848,3.2815318,1.4931502
-27.669773,3.2889006,1.5098176
-27.711523,3.2845037,1.5003796
-27.760197,3.2879357,1.5083008
-27.817814,3.3019578,1.5396996
-27.86327,3.3026054,1.541429
-27.915155,3.3111534,1.5606728
-27.949991,3.2996213,1.5353818
-27.98824,3.2920682,1.518909
-28.028484,3.2869554,1.5078425
-28.084593,3.3023162,1.5421638
-28.125263,3.2982368,1.5333767
-28.173277,3.304096,1.546617
-28.214455,3.3010373,1.5400805
-28.26041,3.304798,1.5486565
-28.304808,3.3067153,1.5531397
-28.348267,3.3075707,1.5552626
-28.392155,3.3093407,1.5594068
-28.4773,3.309667,1.5605555
-28.557613,3.3028715,1.545898
-28.60295,3.3084302,1.5584106
-28.69514,3.3239505,1.5931726
-28.746174,3.3419557,1.6332464
-28.788671,3.3448348,1.6397953
-28.977198,3.3116007,1.5669332
-29.123781,3.2686548,1.4723234
-29.162231,3.2611868,1.4559016
-29.205996,3.2684739,1.4721618
-29.247456,3.2697682,1.4751401
-29.289885,3.2744358,1.4855857
-29.413202,3.2784905,1.4948573
-29.456459,3.2889237,1.5180526
-29.937609,3.2852187,1.5104985
-30.057629,3.2873347,1.5152402
-30.097532,3.2859142,1.5121031
-30.1772,3.3080716,1.5611787
-30.21714,3.2954361,1.5331888
-30.296112,3.3075051,1.5598931
-30.416275,3.295933,1.5341887
-30.455124,3.3048892,1.5539908
-30.49649,3.2925746,1.5266776
-30.537464,3.285712,1.5114336
-30.575901,3.2962031,1.5346212
-30.818224,3.2890546,1.5183935
-30.853565,3.3080034,1.5602832
-30.93806,3.2938511,1.5287547
-31.104683,3.281601,1.5011978
-31.26632,3.287776,1.5143752
-31.358055,3.2670162,1.4680991
-31.422985,3.3057213,1.5535522
-31.512486,3.2923377,1.5235758
-31.599287,3.286296,1.5098429
-31.62962,3.307312,1.5562348
-31.709742,3.3135211,1.5696197
-31.754816,3.3084,1.5580754
-31.793924,3.3133717,1.5688939
-32.067715,3.288083,1.5115142
-32.12724,3.266291,1.4629602
-32.23075,3.246461,1.4184899
-32.33908,3.278953,1.4897242
-32.41119,3.2997255,1.535223
-32.71966,3.3096716,1.5551205
-32.759262,3.3163264,1.5695486
-32.818573,3.303326,1.5403652
-32.857105,3.3113716,1.5578666
-32.904922,3.3104422,1.5554495
-32.961624,3.301365,1.534944
-33.00014,3.3097694,1.5532231
-33.047928,3.3096476,1.5525756
-33.094585,3.3107913,1.554729
-33.143845,3.3098361,1.5522184
-33.18984,3.3120065,1.5566359
-33.229412,3.3198693,1.5736833
-33.275864,3.3219228,1.5778308
-33.32901,3.3185894,1.5700083
-33.378345,3.3187327,1.5698967
-33.443672,3.3062181,1.5416713
-33.489765,3.309626,1.5487914
-33.545635,3.3055325,1.5392451
-33.60035,3.3027117,1.5325165
-33.64483,3.3080177,1.5438285
-33.703697,3.302651,1.531425
-33.752663,3.305018,1.5361934
-33.80022,3.3086073,1.5436687
-33.851784,3.3094897,1.5451217
-33.901955,3.3115995,1.549294
-33.952213,3.3138664,1.5538063
-34.006645,3.3134704,1.552392
-34.065903,3.3100939,1.544342
-34.12541,3.306921,1.5367346
-34.17935,3.3077836,1.5380874
-34.231823,3.3098624,1.5421343
-34.29624,3.3045063,1.5296397
-34.3463,3.3086734,1.53831
-34.397488,3.3123095,1.5457911
-34.45095,3.3147418,1.5505857
-34.505066,3.3170073,1.5549989
-34.570004,3.3130176,1.545486
-34.635227,3.3092608,1.536478
-34.68868,3.3127844,1.5436583
-34.745674,3.3144763,1.546752
-34.79754,3.319353,1.5569224
-34.866524,3.3147936,1.5460782
-34.91741,3.320703,1.5585275
-34.967106,3.3274293,1.5727844
-49.55816,2.8493195,0.28929663
-49.580563,2.9032137,0.40666485
-49.61237,2.955514,0.5203686
-49.631226,3.0096998,0.63840675
-49.695118,3.057034,0.7406535
-49.78559,3.100608,0.8341913
-49.73815,3.1641748,0.9738736
-50.386414,3.129752,0.8869319
-50.448765,3.1792185,0.99380064
-50.51801,3.2278748,1.0987587
-50.66725,3.2661672,1.179616
-50.979706,3.2840683,1.2129664
-52.28518,3.1784983,0.95863533
-52.80917,3.1762266,0.9440479
-53.237553,3.1881566,0.9621887
-53.502674,3.2214274,1.0298781
-54.58554,3.1621425,0.88055897
-54.72695,3.214015,0.99107265
-15.889002,2.9004314,0.25239563
-16.133854,2.9067464,0.27368164
-16.667088,2.9331155,0.34783363
-16.799433,2.9178705,0.31808662
-16.917892,2.8999896,0.28208685
-17.13765,2.9064078,0.30275297
-17.585888,2.968505,0.4531865
-17.695854,2.9515364,0.4188938
-17.966274,2.974397,0.47733688
-18.092516,2.9629402,0.45566845
-18.136036,2.931163,0.38663673
-18.293322,2.9285016,0.3852868
-18.865559,3.0343974,0.63608456
-18.91624,3.0067723,0.5763912
-18.921711,2.9671178,0.48875904
-18.939499,2.9305017,0.40818787
-18.953016,2.892505,0.32441998
-20.652466,3.0649323,0.7538314
-20.635025,3.0212903,0.6565409
-20.667244,2.9927108,0.59400225
-20.698387,2.963684,0.53042555
-20.644453,2.9071724,0.40354443
-20.635996,2.864644,0.30890608
-20.619984,2.819155,0.20747614
-26.435791,3.125955,1.0221658
-26.50067,3.133317,1.0397143
-26.574306,3.1480951,1.074017
-26.642384,3.1591704,1.0999203
-26.72023,3.1788118,1.1451721
-26.797338,3.1987429,1.1910534
-26.86501,3.2116745,1.2210832
-26.927002,3.2204604,1.2417188
-26.987747,3.2287242,1.2611542
-27.05689,3.2449114,1.2984786
-27.11634,3.2532363,1.3180141
-27.163208,3.250669,1.3129201
-27.21284,3.2508318,1.313982
-27.264717,3.2533743,1.320406
-27.321472,3.2609234,1.3381243
-27.608856,3.4932945,1.8635798
-27.647877,3.488311,1.8529105
-27.491137,3.2861812,1.3970728
-27.523695,3.2711136,1.3636613
-27.575043,3.275368,1.3738632
-27.643236,3.2979496,1.4254231
-27.684034,3.2919388,1.4124241
-27.727324,3.288696,1.4056644
-27.772305,3.287478,1.4034629
-27.822548,3.2925,1.415329
-27.877777,3.3038018,1.4413533
-27.918758,3.2987819,1.4305367
-27.978092,3.3161736,1.4702697
-28.033096,3.3291416,1.5000067
-28.062714,3.3106232,1.4587078
-28.113062,3.3184667,1.4768615
-28.143818,3.3008773,1.4376445
-28.216797,3.3400545,1.5264354
-28.260487,3.3405862,1.5280604
-28.30518,3.342799,1.5334654
-28.340601,3.3318603,1.5092082
-28.38862,3.33939,1.5265808
-28.433002,3.3419695,1.5327806
-28.471972,3.3364298,1.5206699
-28.512508,3.333349,1.5140901
-28.559517,3.3410065,1.5317054
-28.599243,3.3369703,1.522954
-28.640163,3.3350112,1.5188756
-28.686602,3.3430505,1.5373187
-28.729942,3.346075,1.5444503
-28.776684,3.3559647,1.5670404
-28.81678,3.353678,1.5621834
-28.850986,3.3395636,1.5306697
-28.88919,3.3330903,1.516365
-28.930681,3.3334901,1.5175357
-28.972466,3.3347986,1.5207438
-29.012434,3.3322237,1.5151944
-29.055601,3.3373525,1.5269904
-29.096642,3.3377955,1.5282202
-29.136694,3.3359413,1.5242677
-29.177801,3.3370004,1.5268679
-29.218695,3.337766,1.5287981
-29.258297,3.3350217,1.5228148
-29.298597,3.334391,1.5215812
-29.339626,3.336281,1.5260172
-29.379856,3.3358617,1.5252423
-29.41973,3.334337,1.5219707
-29.459934,3.3341258,1.5216475
-29.500317,3.3348267,1.5233693
-29.540651,3.335632,1.5253186
-29.580673,3.3353305,1.5247664
-29.620842,3.3359416,1.5262594
-29.660591,3.3346329,1.5234218
-29.70057,3.3346407,1.5235405
-29.74059,3.3351576,1.5247965
-29.780462,3.3349664,1.5244498
-29.819916,3.3316362,1.5170264
-29.859816,3.3316495,1.5171227
-29.899662,3.3313608,1.5165305
-29.939669,3.3332033,1.5207276
-29.97945,3.3327138,1.5196667
-30.01912,3.3298914,1.5133443
-30.058992,3.3308237,1.5154672
-30.098791,3.329829,1.5132437
-30.138628,3.3313727,1.5167246
-30.178417,3.3330185,1.5204287
-30.218197,3.3331425,1.5206966
-30.257975,3.3333688,1.5211883
-30.29768,3.3349147,1.5246406
-30.337343,3.3365629,1.5283155
-30.377312,3.3342557,1.5230765
-30.4174,3.3316462,1.517149
-30.457102,3.3331952,1.5205755
-30.497303,3.330793,1.5150962
-30.53765,3.3280897,1.5089316
-30.577696,3.327922,1.5084667
-30.619055,3.3205705,1.4918184
-30.659018,3.3218272,1.4945436
-30.699213,3.3219733,1.4947586
-30.739246,3.3230321,1.4970202
-30.77792,3.3298495,1.5122404
-30.818562,3.328284,1.5085769
-30.86036,3.3227909,1.4960594
-30.900633,3.3234584,1.497405
-30.941517,3.3222156,1.4944396
-30.981327,3.3247032,1.4998674
-31.021627,3.3256848,1.5018935
-31.062763,3.324359,1.4987159
-31.10296,3.3259528,1.5021043
-31.144655,3.3236392,1.4966831
-31.18583,3.3230405,1.4951153
-31.226574,3.3237524,1.496489
-31.269535,3.319372,1.4863839
-31.31022,3.3207023,1.4891338
-31.352179,3.3193462,1.4858227
-31.3931,3.3204944,1.4881425
-31.435583,3.3185658,1.4835224
-31.47638,3.3203313,1.487215
-31.517996,3.320615,1.4875598
-31.560291,3.3198204,1.4854665
-31.601578,3.3211207,1.4880829
-31.644667,3.3193674,1.4838085
-31.685575,3.3216805,1.4886894
-31.727886,3.3217363,1.4884725
-31.768326,3.3250551,1.4956017
-31.813179,3.3214064,1.4870143
-31.857952,3.3182778,1.4795904
-31.901592,3.3172357,1.4768577
-31.946127,3.315142,1.4717445
-31.98917,3.315516,1.4721847
-32.033382,3.3144505,1.469368
-32.076286,3.315453,1.4712038
-32.118946,3.3169618,1.4741716
-32.16252,3.3174243,1.4747696
-32.208263,3.3153021,1.4695268
-32.2517,3.3163989,1.4715328
-32.297062,3.3153057,1.4685893
-32.339043,3.3185697,1.4754639
-32.387806,3.3138943,1.4644151
-32.433174,3.3135757,1.4631839
-32.47831,3.313769,1.4630971
-32.524208,3.3133295,1.4615698
-32.56918,3.3141627,1.462904
-32.614216,3.3151243,1.4645166
-32.661472,3.3139458,1.4612856
-32.709587,3.3121521,1.4566545
-32.754906,3.3135138,1.4591336
-32.798782,3.316506,1.4652848
-32.847622,3.3147542,1.4607105
-32.89469,3.315018,1.4606743
-32.943825,3.3135586,1.4567332
-32.99271,3.31262,1.4539561
-33.040527,3.312941,1.4540105
-33.08763,3.3141427,1.4560428
-33.13772,3.3129063,1.4525523
-33.180393,3.3184333,1.464333
-33.236225,3.3127284,1.4507141
-33.285877,3.312682,1.4498715
-33.33522,3.3131518,1.4501805
-33.3891,3.3101447,1.442616
-33.439613,3.3102043,1.4419684
-33.486176,3.3136642,1.448997
-33.537357,3.3136678,1.448195
-33.591454,3.3116827,1.4428782
-33.64152,3.3130844,1.4452085
-33.699764,3.3085947,1.4341917
-33.750114,3.3103266,1.4372373
-33.80638,3.3079755,1.431026
-33.857956,3.3093295,1.4331856
-33.91361,3.3080404,1.4293437
-33.97296,3.3044884,1.4203596
-34.02294,3.3077517,1.4267936
-34.080658,3.305967,1.4217768
-34.137035,3.3054113,1.4195256
-34.19254,3.3057308,1.4192395
-34.2445,3.3086312,1.4247861
-34.297066,3.311354,1.4299116
-34.35995,3.3077824,1.4207516
-34.413864,3.3101885,1.4251246
-34.473366,3.3093953,1.4222236
-34.53085,3.3101485,1.4228096
-34.585686,3.312765,1.4276047
-34.64175,3.3148947,1.4312773
-34.698498,3.3168771,1.4345965
-34.754215,3.3197076,1.4398227
-34.81293,3.3210797,1.4417171
-34.8677,3.3249393,1.4492412
-34.92254,3.3289769,1.4571519
-34.99943,3.321206,1.4382105
-49.640335,3.0107317,0.33313227
-49.630325,3.0693326,0.46224833
-49.685658,3.1180918,0.56762886
-49.72531,3.1691556,0.67854786
-49.88999,3.2027025,0.7469621
-50.37243,3.2513652,0.83832836
-50.52167,3.2894893,0.9172063
-51.194237,3.2609768,0.8329406
-51.707325,3.2560854,0.80562735
-52.183487,3.2583935,0.7952728
-52.75676,3.2514877,0.7615328
-53.256805,3.2561462,0.75549984
-54.40898,3.1887255,0.570199
-54.631218,3.2313316,0.65633106
10.449308,3.682744,0.5384507
-0.7579994,3.451476,0.5573273
-1.8264179,3.466236,0.6394949
-2.8501396,3.4824986,0.7228284
-17.60409,2.96201,0.23300457
-18.052105,2.9843023,0.30114746
-18.142593,2.9639668,0.25947857
-18.273308,2.9541404,0.24287558
-18.508667,2.97182,0.2918973
-18.843231,3.0167317,0.4057088
-18.944727,3.0021374,0.37720156
-18.963171,2.9656901,0.29651546
-20.62966,3.1199849,0.7072954
-20.68789,3.0614042,0.57833576
-20.70409,3.027913,0.5039153
-20.674267,2.9796872,0.39469814
-20.630852,2.9264975,0.27381563
-26.374096,3.0767498,0.79553986
-26.51407,3.1411853,0.9451761
-26.605885,3.169949,1.0126233
-26.672153,3.179449,1.0356913
-26.746344,3.1959789,1.0749035
-26.818577,3.211701,1.1122227
-26.88675,3.2248034,1.1434808
-26.953959,3.237785,1.1744294
-26.99848,3.2317994,1.161737
-27.064495,3.2448313,1.1927476
-27.143404,3.2701204,1.2519011
-27.199743,3.27597,1.2663426
-27.24826,3.2750387,1.2651777
-27.292788,3.2705748,1.2558794
-27.615522,3.533035,1.8597102
-27.66241,3.5358071,1.8669081
-27.522291,3.353125,1.4482117
-27.511433,3.2947989,1.3151464
-27.55359,3.289188,1.303124
-27.648106,3.338558,1.4172921
-27.667143,3.309356,1.351079
-27.713827,3.3094041,1.3519917
-27.758038,3.306955,1.347157
-27.791576,3.2925713,1.3149247
-27.85292,3.3099778,1.3556104
-27.906244,3.3188875,1.3767805
-27.94186,3.3071046,1.3504739
-28.00374,3.32733,1.3975558
-28.05094,3.330246,1.4049234
-28.09171,3.3252854,1.3942156
-28.136047,3.3250198,1.3942566
-28.15914,3.2965229,1.3295727
-27.915186,2.9010408,0.42378855
-28.01297,2.96651,0.57452536
-28.060345,2.963004,0.5671611
-28.109314,2.961939,0.5653744
-28.213354,2.9698906,0.58484745
-28.257607,2.9622571,0.56796455
-28.306307,2.9617276,0.56733847
-28.35681,2.964443,0.5741286
-28.405111,2.9637916,0.57319164
-28.445852,2.9499984,0.5421457
-28.712055,3.345951,1.4492817
-28.752016,3.341916,1.440486
-28.803806,3.3607168,1.4839573
-28.83843,3.3467119,1.4523091
-28.878962,3.344179,1.4469128
-28.920256,3.343325,1.4453454
-28.961166,3.3417919,1.4422126
-29.002764,3.3419435,1.4429212
-29.043808,3.341021,1.4411583
-29.084995,3.3406014,1.4405341
-29.126148,3.3402898,1.4401436
-29.167713,3.3412745,1.4427061
-29.208351,3.3399913,1.4400663
-29.249397,3.3400035,1.4403777
-29.290014,3.338932,1.4381976
-29.33075,3.3383636,1.4371543
-29.371588,3.3382986,1.4372511
-29.412617,3.3391364,1.4394002
-29.453693,3.3404794,1.4426918
-29.4939,3.3387415,1.4389238
-29.534134,3.3371077,1.4353809
-29.57474,3.337173,1.4357128
-29.615398,3.3377426,1.4371853
-29.655869,3.3376186,1.4370594
-29.696526,3.3387988,1.4399028
-29.736938,3.338884,1.4402313
-29.777044,3.3370745,1.4362121
-29.817087,3.3345675,1.4305859
-29.85737,3.3337638,1.4288435
-29.897627,3.3326633,1.4264097
-29.938066,3.333668,1.4287791
-29.978466,3.3347776,1.4313741
-30.018702,3.333587,1.4286985
-30.058966,3.3325,1.4262466
-30.099266,3.3319173,1.4249353
-30.13959,3.3334413,1.4284296
-30.179869,3.3346689,1.4312334
-30.220142,3.3347971,1.4315114
-30.260395,3.3354297,1.4329305
-30.300724,3.3345637,1.4309101
-30.341198,3.332199,1.4254508
-30.381577,3.3319416,1.424797
-30.42193,3.3321877,1.4252849
-30.462286,3.3325384,1.4259968
-30.502642,3.3329926,1.4269342
-30.542995,3.3335507,1.4280968
-30.583479,3.3334134,1.4276562
-30.623552,3.3357773,1.4329243
-30.66326,3.3398423,1.44207
-30.703701,3.3400154,1.4423027
-30.74452,3.3386972,1.4391127
-30.786171,3.3342957,1.4288568
-30.827675,3.3312006,1.421576
-30.867456,3.3349848,1.4300184
-30.907494,3.3376765,1.4359488
-30.947838,3.3392768,1.4393721
-30.990067,3.3350224,1.4293866
-31.0306,3.3364387,1.4323635
-31.070152,3.3407366,1.4419193
-31.114826,3.3308692,1.4190526
-31.153648,3.3373597,1.4335995
-31.197182,3.3316855,1.4202995
-31.236362,3.3371937,1.4325747
-31.276432,3.3404317,1.4396434
-31.318726,3.338648,1.4352055
-31.362207,3.334616,1.4256086
-31.402302,3.338176,1.4333744
-31.44485,3.336733,1.4296751
-31.4859,3.338543,1.4334097
-31.527359,3.339677,1.435585
-31.570528,3.337792,1.4308319
-31.612507,3.338369,1.4317021
-31.65542,3.337498,1.4292436
-31.697275,3.3386917,1.4314995
-31.73986,3.3388307,1.4313254
-31.785881,3.3336484,1.4189506
-31.827679,3.3355784,1.4228497
-31.871761,3.3341362,1.4190097
-31.914143,3.3355215,1.4216337
-31.958143,3.3347073,1.4192033
-32.00143,3.3351707,1.4196854
-32.045883,3.3342156,1.4169021
-32.089592,3.3345366,1.417028
-32.132507,3.3361273,1.4200487
-32.180454,3.331339,1.408432
-32.221428,3.3358464,1.4181099
-32.269077,3.3320878,1.4088206
-32.316616,3.3288507,1.4007096
-32.358624,3.3325756,1.4085479
-32.40481,3.331497,1.4053545
-32.451782,3.3297975,1.4007192
-32.49655,3.3308709,1.4024296
-32.541042,3.332446,1.4052744
-32.586277,3.333397,1.4066715
-32.63334,3.3326075,1.404057
-32.679455,3.3330753,1.4043112
-32.72711,3.3321884,1.4014382
-32.774162,3.332185,1.4005756
-32.82019,3.33343,1.4025621
-32.867817,3.333331,1.4014463
-32.918648,3.330429,1.3938713
-32.96654,3.3306212,1.3933849
-33.014145,3.331322,1.3940501
-33.06507,3.3292427,1.3883066
-33.114956,3.3284147,1.3854175
-33.16498,3.3277383,1.3828588
-33.216415,3.32613,1.3781366
-33.265038,3.327207,1.3795695
-33.315483,3.3269923,1.3780103
-33.365627,3.32729,1.3776121
-33.416775,3.3270273,1.3759022
-33.46672,3.3279924,1.376997
-33.5204,3.3262696,1.3718834
-33.572895,3.32578,1.3695865
-33.624615,3.3261616,1.3692751
-33.67599,3.3270571,1.3701229
-33.73129,3.325309,1.3648605
-33.78342,3.3261857,1.3656211
-33.84199,3.3227031,1.3563128
-33.89345,3.3246171,1.3594174
-33.94898,3.3239288,1.3564997
-34.002174,3.3251417,1.3579416
-34.056503,3.325838,1.3581691
-34.114044,3.3246603,1.3540487
-34.171783,3.3236747,1.3503437
-34.227627,3.3242369,1.3501849
-34.2926,3.3192446,1.3371754
-34.34776,3.320868,1.3394122
-34.409504,3.3186538,1.3327594
-34.467686,3.3189857,1.3319588
-34.518353,3.3241591,1.3423209
-34.575684,3.3255227,1.3438511
-34.629803,3.3290498,1.3503594
-34.68851,3.33013,1.3511815
-34.745094,3.3327124,1.3554506
-34.809254,3.3312607,1.3503537
-34.86438,3.3352056,1.3577199
-34.945286,3.3251731,1.3326907
-49.788406,3.1567106,0.3564868
-49.856247,3.2042263,0.458416
-50.247482,3.2075016,0.4479885
-50.334488,3.2536585,0.54597425
-50.58931,3.2780023,0.5881629
-51.000797,3.2834082,0.58140326
-51.635128,3.2628841,0.50726223
-52.16416,3.2586632,0.47383595
-52.923035,3.229576,0.37504673
-53.2666,3.253244,0.41149473
-54.384937,3.1898606,0.22057867
-3.2087173,3.6126802,0.5671582
-3.2449207,3.5427213,0.4149027
-5.0429935,3.6361923,0.7336545
-5.4038277,3.6020002,0.68055916
-5.643656,3.5576806,0.59747267
-26.403574,3.106636,0.72568035
-26.465567,3.1103444,0.7361431
-26.571817,3.1493134,0.82943153
-26.67053,3.1837873,0.9120822
-26.725876,3.1844282,0.91519356
-26.820076,3.2174506,0.9943147
-26.886848,3.2288313,1.0225596
-26.951035,3.2386622,1.0471268
-27.012714,3.2469273,1.0679793
-27.07806,3.2589812,1.0976834
-27.139688,3.2683866,1.1211367
-27.190216,3.2682712,1.1222253
-27.250751,3.2777011,1.1456671
-27.299345,3.2764633,1.1440678
-27.673578,3.5881548,1.8758421
-27.649286,3.5217378,1.7213192
-27.532299,3.3608816,1.3455877
-27.515238,3.295625,1.1939006
-27.640524,3.3751655,1.38134
-27.646744,3.3327086,1.2830386
-27.660374,3.2968204,1.2001262
-27.709183,3.2982404,1.2045441
-27.758837,3.3009157,1.211874
-27.807978,3.3033671,1.2186556
-27.855335,3.3041027,1.2213988
-27.89942,3.3012438,1.2157102
-27.952154,3.308974,1.2347641
-28.026396,3.343844,1.3172545
-28.053932,3.321544,1.2660351
-28.100157,3.3226058,1.269422
-28.140545,3.3162603,1.2554722
-28.182161,3.3115273,1.2452736
-28.58064,3.153511,0.8846264
-28.731028,3.3463771,1.3353686
-28.774668,3.3481832,1.3401775
-28.822908,3.3593783,1.3668742
-28.858168,3.3451912,1.3343282
-28.898424,3.3407626,1.3245344
-28.941442,3.342251,1.328527
-28.981947,3.3384213,1.320096
-29.025013,3.3405237,1.3254833
-29.063318,3.3314612,1.3048134
-29.106638,3.334562,1.3124933
-29.14863,3.3346624,1.3131571
-29.189297,3.331361,1.305872
-29.231655,3.3328502,1.3097386
-29.273277,3.3324971,1.3092909
-29.314997,3.332644,1.3099923
-29.357027,3.334074,1.3136673
-29.397526,3.3305218,1.3057098
-29.439367,3.3317773,1.3089423
-29.480541,3.3307884,1.3069263
-29.522839,3.334617,1.3161192
-29.564028,3.3342369,1.315485
-29.604877,3.33239,1.3114176
-29.64621,3.3330083,1.313077
-29.687155,3.3317664,1.3103838
-29.729187,3.3373206,1.3235106
-29.76921,3.3303852,1.3075175
-29.810291,3.330247,1.3073454
-29.851318,3.3298209,1.3064852
-29.89311,3.3373826,1.3242183
-29.933817,3.3348036,1.3183084
-29.97441,3.3295693,1.3061943
-30.015575,3.3327196,1.3135991
-30.056374,3.3284833,1.3037763
-30.09736,3.327506,1.3015308
-30.138376,3.3274233,1.3013515
-30.179323,3.3333633,1.3151855
-30.220375,3.328758,1.3044357
-30.260963,3.3384564,1.326993
-30.302427,3.3281472,1.3029208
-30.34343,3.3285916,1.303884
-30.384176,3.331901,1.3115044
-30.42479,3.3357081,1.3202696
-30.466812,3.3270116,1.2998843
-30.508154,3.3255155,1.2962584
-30.549614,3.323733,1.2919464
-30.590881,3.3236322,1.2915368
-30.631954,3.324818,1.2941074
-30.67293,3.3265026,1.2978239
-30.713705,3.3290777,1.3035989
-30.755777,3.3258662,1.2958713
-30.797106,3.3262987,1.296617
-30.838446,3.3268375,1.2975945
-30.880123,3.3263083,1.296063
-30.921158,3.3282373,1.3002453
-30.9618,3.3314455,1.3073936
-31.002884,3.3331933,1.3111186
-31.047804,3.3237166,1.2886596
-31.090412,3.3217828,1.2837653
-31.13283,3.3207421,1.2809358
-31.172142,3.3279965,1.2974291
-31.216776,3.321724,1.2823625
-31.256586,3.3276286,1.2956748
-31.300999,3.3227577,1.2838387
-31.344559,3.3203373,1.2776985
-31.387154,3.3203602,1.2772388
-31.4268,3.3266888,1.2914691
-31.470556,3.324611,1.2860727
-31.511042,3.3292158,1.296247
-31.558016,3.3215866,1.2778583
-31.603168,3.3179448,1.2687492
-31.645668,3.3194258,1.2715783
-31.687737,3.3217866,1.2764425
-31.730942,3.3223422,1.2770724
-31.772547,3.3256924,1.2842097
-31.818459,3.3222742,1.2755237
-31.86257,3.3220377,1.2742462
-31.908783,3.3188763,1.2661161
-31.953354,3.3185081,1.2644887
-31.99695,3.3197803,1.2666736
-32.041397,3.3200347,1.2664595
-32.085636,3.3207903,1.2673965
-32.130497,3.3209121,1.2668314
-32.17775,3.3181462,1.2594967
-32.22075,3.3211548,1.2656379
-32.270054,3.3164027,1.2536125
-32.31316,3.3196583,1.2602887
-32.357506,3.3215353,1.263721
-32.404427,3.320553,1.2604437
-32.454063,3.316731,1.2504988
-32.50029,3.31714,1.2504292
-32.5466,3.3176801,1.2506437
-32.59606,3.315029,1.2433662
-32.639816,3.3187892,1.2510724
-32.67897,3.3274455,1.2702236
-32.737312,3.3164003,1.2432156
-32.78555,3.3161547,1.2414722
-32.83464,3.3153217,1.2383265
-32.885,3.3135436,1.2329412
-32.934383,3.313006,1.2304373
-32.982353,3.3140638,1.2316465
-33.031197,3.3145404,1.2314687
-33.07656,3.3183997,1.2391992
-33.125965,3.318798,1.2387881
-33.18203,3.313621,1.2252674
-33.2305,3.3154025,1.2280469
-33.280727,3.3159049,1.2277975
-33.33107,3.316559,1.2278762
-33.386703,3.313125,1.2183266
-33.437336,3.3140976,1.2190976
-33.488518,3.3148735,1.219377
-33.540714,3.315106,1.2183514
-33.59758,3.3120117,1.2094746
-33.654686,3.3091037,1.2010021
-33.706924,3.3101947,1.201901
-33.75646,3.3135185,1.208024
-33.802715,3.3193989,1.2201366
-33.86288,3.3154678,1.209127
-33.918465,3.3151562,1.2066021
-33.972748,3.3160448,1.2068706
-34.026165,3.317784,1.2091117
-34.089737,3.3129354,1.1957936
-34.145,3.3140278,1.1964407
-34.204502,3.3126159,1.1911488
-34.259037,3.3147418,1.1941648
-34.323624,3.3107238,1.1826468
-34.37794,3.3135545,1.1872549
-34.423817,3.3218346,1.2046971
-34.50463,3.308895,1.171988
-34.558296,3.312944,1.1793652
-34.61422,3.3158593,1.1840291
-34.669132,3.319604,1.1906166
-34.721325,3.3251379,1.2014041
-34.79159,3.3205497,1.1882052
-34.850246,3.3229342,1.1914625
-34.903286,3.3286982,1.2026849
-50.756382,3.2746282,0.21032953
-51.00502,3.3018806,0.25571108
-3.2435703,3.6918693,0.354496
-5.556658,3.6862638,0.5179515
-7.963646,3.664749,0.6522603
-26.519712,3.152315,0.7168493
-26.566704,3.144775,0.7008891
-26.649406,3.165856,0.7533388
-26.733427,3.1889884,0.8106241
-26.808933,3.2061424,0.8535514
-26.889593,3.228481,0.90880585
-26.97393,3.254991,0.97395563
-27.04142,3.268058,1.006938
-27.096321,3.270743,1.0150833
-27.156141,3.278213,1.0346131
-27.211693,3.2823212,1.0460777
-27.26237,3.2823212,1.0477052
-27.632397,3.584575,1.7700777
-27.663103,3.5713344,1.7398973
-27.572226,3.438682,1.4250832
-27.6387,3.4584472,1.4735942
-27.66317,3.4364908,1.4226565
-27.594435,3.317376,1.1402931
-27.631258,3.30541,1.1131864
-27.679518,3.30555,1.1148863
-27.731655,3.310213,1.1273212
-27.778961,3.30991,1.1279035
-27.827776,3.3115766,1.1331449
-27.873598,3.3100758,1.1308208
-27.913794,3.3020685,1.1129951
-27.942303,3.2797558,1.0611291
-28.03455,3.335946,1.1959019
-28.066538,3.3183243,1.1551371
-28.114723,3.3211994,1.1630764
-28.157684,3.3175123,1.1553912
-28.209724,3.3262494,1.1772027
-28.488693,3.194875,0.8729081
-28.710827,3.3474445,1.2373385
-28.755419,3.349886,1.2438722
-28.801054,3.3547356,1.2560921
-28.83579,3.3383532,1.2179375
-28.876343,3.3331196,1.206203
-28.919865,3.3341064,1.2091942
-28.961227,3.3306153,1.2015476
-29.00548,3.333746,1.2095761
-29.050545,3.3392997,1.2233214
-29.095695,3.3457453,1.2391572
-29.13406,3.3353994,1.2151756
-29.176409,3.3351512,1.2151017
-29.219404,3.33694,1.219832
-29.26191,3.337686,1.2220712
-29.306585,3.3454902,1.2410059
-29.345428,3.3352654,1.2172093
-29.388588,3.3390486,1.2265749
-29.43117,3.3413994,1.2325239
-29.471647,3.336122,1.2203846
-29.511887,3.3293977,1.2047968
-29.554937,3.3343985,1.2169576
-29.596579,3.333698,1.2155943
-29.638067,3.3323293,1.2126265
-29.679852,3.3326197,1.2135653
-29.720783,3.3279698,1.2027864
-29.762981,3.3311934,1.2106276
-29.804754,3.3321948,1.2131872
-29.846659,3.3348594,1.2196617
-29.887537,3.3283007,1.204279
-29.928934,3.3257353,1.1983294
