x,y,z
-25.295778,2.7556577,2.82516
-25.353216,2.7588458,2.8207178
-25.41308,2.7639828,2.819242
-25.478508,2.7732742,2.8239336
-25.537308,2.7784262,2.8228045
-25.590878,2.7802694,2.8170242
-25.654333,2.7893724,2.8219385
-25.71131,2.7942777,2.8209047
-25.771795,2.8020594,2.8242164
-25.82837,2.8073835,2.8240905
-25.887177,2.814704,2.8270335
-25.945751,2.8222392,2.8304405
-25.999912,2.8268285,2.8296676
-26.051529,2.8297966,2.826642
-26.10301,2.8329425,2.8240018
-26.160751,2.8412817,2.829153
-26.218237,2.8498304,2.8347578
-26.271461,2.8553748,2.8360558
-26.323927,2.860645,2.8370757
-26.373396,2.8637888,2.8350616
-26.424957,2.868953,2.8361669
-26.475782,2.873831,2.836966
-26.523151,2.876086,2.8339705
-26.568235,2.8766272,2.8285222
-26.618073,2.881534,2.8297
-26.667736,2.8866107,2.831246
-26.716167,2.8909125,2.8317413
-26.7634,2.8944294,2.8311677
-26.809973,2.897629,2.8302202
-26.85488,2.8995535,2.8274555
-26.900692,2.9025762,2.8264403
-26.948877,2.9081395,2.8293557
-26.99292,2.910027,2.826826
-27.038326,2.9134967,2.8267798
-27.084084,2.9175951,2.8277812
-27.12825,2.9203925,2.826908
-27.17135,2.9223611,2.8248692
-27.216223,2.9264073,2.8260732
-27.260487,2.930111,2.8268495
-27.302778,2.9320028,2.8249598
-27.34814,2.937451,2.8285728
-27.388855,2.9381409,2.8250227
-27.4295,2.938954,2.8217392
-27.470947,2.9408748,2.820228
-27.51402,2.9448977,2.822012
-27.556528,2.9485605,2.8233304
-27.596382,2.9493797,2.820375
-27.636168,2.950316,2.817676
-27.678335,2.9543607,2.8198218
-27.721973,2.960532,2.8253183
-27.761848,2.9623392,2.8241901
-27.802029,2.964766,2.8240905
-27.843264,2.9688196,2.826573
-27.883982,2.9724967,2.8285527
-27.922697,2.973775,2.8269086
-27.962076,2.9761767,2.8270707
-28.001358,2.9786944,2.8274837
-28.04018,2.9808211,2.827364
-28.078913,2.983061,2.8274908
-28.117205,2.9849057,2.8270736
-28.156439,2.98839,2.829267
-28.194546,2.990458,2.8293362
-28.230919,2.990079,2.8256755
-28.269205,2.9928744,2.8270063
-28.308342,2.99732,2.8309684
-28.345156,2.998283,2.829588
-28.380684,2.9972906,2.8252282
-28.419807,3.0025811,2.8307076
-28.45553,3.002308,2.8275914
-28.493828,3.0067859,2.8319387
-28.530855,3.009303,2.8332968
-28.56585,3.0082958,2.8292203
-28.60355,3.0125747,2.8334513
-28.639261,3.0133219,2.832234
-28.676224,3.0167701,2.8352947
-28.711807,3.0177164,2.8345084
-28.746346,3.0166721,2.830668
-28.781605,3.0172882,2.8294797
-28.817057,3.018522,2.8293176
-28.852222,3.0193293,2.8285437
-28.888466,3.0228527,2.8320832
-28.923946,3.0249019,2.8333726
-28.959143,3.0265224,2.8340483
-28.992414,3.023505,2.827506
-29.031155,3.0347877,2.843454
-29.066496,3.0377517,2.8464117
-29.102125,3.041867,2.8512344
-29.140749,3.0550554,2.8703675
-29.177992,3.0651863,2.8847642
-29.212929,3.0690765,2.8894148
-29.247265,3.0714743,2.8917751
-29.287569,3.094093,2.925994
-29.320913,3.094569,2.9254484
-29.353935,3.0940716,2.9234247
-29.387234,3.0947223,2.9232583
-29.420635,3.0959914,2.9241176
-29.453604,3.0957534,2.922656
-29.486319,3.0945382,2.919704
-29.519278,3.0944707,2.9186125
-29.552448,3.095554,2.919385
-29.58537,3.0956585,2.918666
-29.618078,3.0947826,2.9164505
-29.651167,3.0961244,2.9177823
-29.684387,3.0986183,2.9209833
-29.717136,3.098531,2.9201632
-29.750027,3.0995965,2.9212103
-29.782816,3.1002123,2.9216003
-29.815393,3.0993109,2.9196458
-29.847986,3.0984926,2.917872
-29.88074,3.0993626,2.9188108
-29.913465,3.1003163,2.9199333
-29.94609,3.100285,2.9195504
-29.97858,3.0981982,2.9159722
-30.01127,3.0994043,2.9176412
-30.043928,3.1006954,2.9194932
-30.076513,3.1004646,2.9189925
-30.1091,3.1003172,2.9186735
-30.141691,3.101324,2.920226
-30.174278,3.1002746,2.918581
-30.206907,3.0982385,2.9154282
-30.239552,3.0973563,2.914147
-30.272171,3.0976284,2.9147367
-30.304987,3.0942402,2.9095974
-30.33802,3.0887973,2.9012651
-30.371181,3.0834405,2.8931203
-30.404423,3.0787044,2.8860064
-30.438198,3.0697796,2.8723316
-30.471947,3.0630817,2.8622246
-30.50709,3.0463233,2.836297
-30.544975,3.0120385,2.7827768
-42.50231,0.59110403,0.55976295
-42.457516,0.6646004,0.6819
-42.61068,0.6527512,0.6953149
-42.37321,0.80665064,0.91893196
-42.440037,0.83084106,0.978003
-42.489872,0.86214256,1.046186
-42.382805,0.9576433,1.1945891
-42.41012,0.99731255,1.2730293
-42.397194,1.0528984,1.3711581
-42.430744,1.0894737,1.4457283
-42.406826,1.1484766,1.5477962
-42.384304,1.2548773,1.7371778
-42.36445,1.3105996,1.8346548
-42.375565,1.354075,1.9172482
-42.35487,1.4091218,2.013579
-42.412235,1.4347675,2.0748587
-43.632614,1.2856431,2.1006474
-43.83301,1.2657623,2.1139946
-42.53318,1.7570639,2.7039566
-42.380028,1.8529096,2.8445911
-42.40168,1.889154,2.9181294
-42.42907,1.9233458,2.9894257
-42.495575,1.9446762,3.04671
-42.519352,1.9799404,3.1193848
-42.486458,2.0331426,3.2113996
-42.610725,2.036241,3.2496543
-42.64852,2.0668855,3.3176737
-42.762543,2.0739677,3.3610969
-42.837166,2.0935671,3.4180994
-42.967487,2.0965643,3.458343
-43.171402,2.0781708,3.4774365
-43.369225,2.06265,3.5005517
-43.5692,2.047525,3.525155
-43.8093,2.0218391,3.5404224
-43.70444,2.0959697,3.6547914
-43.807846,2.1103413,3.7105489
-43.884945,2.1324568,3.7742686
-43.985104,2.1484392,3.8325734
-44.082233,2.1656249,3.8925424
-44.22231,2.1715856,3.94268
-44.3134,2.191233,4.0060935
-45.636185,1.8866243,3.7786546
-45.621475,1.9382675,3.8754883
-45.633446,1.9826922,3.9658165
-45.65804,2.0237253,4.0532074
-45.684883,2.0640934,4.1400995
-46.298244,1.9587746,4.1057043
-46.82349,1.8785131,4.095992
-47.20661,1.8355775,4.1199036
-47.74908,1.756546,4.1179037
-48.431526,1.6474006,4.0963407
-49.02904,1.5618451,4.097542
-49.763176,1.4480584,4.081999
-50.527626,1.3314004,4.0696936
-51.11132,1.2595198,4.094867
-52.166016,1.0863211,4.0539517
-53.05362,0.9554918,4.04971
-54.069565,0.8017576,4.0371203
-2.564558,0.3642609,3.8363914
-13.9429245,0.52869487,1.1365871
-14.089893,0.5201876,1.085042
-14.135216,0.47746468,0.99391556
-14.289551,0.47239447,0.94741535
-16.279022,0.7952926,1.0803018
-16.275711,0.7399981,0.9787688
-23.449259,2.6028695,2.8040118
-23.554203,2.6213534,2.8161035
-23.678968,2.6506925,2.8436065
-23.766369,2.661605,2.8459024
-23.848232,2.6701543,2.8451805
-23.946098,2.6876397,2.857215
-24.019949,2.6929638,2.852509
-24.109692,2.707267,2.860652
-24.179388,2.7112308,2.8545008
-24.288702,2.7373903,2.8799253
-24.305283,2.7127593,2.8337421
-24.363052,2.7110603,2.820129
-24.435694,2.7180583,2.8190527
-24.509504,2.7261536,2.8197536
-24.579536,2.7325006,2.8181682
-24.645153,2.7366617,2.8136497
-24.712666,2.7423058,2.8114448
-24.786173,2.751928,2.815154
-24.857328,2.7605944,2.817696
-24.926165,2.7682884,2.8190317
-24.996098,2.777085,2.8221564
-25.065083,2.785733,2.8252592
-25.125784,2.789585,2.8215747
-25.186317,2.7936614,2.8183765
-25.251938,2.8013637,2.820632
-25.313385,2.8067536,2.8196802
-25.37268,2.8110855,2.817337
-25.435022,2.817786,2.8186255
-25.498411,2.8255837,2.82169
-25.555832,2.829717,2.819518
-25.620016,2.8388455,2.8248668
-25.68079,2.8460321,2.8275099
-25.733873,2.8481827,2.8228436
-25.790527,2.8531587,2.8224993
-25.846378,2.8578978,2.8219414
-25.903261,2.863722,2.823135
-25.959337,2.869307,2.8241115
-26.01342,2.8737543,2.823523
-26.06733,2.878393,2.8233495
-26.119886,2.8823225,2.8222404
-26.172863,2.8868864,2.8222055
-26.22624,2.8920877,2.8232522
-26.27943,2.8974762,2.8247046
-26.32959,2.9007752,2.823131
-26.380165,2.904702,2.822617
-26.430584,2.9088016,2.8224788
-26.479734,2.9121547,2.8213234
-26.52874,2.9156733,2.8205266
-26.577599,2.9193573,2.8200889
-26.62738,2.924133,2.8214164
-26.676455,2.9286127,2.8224025
-26.724308,2.9323254,2.8223276
-26.773056,2.9371326,2.8240242
-26.819565,2.9402273,2.8232112
-26.863894,2.9415922,2.8198519
-26.908129,2.943098,2.8167982
-26.956772,2.9490042,2.8205752
-27.002743,2.9527001,2.8210673
-27.046606,2.954644,2.8189626
-27.094244,2.9605424,2.8230247
-27.140251,2.9651642,2.825222
-27.184671,2.9684982,2.8255305
-27.229895,2.9729354,2.8276277
-27.272179,2.974628,2.8255801
-27.316198,2.9783835,2.8268023
-27.356457,2.9784064,2.822338
-27.397999,2.9800053,2.8203883
-27.442541,2.985137,2.8239923
-27.485168,2.9884608,2.8248806
-27.526802,2.9909406,2.8245392
-27.566628,2.991589,2.8214312
-27.608482,2.9948106,2.8223982
-27.650215,2.9981608,2.8236437
-27.693045,3.0031188,2.8274722
-27.732487,3.0042582,2.825429
-27.775034,3.0094752,2.8298197
-27.817415,3.0148244,2.8344965
-27.858467,3.0188143,2.837129
-27.893286,3.0149605,2.82757
-27.931522,3.0156915,2.8252435
-27.970064,3.0170333,2.8239393
-28.008532,3.018487,2.8228788
-28.047997,3.0215585,2.8244224
-28.087347,3.0247467,2.82622
-28.126581,3.0280516,2.82827
-28.165697,3.0314722,2.8305707
-28.205366,3.0360188,2.834711
-28.24225,3.036633,2.8327332
-28.279406,3.0378587,2.83178
-28.316494,3.0391896,2.8310552
-28.353825,3.0411346,2.8313599
-28.393526,3.0472622,2.838326
-28.431244,3.0504463,2.840716
-28.467379,3.051183,2.8393044
-28.500856,3.0474133,2.8308306
-28.53722,3.0488567,2.8306499
-28.57407,3.0514278,2.8323126
-28.609468,3.0515327,2.8301325
-28.645363,3.0527637,2.8297925
-28.681719,3.0551243,2.8312998
-28.71875,3.0591342,2.8354807
-28.754913,3.0616996,2.837431
-28.790747,3.0638475,2.8387794
-28.825317,3.0635047,2.8362298
-28.86079,3.0653286,2.837175
-28.896418,3.0677683,2.8391547
-28.931963,3.070306,2.8413472
-28.967209,3.072421,2.8429236
-29.00052,3.0699449,2.837254
-29.038885,3.0805874,2.8525052
-29.073082,3.0809052,2.8513894
-29.10876,3.0854921,2.857123
-29.146141,3.0954063,2.8713946
-29.181854,3.1012406,2.8792315
-29.220491,3.116601,2.9023037
-29.253971,3.1168745,2.901392
-29.288061,3.1193347,2.9040189
-29.32177,3.1208363,2.9051676
-29.354836,3.1203256,2.9031582
-29.387897,3.1199012,2.9013352
-29.421625,3.122193,2.9038978
-29.455025,3.1235218,2.9049726
-29.488012,3.123358,2.9037147
-29.520987,3.1232798,2.9026418
-29.55406,3.1238146,2.9025984
-29.586792,3.1228523,2.9002113
-29.619732,3.1230307,2.899695
-29.65284,3.1243505,2.901052
-29.685907,3.1257565,2.902596
-29.71877,3.1261911,2.902636
-29.751389,3.1251247,2.9003239
-29.784363,3.1267874,2.9024239
-29.817043,3.1264186,2.9013238
-29.84978,3.1266632,2.9012518
-29.882551,3.127522,2.9022112
-29.915167,3.1268768,2.9008121
-29.947905,3.1279037,2.9021363
-29.980581,3.128486,2.9027967
-30.013239,3.1291518,2.9036384
-30.045898,3.1304321,2.9055114
-30.078526,3.1317956,2.9075656
-30.111088,3.1311243,2.9064102
-30.143663,3.130006,2.9045877
-30.176268,3.128442,2.9020996
-30.208885,3.1280217,2.9014888
-30.241497,3.1282148,2.9019074
-30.274128,3.1279619,2.9016604
-30.306969,3.1240847,2.8956614
-30.340042,3.1181743,2.8864574
-30.373255,3.1123502,2.8774405
-30.406652,3.106083,2.8677645
-30.440678,3.09514,2.8506575
-30.474424,3.0890498,2.8413649
-30.509825,3.0708823,2.8128061
-30.547867,3.0364175,2.7582417
-42.453842,0.64463663,0.45424604
-42.42942,0.70922136,0.5659914
-42.446564,0.7554543,0.65359354
-42.50828,0.78262496,0.7164154
-42.535694,0.82407093,0.797853
-42.392147,0.93553543,0.9694147
-42.42508,0.9735067,1.0460262
-42.43147,1.0219746,1.1360664
-42.4564,1.0626442,1.2161212
-42.403065,1.133946,1.334907
-42.411186,1.180376,1.4220347
-42.384552,1.2398701,1.5254521
-42.398735,1.2831182,1.608387
-42.35914,1.3464198,1.7161484
-42.36059,1.3936274,1.8037581
-42.356976,1.4423277,1.8930998
-42.377674,1.4816904,1.9709215
-42.363026,1.5336616,2.0640454
-42.433796,1.554456,2.1193624
-43.800987,1.315548,1.9982653
-43.78974,1.3686523,2.0953503
-42.505466,1.8460021,2.6825752
-42.49947,1.891957,2.7677698
-42.466766,1.9462714,2.8623629
-42.37028,2.0206444,2.9793835
-42.445637,2.0391333,3.033012
-42.403255,2.0950582,3.1286888
-42.484154,2.1118562,3.1807566
-42.56303,2.129545,3.2341552
-42.629837,2.151176,3.2921886
-42.68082,2.1777627,3.3558507
-42.815697,2.1793206,3.3929296
-42.90654,2.1945267,3.4451566
-43.034023,2.1993463,3.4869013
-43.09228,2.2247567,3.5507221
-43.341663,2.1956291,3.5585833
-43.715836,2.132578,3.5332131
-43.82344,2.1461802,3.5873795
-43.778114,2.2024627,3.6847353
-43.850494,2.2260504,3.7494178
-43.938454,2.245638,3.8105435
-44.036453,2.2628489,3.8698258
-44.146435,2.2772655,3.9269629
-44.28259,2.2853036,3.9786935
-44.429024,2.291295,4.0292983
-45.61142,2.0343993,3.8397121
-45.637535,2.0751233,3.9268055
-45.64977,2.1192026,4.0169597
-45.661354,2.1632686,4.107086
-46.009438,2.1256423,4.1266108
-46.45252,2.0671334,4.1306496
-47.00252,1.985765,4.1185246
-47.531654,1.9122899,4.116592
-48.07043,1.8394741,4.1187987
-48.77155,1.7326584,4.0978384
-49.44043,1.6369319,4.09039
-50.17607,1.5300527,4.079224
-50.778015,1.456423,4.09802
-51.600193,1.3384743,4.089032
-52.521553,1.2038655,4.0743127
-53.474586,1.0676062,4.065344
-54.652374,0.8899231,4.0357685
-2.4060135,0.5812869,3.9026403
-2.440115,0.51003313,3.7481499
-2.0283203,0.34957886,3.5316362
-2.2232533,0.3094039,3.397976
-2.4663048,0.27989268,3.2734432
-2.5753288,0.2235148,3.1303563
-11.272484,0.347584,1.1653485
-11.422449,0.3292973,1.0942826
-12.598654,0.50408864,1.1496687
-12.739075,0.48768234,1.0852509
-12.894903,0.4767294,1.027802
-13.747753,0.63283706,1.1257892
-13.949209,0.6408026,1.0942216
-14.066923,0.62194777,1.0313492
-14.25649,0.62764955,0.99858713
-14.2932005,0.5823772,0.9047117
-14.334108,0.53837276,0.81244326
-14.361654,0.48958397,0.7143736
-14.393441,0.4420321,0.6178417
-16.257927,0.88513327,1.0313396
-16.288095,0.8425119,0.9452133
-16.268452,0.7810621,0.83511305
-16.133053,0.67529345,0.6680498
-16.177032,0.63642216,0.5863409
-16.186064,0.5839448,0.48712635
-23.48191,2.6732864,2.8068724
-23.564777,2.6803734,2.8039594
-23.685776,2.7071633,2.8291998
-23.776903,2.7196007,2.8344607
-23.851276,2.7239802,2.8285332
-23.925451,2.7286537,2.8232436
-24.029629,2.7495031,2.8413148
-24.107616,2.7571743,2.8408122
-24.170044,2.756945,2.8291764
-24.319288,2.80411,2.8860273
-24.332766,2.7781134,2.8376584
-24.386787,2.7743154,2.8214273
-24.445772,2.773498,2.809658
-24.541458,2.7937152,2.8286457
-24.612003,2.80026,2.8279834
-24.673225,2.8018274,2.820243
-24.746122,2.8105202,2.8230968
-24.815975,2.8178694,2.8241796
-24.88283,2.823853,2.8234444
-24.945372,2.8276262,2.8196297
-25.005032,2.829982,2.8138843
-25.071268,2.8367028,2.8147469
-25.137934,2.844093,2.8167753
-25.20501,2.852156,2.8199768
-25.268524,2.8583772,2.8206143
-25.329197,2.8631532,2.8192582
-25.385128,2.8651917,2.8139677
-25.448666,2.8725274,2.8167343
-25.50619,2.8762646,2.81427
-25.56545,2.8814945,2.8141856
-25.620094,2.8839345,2.810051
-25.67585,2.887431,2.8076348
-25.740145,2.8971865,2.8147922
-25.797972,2.9028401,2.8159122
-25.853142,2.9069602,2.8148499
-25.910568,2.9130278,2.816866
-25.966574,2.9184248,2.8179994
-26.01939,2.9218192,2.8162203
-26.072643,2.9258406,2.8155146
-26.12514,2.9296052,2.814538
-26.178055,2.9339983,2.8146372
-26.228483,2.9367898,2.8124065
-26.282784,2.9428906,2.8153539
-26.334599,2.9473858,2.8159595
-26.385113,2.9511578,2.815569
-26.43212,2.9523873,2.8113813
-26.479576,2.954226,2.8082275
-26.525824,2.9553113,2.8040118
-26.574688,2.9588318,2.8036475
-26.628239,2.96664,2.8100104
-26.67462,2.9686627,2.8075414
-26.724577,2.9740636,2.8103971
-26.772255,2.9777856,2.8107562
-26.820297,2.9821298,2.8121777
-26.869709,2.9880292,2.8161159
-26.915375,2.9908326,2.8153381
-26.961412,2.994252,2.8156123
-27.003834,2.9945397,2.8110943
-27.050602,2.9991899,2.813466
-27.097685,3.0044656,2.8169084
-27.142185,3.007534,2.8169928
-27.185131,3.0093238,2.8151598
-27.227972,3.011248,2.8136206
-27.2721,3.0147352,2.814612
-27.314257,3.0164535,2.8129106
-27.354954,3.016866,2.8092356
-27.39827,3.0202808,2.8103557
-27.441006,3.0233505,2.8110151
-27.482306,3.0251083,2.8096848
-27.523941,3.0274756,2.80939
-27.564615,3.0290015,2.8078437
-27.60772,3.0335631,2.8111644
-27.65067,3.03826,2.8147793
-27.69059,3.039679,2.8132863
-27.731236,3.0421944,2.8135996
-27.77177,3.044833,2.8141794
-27.812588,3.0480845,2.815803
-27.853666,3.0519512,2.8184748
-27.891556,3.0520036,2.8151603
-27.929771,3.052658,2.8128667
-27.968294,3.0539176,2.8115993
-28.007835,3.0567756,2.8129416
-28.046545,3.0587585,2.8129559
-28.084812,3.0603576,2.8124237
-28.123692,3.0630631,2.8137207
-28.161438,3.0643861,2.8128772
-28.20012,3.0673172,2.8146625
-28.239023,3.0708625,2.8174934
-28.276829,3.0730166,2.8181653
-28.314861,3.075782,2.8198771
-28.352478,3.078154,2.821022
-28.389385,3.0796256,2.820785
-28.426523,3.081707,2.8215842
-28.462687,3.0823762,2.8201804
-28.498219,3.0821333,2.8173685
-28.535707,3.0855377,2.820465
-28.572803,3.0885406,2.822978
-28.60816,3.0885978,2.8208175
-28.644815,3.0912983,2.822959
-28.68007,3.0915518,2.8212237
-28.716051,3.0934327,2.8221602
-28.752703,3.0969472,2.8257813
-28.786572,3.094934,2.8205605
-28.82093,3.094035,2.8171825
-28.856434,3.0957925,2.8181372
-28.892092,3.098161,2.8201303
-28.926134,3.097027,2.8165307
-28.958683,3.0923808,2.807313
-28.999392,3.1079118,2.8307052
-29.036093,3.1142824,2.8393764
-29.073402,3.1228209,2.8516064
-29.109543,3.1288826,2.8598933
-29.143505,3.1293545,2.8592038
-29.178495,3.1330235,2.863731
-29.211838,3.1321235,2.8609228
-29.24584,3.133385,2.8616586
-29.28043,3.1368132,2.8659496
-29.313692,3.136179,2.8637185
-29.346363,3.133552,2.8583088
-29.380487,3.1362112,2.8615026
-29.415073,3.1410434,2.868266
-29.447851,3.1391966,2.8642626
-29.480534,3.1369133,2.8595972
-29.514187,3.1388855,2.8618755
-29.54756,3.1399028,2.8626528
-29.58016,3.1373527,2.8576946
-29.613497,3.1385427,2.8588457
-29.646887,3.1403413,2.861033
-29.68005,3.1411822,2.861714
-29.71302,3.1410625,2.8608832
-29.745909,3.140505,2.8593888
-29.779074,3.1421258,2.8614745
-29.812191,3.1438332,2.8637486
-29.84526,3.145626,2.8662071
-29.87803,3.1448848,2.8646011
-29.9109,3.1452763,2.8648777
-29.943638,3.1441798,2.8627863
-29.976492,3.1447399,2.863429
-30.009432,3.147482,2.867661
-30.041988,3.1419194,2.8584561
-30.074835,3.1427329,2.8596487
-30.10765,3.1431065,2.8601727
-30.140451,3.141466,2.8574734
-30.17327,3.142008,2.8583636
-30.206055,3.1436832,2.8611388
-30.2388,3.1454427,2.8640962
-30.271666,3.143616,2.8612776
-30.304691,3.1397762,2.855238
-30.337843,3.1354985,2.8485336
-30.371058,3.1318314,2.842867
-30.404549,3.126154,2.8339849
-30.43876,3.1148024,2.8159418
-30.473303,3.1030183,2.797246
-30.509434,3.0808566,2.7617626
-30.54823,3.0430956,2.7010245
-42.431824,0.74061227,0.42095757
-42.413013,0.80220366,0.52964973
-42.43338,0.84679055,0.61546993
-42.45797,0.88930845,0.69851637
-42.370926,0.9771178,0.84149265
-42.407845,1.0136261,0.9163637
-42.426674,1.0572057,1.0005703
-42.464073,1.0931277,1.0747428
-42.425217,1.1587698,1.1876488
-42.44181,1.2021587,1.2714405
-42.41533,1.2617671,1.3761196
-42.409958,1.3127224,1.4694638
-42.407166,1.3622489,1.5608511
-42.32643,1.4403136,1.6884108
-42.34669,1.4802027,1.7671862
-42.3482,1.5266795,1.8542471
-42.369747,1.5655673,1.9317074
-42.380264,1.6081729,2.013801
-42.429344,1.6368887,2.0786328
-42.54032,1.6899095,2.203302
-43.78176,1.4595656,2.0523152
-43.81957,1.4958167,2.1297717
-43.86489,1.529551,2.2043424
-42.5259,2.0062344,2.7986112
-42.44121,2.0762312,2.912105
-42.42392,2.12424,2.999632
-42.466476,2.1533058,3.0652213
-42.470516,2.1941657,3.1443877
-42.552147,2.211275,3.196621
-42.605297,2.2371821,3.2590756
-42.659,2.2630067,3.3216362
-42.738926,2.2812405,3.3760214
-42.8756,2.2833107,3.4130697
-43.00771,2.2873204,3.4528937
-43.162918,2.285396,3.486992
-43.34694,2.276163,3.5140996
-43.56459,2.258563,3.5333457
-43.68216,2.2694445,3.5835004
-43.747414,2.2949467,3.6493602
-43.81138,2.3209531,3.7160296
-43.870293,2.3484452,3.78449
-43.989807,2.36027,3.8375463
-44.127995,2.3677921,3.8869863
-44.225586,2.3862545,3.9478655
-44.33332,2.402535,4.007154
-44.50705,2.4028585,4.0518394
-45.620106,2.1737134,3.8820324
-45.63612,2.216726,3.9712925
-45.665775,2.2563324,4.057452
-45.69199,2.2966921,4.1443872
-46.270435,2.208227,4.1173735
-46.697166,2.1578891,4.1273303
-47.181168,2.0968304,4.130893
-47.754333,2.0183885,4.1230416
-48.386288,1.930056,4.1108813
-49.0185,1.8451109,4.1057806
-49.799393,1.7315485,4.082331
-50.52484,1.6340423,4.0768423
-51.09684,1.5726457,4.1039486
-52.02984,1.4395819,4.081914
-53.03724,1.2963994,4.0593596
-53.85319,1.1971996,4.075332
-2.3369102,0.7171838,3.8226395
-2.3808422,0.64761734,3.6690884
-2.3960361,0.49396873,3.3517246
-2.514885,0.43898773,3.209673
-2.609373,0.37941408,3.064735
-2.6302814,0.30490923,2.9083614
-2.647459,0.22940516,2.751183
-10.807224,0.38391924,1.0819373
-11.328873,0.47193718,1.1324501
-11.411329,0.4333217,1.0389352
-11.577934,0.41997933,0.97519636
-11.606834,0.36574578,0.8641362
-12.663353,0.62521315,1.1242995
-12.743275,0.58980584,1.0382843
-12.961185,0.59763956,1.0044146
-12.986103,0.5456052,0.89921
-13.8624115,0.76524043,1.124136
-13.990585,0.74904823,1.064825
-14.106459,0.72933054,1.0016775
-14.254392,0.72060156,0.95256615
-14.2814045,0.67215943,0.8546047
-14.327631,0.62996054,0.76447105
-14.364839,0.5845814,0.67043304
-14.393117,0.5359483,0.5723305
-14.435211,0.4918809,0.48004723
-16.144806,1.0349231,1.1385794
-16.245659,1.0177801,1.0848212
-16.265627,0.971874,0.9942632
-16.282022,0.9243851,0.90163374
-16.198162,0.83973217,0.7605152
-16.170378,0.77479744,0.6447449
-16.328945,0.77913094,0.619874
-16.248497,0.6935768,0.47680283
-23.494888,2.7249074,2.7933297
-23.601202,2.743264,2.8072948
-23.70701,2.7620778,2.8222523
-23.791328,2.7708008,2.8229437
-23.864914,2.7745688,2.8167
-23.936827,2.7778656,2.8099794
-24.038782,2.7971225,2.8267121
-24.117493,2.8049026,2.826992
-24.182806,2.8060486,2.8177824
-24.297997,2.8342164,2.8483968
-24.347624,2.8277986,2.8284993
-24.40803,2.8274248,2.817627
-24.474747,2.8308165,2.8124714
-24.546242,2.8372314,2.8119664
-24.622421,2.8467064,2.8161926
-24.692696,2.8532934,2.8163328
-24.765507,2.8617573,2.8194547
-24.826982,2.8640666,2.8135839
-24.893112,2.8694348,2.8124418
-24.954252,2.8722134,2.8075876
-25.02133,2.8788893,2.8087373
-25.083454,2.8829556,2.8061318
-25.148731,2.8893101,2.807128
-25.213776,2.895913,2.8086634
-25.279896,2.9035928,2.8119879
-25.33659,2.9056947,2.8070278
-25.394444,2.9088373,2.8037796
-25.453424,2.91303,2.8022642
-25.5103,2.9161747,2.799292
-25.566376,2.919101,2.7961183
-25.638084,2.932846,2.8096023
-25.688717,2.932804,2.8021698
-25.742994,2.9355032,2.799047
-25.800209,2.9405415,2.7996368
-25.857836,2.946218,2.8013387
-25.916466,2.952969,2.8048263
-25.96823,2.9551587,2.801415
-26.025839,2.9618847,2.805121
-26.079655,2.966196,2.8052225
-26.132116,2.96982,2.8043776
-26.183832,2.9731865,2.8032465
-26.23539,2.9767325,2.8025045
-26.289082,2.9822302,2.804905
-26.342003,2.9874713,2.807023
-26.394726,2.992899,2.809545
-26.441109,2.993587,2.804781
-26.486845,2.9939773,2.799646
-26.53798,2.9990215,2.80188
-26.589466,3.004694,2.805204
-26.637524,3.0078247,2.8046494
-26.685436,3.0111163,2.8044434
-26.732672,3.0141118,2.8038669
-26.779247,3.0168066,2.8029108
-26.827242,3.0210302,2.8044538
-26.871998,3.022654,2.801992
-26.916645,3.0244215,2.799842
-26.962189,3.027258,2.7994652
-27.006111,3.0288503,2.7972064
-27.052383,3.032908,2.7989345
-27.097528,3.0361845,2.7995114
-27.14157,3.0386717,2.7989202
-27.186916,3.042705,2.800867
-27.229755,3.0445352,2.7993965
-27.272493,3.0464993,2.7982163
-27.31558,3.04907,2.7980785
-27.35719,3.0503547,2.7959685
-27.400946,3.0541408,2.7979226
-27.441015,3.0542586,2.7940989
-27.484957,3.05879,2.7973976
-27.527441,3.0620263,2.7987027
-27.567238,3.062519,2.7956924
-27.608227,3.0645716,2.795248
-27.65119,3.0691564,2.7989335
-27.693172,3.0729108,2.801362
-27.733803,3.075344,2.801743
-27.773525,3.076931,2.8008337
-27.812767,3.0781512,2.799399
-27.85309,3.080947,2.8005652
-27.8933,3.083864,2.8019953
-27.93226,3.085436,2.8013244
-27.971136,3.0871224,2.800902
-28.00956,3.088433,2.7999363
-28.047546,3.0893633,2.7984176
-28.084759,3.0894191,2.7955465
-28.124355,3.0930324,2.7984862
-28.162457,3.0947871,2.7984838
-28.201815,3.0986319,2.8019252
-28.23972,3.1006098,2.8024063
-28.277534,3.1026974,2.8031244
-28.315578,3.1053905,2.8048844
-28.354458,3.1096892,2.8093095
-28.390429,3.1096096,2.8066888
-28.428173,3.112629,2.809157
-28.464033,3.1127527,2.8069777
-28.500721,3.1144798,2.8074584
-28.537046,3.1158078,2.8073468
-28.573584,3.11774,2.8082724
-28.609222,3.1182637,2.8069606
-28.646145,3.1214063,2.809968
-28.681396,3.1216242,2.8082638
-28.7161,3.1209264,2.80512
-28.752779,3.1243718,2.8087826
-28.787157,3.123358,2.8052254
-28.822239,3.1239588,2.8043518
-28.856585,3.1231298,2.8011947
-28.891592,3.1239183,2.8007283
-28.928745,3.1298938,2.8087888
-28.962746,3.1288376,2.8054113
-28.998608,3.132464,2.8097382
-29.040396,3.1515157,2.8393526
-29.074097,3.1507523,2.8366094
-29.107979,3.1505888,2.8348956
-29.142023,3.151028,2.8342156
-29.176212,3.1520696,2.8345704
-29.210182,3.1526887,2.834282
-29.243454,3.1513433,2.830821
-29.27769,3.1531694,2.8326044
-29.312326,3.1566298,2.8371153
-29.346123,3.1576092,2.837607
-29.3803,3.1602232,2.8408275
-29.41413,3.1618972,2.8425527
-29.447643,3.1626284,2.8427782
-29.48063,3.161382,2.8398032
-29.513865,3.1612537,2.8387103
-29.546642,3.1591442,2.8344088
-29.579874,3.1591873,2.8336864
-29.613686,3.1624217,2.8382516
-29.64713,3.164192,2.840458
-29.680258,3.1644957,2.8403
-29.713612,3.1664398,2.8428836
-29.746534,3.165879,2.8413954
-29.779665,3.166958,2.842648
-29.812763,3.1681237,2.8440871
-29.845654,3.1678183,2.843153
-29.878546,3.1675973,2.842402
-29.911434,3.1674604,2.841834
-29.944283,3.1668897,2.8405967
-29.977106,3.1658843,2.838688
-30.009897,3.1639242,2.8352537
-30.042868,3.165684,2.8379822
-30.07578,3.1670094,2.8400397
-30.108637,3.166861,2.8397179
-30.14149,3.165758,2.8378692
-30.174343,3.1678562,2.8413315
-30.207178,3.1684804,2.842413
-30.239931,3.1712663,2.8470945
-30.273375,3.1569965,2.823769
-30.306255,3.158914,2.8271103
-30.339306,3.1578002,2.8255115
-30.372425,3.1562526,2.8232427
-30.406107,3.1490803,2.8117723
-30.44012,3.1404407,2.7979355
-30.47541,3.1225529,2.7689419
-30.511324,3.103206,2.7376003
-30.550564,3.0632212,2.6723905
-42.430412,0.8213787,0.3867631
-42.397625,0.88829565,0.5035691
-42.422825,0.9306288,0.5866513
-42.398266,1.0445831,0.7923889
-42.414474,1.0893569,0.8785882
-42.412415,1.1409893,0.97394705
-42.437164,1.1817076,1.0546169
-42.404865,1.2441633,1.164196
-42.468666,1.2692723,1.2240763
-42.384544,1.3502791,1.357832
-42.421585,1.3849571,1.4303002
-42.38376,1.4471726,1.5388165
-42.33629,1.5122118,1.6507335
-42.33762,1.5588372,1.7384996
-42.358063,1.598248,1.8168783
-42.35795,1.6447108,1.9042926
-42.392742,1.6785736,1.9755378
-42.44448,1.7064605,2.0392637
-42.49057,1.7363069,2.1056075
-42.584988,1.7952111,2.2376728
-43.769444,1.5449908,2.02149
-43.808987,1.5806167,2.0981894
-42.514706,2.039796,2.6880236
-42.56633,2.0668263,2.7512522
-42.357452,2.1748283,2.9114494
-42.417503,2.1984806,2.9703465
-42.4709,2.2242765,3.0319867
-42.50306,2.2565281,3.1013703
-42.5666,2.2793975,3.1599293
-42.36611,2.3799417,3.3083076
-42.6525,2.3375413,3.291978
-42.72326,2.358656,3.3491807
-42.829605,2.3698776,3.3955374
-42.993008,2.3655353,3.4250116
-43.121456,2.3716855,3.4669008
-43.304543,2.3634431,3.4936295
-43.537075,2.3427389,3.507752
-43.689068,2.3448126,3.5476012
-43.739426,2.3744671,3.6176085
-43.796844,2.402347,3.6859431
-43.871666,2.42585,3.7499547
-43.958374,2.446548,3.8114204
-44.045746,2.4673789,3.8734465
-44.18941,2.4745116,3.922089
-44.28483,2.4941466,3.9839692
-44.459503,2.4949052,4.0277653
-45.626324,2.2587833,3.8424225
-45.63853,2.3026395,3.9326158
-45.68627,2.3380318,4.0147905
-45.683895,2.3850317,4.107992
-45.996128,2.3601813,4.135153
-46.457108,2.3035393,4.1355357
-47.01387,2.2281554,4.122206
-47.557358,2.1587143,4.1176825
-48.14515,2.0826547,4.111045
-48.73693,2.0089297,4.1102867
-49.42238,1.91872,4.0998926
-50.243397,1.804137,4.0744543
-50.84825,1.738183,4.093263
-51.54216,1.6575003,4.104886
-52.51074,1.5259657,4.082941
-53.52182,1.3913467,4.0657306
-54.76322,1.2177358,4.027888
-2.352066,0.8758259,3.7560058
-2.1485329,0.7602365,3.568307
-2.4019756,0.72945714,3.44381
-2.4538002,0.6611736,3.291634
-2.5405865,0.5996671,3.1451254
-2.6156807,0.5360267,2.997344
-2.6346188,0.4612527,2.8406358
-2.657549,0.38706422,2.6844249
-2.6642017,0.3093171,2.5251389
-9.886692,0.30562782,0.8557019
-11.178711,0.6042309,1.1542306
-11.337627,0.58691955,1.085753
-11.50671,0.5732012,1.0222282
-11.584902,0.5336063,0.92838573
-12.528961,0.75044394,1.1445284
-12.702633,0.74259925,1.0919333
-12.814022,0.71667314,1.0179291
-12.949993,0.6986313,0.9540558
-13.333628,0.75782895,0.9864807
-13.717722,0.81942844,1.0235958
-14.146797,0.8975558,1.0831385
-14.426647,0.93050575,1.087534
-14.739331,0.97567105,1.1086159
-14.974994,0.9974444,1.1011567
-15.231167,1.0272994,1.1050301
-15.469893,1.0527644,1.1042852
-15.66507,1.0648282,1.08712
-15.912992,1.0959625,1.0955739
-16.228743,1.1519835,1.1376133
-16.247086,1.1059778,1.0466323
-16.25839,1.0571997,0.951962
-16.26962,1.0080495,0.85674095
-16.136866,0.90655255,0.69160557
-16.125454,0.8478644,0.58318233
-16.196667,0.81910515,0.51489735
-16.07848,0.7198167,0.35145378
-16.123316,0.68054247,0.26887846
-23.600739,2.823209,2.8461967
-23.638353,2.8082597,2.8124952
-23.685223,2.797851,2.7855434
-23.806433,2.8243694,2.813127
-23.8919,2.8338733,2.8159409
-23.964436,2.837349,2.8100672
-24.058176,2.8520484,2.8210516
-24.151484,2.8671417,2.832889
-24.238514,2.879579,2.8410316
-24.300499,2.8793614,2.8305016
-24.357332,2.8766818,2.8164406
-24.434189,2.8850305,2.8190699
-24.510754,2.8936875,2.8223677
-24.57923,2.8983576,2.819858
-24.647493,2.9032936,2.8179245
-24.711344,2.90613,2.8129854
-24.770855,2.906834,2.8049717
-24.83923,2.912923,2.8052797
-24.90393,2.9172804,2.8031235
-24.969116,2.9222848,2.8021116
-25.02121,2.9198856,2.7899475
-25.102882,2.9354615,2.8054094
-25.169392,2.9424343,2.8078928
-25.221699,2.9410968,2.797773
-25.28845,2.9489524,2.8019114
-25.353619,2.9562411,2.805337
-25.41267,2.9600616,2.803564
-25.472834,2.9649284,2.8035426
-25.534718,2.9712653,2.8059363
-25.591908,2.974909,2.8042955
-25.64829,2.9783406,2.8024516
-25.703876,2.9815536,2.8003936
-25.764902,2.9887707,2.8046951
-25.820114,2.9923956,2.8035297
-25.875767,2.9966438,2.8034573
-25.931236,3.0010912,2.8038177
-25.9835,3.003593,2.8012471
-26.03562,3.0062761,2.7990708
-26.087593,3.009141,2.797288
-26.138826,3.0117528,2.7952147
-26.191084,3.0154114,2.7948956
-26.243752,3.0196888,2.795661
-26.293945,3.0223985,2.7940564
-26.343426,3.0248394,2.79213
-26.397282,3.0309775,2.796154
-26.445887,3.0333228,2.7942772
-26.493805,3.035388,2.7920504
-26.542147,3.0380588,2.7908788
-26.593065,3.0431247,2.7936106
-26.64164,3.0465734,2.793868
-26.690058,3.050186,2.7944803
-26.737263,3.053059,2.7940059
-26.784327,3.0560892,2.79387
-26.831247,3.0592742,2.7940717
-26.87751,3.06216,2.793882
-26.923126,3.0647411,2.7932892
-26.968613,3.0674703,2.7930179
-27.013968,3.0703473,2.793067
-27.059185,3.0733716,2.7934356
-27.103292,3.0756197,2.792636
-27.147762,3.0784702,2.7928867
-27.190197,3.0796092,2.7904558
-27.23442,3.0827398,2.7913122
-27.278507,3.0860116,2.7924752
-27.320156,3.0870874,2.7901664
-27.36217,3.0887601,2.7888932
-27.40498,3.0915017,2.7894225
-27.44678,3.0934358,2.7887168
-27.48891,3.095971,2.7890563
-27.531355,3.0991094,2.7904453
-27.572388,3.1009579,2.7898116
-27.613739,3.1034067,2.7902212
-27.656223,3.1074107,2.7932305
-27.696917,3.1096387,2.7934184
-27.73629,3.110554,2.7915344
-27.775587,3.111586,2.789905
-27.814806,3.1127346,2.788527
-27.855108,3.1154432,2.7897577
-27.895294,3.118273,2.7912521
-27.936115,3.1221902,2.7945886
-27.97531,3.1242945,2.7950249
-28.013676,3.1255434,2.7941227
-28.051964,3.126905,2.7934637
-28.090878,3.1293511,2.7946424
-28.12934,3.131424,2.795268
-28.16668,3.1321416,2.7937303
-28.206312,3.1363952,2.7980533
-28.243155,3.136841,2.7961826
-28.280266,3.1378822,2.7953458
-28.319862,3.142968,2.8012156
-28.356165,3.1432395,2.7992249
-28.39334,3.145094,2.7998943
-28.429525,3.1455703,2.7983484
-28.466845,3.1481292,2.8002863
-28.503193,3.1493063,2.8000011
-28.53862,3.149093,2.7974763
-28.575409,3.1514657,2.7992687
-28.611832,3.1534436,2.8004627
-28.647638,3.1545253,2.800229
-28.684166,3.1572046,2.8026867
-28.721106,3.160988,2.8070216
-28.757175,3.1633728,2.8090973
-28.793156,3.1658573,2.81139
-28.827147,3.1644228,2.807248
-28.86253,3.1660957,2.8082967
-28.895813,3.1633334,2.8020487
-28.932861,3.1692278,2.8101878
-28.96846,3.1721992,2.8135362
-29.00334,3.1737525,2.8145833
-29.038155,3.1754007,2.8158355
-29.072708,3.1766357,2.8164506
-29.106447,3.1759372,2.8139038
-29.140179,3.1753268,2.8115492
-29.17461,3.176836,2.8127599
-29.208467,3.1769128,2.811636
-29.242136,3.1765702,2.8098621
-29.276426,3.1783519,2.8116617
-29.310194,3.1786969,2.8111205
-29.344229,3.1801496,2.8124657
-29.377926,3.1806724,2.8123088
-29.411997,3.182815,2.8148918
-29.445354,3.1824937,2.8134217
-29.478577,3.1817474,2.8112884
-29.512154,3.1826224,2.8118954
-29.545914,3.184608,2.8143964
-29.579298,3.1851466,2.8145318
-29.612854,3.1867964,2.8165617
-29.645891,3.1859713,2.8145142
-29.67911,3.1862564,2.8143601
-29.71231,3.186628,2.8143911
-29.745192,3.1850324,2.8111897
-29.778374,3.1855745,2.811592
-29.811409,3.185176,2.8104692
-29.844557,3.1858895,2.8112426
-29.87778,3.1877162,2.8139148
-29.910645,3.1860309,2.8107762
-29.943771,3.1875145,2.812962
-29.976791,3.1880555,2.8136182
-30.00982,3.1891954,2.8153172
-30.042799,3.1899064,2.8163424
-30.075716,3.1891592,2.8149796
-30.108639,3.1879816,2.812943
-30.14159,3.1874027,2.8119464
-30.174536,3.1889672,2.8145633
-30.207455,3.1901014,2.8165069
-30.24038,3.1902912,2.8169184
-30.273369,3.1890225,2.814942
-30.306479,3.1862967,2.8105788
-30.33976,3.1821134,2.8038297
-30.373306,3.1759605,2.7938418
-30.406958,3.170409,2.7848988
-30.441065,3.1618626,2.7710109
-30.475735,3.150325,2.752184
-30.512714,3.12296,2.7070355
-30.55271,3.07876,2.6338935
-42.4012,0.91436124,0.36479425
-42.387897,0.97264767,0.47053862
-42.413876,1.0144577,0.5531969
-42.380062,1.1311882,0.764256
-42.425323,1.164309,0.8347788
-42.376484,1.233774,0.95521975
-42.400246,1.2745764,1.0362082
-42.40567,1.3220806,1.1263132
-42.417072,1.3669538,1.2127748
-42.365788,1.434751,1.3301153
-42.43598,1.457133,1.3861222
-42.360542,1.5325477,1.5132742
-42.38674,1.5704587,1.5900569
-42.363262,1.6258378,1.6900148
-42.362183,1.6727777,1.7786379
-42.329983,1.7301586,1.8808737
-42.363815,1.7642083,1.9523773
-42.423325,1.7894075,2.0124288
-42.45446,1.824245,2.0851254
-42.514076,1.8494782,2.1455092
-42.553955,1.8813028,2.214511
-43.75302,1.6325247,1.9886827
-43.785378,1.6703486,2.0681133
-43.82254,1.706558,2.1455894
-42.546288,2.1474016,2.72338
-42.366035,2.24516,2.8734493
-42.412586,2.2730606,2.937296
-42.44334,2.305697,3.0070252
-42.444553,2.3469598,3.0872068
-42.37409,2.4088175,3.1919289
-42.55371,2.3979714,3.209929
-42.63202,2.4168694,3.2637959
-42.687157,2.4425366,3.3258939
-42.78334,2.4568985,3.3750834
-42.901512,2.4655933,3.4181757
-43.076965,2.459257,3.444663
-43.240578,2.4569736,3.4765878
-43.464725,2.43945,3.4922295
-43.666924,2.4288507,3.516696
-43.718185,2.4583156,3.586255
-43.771835,2.4872482,3.6554317
-43.862576,2.5069149,3.7148342
-43.94461,2.5290787,3.7773294
-44.02917,2.5508928,3.839841
-44.127594,2.5696268,3.8995404
-44.24563,2.5840273,3.9552612
-44.394745,2.591555,4.0045896
-44.543804,2.5997772,4.0554233
-45.616077,2.3954725,3.8958511
-45.632355,2.438078,3.9848738
-45.667095,2.476398,4.069764
-45.745247,2.5050607,4.1455774
-46.343987,2.419934,4.1149545
-46.880753,2.3515003,4.103504
-47.278297,2.3156638,4.125085
-47.903538,2.2340393,4.108243
-48.48181,2.1655545,4.1069975
-49.14702,2.0824008,4.0968986
-49.83374,1.9985011,4.090597
-50.652367,1.8920791,4.070274
-51.174805,1.8481123,4.1062016
-52.186214,1.7124588,4.073042
-53.088608,1.6030195,4.0673237
-54.03915,1.4893856,4.0648875
-2.4098625,0.88891387,3.3697762
-2.5210114,0.8315859,3.2267413
-2.5912457,0.76686,3.0781302
-2.6158829,0.6934879,2.9224534
-2.6435356,0.6205218,2.7671704
-2.6664581,0.5464544,2.610961
-2.6914291,0.4725957,2.454959
-2.7010956,0.39543462,2.2959352
-2.7648315,0.32911134,2.1470246
-2.7017517,0.23632956,1.9731131
-7.890377,0.23946571,0.8468189
-8.320223,0.2110622,0.6998153
-8.607773,0.21767735,0.65234375
-8.963209,0.24406171,0.62972736
-9.249887,0.25353312,0.5884495
-11.147921,0.7101629,1.0890989
-11.411303,0.72131944,1.0563421
-11.828487,0.77737975,1.0798159
-12.359074,0.86831427,1.1482382
-12.636314,0.88896275,1.1316814
-12.951874,0.9223254,1.132226
-13.237707,0.9486153,1.1252213
-13.520124,0.97543836,1.1201053
-13.849375,1.0180249,1.1362667
-14.058596,1.0256426,1.1089783
-14.31474,1.0488915,1.1026835
-14.493741,1.049315,1.0678263
-14.768273,1.0809422,1.0743427
-14.9262,1.0766721,1.0349064
-14.9642,1.0341778,0.945693
-15.116989,1.0292435,0.90627766
-15.340559,1.0485084,0.89961815
-15.481537,1.041265,0.8583603
-16.23967,1.2441437,1.0998945
-16.303017,1.2138093,1.0297446
-16.257137,1.1456349,0.90845776
-16.232227,1.0840433,0.79584503
-16.08493,0.97842526,0.62282085
-16.29147,0.9980707,0.6211233
-16.297424,0.9461782,0.5215101
-16.106709,0.8218281,0.32149935
-16.120193,0.77110934,0.22297049
-23.595032,2.8676136,2.8187337
-23.756287,2.9116683,2.8733673
-23.835745,2.9174957,2.8711572
-23.928461,2.9302356,2.8795538
-24.000628,2.9334285,2.8738213
-24.07038,2.9357965,2.8670301
-24.13332,2.9350898,2.8557634
-24.204231,2.9387324,2.8512502
-24.245022,2.9272518,2.823924
-24.317158,2.9321275,2.8215985
-24.36454,2.9243894,2.8001962
-24.463629,2.9442549,2.8211222
-24.512955,2.9381118,2.8024497
-24.594915,2.9498405,2.8113303
-24.65607,2.9506893,2.80368
-24.719196,2.952931,2.798318
-24.79469,2.9624352,2.8043237
-24.862253,2.9679275,2.8043075
-24.926151,2.9717114,2.8018036
-24.98576,2.9733632,2.7961369
-25.045225,2.9752345,2.7909465
-25.113977,2.9829118,2.7949376
-25.179775,2.9892526,2.7970037
-25.23868,2.9918187,2.7933207
-25.298082,2.9950058,2.790739
-25.356657,2.9980054,2.7879949
-25.418968,3.0036652,2.789558
-25.479115,3.0083306,2.7896957
-25.541622,3.014862,2.7929053
-25.600697,3.0195649,2.7933674
-25.657673,3.023242,2.792336
-25.70882,3.0233831,2.7858286
-25.768589,3.029545,2.7889676
-25.825031,3.0338323,2.7892585
-25.879444,3.0370617,2.7879858
-25.936733,3.0425942,2.7904902
-25.98777,3.0440981,2.7866936
-26.04287,3.0487545,2.7880282
-26.094807,3.0514739,2.7863803
-26.148947,3.0560873,2.7878642
-26.201141,3.059603,2.7876992
-26.25143,3.0620065,2.7858534
-26.30158,3.064582,2.7843804
-26.35386,3.0690663,2.7860718
-26.403135,3.0715544,2.7846527
-26.455063,3.0763953,2.787118
-26.504581,3.0796626,2.7871437
-26.552296,3.0817778,2.7854028
-26.602055,3.085818,2.786862
-26.650566,3.0891423,2.7872543
-26.697853,3.0917413,2.786563
-26.743946,3.0936065,2.7847652
-26.789394,3.0951753,2.7825694
-26.836803,3.0986845,2.7836075
-26.882004,3.100553,2.7820625
-26.927595,3.103019,2.7815685
-26.97406,3.1065376,2.7828698
-27.01888,3.1088486,2.7822828
-27.064066,3.1117587,2.7827516
-27.109114,3.114815,2.7835379
-27.150654,3.1148164,2.7794032
-27.195454,3.1181543,2.7807999
-27.237755,3.1193385,2.7787442
-27.2795,3.1201932,2.7762165
-27.321156,3.121177,2.7739687
-27.364994,3.1246045,2.7758036
-27.408688,3.1281722,2.7779403
-27.45046,3.1300151,2.7773132
-27.493004,3.1329215,2.7785034
-27.537146,3.137831,2.7830644
-27.579405,3.141006,2.7848377
-27.61858,3.141023,2.7814665
-27.659773,3.1435106,2.7822366
-27.69962,3.144708,2.780939
-27.738571,3.145078,2.778335
-27.779053,3.1474597,2.7791176
-27.819424,3.1499636,2.7801666
-27.859291,3.1521134,2.7806902
-27.899437,3.1548593,2.7822633
-27.939089,3.157248,2.7833047
-27.979002,3.1602333,2.7853975
-28.018793,3.163339,2.7877502
-28.058458,3.1665635,2.790361
-28.095877,3.1670144,2.7884183
-28.132887,3.1670895,2.7859044
-28.170874,3.168721,2.786034
-28.210459,3.1728847,2.7904396
-28.247913,3.1742547,2.7902446
-28.283987,3.173786,2.7870383
-28.321627,3.175853,2.788113
-28.357605,3.1755886,2.7853498
-28.393852,3.1759129,2.7836185
-28.430655,3.1773164,2.783742
-28.467382,3.1788244,2.784092
-28.503454,3.1794536,2.7830215
-28.54004,3.1811666,2.7838154
-28.5771,3.1839669,2.78648
-28.61324,3.1853929,2.7868948
-28.649574,3.1874132,2.7883554
-28.686607,3.191019,2.7925224
-28.721989,3.1917584,2.7919345
-28.758562,3.1950738,2.7957163
-28.794538,3.197499,2.7980547
-28.829235,3.1975381,2.7964354
-28.863667,3.197173,2.7941837
-28.898077,3.1969004,2.792132
-28.93356,3.1992137,2.7944703
-28.968103,3.1996262,2.7936616
-29.002815,3.2006314,2.7938948
-29.037678,3.202231,2.7951722
-29.07169,3.2019203,2.7932816
-29.105684,3.2016995,2.791586
-29.14021,3.2030742,2.7926197
-29.174852,3.2050443,2.794701
-29.208738,3.205095,2.7935948
-29.24227,3.2042286,2.7909865
-29.276596,3.205969,2.7928123
-29.310705,3.2072964,2.7939863
-29.344465,3.2077048,2.7936554
-29.378197,3.2082016,2.7935162
-29.412169,3.209798,2.7952743
-29.445564,3.2094615,2.7938142
-29.478827,3.2087054,2.791688
-29.512325,3.2090485,2.7914577
-29.546356,3.2120113,2.7956915
-29.57967,3.2120233,2.7949877
-29.613264,3.2136424,2.797038
-29.646435,3.2133205,2.7958527
-29.679775,3.2140987,2.7965674
-29.71284,3.2134407,2.7948976
-29.745834,3.2123597,2.792554
-29.778913,3.2118714,2.7912521
-29.81212,3.2124858,2.791853
-29.845415,3.2142024,2.7943587
-29.87861,3.2154963,2.7961912
-29.911545,3.2143323,2.7939115
-29.944616,3.2147803,2.7943945
-29.977703,3.2158215,2.7959223
-30.01076,3.2169483,2.797635
-30.043785,3.2181602,2.7995324
-30.076721,3.2174203,2.7981715
-30.109657,3.215747,2.7952743
-30.14264,3.2161949,2.796002
-30.175604,3.2172363,2.797773
-30.208544,3.2183635,2.7997293
-30.241507,3.2180471,2.7992868
-30.274591,3.2152696,2.7947254
-30.307718,3.213087,2.7912111
-30.341074,3.2084455,2.7835813
-30.374626,3.202873,2.7744184
-30.408316,3.1973882,2.7654462
-30.442516,3.1884313,2.7506504
-30.477592,3.1739726,2.7266026
-30.514984,3.1443603,2.676999
-30.554527,3.1046932,2.6104627
-42.364212,1.0138934,0.34927464
-42.37446,1.0621183,0.44142342
-42.38636,1.1092813,0.5319991
-42.437958,1.1404676,0.59985924
-42.37152,1.2679446,0.82758
-42.375076,1.3165958,0.9199228
-42.389572,1.3607144,1.0058451
-42.415146,1.4003897,1.0855403
-42.405396,1.4528525,1.1829839
-42.426178,1.4936914,1.2642283
-42.375557,1.560025,1.3805513
-42.37852,1.6064515,1.469286
-42.383293,1.6518683,1.5565639
-42.395077,1.6944883,1.639967
-42.363804,1.7516825,1.7430444
-42.32808,1.8097882,1.847125
-42.33054,1.8543687,1.9328332
-42.403046,1.8752193,1.9868002
-42.40167,1.9206583,2.0736394
-42.473427,1.9418523,2.1283517
-43.73658,1.7235498,1.9575334
-43.767086,1.7618291,2.0376086
-43.794327,1.8009791,2.1188416
-42.509018,2.236249,2.7036242
-42.514153,2.2772014,2.784141
-42.35506,2.3663526,2.9251127
-42.429146,2.3861303,2.9787035
-42.473,2.4148476,3.043644
-42.524647,2.4413655,3.1060057
-42.56862,2.4701211,3.1712742
-42.509575,2.5275736,3.2715044
-42.62961,2.5351257,3.3112416
-42.76988,2.5377083,3.3455577
-42.89083,2.5461354,3.387436
-43.056168,2.5433202,3.4166183
-43.213318,2.5434623,3.4500237
-43.378014,2.5424066,3.48278
-43.61739,2.5230513,3.4953265
-43.71618,2.5404754,3.5508714
-43.75766,2.5725749,3.6233883
-43.848404,2.5925593,3.6825361
-43.964275,2.6067576,3.7357101
-44.03289,2.6327906,3.8023758
-44.137962,2.6503701,3.8602028
-44.254177,2.6657586,3.9162002
-44.36168,2.6836424,3.9754186
-44.4927,2.6965926,4.030023
-44.65307,2.7035072,4.079086
-45.609364,2.5344174,3.949747
-45.65456,2.5704153,4.032177
-45.650444,2.6171184,4.125407
-46.02513,2.5828185,4.13938
-46.444572,2.541092,4.148444
-47.0772,2.4573889,4.1202784
-47.55804,2.4081788,4.1282067
-48.242226,2.3205397,4.103918
-48.817635,2.2582314,4.1068106
-49.530407,2.172095,4.092353
-50.21927,2.0944152,4.089901
-50.9374,2.014854,4.0904293
-51.68387,1.9338167,4.0945716
-52.612427,1.8231587,4.079755
-53.53859,1.7179091,4.075691
-54.78218,1.5608127,4.0380654
-2.1148357,1.1545141,3.5693989
-2.227356,1.0961244,3.4245257
-2.4469051,1.0570457,3.2966208
-2.585308,1.0042913,3.1582556
-2.6263542,0.9342129,3.0053997
-2.6218567,0.8556037,2.8450131
-2.6349812,0.77997947,2.6872144
-2.6608315,0.7065451,2.5314221
-2.717701,0.638957,2.3812256
-2.690689,0.55482817,2.2152662
-2.699585,0.47738552,2.055581
-2.716364,0.40124297,1.8971152
-2.7352238,0.32527137,1.738791
-2.7609558,0.25048018,1.5816574
-5.050455,0.20467496,1.0154262
-6.9990025,0.36819172,0.9464431
-6.6870155,0.21983671,0.7134156
-9.625214,0.7461016,1.17166
-9.94002,0.76194406,1.1404495
-10.387478,0.814003,1.1548681
-10.752548,0.8468056,1.1476364
-11.099295,0.87668633,1.1384106
-11.485634,0.91914654,1.1464071
-11.699745,0.91660285,1.0995469
-12.071638,0.9587958,1.1101637
-12.403336,0.99179673,1.110671
-12.3246155,0.91018414,0.96570206
-12.603159,0.9302099,0.9513264
-12.976799,0.97934103,0.97584534
-13.248394,1.000629,0.9655776
-13.293087,0.9559231,0.8697896
-13.495096,0.95843434,0.8364005
-13.711994,0.9664717,0.81110954
-14.720372,1.2191801,1.1130018
-14.250146,1.0183544,0.8109827
-15.106516,1.2314262,1.0646281
-14.645084,1.0306232,0.76128674
-14.832352,1.0349736,0.73508406
-15.125254,1.0746603,0.75785494
-15.260021,1.0639908,0.712564
-16.29488,1.3020582,0.9827118
-16.363003,1.2732785,0.91505957
-16.120794,1.1377606,0.69844246
-16.080153,1.0701296,0.57602215
-16.247488,1.0749345,0.55537367
-16.085022,0.9632447,0.37054586
-16.100243,0.9137435,0.2732706
-23.546965,2.9274218,2.823225
-23.616493,2.9271739,2.8119516
-23.696518,2.9321923,2.8088975
-23.777058,2.9378936,2.807096
-23.857346,2.9439218,2.806003
-23.953796,2.9582524,2.8178868
-24.02901,2.9627855,2.8149228
-24.105476,2.9683511,2.8137407
-24.178024,2.9723818,2.8103719
-24.266422,2.9848425,2.8202577
-24.31957,2.9798112,2.8031816
-24.389315,2.983568,2.7999048
-24.46029,2.9883473,2.7983885
-24.52248,2.9888735,2.7903924
-24.59234,2.9938068,2.7894382
-24.659155,2.997487,2.7866812
-24.731373,3.004488,2.789297
-24.800533,3.010234,2.7901058
-24.871527,3.017409,2.7933269
-24.936058,3.0213664,2.7916265
-24.98946,3.0193253,2.7805772
-25.057724,3.0260952,2.7836056
-25.120335,3.02998,2.7822046
-25.182747,3.0340993,2.7813134
-25.25094,3.042027,2.7866235
-25.30828,3.043837,2.7823253
-25.36941,3.048259,2.782318
-25.426426,3.050495,2.7789426
-25.486519,3.054957,2.779252
-25.55154,3.0628855,2.7852483
-25.608635,3.0661755,2.7839298
-25.659859,3.0659938,2.7771397
-25.71601,3.069272,2.7760239
-25.773853,3.073989,2.7773414
-25.831493,3.078916,2.7791166
-25.884626,3.0811472,2.7766438
-25.941265,3.0860655,2.7786264
-25.99709,3.09077,2.780375
-26.046124,3.091057,2.7750578
-26.098623,3.0940382,2.774212
-26.148605,3.0955114,2.77101
-26.198462,3.0971549,2.7681775
-26.251087,3.1010988,2.7691894
-26.302956,3.1047986,2.7699013
-26.352373,3.1069632,2.768199
-26.401653,3.109296,2.76686
-26.45415,3.1143866,2.770131
-26.50256,3.1166282,2.7688231
-26.550287,3.1185975,2.7671533
-26.597881,3.1207263,2.76583
-26.647503,3.1247628,2.7677293
-26.69481,3.1272137,2.7671037
-26.740923,3.1289408,2.765366
-26.786394,3.1303775,2.763227
-26.830715,3.131076,2.759944
-26.875969,3.1328049,2.7584386
-26.921103,3.1346803,2.7572513
-26.967627,3.1380415,2.7585998
-27.013,3.1406596,2.7587938
-27.057255,3.1425264,2.7578158
-27.102852,3.145886,2.7593894
-27.148296,3.1493938,2.7612844
-27.193111,3.1525962,2.762745
-27.236368,3.1545806,2.76225
-27.27672,3.1539679,2.757495
-27.317017,3.1534772,2.7530046
-27.35862,3.1544802,2.751068
-27.399685,3.1551533,2.7486439
-27.442883,3.1582515,2.7503352
-27.485943,3.1614857,2.7523227
-27.527565,3.1634684,2.7522807
-27.569078,3.1655786,2.7525153
-27.608791,3.1659575,2.7499113
-27.649683,3.1678522,2.7499065
-27.69252,3.1722038,2.7540884
-27.731956,3.1729481,2.752276
-27.772114,3.174747,2.7522922
-27.810596,3.1747866,2.7494092
-27.851738,3.178234,2.752315
-27.890064,3.178505,2.7499313
-27.927952,3.1784134,2.746993
-27.964676,3.1770098,2.7418928
-28.00357,3.1785574,2.7418222
-28.043095,3.1811697,2.7436028
-28.081799,3.1829467,2.744029
-28.121452,3.1862686,2.7471194
-28.160292,3.188752,2.7488499
-28.196665,3.187994,2.7451506
-28.234333,3.1892586,2.7449222
-28.271597,3.1901493,2.744112
-28.309753,3.1925912,2.7459798
-28.348118,3.1956255,2.7489042
-28.38421,3.1953878,2.7463322
-28.421774,3.1976707,2.748085
-28.458351,3.1986067,2.7476006
-28.494865,3.1996443,2.7473373
-28.531313,3.2007837,2.7472959
-28.568806,3.2039738,2.7507854
-28.604002,3.2033677,2.7478724
-28.640507,3.2052996,2.749321
-28.676407,3.2063549,2.7493248
-28.711733,3.2065299,2.7478757
-28.74702,3.206801,2.7466354
-28.782509,3.2076583,2.7464395
-28.817703,3.208121,2.745615
-28.852623,3.2081861,2.7441573
-28.888184,3.2098246,2.7454252
-28.924114,3.2125468,2.7485871
-28.958664,3.212404,2.7469058
