x,y,z
-32.77681,2.6150534,2.8555427
-32.81987,2.6106236,2.8549309
-32.860477,2.6095288,2.8589783
-32.906376,2.6021676,2.8545785
-32.948048,2.6002665,2.8577347
-32.9898,2.5984917,2.861164
-33.035244,2.5926125,2.8591228
-33.07993,2.5879354,2.8588285
-33.12568,2.5823474,2.857417
-33.166435,2.5826843,2.8641415
-33.214325,2.5752823,2.8605094
-33.259056,2.5716994,2.8621593
-33.305355,2.5666933,2.862009
-33.353264,2.560276,2.8600836
-33.400852,2.5545368,2.8592005
-33.447098,2.5505073,2.8607397
-33.49196,2.548178,2.8646798
-33.50683,2.5763886,2.909575
-33.518604,2.6071556,2.9578738
-33.540215,2.6276448,2.9924493
-33.568817,2.641001,3.0175552
-33.60091,2.6508493,3.0380511
-33.648376,2.6460304,3.039163
-33.692745,2.6444135,3.0446491
-33.73992,2.6404119,3.0471048
-33.787773,2.6360636,3.0492363
-33.83742,2.6303673,3.0497308
-33.88499,2.6268482,3.0532327
-33.933243,2.622989,3.056425
-33.98504,2.6163015,3.056054
-34.03184,2.6142695,3.061924
-34.08221,2.60942,3.0642533
-34.13097,2.606227,3.068891
-34.182793,2.6007369,3.0706887
-34.23477,2.5954285,3.0728803
-34.293495,2.584918,3.068503
-34.347645,2.5785294,3.0696363
-34.397705,2.5757396,3.0755754
-34.449715,2.5716677,3.080019
-34.51175,2.5600457,3.074944
-34.569073,2.5525117,3.0753074
-34.6266,2.545188,3.0761256
-34.687477,2.5356834,3.0743566
-34.74732,2.5273602,3.0742922
-34.808655,2.518309,3.0735073
-34.85859,2.5180128,3.0839958
-35.0114,2.4433343,3.0008616
-35.22073,2.3298643,2.8695827
-35.27461,2.3293543,2.8808923
-35.340508,2.3206296,2.8820982
-35.405296,2.3130846,2.885007
-35.471626,2.304857,2.887291
-36.378204,1.7244842,2.1799731
-35.553795,2.3236494,2.936172
-37.066822,1.3503604,1.7485781
-36.899017,1.5078309,1.9589863
-36.943695,1.5234101,1.9944782
-37.14543,1.4372387,1.9056902
-37.16108,1.4724073,1.965672
-37.19171,1.4976649,2.013585
-37.212692,1.5287869,2.0686464
-37.18592,1.5893123,2.1592007
-37.194096,1.6274095,2.2225356
-36.387844,2.1620219,2.8811593
-36.42439,2.1772175,2.9149618
-36.516357,2.159218,2.9093328
-36.62565,2.131571,2.8926315
-36.731804,2.1065679,2.8795223
-36.802757,2.1027741,2.891848
-36.883564,2.0936584,2.898201
-36.970608,2.08144,2.9012523
-37.05945,2.0687258,2.9040847
-37.131863,2.0657203,2.9185476
-37.26623,2.02876,2.8940706
-37.287766,2.0546656,2.942532
-37.359783,2.052955,2.9593735
-22.85634,0.9750571,1.120904
-22.90521,0.9568362,1.0809841
-22.904675,0.90403295,0.99714804
-22.741278,0.7354443,0.7654071
-28.725504,1.5453622,1.1098404
-28.780794,1.5693679,1.141592
-28.835892,1.5946648,1.1753144
-28.896324,1.6404378,1.2385235
-28.959076,1.6982601,1.3191576
-29.012089,1.7246413,1.3548188
-29.066565,1.7590952,1.4021821
-29.117918,1.7840929,1.4360867
-29.174742,1.8347182,1.5069151
-29.224981,1.86116,1.5431218
-29.272697,1.8786781,1.566606
-29.311691,1.8554947,1.5316663
-29.36159,1.8863072,1.5744495
-29.414452,1.9371331,1.6461272
-29.46036,1.9540403,1.669116
-29.50406,1.9597096,1.676023
-29.54943,1.9774308,1.7003632
-29.593855,1.9912949,1.7192397
-29.637093,1.9984524,1.7285457
-29.685038,2.046693,1.7971039
-29.727516,2.0540895,1.8069272
-29.769384,2.0570426,1.810431
-29.81143,2.0629513,1.8182716
-29.894032,2.60154,2.593773
-29.930277,2.6094732,2.6047602
-29.967514,2.6385837,2.6463375
-30.003191,2.6467075,2.6577396
-30.039175,2.6691725,2.689878
-30.074667,2.6911612,2.7213998
-30.109539,2.7012722,2.7358656
-30.144209,2.7188818,2.7612076
-30.178583,2.7274613,2.7735958
-30.212654,2.742399,2.7952127
-30.246595,2.7511523,2.80798
-30.280603,2.7537239,2.8118982
-30.314444,2.7586615,2.8192906
-30.347935,2.7676747,2.8326192
-30.381443,2.773923,2.8420243
-30.415197,2.7757,2.845049
-30.449078,2.775856,2.8458014
-30.482723,2.7783756,2.8500223
-30.516514,2.7792742,2.8519707
-30.550293,2.7802596,2.8541064
-30.584055,2.7813313,2.8564305
-30.617052,2.787607,2.8663087
-30.649923,2.7939649,2.876367
-30.684095,2.7918847,2.8743415
-30.717714,2.7933004,2.877411
-30.750666,2.7982075,2.8855653
-30.785563,2.7929873,2.8792171
-30.819387,2.79353,2.8812222
-30.852459,2.7975602,2.8883033
-30.887293,2.7937448,2.8841734
-30.922358,2.789457,2.8794336
-30.956522,2.7892232,2.8805819
-30.990704,2.7890775,2.8819237
-31.025211,2.787892,2.8818388
-31.059275,2.7884915,2.8843803
-31.093674,2.7880511,2.885497
-31.135714,2.762904,2.8512702
-31.17239,2.7564712,2.8439488
-31.207554,2.755203,2.8440995
-31.24257,2.7545912,2.8452578
-31.27801,2.752949,2.8450112
-31.313908,2.7502794,2.8433657
-31.34967,2.7482686,2.8427334
-31.38528,2.7469146,2.843111
-31.420717,2.746216,2.8444958
-31.457094,2.7433767,2.8428955
-31.49332,2.7411954,2.8423085
-31.529612,2.7391136,2.841937
-31.565481,2.7382455,2.843368
-31.60139,2.7374747,2.8450108
-31.637852,2.7356892,2.8452816
-31.674894,2.7328944,2.8441916
-31.71202,2.7302027,2.8433266
-31.749228,2.7276144,2.8426852
-31.786514,2.7251303,2.84227
-31.823309,2.7238555,2.843648
-31.861027,2.7210283,2.8429022
-31.898237,2.7194085,2.8439474
-31.934906,2.718994,2.846776
-31.971304,2.7192302,2.8506012
-32.008663,2.7179198,2.8523173
-32.047356,2.7145243,2.8511682
-32.085175,2.712881,2.8525748
-32.12339,2.710799,2.8534455
-32.16302,2.7066455,2.851481
-32.202087,2.703697,2.8513017
-32.241245,2.7008624,2.851369
-32.280144,2.698685,2.8524466
-32.320553,2.694453,2.8507276
-32.360355,2.691424,2.8507857
-32.400623,2.6879716,2.8503428
-32.44062,2.6851788,2.8509135
-32.482235,2.6803524,2.8487344
-32.523598,2.67619,2.847579
-32.56116,2.6775105,2.8541708
-32.601517,2.6751933,2.8557734
-32.64317,2.671395,2.8554077
-32.684116,2.668789,2.8567996
-32.726814,2.6641796,2.8555036
-32.769226,2.6602333,2.8552308
-32.810905,2.6574762,2.8567095
-32.854836,2.6522043,2.854805
-32.900227,2.6454892,2.8510146
-32.943584,2.6415505,2.8511739
-32.98706,2.6377473,2.8516264
-33.03066,2.6340806,2.852374
-33.07529,2.6295042,2.8519788
-33.118668,2.626635,2.854042
-33.163555,2.62234,2.8542566
-33.209045,2.617669,2.8540702
-33.253235,2.6146986,2.8563266
-33.29947,2.6098006,2.856062
-33.346336,2.604537,2.8554206
-33.393356,2.5994272,2.8551102
-33.439526,2.595497,2.8565297
-33.483295,2.5942748,2.8617492
-33.50774,2.6125798,2.893568
-33.523613,2.6390657,2.9364967
-33.544724,2.6599615,2.9718623
-33.571774,2.674804,2.999072
-33.604412,2.6841447,3.0189104
-33.647095,2.6840007,3.0260534
-33.692535,2.6814802,3.0301156
-33.73807,2.6791086,3.0345001
-33.78701,2.67389,3.0351977
-33.83388,2.6708312,3.0389194
-33.8803,2.6684241,3.043642
-33.927383,2.6656764,3.0480394
-33.980854,2.6576571,3.0455637
-34.03338,2.6508114,3.044805
-34.078545,2.6505306,3.0528936
-34.129036,2.6459947,3.0554848
-34.179672,2.6416337,3.0584564
-34.235207,2.6335602,3.0566902
-34.289154,2.627141,3.05727
-34.341465,2.622364,3.0601678
-34.394535,2.6172895,3.0628343
-34.447754,2.6124036,3.0659099
-34.500507,2.6081855,3.0700178
-34.56026,2.5989096,3.0677176
-34.61962,2.590332,3.066516
-34.680466,2.581028,3.0645685
-34.735813,2.5761988,3.0685954
-34.799015,2.5659275,3.065792
-34.84695,2.5671408,3.07795
-34.94247,2.5344346,3.046801
-35.20989,2.3807228,2.8613968
-35.266346,2.3784752,2.8701925
-35.326897,2.373658,2.8759017
-35.39563,2.363542,2.875094
-35.44845,2.3646913,2.88877
-35.518257,2.354608,2.8884463
-36.466103,1.7598405,2.1530924
-35.59613,2.3764865,2.941267
-37.100582,1.4305401,1.7713041
-37.12703,1.4592466,1.8236032
-37.15021,1.4897685,1.8781829
-37.171486,1.5211911,1.933887
-37.195778,1.5503926,1.9868455
-37.22316,1.5773993,2.0371165
-37.19135,1.640558,2.1318069
-37.18654,1.6863391,2.2049732
-37.20703,1.7162664,2.2586765
-36.411415,2.2328558,2.9040546
-36.513626,2.209153,2.890769
-36.60602,2.1919224,2.8857174
-36.71214,2.1673512,2.8722072
-36.783016,2.1637483,2.8842769
-36.86301,2.155314,2.8908424
-36.94623,2.1455078,2.89609
-37.02894,2.1364608,2.9025693
-37.105793,2.1311061,2.9137397
-37.201916,2.115616,2.913291
-37.24922,2.1271322,2.9448876
-9.44071,0.33597398,3.912426
-9.448639,0.27547932,3.7924356
-9.5675125,0.24554396,3.6924176
-20.375805,0.7246127,1.1627674
-20.520588,0.75163555,1.1710835
-20.599493,0.7435634,1.1376204
-20.669384,0.7307651,1.0986991
-20.736412,0.71652365,1.0582457
-20.796131,0.69829106,1.0131269
-20.897724,0.70392656,0.99741554
-22.812302,1.0625458,1.137744
-22.868923,1.0496514,1.1046
-22.892998,1.0145986,1.042963
-22.907057,0.9722278,0.9718447
-22.741425,0.80401945,0.7372179
-28.668953,1.5726209,1.0630012
-28.724735,1.5961981,1.0945692
-28.782799,1.62887,1.1394715
-28.83963,1.660044,1.1823235
-28.905598,1.724927,1.2743206
-28.958637,1.7491956,1.3073878
-29.015541,1.7898524,1.3644166
-29.069073,1.8211627,1.4079638
-29.11982,1.8442249,1.4396119
-29.172865,1.8792117,1.4887352
-29.227062,1.9227746,1.5504675
-29.270073,1.9193349,1.5438085
-29.317545,1.9373548,1.5685139
-29.362526,1.9448266,1.5779314
-29.413357,1.9850376,1.6351886
-29.457249,1.9905131,1.6418743
-29.506517,2.0298781,1.6980968
-29.549612,2.034473,1.70367
-29.593235,2.0436876,1.7160673
-29.637756,2.0614707,1.7410574
-29.685677,2.1109412,1.8124075
-29.724329,2.0855544,1.7745223
-29.767853,2.104255,1.8011022
-29.809929,2.111224,1.810627
-29.892149,2.6408231,2.5838194
-29.927526,2.6362557,2.5767083
-29.963247,2.6362941,2.5763936
-30.00191,2.701912,2.6719794
-30.038,2.7337587,2.718285
-30.072636,2.7329504,2.7169304
-30.107445,2.7446542,2.7339277
-30.141996,2.7541888,2.7478175
-30.176329,2.7655058,2.7643743
-30.210375,2.7791696,2.7844229
-30.244265,2.788402,2.7980576
-30.278208,2.7915113,2.802803
-30.312145,2.7935774,2.806087
-30.345865,2.7985532,2.813683
-30.37944,2.804179,2.82229
-30.413464,2.8031201,2.8211894
-30.447247,2.8049684,2.8244
-30.480284,2.813671,2.8376822
-30.51366,2.8179457,2.8445568
-30.54674,2.8239958,2.854084
-30.579847,2.8290029,2.8621454
-30.613605,2.8290243,2.86299
-30.647371,2.8291328,2.8640237
-30.682001,2.8242636,2.8578563
-30.715933,2.8239868,2.8584523
-30.748802,2.8294196,2.8674393
-30.781113,2.8371832,2.8798823
-30.815298,2.8354785,2.87858
-30.850159,2.8310564,2.8733816
-30.88473,2.8284109,2.8708377
-30.918957,2.827539,2.8709426
-30.951492,2.8334801,2.881031
-30.98526,2.8344634,2.8839602
-31.019485,2.833855,2.8846364
-31.054222,2.8316598,2.8830686
-31.089022,2.8295567,2.881701
-31.123188,2.8297799,2.883781
-31.164715,2.807223,2.8528295
-31.19822,2.8104315,2.859387
-31.233583,2.8081567,2.8580465
-31.269407,2.8048651,2.855298
-31.30471,2.803338,2.8551793
-31.340065,2.8019066,2.8552685
-31.375685,2.8000152,2.8547583
-31.412027,2.7965581,2.8520508
-31.44801,2.7943087,2.8511634
-31.484991,2.789945,2.8472886
-31.520657,2.7889998,2.8484316
-31.556608,2.787599,2.8489861
-31.592863,2.7857456,2.848957
-31.628923,2.7845426,2.8499393
-31.666607,2.7801385,2.8463764
-31.703602,2.7774894,2.8454204
-31.739313,2.7776856,2.8486395
-31.776442,2.7752402,2.848126
-31.815075,2.7701638,2.8439016
-31.851223,2.7701154,2.8469892
-31.8874,2.7701664,2.8502922
-31.924812,2.768138,2.8506804
-31.962297,2.7662141,2.8512979
-31.999224,2.765483,2.853703
-32.036835,2.7637699,2.8547773
-32.07549,2.7605393,2.853757
-32.112255,2.7606642,2.8576202
-32.149723,2.759812,2.8601608
-32.190323,2.7542152,2.8560061
-32.230724,2.7492776,2.8528824
-32.27091,2.7449987,2.8507872
-32.310497,2.7419126,2.8504796
-32.34982,2.7394779,2.8511863
-32.387745,2.7392964,2.8551822
-32.428722,2.734955,2.8533502
-32.47059,2.7296731,2.8502765
-32.51105,2.726645,2.8504949
-32.5524,2.7226768,2.8494725
-32.59108,2.7225409,2.8539658
-32.6298,2.7225165,2.8587012
-32.66938,2.7215495,2.8621907
-32.712753,2.7159617,2.8592534
-32.756283,2.7105107,2.8566103
-32.798687,2.706769,2.8564782
-32.84164,2.7026353,2.855894
-32.887344,2.695503,2.8512049
-32.927048,2.6958108,2.857059
-32.972157,2.6899993,2.8544335
-33.016068,2.6858883,2.854298
-33.061028,2.6808813,2.8530188
-33.10706,2.6749854,2.8506103
-33.1481,2.674904,2.8564181
-33.19298,2.670836,2.8567758
-33.241352,2.6633246,2.8524594
-33.28604,2.6600642,2.8541694
-33.334766,2.6528664,2.8505335
-33.38121,2.6483755,2.8507714
-33.426792,2.645051,2.8527398
-33.472492,2.641873,2.8550272
-33.51779,2.639348,2.8583307
-33.535835,2.6636567,2.8986669
-33.562817,2.67893,2.9265957
-33.60638,2.6782272,2.932652
-33.63619,2.6906488,2.9567919
-33.67438,2.6951673,2.97018
-33.71524,2.6973128,2.9804173
-33.75775,2.6980965,2.9889002
-33.794773,2.7039526,3.0043898
-33.83897,2.703511,3.0114126
-33.885475,2.7012472,3.0160813
-33.930378,2.7006068,3.0230718
-33.98392,2.6927898,3.0204878
-34.018646,2.7012248,3.0399718
-34.088142,2.68064,3.0204792
-34.136414,2.6782265,3.0256205
-34.189518,2.6721187,3.0259433
-34.23207,2.6748512,3.0382524
-34.28724,2.6676557,3.037415
-34.341396,2.6616144,3.0382824
-34.391457,2.6590996,3.0440006
-34.444702,2.6543844,3.046946
-34.499954,2.6484413,3.0484233
-34.55351,2.6441104,3.0522008
-34.61287,2.6357431,3.050819
-34.67182,2.6280653,3.050531
-34.72715,2.6234043,3.05439
-34.786488,2.6161547,3.0550308
-34.84538,2.6095881,3.056755
-34.906414,2.6018562,3.0571475
-35.165337,2.455972,2.8781052
-35.22881,2.4487514,2.8800054
-35.29914,2.4372044,2.8765168
-35.363056,2.430478,2.879489
-35.42919,2.4226325,2.8812323
-35.493507,2.4163928,2.88526
-35.55117,2.4148893,2.895567
-35.576607,2.4346328,2.933187
-35.621796,2.441488,2.9544349
-35.69268,2.4320576,2.955134
-35.77011,2.4189224,2.951394
-37.168022,1.5810695,1.9068699
-37.199383,1.6057382,1.9543715
-37.21038,1.6426921,2.0173354
-37.207844,1.6874244,2.0899825
-37.20814,1.7298706,2.1596694
-37.212788,1.7691941,2.225378
-37.256905,1.7848191,2.26165
-36.434937,2.3050702,2.9212055
-36.55133,2.2740183,2.89817
-36.65354,2.251952,2.8866363
-36.73237,2.2438214,2.892549
-36.816658,2.233067,2.895567
-36.920063,2.2122073,2.8866487
-36.990585,2.2100956,2.900824
-37.0734,2.2016323,2.9076114
-37.19164,2.1745465,2.892377
-37.268913,2.1701283,2.9047432
-9.389605,0.4938109,3.976933
-9.217537,0.38560557,3.825759
-9.249586,0.3310876,3.7087126
-9.529381,0.34399796,3.637433
-9.580605,0.29523587,3.525529
-19.13557,0.621953,1.1684842
-19.235493,0.61870956,1.1367311
-19.375835,0.6358805,1.12954
-19.437565,0.61457086,1.0771561
-19.980286,0.68348885,1.055851
-20.150745,0.7209604,1.0764513
-20.430914,0.81774545,1.1700311
-20.52435,0.8169422,1.1455016
-20.612377,0.81362057,1.1182132
-20.67995,0.7994876,1.0779142
-20.747686,0.78557706,1.0380964
-20.87019,0.802289,1.0364761
-20.891815,0.76302505,0.9656377
-20.891136,0.71071863,0.87849426
-22.816074,1.1194153,1.1168475
-22.87402,1.1073701,1.0849361
-22.88734,1.0652785,1.013761
-22.89874,1.0213218,0.94008684
-22.796217,0.89822245,0.76202774
-22.75169,0.8132467,0.6337943
-22.804325,0.7952156,0.5939274
-28.671553,1.6200492,1.0570226
-28.732172,1.6583471,1.1107025
-28.788069,1.6846571,1.1468873
-28.850002,1.7327404,1.2152185
-28.906612,1.7666066,1.2627659
-28.968159,1.820621,1.3400931
-29.019392,1.8415179,1.3687916
-29.074976,1.8808987,1.4248204
-29.124365,1.8993216,1.4500847
-29.168644,1.8984115,1.4469523
-29.229065,1.9677615,1.5474868
-29.268314,1.9476249,1.5161886
-29.324581,2.0072792,1.6026535
-29.368317,2.0102317,1.605578
-29.413223,2.0199933,1.6186318
-29.457119,2.0254114,1.6253567
-29.50346,2.0465798,1.655417
-29.549849,2.0712283,1.6907053
-29.593374,2.0797994,1.7023354
-29.637293,2.092958,1.7208233
-29.68472,2.1375513,1.7858338
-29.72468,2.1235423,1.7643452
-29.768951,2.1499207,1.8026104
-29.811152,2.1596282,1.8163185
-29.852394,2.1599295,1.8162003
-29.928778,2.6832883,2.5893855
-29.96494,2.6945257,2.605638
-30.002157,2.7344205,2.6643243
-30.03763,2.749209,2.6859598
-30.072903,2.769131,2.715248
-30.107588,2.77738,2.7273397
-30.142097,2.787959,2.742938
-30.17641,2.7947052,2.7529297
-30.210491,2.806021,2.7697382
-30.24431,2.8179834,2.7875633
-30.27817,2.82275,2.7948093
-30.312042,2.8253634,2.7989287
-30.345825,2.8286233,2.8040662
-30.379171,2.8370078,2.8168378
-30.41366,2.829804,2.8066263
-30.446606,2.840598,2.8230767
-30.479322,2.8514743,2.8397055
-30.5122,2.859075,2.8515496
-30.545633,2.8611674,2.8553138
-30.579412,2.8605504,2.8551354
-30.612963,2.8616972,2.8576212
-30.647211,2.8584616,2.8536959
-30.682108,2.8519669,2.8450227
-30.716242,2.8505876,2.8439627
-30.74805,2.8615675,2.8612032
-30.781675,2.86259,2.8638067
-30.815525,2.862585,2.864954
-30.84989,2.8604403,2.8630075
-30.884312,2.8583863,2.861258
-30.917416,2.861985,2.8679018
-30.950453,2.8656676,2.8747282
-30.982677,2.8722112,2.8858252
-31.017885,2.8677332,2.8807516
-31.052073,2.8672333,2.881599
-31.087961,2.8612812,2.8744879
-31.121738,2.862627,2.8781781
-31.163393,2.839714,2.8462672
-31.197962,2.8395975,2.8479462
-31.233889,2.8357055,2.8441424
-31.268932,2.8346705,2.844603
-31.303204,2.8359354,2.848504
-31.33914,2.832883,2.8461351
-31.375376,2.8293788,2.843173
-31.411266,2.827074,2.8420372
-31.44768,2.8237689,2.8395066
-31.484186,2.8205643,2.8371935
-31.520546,2.8180091,2.8359022
-31.556982,2.8155537,2.8348274
-31.592995,2.8142922,2.8355699
-31.62957,2.8120375,2.83493
-31.66753,2.807157,2.8305278
-31.703476,2.8067424,2.8327203
-31.739456,2.8064263,2.835124
-31.776587,2.804035,2.8345742
-31.812086,2.805003,2.8389907
-31.849628,2.8022735,2.8380952
-31.887257,2.799651,2.8374295
-31.921642,2.8030782,2.8456335
-31.959068,2.8012004,2.8461967
-31.99719,2.7983508,2.8454256
-32.035084,2.7961483,2.8456717
-32.072407,2.7951283,2.8477097
-32.10978,2.794213,2.8499746
-32.149902,2.789121,2.846272
-32.188797,2.7862859,2.84592
-32.22778,2.7835646,2.8458138
-32.26615,2.7820222,2.8474908
-32.30926,2.7736773,2.8394413
-32.3482,2.771838,2.8408604
-32.38611,2.771701,2.8448124
-32.423298,2.7727304,2.8505206
-32.46585,2.766472,2.8458362
-32.50392,2.7666705,2.8505144
-32.546352,2.7611911,2.8471327
-32.58734,2.7579436,2.8470435
-32.628033,2.7553432,2.8479729
-32.67005,2.7512968,2.8469248
-32.711777,2.747902,2.8469028
-32.753616,2.7446344,2.847158
-32.795567,2.7414951,2.8476896
-32.836758,2.739521,2.8499775
-32.88066,2.734568,2.8481216
-32.924706,2.7297537,2.8465672
-32.967556,2.726624,2.8475075
-33.010513,2.7236278,2.8487363
-33.054497,2.71974,2.8488045
-33.101387,2.7129214,2.8448358
-33.14706,2.7077878,2.8433623
-33.19004,2.7058573,2.8465157
-33.232628,2.704569,2.850675
-33.278683,2.699865,2.8501334
-33.32881,2.6912663,2.8442364
-33.373215,2.6888893,2.8471942
-33.420727,2.6836357,2.8462334
-33.46738,2.6795425,2.847015
-33.518265,2.6715991,2.8425384
-33.549732,2.6827936,2.8648796
-33.57163,2.703022,2.8998532
-33.621082,2.6969671,2.898313
-33.665394,2.6960301,2.904007
-33.704407,2.7001705,2.9168477
-33.740135,2.7073793,2.934022
-33.762634,2.7264652,2.9676785
-33.820694,2.713767,2.9575276
-33.86569,2.7129943,2.963965
-33.907944,2.7148006,2.974061
-33.95589,2.7118871,2.9777875
-34.00738,2.7062328,2.9778886
-34.05039,2.7079914,2.9882674
-34.098072,2.70604,2.9936924
-34.143505,2.706165,3.0020757
-34.19313,2.703095,3.0062356
-34.244072,2.699243,3.0094714
-34.296947,2.6941442,3.0111637
-34.348774,2.6901784,3.0145397
-34.398907,2.687809,3.0202174
-34.449764,2.6851425,3.0256376
-34.50383,2.680311,3.0282955
-34.56243,2.6724057,3.0269923
-34.618732,2.6665776,3.028648
-34.672035,2.6632714,3.0338407
-34.72994,2.6569223,3.0351386
-34.788033,2.650786,3.0368977
-34.84112,2.648532,3.0439854
-34.9028,2.6405265,3.0436244
-35.1553,2.5007446,2.8695655
-35.222694,2.4909754,2.8676982
-35.29168,2.4805617,2.8652058
-35.354233,2.474916,2.8691878
-35.42236,2.4659162,2.868988
-35.47986,2.4643245,2.8786702
-35.55455,2.4518185,2.8743453
-35.623363,2.4435964,2.875832
-35.669548,2.450204,2.8967237
-35.759575,2.4292693,2.882235
-35.815018,2.4305966,2.8967013
-35.871914,2.4312491,2.9104767
-35.892677,2.4542456,2.9529982
-35.956604,2.4508908,2.961948
-36.082413,2.4107587,2.9243765
-36.17873,2.3891883,2.9108272
-37.221794,1.8119826,2.1958723
-36.328987,2.3727648,2.91848
-36.45439,2.3362377,2.8871808
-36.52887,2.3297446,2.8939595
-36.64141,2.3021662,2.8747244
-36.720207,2.2942731,2.8804016
-36.803726,2.284204,2.883677
-36.885998,2.2753024,2.8887115
-36.97609,2.2626195,2.88941
-37.04973,2.2593203,2.901956
-37.154896,2.2396007,2.8947372
-37.258194,2.2215488,2.889976
-37.36731,2.2011144,2.882752
-9.272778,0.58139443,3.900806
-8.967165,0.43915796,3.724945
-9.177727,0.4310255,3.638813
-9.297218,0.3995154,3.5377321
-9.28149,0.33187747,3.4115572
-9.370945,0.2925272,3.3057632
-9.446808,0.24962354,3.1978502
-9.545015,0.2130754,3.0951529
-19.049166,0.7064488,1.172492
-19.205215,0.72937274,1.172308
-19.29372,0.7205858,1.1346436
-19.381481,0.7117417,1.0972261
-19.482735,0.7098472,1.0685472
-19.580761,0.70677924,1.038815
-19.612942,0.67102027,0.96947384
-19.669067,0.64717174,0.91478825
-20.01566,0.7722151,1.0436931
-20.325027,0.8809233,1.1539316
-20.574886,0.9113977,1.1455507
-20.63913,0.8953707,1.1029825
-20.892925,0.88143945,1.0195408
-20.95121,0.7597523,0.80112076
-20.971008,0.7185793,0.7274866
-21.007526,0.68663883,0.66567945
-22.79103,1.2109172,1.1483107
-22.832378,1.1880834,1.1021533
-22.87004,1.1626751,1.0526476
-22.889385,1.1248486,0.98664236
-22.898094,1.0793872,0.9104099
-22.768398,0.93901205,0.7069402
-22.760685,0.87995577,0.6120281
-22.802208,0.8542397,0.5618558
-28.67899,1.6811354,1.0643883
-28.738874,1.7174335,1.115911
-28.800407,1.7615988,1.1792817
-28.860104,1.8032157,1.238987
-28.917227,1.839525,1.2909079
-28.972113,1.8710606,1.3358297
-29.028877,1.9121187,1.3950672
-29.080046,1.9357285,1.4283891
-29.12998,1.9567325,1.457921
-29.172188,1.9481015,1.4433017
-29.234436,2.0251012,1.556643
-29.266764,1.9747703,1.4799061
-29.330025,2.0664666,1.6154308
-29.373207,2.06773,1.6159368
-29.422907,2.1039436,1.668767
-29.46111,2.0799997,1.6317439
-29.507736,2.103744,1.6661
-29.552975,2.1220815,1.6924567
-29.599478,2.1521747,1.736484
-29.640434,2.145826,1.7260704
-29.687494,2.18836,1.7888808
-29.726192,2.164491,1.7523923
-29.77115,2.197842,1.801621
-29.812986,2.2046874,1.8112521
-29.854315,2.2072036,1.8144732
-29.928623,2.6970987,2.547555
-29.965519,2.717668,2.5780063
-30.003645,2.7749743,2.6635394
-30.03867,2.7796397,2.6703048
-30.07407,2.8043847,2.7072024
-30.108686,2.810897,2.716856
-30.143173,2.8236065,2.7358494
-30.177423,2.8314068,2.74755
-30.211449,2.842071,2.763599
-30.245125,2.8567088,2.785656
-30.278732,2.8653243,2.7987518
-30.312271,2.871805,2.8087077
-30.345917,2.8744853,2.8130307
-30.379051,2.883356,2.8266797
-30.412422,2.8873167,2.833033
-30.445711,2.891362,2.8395705
-30.479567,2.8893921,2.837162
-30.512362,2.8969347,2.8490477
-30.545925,2.8973553,2.8503313
-30.579407,2.8984156,2.8526306
-30.613207,2.897347,2.8518019
-30.64713,2.8958125,2.850337
-30.680326,2.898793,2.8556824
-30.712656,2.9062827,2.8678265
-30.748814,2.8933983,2.8495698
-30.782192,2.8955328,2.8538256
-30.816494,2.893335,2.851666
-30.849094,2.898954,2.8612432
-30.88185,2.9035513,2.8693495
-30.91424,2.9093337,2.8792806
-30.9481,2.9091372,2.880344
-30.981825,2.9095793,2.882419
-31.015713,2.909559,2.8838649
-31.0501,2.9079792,2.8830447
-31.08504,2.9048417,2.8799653
-31.119717,2.9028966,2.8787265
-31.161993,2.8780122,2.8433867
-31.19648,2.877916,2.8450394
-31.230413,2.8795536,2.8493352
-31.26512,2.8790917,2.8505669
-31.300465,2.8770823,2.8495607
-31.335245,2.876807,2.8511968
-31.370913,2.8744428,2.8497934
-31.406874,2.8716311,2.8477921
-31.442463,2.8700058,2.8476195
-31.478111,2.8684776,2.8476572
-31.514292,2.865961,2.8462949
-31.55055,2.8635437,2.8451486
-31.586134,2.862852,2.8466277
-31.62227,2.8611746,2.846714
-31.658993,2.8585162,2.845417
-31.69553,2.8565,2.84514
-31.73351,2.8518898,2.8411012
-31.768255,2.8538492,2.846839
-31.807272,2.847836,2.8408742
-31.841784,2.8505275,2.847827
-31.878942,2.8484848,2.8478656
-31.918293,2.8427997,2.8426118
-31.954403,2.8431106,2.8462644
-31.993366,2.8387163,2.8430657
-32.030212,2.8381674,2.8455987
-32.067757,2.836657,2.8467913
-32.105698,2.8347218,2.847435
-32.144726,2.8313043,2.8459816
-32.182487,2.8301194,2.84788
-32.2224,2.8258703,2.845367
-32.260315,2.824906,2.847744
-32.297207,2.8256307,2.8526664
-32.33485,2.8254075,2.856277
-32.375874,2.8205662,2.8532257
-32.416664,2.8163733,2.8512087
-32.45414,2.8170116,2.8563151
-32.495907,2.8120136,2.8532958
-32.538216,2.8066225,2.8497982
-32.580276,2.8018832,2.84734
-32.618435,2.8024633,2.852693
-32.65826,2.8010812,2.8552804
-32.699406,2.7982666,2.8558793
-32.744022,2.791451,2.8507805
-32.784134,2.7904406,2.8541737
-32.8269,2.786467,2.8533769
-32.868484,2.7841654,2.8550868
-32.91105,2.7809675,2.855599
-32.955967,2.7753513,2.8527293
-32.999233,2.7719154,2.8530984
-33.042618,2.7686157,2.8537617
-33.085194,2.766466,2.8561735
-33.134438,2.7573712,2.8487396
-33.18059,2.7519732,2.846715
-33.225952,2.747732,2.8464537
-33.26999,2.7451425,2.8486567
-33.313644,2.7431927,2.8518758
-33.361855,2.7368875,2.8490014
-33.409245,2.731739,2.8478894
-33.452232,2.7312176,2.8534598
-33.498867,2.7273629,2.8544092
-33.546673,2.7226725,2.8542914
-33.59619,2.7166631,2.8524303
-33.63429,2.7216318,2.8661814
-33.675,2.724259,2.876717
-33.71195,2.7304287,2.8923283
-33.752075,2.7337787,2.904059
-33.792194,2.7372484,2.916049
-33.842243,2.7321181,2.9160933
-33.89636,2.7237775,2.9117851
-33.953518,2.7132225,2.9045348
-33.987675,2.72256,2.9251523
-34.027996,2.7267215,2.938642
-34.060783,2.7372067,2.9610047
-34.105644,2.7377863,2.9697065
-34.168762,2.723811,2.9583917
-34.213867,2.7247279,2.967825
-34.26498,2.7210796,2.9710832
-34.323456,2.7119737,2.9669766
-34.35912,2.720869,2.987753
-34.40628,2.7209995,2.9965973
-34.45905,2.7171035,3.000062
-34.514442,2.7115395,3.0014024
-34.57439,2.7029448,2.998774
-34.62764,2.6996336,3.003508
-34.68356,2.694678,3.006166
-34.736443,2.6922095,3.012354
-34.791374,2.6885617,3.0171022
-34.847095,2.6846583,3.021669
-34.91014,2.6759865,3.0199914
-35.14251,2.5518608,2.8636665
-35.198578,2.5499353,2.8717766
-35.26609,2.5406146,2.8701825
-35.327812,2.5355594,2.8744855
-35.39647,2.5263004,2.8733964
-35.461292,2.5199566,2.8763943
-35.528366,2.5125387,2.8781805
-35.60599,2.4988065,2.871861
-35.67633,2.4901853,2.8725266
-35.74901,2.4805348,2.872077
-35.817028,2.4741979,2.8762078
-35.886658,2.4672613,2.8797822
-35.95437,2.461882,2.8856153
-36.03297,2.4503539,2.8837028
-36.116184,2.4365902,2.8791747
-36.180943,2.4341779,2.8895807
-36.254547,2.4269502,2.8940125
-36.34006,2.4132962,2.8904672
-36.363426,2.4355164,2.9330611
-36.492134,2.3982766,2.8999705
-36.619404,2.3628547,2.8697047
-36.68392,2.3630362,2.8849893
-36.771046,2.3511527,2.885283
-36.85771,2.3400364,2.8868675
-36.94315,2.3300898,2.890245
-37.02733,2.3213027,2.8953915
-37.104847,2.3164818,2.9057865
-37.21412,2.2955506,2.896514
-37.306828,2.28386,2.8990889
-9.270544,0.76971674,3.9661188
-8.994749,0.6382868,3.7966137
-9.329958,0.6606271,3.7324538
-8.783169,0.4572158,3.509469
-8.73591,0.38050532,3.3746042
-8.8588505,0.34808683,3.2721448
-9.129276,0.35544348,3.2005186
-9.196142,0.30914068,3.0894017
-9.32321,0.27933812,2.9915428
-9.527111,0.27118492,2.9116678
-9.620102,0.23295951,2.808772
-17.765518,0.62645626,1.1801414
-17.913101,0.6376841,1.1619482
-17.993431,0.6201091,1.1102595
-18.079727,0.6053803,1.0622392
-18.185844,0.5997908,1.0254574
-18.807493,0.725744,1.090507
-19.10312,0.8117082,1.167511
-19.226957,0.818918,1.1495428
-19.340157,0.82169795,1.126617
-19.417408,0.8077388,1.0834818
-19.475811,0.78483033,1.0295234
-19.577068,0.78295326,1.0018611
-19.631977,0.7585635,0.9464774
-19.666164,0.72379327,0.8782382
-20.387651,0.9867413,1.1613207
-20.493324,0.9914317,1.1446815
-20.588839,0.99136496,1.1223755
-20.672056,0.98526335,1.0927024
-20.748457,0.9758463,1.0590596
-20.837734,0.97356725,1.0348144
-20.883461,0.94807434,0.9809723
-20.897507,0.9051528,0.90471077
-20.92933,0.87160325,0.840549
-20.988735,0.80130816,0.7081537
-21.024403,0.7691064,0.6458411
-21.028667,0.7185924,0.5595541
-22.329771,1.2313612,1.1447959
-22.433905,1.2460213,1.1476269
-22.534153,1.2589431,1.1484771
-22.610523,1.2575729,1.1304932
-22.71155,1.2720857,1.134079
-22.800571,1.2795935,1.1285515
-22.875086,1.2782555,1.1113529
-22.90504,1.248209,1.0555005
-22.892649,1.1899924,0.96144724
-22.830791,1.09797,0.82126427
-22.763437,1.000623,0.6734686
-22.787172,0.9634285,0.6074815
-22.859766,0.95933914,0.58681774
-28.633131,1.7324653,1.0556102
-28.688494,1.7541227,1.0857677
-28.748642,1.7916894,1.1400518
-28.806524,1.8250988,1.1881819
-28.86518,1.8635807,1.2440934
-28.920658,1.8946264,1.2888861
-28.976383,1.9291081,1.3389854
-29.0298,1.9583097,1.3812094
-29.083284,1.9903982,1.4279046
-29.134075,2.0150046,1.4633842
-29.193714,2.0779934,1.5570607
-29.238588,2.084336,1.5650921
-29.27694,2.0623615,1.5303168
-29.324835,2.0831542,1.5603857
-29.3759,2.122148,1.6181216
-29.441845,2.2440002,1.8015337
-29.491425,2.2899082,1.8699718
-29.509989,2.1577878,1.6685853
-29.555511,2.178684,1.6992369
-29.600964,2.202449,1.7343211
-29.644691,2.2175581,1.7563553
-29.688213,2.233883,1.7803121
-29.729626,2.2349455,1.7811866
-29.771456,2.2405105,1.7889628
-29.813004,2.2445362,1.7944741
-29.85485,2.2536166,1.8077283
-29.894941,2.2402666,1.7870045
-29.968292,2.798292,2.6337266
-30.00353,2.8039186,2.641994
-30.038797,2.8140361,2.6571393
-30.07469,2.8588955,2.7250905
-30.109016,2.861496,2.7289424
-30.143284,2.864735,2.7338195
-30.177465,2.869712,2.7413945
-30.211365,2.8835769,2.7625194
-30.24501,2.895878,2.7813263
-30.278566,2.9038653,2.7936392
-30.312065,2.9097373,2.8027964
-30.345505,2.9145956,2.8104706
-30.378923,2.9184391,2.8166595
-30.411789,2.927864,2.8313746
-30.444822,2.9335248,2.8404312
-30.479395,2.9238892,2.8263302
-30.512487,2.928622,2.8340902
-30.545696,2.9317927,2.8395352
-30.578686,2.9361453,2.8468275
-30.611422,2.9416783,2.8559651
-30.643772,2.9489386,2.8677745
-30.67731,2.948606,2.8681254
-30.710966,2.9478126,2.867835
-30.744541,2.947654,2.8685637
-30.777563,2.9503195,2.8736277
-30.811493,2.9486926,2.8722448
-30.846853,2.9411414,2.8619494
-30.880812,2.9402435,2.8617902
-30.913563,2.9443483,2.8692603
-30.946814,2.9463534,2.8736076
-30.980331,2.9473531,2.87649
-31.012444,2.9533439,2.8869762
-31.045406,2.9561474,2.8926973
-31.082518,2.9454331,2.8780465
-31.11276,2.957114,2.897295
-31.158928,2.9199803,2.8428774
-31.194052,2.9177318,2.8412194
-31.229053,2.9161203,2.8405852
-31.263319,2.9167697,2.843423
-31.299217,2.9131794,2.8399282
-31.334587,2.91131,2.8390913
-31.370235,2.9089959,2.8376489
-31.405512,2.9078584,2.8380423
-31.441065,2.9062774,2.837831
-31.47551,2.907485,2.841879
-31.511623,2.9050183,2.8404636
-31.548306,2.9015777,2.8376498
-31.584335,2.899849,2.8374767
-31.620428,2.8982196,2.8375182
-31.657108,2.895619,2.8361697
-31.693068,2.8947244,2.8374472
-31.727978,2.8960638,2.8421383
-31.764565,2.8942978,2.8422408
-31.80122,2.892634,2.8425655
-31.838524,2.8900092,2.8415208
-31.87532,2.8885515,2.8422928
-31.911573,2.8882577,2.8448725
-31.94879,2.8864753,2.8452983
-31.987965,2.881628,2.8412218
-32.026318,2.8784785,2.839755
-32.06249,2.8791282,2.8440242
-32.10067,2.8767219,2.8438106
-32.138935,2.8744254,2.8438358
-32.17763,2.8717148,2.8433208
-32.217117,2.8680708,2.8414965
-32.256012,2.8655887,2.841477
-32.295,2.8632202,2.8417025
-32.331875,2.86409,2.8468056
-32.372116,2.860385,2.8452072
-32.41059,2.859395,2.8477077
-32.447975,2.86007,2.852745
-32.487717,2.85775,2.8534346
-32.52952,2.8529692,2.8505754
-32.572662,2.8467734,2.8457208
-32.613552,2.8437953,2.8456979
-32.654137,2.8414538,2.8466978
-32.69565,2.8382113,2.8464594
-32.738956,2.833054,2.8434992
-32.780285,2.8305805,2.8445706
-32.82128,2.828742,2.8466597
-32.86499,2.8239837,2.844564
-32.906628,2.8218942,2.8464684
-32.950153,2.817913,2.8457003
-32.99336,2.8145723,2.8459644
-33.03622,2.81187,2.8472548
-33.08012,2.8082993,2.8473763
-33.120853,2.8083694,2.8528895
-33.173046,2.7965858,2.8412814
-33.21881,2.7919538,2.8401747
-33.261322,2.7909458,2.8444233
-33.308327,2.7856119,2.8425102
-33.355,2.7809277,2.8416471
-33.400826,2.7773817,2.8425384
-33.446266,2.7744765,2.844461
-33.489777,2.7736785,2.8495216
-33.535946,2.7705734,2.851368
-33.585373,2.764694,2.8493447
-33.633396,2.7604406,2.849774
-33.679432,2.7582867,2.8533254
-33.723957,2.7577326,2.859273
-33.773438,2.752983,2.8593411
-33.819786,2.7512846,2.8638802
-33.86457,2.7511756,2.8707924
-33.90216,2.7574203,2.8868341
-33.940807,2.762819,2.9017572
-33.986217,2.7626326,2.9088583
-34.02997,2.7640133,2.9182863
-34.094566,2.748544,2.9040494
-34.14147,2.7479053,2.9108853
-34.191395,2.745076,2.91476
-34.24381,2.7405484,2.9163818
-34.29638,2.7362046,2.9184027
-34.349102,2.7320452,2.9208226
-34.40076,2.7289963,2.9249358
-34.454994,2.7242825,2.9268684
-34.50261,2.7248175,2.9362502
-34.56208,2.716809,2.933899
-34.6005,2.7245388,2.953518
-34.65207,2.722829,2.960178
-34.701195,2.7231123,2.969727
-34.752308,2.722207,2.9777746
-34.809307,2.7174315,2.9806452
-34.860626,2.7168972,2.9894962
-35.007496,2.6513455,2.909565
-35.134693,2.6007006,2.8505173
-35.194042,2.5967145,2.8554568
-35.25688,2.590738,2.8578691
-35.317898,2.5863163,2.8625803
-35.382458,2.5799303,2.8648205
-35.453346,2.569863,2.8622952
-35.51834,2.563983,2.865631
-35.58215,2.5592148,2.8706636
-35.65029,2.5521011,2.872755
-35.724934,2.5413883,2.8702598
-35.795647,2.5335355,2.871821
-35.875782,2.5204258,2.866632
-35.94701,2.5131495,2.869444
-36.012737,2.5095274,2.8773174
-36.087242,2.5011141,2.8790932
-36.164886,2.491323,2.879312
-36.241344,2.482676,2.8812957
-36.312195,2.4776504,2.8882723
-36.410446,2.4576354,2.8759742
-36.48919,2.4491262,2.878972
-36.574127,2.4376636,2.8784266
-36.670586,2.4204464,2.8707652
-36.750168,2.4129512,2.8759613
-36.83602,2.4025524,2.8777218
-36.913795,2.3969188,2.885882
-37.006268,2.384013,2.885066
-37.085255,2.3786433,2.894156
-37.173676,2.3688488,2.897942
-37.256943,2.362173,2.9059873
-9.125635,0.8555126,3.883195
-8.954161,0.7511058,3.7302299
-8.530888,0.5826454,3.5292883
-8.48967,0.50765157,3.394474
-9.009575,0.57522225,3.367065
-9.110258,0.537385,3.262045
-9.182081,0.49228764,3.1519175
-9.23752,0.44295788,3.038787
-9.25964,0.38471723,2.918686
-9.233534,0.31322265,2.7876844
-9.315855,0.27085662,2.680735
-9.424175,0.23582888,2.5804348
-9.554583,0.20728779,2.486308
-17.241669,0.59523845,1.068284
-17.671124,0.72183657,1.1870384
-17.808887,0.72769976,1.1630473
-17.953056,0.73699474,1.1437516
-18.024162,0.7153845,1.0876355
-18.16719,0.7253623,1.0701632
-18.195904,0.6855707,0.99246407
-18.24892,0.6563721,0.9277854
-18.333263,0.6412513,0.8805928
-18.850996,0.82369256,1.0782313
-19.14824,0.90892005,1.1573672
-19.257488,0.9090462,1.1315703
-19.388983,0.9201064,1.1198769
-19.438194,0.8928919,1.0605268
-19.532152,0.8870299,1.0282645
-19.578007,0.8582821,0.96730804
-19.626644,0.8307948,0.9080534
-19.874813,0.90162086,0.97448635
-20.21318,1.0192657,1.1019564
-20.382847,1.0548737,1.1253052
-20.50244,1.0662017,1.1179652
-20.597946,1.0658376,1.0959077
-20.660572,1.0488565,1.0525723
-20.752214,1.047157,1.029336
-20.88524,1.0677421,1.0355496
-20.960724,1.0584245,1.0029969
-21.268322,1.1746175,1.1358943
-21.41615,1.2064803,1.15867
-21.503433,1.2060494,1.1392126
-21.60529,1.2141144,1.1313143
-21.72438,1.2324278,1.1374044
-21.841536,1.250406,1.1434531
-21.940166,1.2585125,1.1366739
-22.035648,1.2653399,1.1284952
-22.127308,1.2704475,1.1183014
-22.248531,1.2935255,1.1326647
-22.349434,1.3053052,1.1321354
-22.44648,1.3153658,1.1295934
-22.535545,1.3211286,1.1215062
-22.639606,1.3366156,1.1269565
-22.741173,1.3512301,1.1315446
-22.82115,1.3529055,1.118711
-22.874504,1.3380201,1.0833502
-22.901077,1.3059373,1.0244226
-22.9014,1.2564487,0.9414787
-22.856712,1.1766717,0.8165307
-22.758038,1.0596714,0.6396923
-22.832338,1.056603,0.62069035
-22.832273,1.0033631,0.5320134
-22.730923,0.87984586,0.34516048
-28.636824,1.7885509,1.0544267
-28.694307,1.816426,1.0946264
-28.756247,1.8595359,1.1582532
-28.810675,1.8829279,1.1918192
-28.868645,1.9194119,1.2455387
-28.92693,1.9598494,1.3054299
-28.980171,1.9864411,1.3442178
-29.035389,2.0223706,1.3974218
-29.086855,2.0476618,1.4344201
-29.136053,2.0666156,1.4617939
-29.188974,2.1024833,1.5152063
-29.234404,2.110356,1.5257583
-29.1008,1.3263083,0.3207941
-29.325258,2.129179,1.5518198
-29.381313,2.1927392,1.6481228
-29.442194,2.2890332,1.7948174
-29.481178,2.2764091,1.7743063
-29.513517,2.223146,1.6914101
-29.556416,2.2291706,1.6996703
-29.599566,2.2380264,1.7123547
-29.64643,2.2758172,1.7695928
-29.688704,2.2838228,1.7811189
-29.729797,2.2832344,1.7795
-29.771065,2.2843845,1.780621
-29.813639,2.3003397,1.8045821
-29.854803,2.3033395,1.8086843
-29.895592,2.3020892,1.8063169
-29.965963,2.8113468,2.5894022
-30.001463,2.818001,2.599371
-30.036945,2.8285615,2.615407
-30.072405,2.847932,2.6450572
-30.107864,2.9000897,2.725214
-30.142048,2.9011152,2.7267509
-30.17614,2.9098575,2.7402172
-30.210035,2.918687,2.7538733
-30.243683,2.9292374,2.7702308
-30.277351,2.9338806,2.777553
-30.310919,2.9386094,2.7850614
-30.344416,2.9428787,2.7919173
-30.377575,2.9505012,2.8039842
-30.410755,2.9560292,2.8128834
-30.444353,2.9561977,2.8135924
-30.478367,2.9526443,2.8086314
-30.511614,2.9562514,2.8147364
-30.543783,2.9675565,2.8327312
-30.57602,2.9767666,2.8475542
-30.60948,2.976817,2.8483505
-30.642948,2.976954,2.8493338
-30.6769,2.9744625,2.8463326
-30.710613,2.9736888,2.8460274
-30.743164,2.9789696,2.8550754
-30.776407,2.9805367,2.8584733
-30.811186,2.9751446,2.851241
-30.844334,2.9774282,2.8558493
-30.877707,2.9787138,2.8589807
-30.910925,2.9806266,2.8631277
-30.944548,2.981003,2.864973
-30.978027,2.9820075,2.8678365
-31.01306,2.977701,2.862615
-31.046259,2.9799614,2.8675165
-31.0806,2.9785352,2.8668246
-31.109423,2.9944313,2.892715
-31.153387,2.96412,2.847919
-31.187258,2.9651287,2.8511357
-31.22151,2.9651515,2.8529005
-31.256176,2.9641922,2.853221
-31.291903,2.9606452,2.8496466
-31.3271,2.958803,2.8487396
-31.362144,2.9575906,2.8488555
-31.398346,2.9538012,2.8450994
-31.432835,2.954383,2.8480754
-31.468035,2.9534564,2.8488116
-31.504475,2.9499624,2.8456945
-31.540037,2.9486976,2.8460398
-31.576155,2.9464679,2.8449783
-31.612091,2.9448686,2.8449407
-31.648878,2.9417777,2.8426995
-31.685225,2.9398499,2.8422923
-31.721367,2.9385512,2.842907
-31.756165,2.9399927,2.8477468
-31.79239,2.9388907,2.8487883
-31.828962,2.9373631,2.849249
-31.86679,2.9338346,2.846744
-31.906853,2.9267404,2.8389096
-31.945248,2.9229112,2.8360958
-31.982813,2.9207644,2.8358998
-32.019817,2.919769,2.8375154
-32.055573,2.9209652,2.8425102
-32.093,2.919655,2.8437858
-32.132175,2.9158509,2.8413687
-32.169067,2.9157963,2.8446813
-32.207745,2.9132543,2.844315
-32.24758,2.909273,2.841858
-32.284294,2.910059,2.8466482
-32.32213,2.909401,2.8493385
-32.36411,2.9031916,2.8437643
-32.401733,2.9032753,2.8477192
-32.440163,2.9024413,2.8503704
-32.47904,2.901207,2.8524966
-32.51956,2.8980443,2.8518147
-32.560196,2.8950043,2.851397
-32.60094,2.8920877,2.8512478
-32.641792,2.889294,2.851365
-32.68358,2.8856125,2.850243
-32.725494,2.882059,2.8493996
-32.76411,2.8826694,2.8548393
-32.806225,2.8793676,2.8545403
-32.848896,2.8756933,2.8537784
-32.895687,2.8676455,2.8466191
-32.93731,2.865749,2.8486824
-32.979023,2.8639805,2.8510218
-33.021282,2.8618426,2.8529043
-33.064106,2.8593402,2.8543386
-33.108917,2.8549912,2.8531427
-33.15387,2.8507867,2.8522592
-33.19945,2.8462348,2.850966
-33.245667,2.8413403,2.8492718
-33.291058,2.837577,2.8493447
-33.336582,2.833961,2.8497367
-33.381737,2.8309803,2.8511643
-33.431072,2.8242557,2.847217
-33.478043,2.820123,2.847176
-33.526196,2.8151784,2.8460598
-33.57189,2.8128061,2.8488064
-33.622982,2.8057737,2.8448787
-33.667343,2.8051515,2.85039
-33.71447,2.80228,2.8527398
-33.762806,2.7986107,2.8540459
-33.81512,2.791776,2.8508897
-33.86709,2.7855985,2.8488154
-33.917572,2.7810187,2.8491764
-33.967083,2.7775543,2.8512697
-34.017303,2.7737877,2.8530512
-34.06766,2.7701936,2.855206
-34.11527,2.769105,2.8610778
-34.162376,2.768639,2.8679576
-34.21839,2.7613742,2.8652415
-34.271652,2.7566226,2.8662581
-34.326878,2.750675,2.8657122
-34.382896,2.7444668,2.864944
-34.436073,2.7407472,2.8678565
-34.488167,2.7381272,2.8724656
-34.543472,2.733416,2.8742576
-34.60081,2.7275448,2.8745618
-34.663353,2.718272,2.8702369
-34.71795,2.7150788,2.8746328
-34.76378,2.718351,2.8882442
-34.81473,2.7182014,2.897182
-34.863182,2.7200053,2.9089832
-34.920113,2.7162142,2.9131117
-35.03219,2.675561,2.8661323
-35.097054,2.66749,2.8647552
-35.164806,2.657914,2.861487
-35.23083,2.6499078,2.8605933
-35.29171,2.6456301,2.8650398
-35.35885,2.6376834,2.8646178
-35.422134,2.6325805,2.8683043
-35.49314,2.6229947,2.866044
-35.559593,2.6166785,2.8684716
-35.62486,2.6114686,2.8726115
-35.699394,2.6009963,2.8698015
-35.762268,2.5979955,2.8773594
-35.82952,2.592709,2.88202
-35.90621,2.5822413,2.8799052
-35.983192,2.572081,2.8784566
-36.05974,2.5626435,2.8782334
-36.140175,2.5514476,2.8759127
-36.210716,2.5463326,2.8819742
-36.291695,2.5357647,2.8810143
-36.376648,2.5234897,2.8780684
-36.456005,2.5148063,2.880166
-36.534866,2.5068467,2.8834906
-36.615467,2.4984026,2.8864484
-36.70234,2.487087,2.8859277
-36.786488,2.4777222,2.8882618
-36.867863,2.470285,2.8934045
-36.956345,2.4596345,2.8946667
-37.050495,2.446608,2.8931794
-37.127228,2.442944,2.9041018
-37.238247,2.4225218,2.8937817
-37.364555,2.3952513,2.8751326
-8.995625,0.9430375,3.8128552
-9.217918,0.9341054,3.7285948
-8.970728,0.81189704,3.560473
-8.8856945,0.7278657,3.4197845
-9.06308,0.7084553,3.328947
-9.139896,0.66440153,3.219595
-9.203112,0.6170089,3.107945
-9.242369,0.56347275,2.991541
-9.271051,0.507071,2.8728752
-9.2306595,0.43222022,2.738586
-9.298841,0.3858323,2.6284556
-9.282078,0.31650352,2.4985628
-9.295443,0.25495696,2.375331
-9.3762455,0.2118051,2.2685938
-17.325739,0.71293426,1.0765948
-17.720886,0.8232181,1.1796613
-17.884384,0.8394766,1.1694546
-17.959352,0.8192489,1.115056
-18.042017,0.8024602,1.0651498
-18.182568,0.8108363,1.0467463
-18.195572,0.7644234,0.9606075
-18.256744,0.7387979,0.9004364
-18.69194,0.87930346,1.0492649
-19.053768,0.9902787,1.1627254
-19.181677,0.9980285,1.1469173
-19.294838,0.9996934,1.1238437
-19.392628,0.9947884,1.0927854
-19.44419,0.9686935,1.0348897
-19.570644,0.97788763,1.0225425
-19.587097,0.9353492,0.94381857
-19.641165,0.91053534,0.88804054
-20.09739,1.0811892,1.0867534
-20.341616,1.1516802,1.15658
-20.483665,1.1733825,1.163445
-20.587406,1.1767788,1.1467619
-20.730812,1.2007592,1.1575794
-20.84615,1.2113168,1.1511521
-20.957355,1.2203853,1.1431441
-21.05542,1.2232084,1.1271944
-21.18709,1.2442219,1.1358619
-21.285343,1.2482915,1.1222854
-21.407162,1.2655308,1.1267219
-21.537376,1.2880912,1.1387429
-21.653778,1.3039374,1.1421356
-21.742695,1.3052647,1.1262364
-21.844542,1.3142555,1.1210246
-21.960533,1.3318284,1.127831
-22.033657,1.325634,1.1025429
-22.098217,1.3147421,1.0710211
-22.143002,1.2924535,1.0240126
-22.20929,1.2827635,0.9944382
-22.283371,1.2778904,0.97168493
-22.368584,1.279994,0.9587865
-22.446014,1.2777715,0.9401331
-22.66518,1.3630672,1.0433736
-22.836632,1.4208682,1.1090746
-22.881037,1.4004266,1.0660701
-22.883217,1.3530796,0.9854841
-22.8923,1.3094981,0.91009855
-22.843546,1.2278056,0.7810683
-22.761309,1.1227427,0.61882687
-22.817846,1.1077402,0.58333397
-22.711418,0.98357415,0.39350843
-22.71246,0.9298463,0.30304193
-22.7544,0.9033103,0.25110722
-28.642647,1.8496993,1.066762
-28.702383,1.8842249,1.1179018
-28.761316,1.9189374,1.169447
-28.817673,1.9484999,1.2131195
-28.874704,1.9825053,1.2637911
-28.930122,2.0140157,1.310699
-28.985443,2.0478334,1.3612928
-29.03463,2.0630918,1.3831754
-29.090939,2.1058002,1.4477744
-29.143028,2.1363595,1.493608
-29.18659,2.1359718,1.4914498
-29.236837,2.1635993,1.5329041
-29.28178,2.1709719,1.5429592
-29.327705,2.1838367,1.5616298
-29.388815,2.2720773,1.6976104
-29.439869,2.3191125,1.7696133
-29.479204,2.3081934,1.7515392
-29.51174,2.2564628,1.6700134
-29.555195,2.2656462,1.6833363
-29.598833,2.2776392,1.7011037
-29.649178,2.3404078,1.7979975
-29.688059,2.3240783,1.7718158
-29.729164,2.3240223,1.7710361
-29.770657,2.3278484,1.7763667
-29.812553,2.337178,1.7903352
-29.854187,2.3460777,1.8037019
-29.894476,2.3388922,1.7920766
-29.964502,2.8328164,2.5612493
-30.000881,2.8556035,2.5964894
-30.035955,2.856885,2.5982804
-30.07213,2.9030814,2.6701126
-30.106695,2.908867,2.6790328
-30.141191,2.9379647,2.7243347
-30.17524,2.9428468,2.7319536
-30.209175,2.9478161,2.7397642
-30.24305,2.9512522,2.7452378
-30.27646,2.9639542,2.765202
-30.309963,2.9697218,2.7744126
-30.34243,2.98961,2.8056755
-30.37605,2.9885285,2.8043184
-30.409136,2.9940093,2.8132362
-30.440983,3.0109031,2.839983
-30.474768,3.006839,2.834137
-30.508583,3.0034032,2.8293223
-30.541553,3.0070627,2.835609
-30.57507,3.006495,2.8353667
-30.608856,3.0043983,2.832798
-30.64207,3.006159,2.836285
-30.676785,2.9993937,2.826558
-30.708712,3.008321,2.8413024
-30.741634,3.0114129,2.8470168
-30.775747,3.008677,2.843721
-30.810055,3.005494,2.8397841
-30.842182,3.0120637,2.8510637
-30.874832,3.016031,2.858348
-30.909752,3.0109675,2.8516521
-30.943792,3.0097482,2.8509846
-30.977274,3.01076,2.853838
-31.011684,3.0086496,2.8518963
-31.044054,3.013579,2.8609376
-31.07734,3.015385,2.8651838
-31.10973,3.0199454,2.873753
-31.151207,2.9973938,2.8403392
-31.184479,3.0000095,2.8460102
-31.22001,2.9963236,2.8419719
-31.255053,2.9943306,2.8406153
-31.288122,2.997744,2.8476872
-31.323025,2.9964657,2.8475513
-31.359488,2.9915712,2.8418794
-31.395197,2.9888968,2.839704
-31.428488,2.9921393,2.8467345
-31.464529,2.9891267,2.8441553
-31.498272,2.9914916,2.8499427
-31.535173,2.9870913,2.845343
-31.56994,2.9875348,2.8482804
-31.606781,2.9838638,2.8449326
-31.643204,2.9813476,2.84343
-31.678637,2.981031,2.8453794
-31.714655,2.9797635,2.8459253
-31.751572,2.9770265,2.8442736
-31.787722,2.975961,2.8452573
-31.826845,2.9697785,2.8384414
-31.863459,2.968401,2.8390775
-31.898314,2.970246,2.8447256
-31.935637,2.9680305,2.8442035
-31.973356,2.9654026,2.8431172
-32.01085,2.9634001,2.843059
-32.04809,2.9620225,2.8440247
-32.086067,2.9597182,2.8436403
-32.12413,2.9575238,2.8434935
-32.16262,2.9549253,2.842801
-32.202255,2.9508984,2.8399992
-32.239887,2.950065,2.8421445
-32.277218,2.9498508,2.8453045
-32.31459,2.949743,2.8486938
-32.35201,2.9497416,2.852314
-32.39173,2.9467943,2.8515244
-32.432327,2.94295,2.8494487
-32.47344,2.9387226,2.8468704
-32.515083,2.9341147,2.8437977
-32.55487,2.9321594,2.8448281
-32.59799,2.926293,2.8400154
-32.638405,2.9240816,2.8408203
-32.678913,2.9219916,2.8418894
-32.72416,2.914519,2.83491
-32.762775,2.9151835,2.840304
-32.802723,2.9144661,2.84369
-32.843613,2.9128735,2.8458362
-32.883694,2.9123974,2.8497453
-32.93687,2.897688,2.8323479
-32.977688,2.8969927,2.8361096
-33.02041,2.8944507,2.8371863
-33.06277,2.8925333,2.8392882
-33.107582,2.888297,2.8380089
-33.151108,2.8856719,2.8392348
-33.196194,2.881721,2.838575
-33.24093,2.8784027,2.8389568
-33.288254,2.8728018,2.8360372
-33.33526,2.8678424,2.8341775
-33.37891,2.8664172,2.837676
-33.42417,2.8636858,2.8393302
-33.465443,2.8649418,2.8469949
-33.519707,2.8543544,2.837216
-33.563263,2.8539865,2.8426766
-33.605827,2.8547082,2.8498406
-33.65698,2.847967,2.846095
-33.70187,2.8470821,2.8510952
-33.750107,2.8435109,2.8522453
-33.806713,2.8330436,2.8433857
-33.852528,2.8321633,2.8487248
-33.90066,2.8295615,2.8516474
-33.95512,2.8219922,2.847425
-34.001266,2.8215885,2.8537974
-34.056675,2.8139231,2.8496938
-34.112892,2.8059945,2.8453503
-34.15766,2.807475,2.8548203
-34.210125,2.803135,2.8559499
-34.270466,2.793033,2.8488698
-34.3257,2.787257,2.8482065
-34.385353,2.7784986,2.8433814
-34.43127,2.780373,2.854033
-34.48764,2.7747269,2.85398
-34.544197,2.7692847,2.8543692
-34.598454,2.7658384,2.8577676
-34.658497,2.7585678,2.8558373
-34.720665,2.7501853,2.8524861
-34.781166,2.7433646,2.851534
-34.829063,2.7455978,2.8636227
-34.906696,2.7277598,2.8473473
-34.963966,2.724255,2.8516064
-35.02531,2.7183387,2.852614
-35.07894,2.7178683,2.8614764
-35.136642,2.7149885,2.8670912
-35.20852,2.7032602,2.8604388
-35.279373,2.6926737,2.8556027
-35.353233,2.680654,2.848977
-35.41583,2.6761713,2.8530936
-35.468987,2.6778648,2.8659878
-35.548435,2.6636846,2.856985
-35.610184,2.660768,2.8638377
-35.690956,2.6467679,2.8555532
-35.7524,2.6447787,2.8640876
-35.826702,2.63554,2.862834
-35.894867,2.6303198,2.8673253
-35.965374,2.6241262,2.8706975
-36.04185,2.61493,2.870193
-36.11715,2.606855,2.8714623
-36.19561,2.5974557,2.8711767
-36.269215,2.5912025,2.8754067
-36.344505,2.584436,2.8791828
-36.431133,2.5719607,2.8755226
-36.509903,2.564229,2.8785233
-36.592655,2.5548315,2.8795595
-36.66665,2.5505092,2.8876467
-36.76428,2.5343018,2.880177
-36.85699,2.5212455,2.8772335
-36.9447,2.5113013,2.8787313
-37.02808,2.5040414,2.8840733
-37.10165,2.502128,2.8967237
-37.228905,2.4740784,2.8754373
