x,y,z
-20.428833,1.9377048,2.816749
-20.447468,1.9053636,2.7541332
-20.45485,1.8680577,2.685759
-20.429379,1.8164158,2.6006012
-20.421415,1.7717319,2.523378
-19.511633,1.3338497,1.982542
-19.521954,1.292393,1.9065981
-19.55186,1.2592878,1.840539
-20.32966,1.5615005,2.1755114
-20.303581,1.3719177,1.8495364
-20.302637,1.325877,1.769372
-20.457111,1.2612238,1.6191845
-20.475067,1.2232404,1.5489831
-20.504612,1.1906707,1.4855156
-20.486288,1.1339421,1.391829
-20.496895,1.0911238,1.3154349
-20.468025,1.0277419,1.2130423
-20.474098,0.98152614,1.1321406
-31.079197,1.4972358,0.6721301
-31.066195,1.7841272,1.108284
-31.06235,2.0035756,1.4421773
-31.070547,2.1529458,1.6698823
-31.068453,2.3300884,1.9395733
-31.106876,2.338502,1.9538836
-31.144686,2.3486464,1.9708734
-31.186958,2.342535,1.9633427
-31.211115,2.3980646,2.0490685
-31.109287,2.9679863,2.9137197
-31.14384,2.9656053,2.9117737
-31.167704,2.9947932,2.9575434
-31.196688,3.0077527,2.97885
-31.225605,3.0202348,2.9994793
-31.234333,3.0858178,3.1002092
-31.28707,3.0340388,3.024047
-31.30458,3.07373,3.0857973
-31.30908,3.1431022,3.1922412
-31.318893,3.1962452,3.2742214
-31.375326,3.1389892,3.1901155
-31.39983,3.1566978,3.2188592
-31.427395,3.166932,3.2364025
-31.454758,3.177229,3.2540803
-31.48269,3.1859798,3.2694798
-31.50993,3.195866,3.2866259
-31.540197,3.1993997,3.2942872
-31.571234,3.2014096,3.299717
-31.60281,3.2024355,3.303728
-31.632963,3.206208,3.3119078
-31.656939,3.2212214,3.3369536
-31.697262,3.206552,3.3176575
-31.72884,3.2079163,3.322403
-31.760107,3.2098947,3.328123
-31.791676,3.2114286,3.3332353
-31.823238,3.2130473,3.338533
-31.8561,3.2126434,3.3408742
-31.889,3.212332,3.3434167
-31.920925,3.2136889,3.3485022
-31.953539,3.2140834,3.3522182
-31.985828,3.2150927,3.3569083
-32.019897,3.213579,3.3579154
-32.054394,3.211642,3.3583622
-32.088234,3.210847,3.360571
-32.12027,3.2127478,3.3668375
-32.153427,3.2131805,3.3709927
-32.18776,3.2121544,3.3730564
-32.22215,3.2112277,3.3753376
-32.25699,3.2098863,3.3770747
-32.29349,3.2065878,3.376001
-32.328075,3.2059698,3.3789506
-32.363533,3.2044282,3.3806114
-32.39948,3.20248,3.3817506
-32.436768,3.1991096,3.3808765
-32.470325,3.200439,3.3869762
-32.506058,3.1993237,3.3895621
-32.541412,3.1988227,3.3931217
-32.571503,3.2045004,3.4057894
-32.601513,3.2102563,3.4186273
-32.632805,3.2145789,3.4294295
-32.664963,3.2179813,3.438951
-32.699413,3.2189665,3.4450188
-32.73483,3.2190526,3.449853
-32.769333,3.220244,3.456368
-32.803375,3.222035,3.4638257
-32.84666,3.2144914,3.4578362
-32.88622,3.2110581,3.457899
-32.915966,3.2176335,3.4725127
-32.953144,3.2168956,3.4766316
-32.987846,3.2187312,3.4845433
-33.02307,3.2201796,3.4919739
-33.036064,3.2427528,3.5298357
-33.092003,3.2248583,3.509624
-33.1167,3.2363448,3.5316696
-33.149197,3.240613,3.5434256
-33.192413,3.2353063,3.5415707
-33.229816,3.2354498,3.5476017
-33.26233,3.2400374,3.56005
-33.2948,3.2447183,3.5727015
-33.320522,3.2552247,3.5936937
-33.339317,3.2715063,3.6229181
-33.356117,3.289235,3.6542087
-33.382915,3.2984571,3.6734886
-33.438473,3.2841496,3.6596255
-33.451824,3.304397,3.6945882
-33.46716,3.3227644,3.7269058
-33.499943,3.327118,3.739562
-33.53747,3.3278422,3.7472095
-33.575035,3.3286896,3.7551227
-33.61081,3.3310475,3.7652402
-34.292824,2.846499,3.0971293
-34.305874,2.8714347,3.1401138
-34.314125,2.8995607,3.187512
-34.329372,2.922169,3.2272377
-34.349266,2.9411361,3.2619271
-34.35676,2.968735,3.3085403
-34.314457,3.0310607,3.4029236
-34.32317,3.0566478,3.4466047
-34.328823,3.0839944,3.4926724
-34.3281,3.1153126,3.5441318
-34.330086,3.1443262,3.592383
-34.347458,3.1626391,3.6260114
-34.35251,3.1889133,3.6704674
-34.36918,3.2072248,3.704094
-34.37607,3.2316816,3.746038
-34.390015,3.2513027,3.7814317
-34.410477,3.266579,3.8109784
-34.43,3.282323,3.8411818
-34.474247,3.2825818,3.8506804
-34.548565,3.2645454,3.8358808
-34.592396,3.2656264,3.8468041
-34.62142,3.2758007,3.8699353
-34.665947,3.2767324,3.880892
-34.709084,3.278668,3.89331
-34.792522,3.2572336,3.8750746
-34.83014,3.2629251,3.8927767
-34.84661,3.2808151,3.9265614
-34.91327,3.270123,3.923039
-34.98535,3.2568173,3.9163523
-35.03408,3.2569568,3.9273782
-35.078403,3.2597313,3.9419718
-35.101795,3.2740576,3.9716048
-35.140007,3.2803378,3.9909403
-35.179665,3.285941,4.0095224
-35.280037,3.2595956,3.9874325
-35.335938,3.2572477,3.9962828
-35.36509,3.2690196,4.023236
-35.421833,3.2666485,4.0323925
-35.474808,3.2664688,4.0445137
-35.5185,3.2711887,4.0629683
-35.597374,3.2585545,4.0598817
-35.652176,3.2582614,4.072473
-35.71494,3.2543335,4.080756
-35.786564,3.2464476,4.0843906
-35.817757,3.2582982,4.1125875
-35.865593,3.2622836,4.131238
-35.933514,3.2570267,4.138785
-36.007244,3.2494297,4.1437607
-36.090908,3.2376738,4.1440077
-36.16996,3.2285075,4.147725
-36.260693,3.2145224,4.1459994
-36.347633,3.2027712,4.1473293
-36.43732,3.190309,4.148191
-36.543854,3.170998,4.141351
-36.64913,3.1528897,4.136405
-36.722248,3.1492193,4.1488214
-36.83738,3.1280673,4.1412086
-36.94958,3.108857,4.1363745
-37.05037,3.095079,4.138315
-37.158237,3.078959,4.1380367
-37.243484,3.072701,4.1494904
-37.386086,3.0437026,4.135587
-37.48728,3.0321672,4.142033
-37.607643,3.0135937,4.141083
-37.75685,2.9844077,4.1289177
-37.866806,2.9713843,4.135354
-38.016117,2.9438345,4.126379
-38.15376,2.9216285,4.123987
-38.269104,2.9086294,4.132263
-38.44699,2.8729262,4.116692
-38.602657,2.846519,4.1119814
-38.70322,2.8411717,4.130415
-38.89599,2.8029542,4.114753
-39.092106,2.7647061,4.1000977
-39.23369,2.7469797,4.1077757
-39.404194,2.7198794,4.1065674
-39.564438,2.6973228,4.110921
-39.72689,2.6749034,4.1162868
-39.919476,2.6431322,4.113173
-40.154167,2.5982852,4.098152
-40.333458,2.5732987,4.1040287
-40.520447,2.5467672,4.109415
-40.732475,2.5131004,4.108982
-40.987972,2.466591,4.0975056
-41.22958,2.4260075,4.093158
-41.496624,2.3787596,4.084011
-41.797527,2.32245,4.068086
-42.04492,2.2844625,4.070797
-42.25132,2.2604182,4.0876517
-42.47014,2.2337122,4.103386
-42.86948,2.1540518,4.073648
-43.264423,2.0780292,4.049654
-43.586826,2.0255804,4.048534
-43.93896,1.9663076,4.0437
-44.314423,1.9023213,4.037224
-44.678593,1.8436546,4.037635
-45.13197,1.761971,4.021742
-45.548786,1.6930063,4.019128
-46.056213,1.60149,4.0015764
-46.52231,1.5240593,3.9984794
-47.04532,1.4339454,3.9889722
-47.759346,1.2960744,3.94741
-14.177221,1.0355606,2.7114305
-14.532035,1.0930352,2.7180448
-14.981003,1.1822467,2.7577953
-15.287041,1.2285647,2.7577143
-15.668703,1.3009923,2.785429
-15.896626,1.3256137,2.7671208
-16.892601,1.6042793,3.0083942
-17.179745,1.6537361,3.0202632
-17.455189,1.700943,3.031372
-17.662443,1.7266037,3.021491
-17.883514,1.7581525,3.0188875
-18.025433,1.7635074,2.9896784
-18.04972,1.7283418,2.917892
-18.061224,1.688498,2.8411093
-18.172398,1.6840544,2.8026595
-18.344406,1.7020721,2.7892427
-18.679504,1.7805653,2.8431425
-16.745605,1.0243676,1.9750414
-17.11916,1.112977,2.0374985
-17.1446,1.0729928,1.9576654
-19.51218,1.9233558,2.882433
-19.59402,1.9136655,2.8432431
-19.752632,1.934058,2.838747
-19.927958,1.9619021,2.8435483
-20.083012,1.9827633,2.8410974
-20.223957,1.9988728,2.8338332
-20.427374,2.0410037,2.857605
-20.436974,2.0053601,2.790957
-20.434483,1.9644623,2.7180638
-20.387295,1.9045799,2.6225305
-20.433994,1.8834093,2.572855
-20.445982,1.8475175,2.5056696
-19.54285,1.4188542,1.9652452
-20.031776,1.585073,2.1404033
-20.323128,1.6686583,2.217351
-20.333965,1.6304097,2.146769
-20.360115,1.5986745,2.084137
-20.363173,1.5563381,2.0084667
-20.351536,1.5069065,1.9239292
-20.327024,1.4510052,1.8311977
-20.337183,1.4105306,1.7575054
-20.483063,1.4333575,1.7630901
-18.056263,0.23811531,0.23669434
-20.499134,1.349787,1.6127663
-20.48692,1.2976084,1.524334
-20.4858,1.2502341,1.4418564
-20.489384,1.2046642,1.3615756
-20.490623,1.1574473,1.279098
-20.494213,1.1108978,1.1973796
-20.46319,1.0462589,1.0922198
-20.427183,0.97819567,0.9823804
-20.427437,0.9279945,0.89548874
-20.380796,0.85266304,0.77572155
-31.084808,1.5128663,0.6048808
-31.068615,1.8122792,1.0660825
-31.065432,2.026991,1.3971481
-31.075579,2.1674132,1.6141357
-31.06799,2.365104,1.918932
-31.100388,2.3961618,1.9680905
-31.140213,2.3981152,1.9726682
-31.1719,2.428238,2.020485
-31.203909,2.4551845,2.0634742
-31.179821,2.986631,2.8840346
-31.197523,3.0322847,2.9555788
-31.220167,3.0618467,3.002523
-31.230764,3.1214595,3.0954127
-31.259567,3.1312392,3.1121569
-31.285585,3.1475046,3.1388483
-31.31215,3.161686,3.1623921
-31.35412,3.1390882,3.1298618
-31.379807,3.155021,3.1561737
-31.405643,3.169939,3.1809716
-31.430437,3.186506,3.2083163
-31.459408,3.1935558,3.2212
-31.488249,3.200675,3.2342353
-31.517218,3.2073333,3.246614
-31.54714,3.2119446,3.2559261
-31.576988,3.216632,3.2654018
-31.609,3.2171702,3.2686272
-31.640455,3.2188497,3.273641
-31.671024,3.222192,3.281231
-31.70393,3.2214086,3.282619
-31.736881,3.220716,3.2842045
-31.769567,3.2206395,3.2867827
-31.803545,3.21856,3.2863903
-31.836315,3.2186675,3.2893686
-31.869442,3.218345,3.2917547
-31.90327,3.2170722,3.29277
-31.936144,3.2174563,3.2963476
-31.967667,3.220009,3.3032537
-32.000916,3.2200549,3.3064394
-32.03526,3.2186413,3.3074923
-32.06967,3.2173285,3.3087611
-32.10451,3.215599,3.3094707
-32.13868,3.2150002,3.3119464
-32.17328,3.2139864,3.3138647
-32.206783,3.2146115,3.318307
-32.2407,3.2148197,3.3221884
-32.277016,3.2120616,3.3216968
-32.31303,3.2099226,3.322204
-32.349937,3.2068748,3.3214278
-32.382847,3.209014,3.3284674
-32.416576,3.2102327,3.3341975
-32.450325,3.211548,3.340135
-32.488358,3.2079172,3.3387804
-32.521748,3.2099392,3.345909
-32.555576,3.2115548,3.3524985
-32.59074,3.2117643,3.3570685
-32.626396,3.2115781,3.3611255
-32.656185,3.2179801,3.3750057
-32.69278,3.2169974,3.3780208
-32.731773,3.2136457,3.377614
-32.75911,3.2227936,3.3957334
-32.7982,3.2196603,3.3958006
-32.851845,3.2018754,3.3743901
-32.87233,3.218192,3.4032507
-32.909245,3.2178748,3.4077082
-32.945717,3.2181604,3.4131293
-32.98223,3.2185576,3.4187932
-33.016243,3.2214978,3.428255
-33.055374,3.2196884,3.4308496
-33.10029,3.2126846,3.4259553
-33.135986,3.2145174,3.4340448
-33.16694,3.220786,3.4486651
-33.203144,3.2223425,3.4565
-33.232365,3.2302265,3.4735937
-33.268536,3.231987,3.4818702
-33.299236,3.2386122,3.4972634
-33.3304,3.244847,3.5121536
-33.357014,3.2549472,3.5326805
-33.40546,3.2467382,3.526888
-33.43536,3.2542014,3.543756
-33.465153,3.261745,3.5607982
-33.49253,3.2712345,3.5806866
-33.533184,3.2700925,3.585414
-33.569798,3.2723317,3.5950708
-33.59277,3.285316,3.6201358
-33.57843,3.3269029,3.6859488
-33.61635,3.327945,3.6940398
-34.312668,2.8336225,2.9995923
-34.324577,2.859865,3.044826
-34.33601,2.886083,3.0900087
-34.348827,2.9109173,3.1332197
-34.363075,2.934381,3.1744895
-34.3649,2.9663775,3.2277403
-34.331135,3.0229368,3.3153825
-34.33728,3.0506797,3.3624988
-34.328712,3.0881565,3.423174
-34.342842,3.1095645,3.4613576
-34.355934,3.1314096,3.5001454
-34.36667,3.1545649,3.5407443
-34.371677,3.1812024,3.5861511
-34.38756,3.200375,3.6212034
-34.405136,3.2182534,3.6544776
-34.417667,3.2391772,3.6919546
-34.43188,3.2588,3.7276397
-34.457413,3.271127,3.7533374
-34.511753,3.2655606,3.7546468
-34.570435,3.257649,3.7529297
-34.624443,3.2529364,3.7557464
-34.63361,3.2754445,3.7956295
-34.703224,3.2617855,3.7865953
-34.757523,3.2576203,3.7905998
-34.8091,3.2553313,3.7972999
-34.839188,3.2656803,3.8211098
-34.876373,3.2719846,3.8395808
-34.937534,3.2648458,3.8402257
-35.02527,3.2432227,3.8218136
-35.083298,3.2386804,3.8263721
-35.080017,3.2680135,3.8759074
-35.148445,3.2581224,3.873672
-35.182697,3.2669866,3.8963208
-35.250706,3.2579744,3.895647
-35.308365,3.2548113,3.9028525
-35.36995,3.2498975,3.907978
-35.409534,3.2566519,3.9284544
-35.462112,3.2568803,3.9406126
-35.53327,3.247955,3.9411564
-35.56899,3.257169,3.9652503
-35.647465,3.2452767,3.9624486
-35.68081,3.2559838,3.9887502
-35.77381,3.2377758,3.978429
-35.8032,3.250742,4.007915
-35.88005,3.241127,4.009021
-35.937206,3.241233,4.022629
-35.983208,3.246797,4.0432677
-36.058945,3.2387817,4.0471573
-36.101757,3.2462401,4.070532
-36.21269,3.2229867,4.0561323
-36.218124,3.2477334,4.101212
-36.30995,3.2339373,4.099084
-36.357704,3.2400498,4.1215982
-36.4376,3.2323391,4.1275206
-36.515213,3.2260456,4.1354847
-36.601326,3.216538,4.1399117
-36.705223,3.2000027,4.136305
-36.816193,3.1811333,4.1303816
-36.888,3.1791399,4.144926
-36.99709,3.16222,4.1422005
-37.12266,3.1392605,4.1328974
-37.218063,3.1291852,4.1391807
-37.33848,3.1096873,4.134982
-37.44302,3.0971534,4.1393642
-37.58398,3.071013,4.1286535
-37.679703,3.0631802,4.1394544
-37.829338,3.0352664,4.1279855
-37.944748,3.0211966,4.1328115
-38.083145,2.9991713,4.129307
-38.24823,2.96807,4.1164145
-38.37968,2.9503007,4.1190515
-38.52822,2.9270697,4.116363
-38.663086,2.9096112,4.1207027
-38.875397,2.8653762,4.0968285
-38.98363,2.8590646,4.114703
-39.151752,2.8324437,4.111524
-39.29266,2.816172,4.1201506
-39.47872,2.785265,4.1141987
-39.677036,2.7513022,4.106078
-39.856125,2.724917,4.106842
-40.04473,2.6963954,4.1064043
-40.222065,2.6726308,4.111821
-40.392555,2.6520627,4.1214232
-40.643627,2.606617,4.1072745
-40.88176,2.5667372,4.1000457
-41.1224,2.5274377,4.0947638
-41.38757,2.4819007,4.084875
-41.627716,2.4455671,4.0853357
-41.881374,2.4064765,4.0846214
-42.121796,2.3727849,4.090468
-42.353477,2.343012,4.101382
-42.649765,2.2955256,4.0975566
-43.051094,2.219189,4.0695987
-43.43679,2.1496723,4.0502534
-43.76927,2.0974808,4.0485773
-44.161587,2.0303345,4.036087
-44.420563,2.002448,4.059664
-44.87665,1.9217858,4.0405073
-45.395187,1.8267486,4.012481
-45.752537,1.7779365,4.025677
-46.310303,1.6778722,4.0001297
-46.819168,1.5937879,3.9910488
-47.28925,1.5225916,3.995503
-47.81832,1.4388547,3.9936924
-14.118177,1.164448,2.7565403
-14.490971,1.2244763,2.767115
-14.844364,1.2806973,2.7760243
-15.161058,1.3275805,2.7775345
-15.4622965,1.3714187,2.7777119
-15.773663,1.4201639,2.7845774
-16.713737,1.6717091,3.0028658
-17.065092,1.7391233,3.0343957
-17.322163,1.7778502,3.0376573
-17.535244,1.8035278,3.0284376
-17.77027,1.837703,3.029405
-17.966995,1.8603072,3.0191212
-18.038174,1.8412194,2.9645581
-18.06061,1.8055398,2.8921404
-18.071146,1.7655587,2.8150082
-18.26025,1.7880962,2.8072138
-18.6298,1.875777,2.8731337
-18.680084,1.8512709,2.8147287
-16.548653,1.0356996,1.860734
-17.117212,1.1929638,2.004064
-17.154816,1.1575916,1.929347
-19.471657,1.9744401,2.838017
-19.657516,2.0036116,2.8442774
-19.814285,2.0227811,2.8397236
-19.976622,2.0449831,2.839437
-20.144451,2.0702615,2.8435168
-20.292942,2.088922,2.8404932
-20.41293,2.0970988,2.8256106
-20.452187,2.0734828,2.773089
-20.432701,2.0260122,2.6919055
-20.392982,1.9697363,2.5998673
-20.423737,1.9419374,2.5422287
-19.561357,1.5406108,2.0275178
-19.543283,1.4881837,1.9375658
-20.079819,1.6717777,2.1389694
-20.291252,1.7194815,2.174212
-20.325975,1.6916971,2.1162763
-20.35294,1.6603928,2.0540032
-20.344288,1.5691624,1.8934231
-20.312452,1.5103731,1.7962637
-20.46405,1.5347967,1.804748
-17.9894,0.34610772,0.26412106
-18.050459,0.3179021,0.20033169
-20.489489,1.4112644,1.5803905
-20.496178,1.3684497,1.5033731
-20.482376,1.3153505,1.41295
-20.481216,1.267765,1.3295422
-20.483208,1.221204,1.2473655
-20.478247,1.1706948,1.1599226
-20.484173,1.1250579,1.078764
-20.46328,1.0653644,0.97898483
-20.478527,1.0233777,0.90244436
-20.41177,0.9386306,0.7690983
-20.391869,0.8770449,0.6662035
-31.079266,1.5744894,0.6133523
-31.070642,1.8368728,1.0228105
-31.067211,2.0518453,1.3584614
-31.078745,2.1862144,1.5687609
-31.069635,2.3891408,1.8855414
-31.094398,2.4488754,1.9798083
-31.146313,2.4069219,1.9161873
-31.16739,2.4742594,2.022328
-31.195717,2.512737,2.0836835
-31.270357,2.526849,2.1090107
-31.187822,2.9904203,2.8311481
-31.195848,3.0633864,2.94587
-31.219463,3.0900443,2.9888453
-31.246983,3.1050522,3.0138083
-31.2614,3.1524913,3.088993
-31.313145,3.1055539,3.01819
-31.337612,3.1265903,3.0526004
-31.35845,3.1550753,3.0985494
-31.383339,3.1730165,3.1282258
-31.410484,3.1851995,3.1490402
-31.43787,3.1963866,3.1683545
-31.463524,3.2107935,3.1926742
-31.491966,3.2189415,3.2073755
-31.520775,3.2261066,3.2206044
-31.552406,3.22757,3.2250957
-31.58458,3.22807,3.2281566
-31.614529,3.2328422,3.237844
-31.653551,3.2209728,3.221991
-31.684402,3.224354,3.229652
-31.715506,3.227295,3.2366867
-31.747484,3.2287562,3.2415023
-31.780697,3.2282267,3.2433186
-31.813951,3.2277892,3.245335
-31.846605,3.2284803,3.2491398
-31.879602,3.228744,3.2523465
-31.91296,3.2285833,3.254963
-31.945677,3.2295465,3.2593575
-31.97875,3.2300856,3.2631612
-32.012543,3.2296898,3.2655969
-32.047447,3.2278526,3.2658954
-32.082428,3.2261167,3.2664146
-32.11675,3.2255042,3.2687101
-32.15,3.2265193,3.2735467
-32.181763,3.2296634,3.281681
-32.21579,3.2298458,3.2853703
-32.25102,3.2286048,3.2869625
-32.28592,3.2279737,3.289546
-32.32047,3.2279491,3.293116
-32.35547,3.2275207,3.2961407
-32.391342,3.2261894,3.2978663
-32.425617,3.2269719,3.302857
-32.461605,3.2258515,3.3050394
-32.498516,3.2238388,3.3059468
-32.535946,3.2214417,3.3063488
-32.573914,3.2186618,3.3062506
-32.611095,3.2169921,3.3079014
-32.647907,3.2159314,3.310542
-32.678425,3.2218952,3.3238025
-32.712997,3.2235057,3.3305883
-32.748512,3.2242336,3.3361201
-32.793003,3.215754,3.3279452
-32.816772,3.2289412,3.3522553
-32.859085,3.2231507,3.3482661
-32.89719,3.2218807,3.351112
-32.936848,3.2192736,3.3520474
-32.970146,3.2230859,3.3626194
-33.004917,3.225544,3.3712435
-33.04426,3.2237723,3.3736606
-33.07548,3.229808,3.387735
-33.126835,3.2172563,3.3743558
-33.14344,3.23688,3.408668
-33.179764,3.2384217,3.4162936
-33.21984,3.2367513,3.41926
-33.260548,3.2347379,3.4218125
-33.291016,3.2418258,3.437838
-33.32413,3.2466416,3.4505863
-33.362186,3.2473302,3.4573498
-33.389656,3.2570252,3.4773822
-33.434464,3.2523336,3.4764328
-33.449833,3.271966,3.511094
-33.499855,3.2633405,3.50458
-33.50901,3.2876885,3.5461707
-33.559746,3.2788644,3.5395565
-33.586586,3.2890406,3.5606308
-34.3423,2.7376976,2.7687535
-34.34545,2.7722163,2.8264651
-34.30933,2.8357327,2.9259696
-34.31268,2.8686457,2.9811893
-34.32582,2.8938208,3.0252318
-34.342205,2.9162812,3.0653658
-34.35632,2.9400866,3.1074262
-34.362473,2.9692366,3.1571226
-34.32891,3.0259078,3.2460666
-34.326687,3.0597272,3.3022633
-34.332157,3.087716,3.350101
-34.336464,3.116094,3.3984528
-34.344143,3.141787,3.4429598
-34.35725,3.1635141,3.481833
-34.369312,3.1856675,3.5212998
-34.383636,3.2060747,3.5583
-34.394928,3.2282064,3.5977201
-34.40919,3.2481737,3.6340947
-34.431236,3.2630062,3.6632905
-34.46463,3.2706354,3.6824665
-34.506855,3.2728472,3.6941795
-34.54979,3.2747817,3.7056212
-34.63306,3.2524571,3.6835713
-34.651817,3.2694616,3.716156
-34.694218,3.2723036,3.729237
-34.743706,3.2711391,3.7369237
-34.83316,3.2469964,3.7132363
-34.853695,3.2631848,3.7450404
-34.899902,3.2646494,3.7567825
-34.964264,3.2560804,3.755003
-35.03834,3.2424912,3.7466216
-35.080517,3.2470026,3.762991
-35.102036,3.2629285,3.7948842
-35.155907,3.2612696,3.8031478
-35.174118,3.2789526,3.8375344
-35.25421,3.2637327,3.8279228
-35.344463,3.243724,3.812211
-35.38977,3.24768,3.8286943
-35.428223,3.2553167,3.850193
-35.48724,3.2525806,3.8580968
-35.550224,3.2481449,3.8639603
-35.58942,3.2558973,3.8860404
-35.66268,3.246931,3.886365
-35.690178,3.2607517,3.9166586
-35.788,3.2405367,3.9028056
-35.809914,3.2573216,3.9372215
-35.882984,3.2497797,3.9403052
-35.951504,3.2447834,3.9469314
-36.0154,3.242297,3.9570222
-36.051346,3.2529783,3.9841344
-36.119377,3.2491086,3.992872
-36.211006,3.2349458,3.9888482
-36.255043,3.242579,4.012645
-36.320213,3.2409987,4.0250306
-36.40843,3.2296526,4.025466
-36.44509,3.241138,4.05465
-36.517128,3.2375166,4.065245
-36.613354,3.2239907,4.0639195
-36.645782,3.2378352,4.096571
-36.704773,3.2406518,4.115854
-36.81245,3.2236624,4.1112995
-36.89102,3.219181,4.1223373
-36.95706,3.2201567,4.140265
-37.098686,3.1912293,4.122674
-37.22302,3.1700406,4.1149445
-37.30762,3.1651556,4.127083
-37.418976,3.1503332,4.127886
-37.557354,3.1257784,4.1177998
-37.660816,3.115321,4.124774
-37.804413,3.090341,4.1154113
-37.891106,3.087392,4.1320763
-38.044247,3.0603976,4.1216416
-38.179543,3.0408268,4.120386
-38.295036,3.0291739,4.1287193
-38.461033,3.000115,4.1180916
-38.63732,2.968408,4.105345
-38.756584,2.9576952,4.116706
-38.915222,2.9339862,4.114383
-39.096634,2.9033887,4.105359
-39.266994,2.8775983,4.102476
-39.443237,2.8508115,4.0994096
-39.58309,2.8371053,4.111197
-39.76023,2.8119025,4.1115665
-39.95594,2.7816646,4.107605
-40.17398,2.7453656,4.0984087
-40.331722,2.7295027,4.111449
-40.580982,2.6856873,4.0968256
-40.77339,2.6610146,4.102954
-41.00109,2.6265378,4.100343
-41.324966,2.5640533,4.071266
-41.579865,2.5242584,4.0663486
-41.832664,2.4865289,4.0649204
-42.02685,2.4674873,4.082928
-42.25013,2.44099,4.094984
-42.56499,2.3893065,4.0847125
-42.931004,2.3248281,4.064488
-43.28682,2.2653196,4.051086
-43.670708,2.2000053,4.03465
-43.98993,2.1546812,4.038497
-44.332397,2.1047828,4.0403304
-44.720825,2.0443997,4.035245
-45.206398,1.9603231,4.0123873
-45.639294,1.8928468,4.006746
-46.11957,1.8154542,3.9957447
-46.582905,1.7450886,3.9937205
-47.013924,1.6854794,4.0034885
-47.80865,1.5369627,3.9459958
-13.979525,1.2716155,2.7747793
-14.336422,1.3236351,2.7787638
-14.652788,1.3656311,2.7745752
-14.990427,1.4157732,2.7804813
-15.306988,1.4614315,2.7836027
-15.601673,1.5021656,2.7833033
-16.69241,1.7915537,3.0464907
-16.910671,1.8143444,3.032515
-17.21461,1.8654826,3.0500422
-17.40996,1.883595,3.033492
-17.648195,1.9166455,3.034192
-17.846199,1.9378705,3.02313
-18.021317,1.9526014,3.0058713
-18.05928,1.9223752,2.9393897
-18.086985,1.8886373,2.8690772
-18.198738,1.8834987,2.83113
-18.311375,1.8791475,2.7945738
-18.682817,1.9656022,2.8624969
-16.436308,1.1312909,1.8710108
-17.07959,1.3097396,2.0425172
-17.126282,1.2777798,1.9716468
-19.449577,2.0740645,2.8734312
-19.646057,2.1057236,2.88373
-19.737898,2.099689,2.8501482
-19.877228,2.111855,2.8386803
-20.050636,2.1376915,2.8442388
-20.24403,2.1722078,2.8610492
-20.325638,2.164649,2.8276296
-20.431957,2.1670692,2.8067002
-20.4474,2.1341016,2.7427902
-20.445621,2.094043,2.6701279
-20.42766,2.0470963,2.5888386
-20.429768,2.007818,2.516921
-19.554863,1.6073112,1.9932561
-19.551727,1.561466,1.9108858
-19.556805,1.5186291,1.8322
-19.560932,1.4750104,1.75245
-20.315166,1.752451,2.081191
-20.339703,1.7201443,2.0174532
-20.291142,1.5674822,1.7542601
-20.450966,1.5947766,1.7677097
-17.973293,0.42200708,0.21773434
-20.476852,1.5172791,1.6236506
-20.482819,1.4747772,1.5466375
-20.495026,1.4347899,1.472868
-20.497677,1.3899047,1.39258
-20.487011,1.338172,1.3031201
-20.484253,1.2896593,1.2178049
-20.482332,1.2410145,1.1322031
-20.478943,1.1910977,1.0447898
-20.477188,1.1414258,0.95759153
-20.462555,1.0846968,0.8607693
-20.444374,1.0254483,0.76037645
-20.441612,0.97336507,0.66952705
-31.07205,1.6515179,0.64438343
-31.07193,1.8720901,0.99332094
-31.068836,2.084023,1.3285713
-31.076504,2.233108,1.5647712
-31.064272,2.4458425,1.9011288
-31.08679,2.5124578,2.0074015
-31.123852,2.5223396,2.0244122
-31.154627,2.552979,2.0741286
-31.194603,2.551374,2.073172
-31.228258,2.5699809,2.1040535
-31.269335,2.5648715,2.0977068
-31.149237,3.0336704,2.8359847
-31.17705,3.0515852,2.8656812
-31.207737,3.0605936,2.8814287
-31.217281,3.12551,2.9849648
-31.243914,3.142502,3.0132914
-31.274378,3.1490343,3.0252461
-31.31485,3.130959,2.9986706
-31.334707,3.162846,3.0504622
-31.360237,3.1800792,3.0793123
-31.3861,3.195792,3.1058116
-31.41307,3.2084198,3.127513
-31.440516,3.2195382,3.1468897
-31.470497,3.2249806,3.1574283
-31.498583,3.2341437,3.1738267
-31.525702,3.2449322,3.1928024
-31.551798,3.2573392,3.214342
-31.583681,3.258387,3.2181902
-31.624819,3.2424207,3.1955566
-31.65633,3.2446983,3.2014403
-31.686943,3.2486084,3.2099185
-31.719286,3.2495024,3.2137485
-31.751638,3.250483,3.2177682
-31.784,3.2515523,3.2219787
-31.817314,3.2511683,3.2239847
-31.85067,3.2508783,3.2261934
-31.883087,3.252216,3.2309866
-31.91617,3.2526205,3.2343864
-31.948942,3.253627,3.2387767
-31.982412,3.2537055,3.241784
-32.016266,3.253369,3.2442088
-32.05123,3.2516065,3.2444873
-32.08627,3.2499456,3.244986
-32.12065,3.2493978,3.2472682
-32.15471,3.2494543,3.2505436
-32.18767,3.2511187,3.25636
-32.22102,3.252372,3.2616
-32.256714,3.2507086,3.2624083
-32.291695,3.2501516,3.264986
-32.326332,3.2501972,3.2685537
-32.360195,3.2513402,3.2738705
-32.39531,3.2510872,3.2771058
-32.43089,3.2504401,3.2798028
-32.467796,3.2484124,3.2804518
-32.503933,3.2474854,3.2828574
-32.54187,3.2446933,3.2824807
-32.578594,3.2434957,3.284615
-32.616283,3.2414272,3.285491
-32.65496,3.2384958,3.2851272
-32.692387,3.2371516,3.2872586
-32.727585,3.2383606,3.2933488
-32.76467,3.2377276,3.2967067
-32.793335,3.2459407,3.313569
-32.847126,3.2285745,3.2916837
-32.87822,3.2345781,3.3053322
-32.90728,3.2425914,3.322075
-32.945084,3.2420316,3.3259072
-32.98444,3.2401528,3.3278255
-33.02339,3.2388768,3.3307366
-33.06344,3.2367725,3.33248
-33.100502,3.2376466,3.338791
-33.13708,3.2391088,3.3460617
-33.155354,3.257216,3.3783827
-33.210308,3.2423673,3.3613267
-33.235733,3.254027,3.3840842
-33.26905,3.258717,3.39646
-33.29742,3.2677045,3.4153152
-33.343235,3.2618651,3.412116
-33.36927,3.2728937,3.434135
-33.406876,3.2742643,3.4418383
-33.439426,3.2799041,3.455958
-33.471344,3.2860963,3.4709601
-33.509506,3.2873363,3.4786944
-33.548855,3.287784,3.485343
-33.58475,3.2910924,3.4962997
-33.59707,3.3126626,3.5342364
-34.3165,2.79556,2.7798462
-34.303852,2.8414688,2.854786
-34.305386,2.8759942,2.912929
-34.31842,2.9014878,2.9577956
-34.330982,2.926962,3.0026212
-34.348633,2.9484162,3.0415688
-34.352196,2.9796205,3.0947175
-34.319397,3.035913,3.184286
-34.32593,3.0638149,3.232483
-34.32685,3.0951738,3.2856517
-34.333588,3.1220932,3.3323493
-34.336594,3.1511424,3.3820868
-34.349472,3.1731997,3.4217114
-34.363914,3.1939516,3.4594517
-34.37667,3.2155607,3.4984202
-34.3917,3.2354484,3.534916
-34.408386,3.2540584,3.56959
-34.427444,3.2709825,3.6018686
-34.46316,3.2773604,3.619166
-34.513145,3.2750058,3.6241531
-34.574234,3.2661269,3.6200404
-34.621754,3.2658415,3.6282516
-34.655445,3.2740433,3.6485567
-34.713524,3.2678566,3.6487045
-34.770393,3.2627208,3.6504993
-34.81894,3.2627306,3.659666
-34.850456,3.2727218,3.6829062
-34.907642,3.2681627,3.6859512
-34.99095,3.2492514,3.669232
-35.031208,3.254877,3.6867905
-35.081635,3.2550218,3.6968813
-35.089596,3.278511,3.7392936
-35.153194,3.2717695,3.740131
-35.196243,3.2763577,3.756702
-35.30413,3.246859,3.7268023
-35.345234,3.2530904,3.7459908
-35.371216,3.2672558,3.7760735
-35.428795,3.2651987,3.7842274
-35.49334,3.259895,3.7881827
-35.56725,3.2502482,3.7865028
-35.596054,3.2634406,3.8157377
-35.642445,3.267974,3.8334508
-35.74862,3.2435787,3.8127255
-35.777313,3.2572496,3.842997
-35.837177,3.256042,3.8536253
-35.906597,3.250611,3.8588798
-35.991234,3.2384415,3.855516
-36.018932,3.2531197,3.887656
-36.062393,3.2605553,3.9104009
-36.187626,3.2310503,3.8852193
-36.22083,3.2437077,3.9151852
-36.270046,3.2492754,3.9360874
-36.352562,3.2403722,3.9385448
-36.413284,3.2414205,3.954064
-36.470776,3.2441263,3.9719138
-36.548874,3.2382803,3.9791074
-36.62633,3.2331185,3.9874687
-36.68321,3.23696,4.007466
-36.766754,3.2299938,4.014123
-36.8229,3.2346966,4.035673
-36.875664,3.2409832,4.059396
-36.961266,3.2342806,4.067255
-37.03606,3.2323227,4.0812993
-37.101624,3.2343552,4.10053
-37.185974,3.2293608,4.1114626
-37.271343,3.2244046,4.1227922
-37.4041,3.201817,4.11324
-37.501152,3.1935034,4.12139
-37.620907,3.1772273,4.120475
-37.74797,3.158935,4.117714
-37.838005,3.1549256,4.1323586
-38.00242,3.124433,4.1163893
-38.107864,3.1160724,4.1269608
-38.25133,3.0947828,4.123061
-38.427876,3.062715,4.107461
-38.5104,3.06436,4.1312118
-38.66839,3.0404437,4.1263466
-38.87671,3.0003264,4.1040163
-39.042053,2.9759307,4.100321
-39.173862,2.963645,4.1108966
-39.334682,2.9425058,4.112369
-39.521145,2.91391,4.1065044
-39.71358,2.88446,4.1006794
-39.880314,2.864307,4.1058664
-40.090126,2.8314793,4.0983963
-40.30328,2.7988105,4.0922165
-40.450405,2.7877407,4.109844
-40.69477,2.7477384,4.098171
-40.95729,2.7036602,4.0836525
-41.17643,2.67405,4.0853653
-41.421005,2.638144,4.0819426
-41.695778,2.5947876,4.072458
-41.92961,2.5648167,4.0778027
-42.176033,2.5325308,4.0822287
-42.4379,2.4972358,4.0851765
-42.753525,2.4483724,4.0766826
-43.151276,2.3786123,4.050318
-43.531403,2.31594,4.033013
-43.843987,2.2736359,4.036849
-44.152542,2.2341216,4.045155
-44.522976,2.179976,4.042238
-44.97357,2.107001,4.0249863
-45.39025,2.0452814,4.02047
-45.912125,1.9591095,3.9976277
-46.367817,1.8924923,3.9947925
-46.991936,1.7865686,3.9622378
-47.484093,1.716507,3.9632883
-47.93902,1.6581528,3.9771056
-14.178577,1.4235806,2.7834682
-14.533411,1.473753,2.7890382
-14.832016,1.5095599,2.7815175
-15.165778,1.5573549,2.7882519
-15.493129,1.6051297,2.796749
-15.781147,1.6429291,2.7962546
-16.663261,1.863101,2.9949856
-17.106506,1.953898,3.0570421
-17.278545,1.9630458,3.0314388
-17.561646,2.0079935,3.0464435
-17.760822,2.0279074,3.0348558
-17.941545,2.04297,3.0187669
-18.050106,2.0355482,2.978001
-18.075485,2.001266,2.9069805
-18.066586,1.9554753,2.8227444
-18.266537,1.9793813,2.8192086
-18.658363,2.0694764,2.8938856
-18.69307,2.0396876,2.8295999
-16.415915,1.2089856,1.8183784
-16.471172,1.1777449,1.7467327
-17.084599,1.3440022,1.9116173
-17.10923,1.3039289,1.8310499
-19.674189,2.1815097,2.861463
-19.779,2.179953,2.8340154
-19.983932,2.2158153,2.8527923
-20.11921,2.2269635,2.8420582
-20.277323,2.2474406,2.8434262
-20.410145,2.259203,2.8346257
-20.4464,2.2345462,2.7808647
-20.42192,2.186246,2.697506
-20.418541,2.145694,2.623725
-20.437725,2.1137178,2.5607133
-20.370169,2.0467792,2.4531927
-19.568455,1.6816311,1.9639025
-19.572754,1.6391685,1.8853765
-20.347874,1.9149437,2.2173023
-20.358704,1.8777375,2.1471648
-20.349583,1.8318133,2.065648
-20.389626,1.6768486,1.7762985
-20.463003,1.6654005,1.7400422
-20.51432,1.5999293,1.6113296
-20.49312,1.5454154,1.5178094
-20.520306,1.512614,1.4533095
-20.4898,1.4526389,1.352159
-20.488556,1.4056969,1.268435
-20.487345,1.3582606,1.1839404
-20.48696,1.3106999,1.0991769
-20.476597,1.2577598,1.0069613
-20.480225,1.2110641,0.9231701
-20.47244,1.1581914,0.830801
-20.476238,1.1104958,0.74544334
-20.486158,1.0653782,0.663568
-20.450985,0.9966767,0.5489149
-20.392395,0.91488457,0.4158082
-31.074419,1.6977234,0.62514544
-31.075119,1.9119623,0.96868706
-31.072315,2.1202805,1.3027024
-31.079813,2.2684703,1.5406499
-31.071226,2.4649606,1.8556409
-31.084394,2.5656497,2.017682
-31.121708,2.5738773,2.0322108
-31.157133,2.5879693,2.0561442
-31.198744,2.5811687,2.0468159
-31.09621,3.0239925,2.7541714
-31.117872,3.0625858,2.8170862
-31.147682,3.0750537,2.8384004
-31.181135,3.0766146,2.8423877
-31.211308,3.0871372,2.8606892
-31.209562,3.1811783,3.0119267
-31.24528,3.1740427,3.0021725
-31.275303,3.181583,3.0158138
-31.309711,3.178276,3.0122547
-31.340889,3.1828556,3.0212808
-31.365835,3.2015212,3.0527234
-31.390848,3.2191966,3.082621
-31.41812,3.2312248,3.1035852
-31.446615,3.2402105,3.1197586
-31.475939,3.2471972,3.1328
-31.505386,3.2537389,3.1451778
-31.533398,3.2629268,3.161789
-31.559343,3.2757797,3.1842399
-31.599598,3.2614632,3.1637316
-31.630379,3.2652278,3.171894
-31.66139,3.2685597,3.179418
-31.693527,3.2699258,3.183885
-31.725365,3.271889,3.1893454
-31.757496,3.2734275,3.1941848
-31.789932,3.2745428,3.1984086
-31.823639,3.273713,3.1996188
-31.857397,3.2729783,3.2010345
-31.890554,3.2733514,3.2042518
-31.923403,3.2743232,3.2084646
-31.956604,3.2748797,3.212079
-31.990519,3.2745209,3.2143097
-32.023426,3.2757673,3.219119
-32.057766,3.2750957,3.220972
-32.090717,3.276528,3.226184
-32.12624,3.274548,3.2261038
-32.163338,3.2706752,3.2231226
-32.197914,3.2704046,3.2258463
-32.23062,3.272721,3.2326741
-32.265263,3.2726452,3.2358198
-32.300343,3.2721734,3.2384076
-32.335075,3.2722988,3.24199
-32.36944,3.2730181,3.2465591
-32.406715,3.2703896,3.2459745
-32.44201,3.2703314,3.2494597
-32.478615,3.2689066,3.250883
-32.512302,3.2710156,3.2578645
-32.54859,3.2702928,3.2605085
-32.58714,3.2672434,3.259614
-32.624916,3.2652862,3.2604861
-32.66413,3.2619917,3.2593613
-32.701195,3.2612388,3.2622418
-32.736477,3.2625284,3.2683487
-32.777843,3.2576663,3.265029
-32.812294,3.2601392,3.2730985
-32.85485,3.2545729,3.2688537
-32.898067,3.2486708,3.2641811
-32.93805,3.2462468,3.264944
-32.97765,3.2444263,3.2667131
-33.00987,3.249837,3.2796483
-33.041515,3.255808,3.2934976
-33.08072,3.2547972,3.296723
-33.116917,3.2567298,3.304523
-33.149494,3.2620504,3.317564
-33.19774,3.2534475,3.3094435
-33.208107,3.2785518,3.3527398
-33.255405,3.2711234,3.3465638
-33.31372,3.2546015,3.3266897
-33.327778,3.2761574,3.3647008
-33.367268,3.276078,3.369944
-33.41015,3.2733724,3.3713002
-33.45035,3.2730982,3.376423
-33.46406,3.2943835,3.4141479
-33.49333,3.302938,3.432695
-33.52247,3.311567,3.4514046
-33.55264,3.3193681,3.4689207
-33.585045,3.3254495,3.4839106
-33.61738,3.331623,3.4991016
-34.297268,2.8511205,2.7867851
-34.301773,2.8836489,2.8425674
-34.30867,2.9138932,2.8949022
-34.330826,2.9325852,2.9300132
-34.3416,2.9592392,2.9769711
-34.340115,2.9942083,3.03624
-34.30864,3.049652,3.1257586
-34.31437,3.0782552,3.175438
-34.323353,3.1041994,3.221158
-34.336952,3.1266477,3.2617054
-34.32509,3.1658986,3.3269472
-34.34804,3.1813903,3.357226
-34.349884,3.210611,3.4076424
-34.370857,3.2269807,3.4392238
-34.384945,3.2476258,3.4770656
-34.400658,3.2670007,3.513054
-34.422062,3.2825918,3.5435486
-34.475563,3.2780948,3.5449324
-34.536694,3.2692075,3.5401063
-34.583744,3.2692919,3.5484133
-34.619865,3.2761688,3.5666342
-34.653152,3.2848063,3.5874681
-34.70582,3.2820497,3.592023
-34.78804,3.2623281,3.572433
-34.824234,3.2698083,3.5919619
-34.858925,3.2782116,3.6128893
-34.920624,3.2713988,3.6122603
-35.006935,3.2511847,3.5928068
-35.066322,3.2465236,3.5956407
-35.07144,3.2719193,3.6410723
-35.10823,3.2798533,3.6618862
-35.165485,3.276875,3.6674652
-35.229527,3.2705917,3.6685863
-35.313812,3.254033,3.6555538
-35.35747,3.2591872,3.673048
-35.397354,3.2664256,3.6935558
-35.447727,3.2684164,3.7068987
-35.559547,3.2396204,3.6778655
-35.56382,3.2653515,3.7243266
-35.618202,3.2660532,3.7363796
-35.686504,3.2601864,3.7396078
-35.772797,3.245986,3.7316885
-35.79571,3.2627068,3.7661357
-35.83477,3.2716923,3.790132
-35.956146,3.2421153,3.7621126
-35.989872,3.2541394,3.7905903
-36.034527,3.261164,3.8124409
-36.109367,3.254576,3.8162117
-36.18842,3.2465017,3.818264
-36.217113,3.2613378,3.8510327
-36.281895,3.2602205,3.8627536
-36.38405,3.2430758,3.8535655
-36.43861,3.247161,3.8726535
-36.490723,3.2525065,3.8935716
-36.59779,3.2347445,3.8845487
-36.63277,3.247891,3.9160616
-36.71722,3.24053,3.9211655
-36.814354,3.2284126,3.9204707
-36.864258,3.2360709,3.9455006
-36.912422,3.2445917,3.9717991
-37.01598,3.231178,3.9703984
-37.05912,3.242198,4.0003104
-37.17158,3.2262526,3.9964309
-37.242767,3.2269175,4.0138206
-37.28074,3.2406094,4.04772
-37.411877,3.2190962,4.0380864
-37.48419,3.2204056,4.0571747
-37.53328,3.2306533,4.0875177
-37.64196,3.2191782,4.0915246
-37.71012,3.2230144,4.114587
-37.81575,3.213674,4.122019
-37.96796,3.1883378,4.110718
-38.07861,3.1785307,4.118642
-38.221188,3.1581993,4.114581
-38.37392,3.135192,4.1080284
-38.46782,3.1331224,4.1267114
-38.617783,3.112602,4.1243463
-38.79224,3.0847623,4.114237
-38.914547,3.0751538,4.125901
-39.08818,3.0494294,4.119776
-39.30098,3.0120482,4.1013165
-39.45863,2.9935508,4.1051426
-39.620285,2.9746547,4.109309
-39.821304,2.9443386,4.101654
-39.97839,2.92876,4.111207
-40.178635,2.900823,4.1081085
-40.365715,2.877994,4.1115713
-40.5963,2.8431826,4.103196
-40.84222,2.8051429,4.092637
-41.05386,2.7785325,4.095423
-41.347214,2.7294552,4.0759783
-41.56465,2.703773,4.0822835
-41.84562,2.661316,4.0726757
-42.042763,2.6438708,4.0899196
-42.313824,2.6070392,4.0888987
-42.639668,2.5567434,4.07614
-42.986008,2.50275,4.061682
-43.33606,2.4497173,4.050211
-43.670067,2.4028738,4.0467415
-44.05851,2.3436923,4.033674
-44.373363,2.3056269,4.042618
-44.783356,2.2450604,4.0328665
-45.24733,2.1732,4.015477
-45.668747,2.1144903,4.012761
-46.18707,2.0343244,3.9939146
-46.618958,1.9779766,3.9990277
-47.040222,1.9265149,4.0111227
-47.77952,1.8021708,3.9650984
-14.228975,1.5928502,2.8553963
-14.229015,1.541677,2.755868
-14.632051,1.603529,2.7771592
-14.897401,1.6285155,2.7607903
-15.561556,1.7696862,2.872374
-15.675192,1.7546835,2.815855
-16.656876,1.9956603,3.0435877
-16.790478,1.9903898,3.0013165
-17.167225,2.0589268,3.0428133
-17.369165,2.07649,3.0283422
-17.61597,2.108944,3.0318756
-17.811493,2.1268296,3.0198178
-18.009285,2.1464815,3.0107307
-18.05482,2.1187558,2.9471903
-18.080147,2.0845492,2.8761654
-18.17831,2.0739067,2.8330984
-18.306822,2.0736299,2.8027954
-18.634907,2.140295,2.853372
-16.42149,1.3550789,1.8768988
-16.416119,1.303379,1.7805147
-17.10435,1.4893658,1.9744158
-17.178131,1.466841,1.9152961
-19.619205,2.2746894,2.882576
-19.689137,2.260014,2.8393335
-19.849453,2.2779298,2.8370495
-19.9972,2.2921963,2.8308525
-20.176432,2.3187935,2.8408241
-20.30695,2.3284438,2.8300447
-20.414913,2.3303633,2.8099313
-20.460497,2.3092532,2.7607336
-20.39937,2.2474604,2.6593137
-20.41801,2.215599,2.5962324
-20.453167,2.1899798,2.541257
-19.532383,1.7879705,1.9955082
-19.566158,1.7577441,1.9325428
-20.344303,2.0265896,2.2629695
-20.353619,1.9893093,2.192422
-20.349497,1.9462142,2.1141195
-20.369967,1.9128904,2.0487237
-20.362286,1.8675532,1.9672751
-20.314571,1.804802,1.8623505
-20.31593,1.7622044,1.7842731
-17.930767,0.63328314,0.21253157
-20.524828,1.7222571,1.6690993
-20.492256,1.6637762,1.5694356
-20.522724,1.6329303,1.507411
-20.50938,1.5819755,1.4177809
-20.483555,1.5246863,1.319274
-20.481483,1.477704,1.2348299
-20.47789,1.4294965,1.1485863
-20.484463,1.3855684,1.0681944
-20.474026,1.3330455,0.9757371
-20.481438,1.2885306,0.8943572
-20.478151,1.2383225,0.80491877
-20.470434,1.1853433,0.7114706
-20.492424,1.146554,0.63793707
-20.488724,1.0944605,0.54555273
-20.468735,1.0334408,0.44038343
-31.070642,1.746619,0.6049123
-31.087904,1.886693,0.83321714
-31.070047,2.1585555,1.2750044
-31.082497,2.285953,1.4826784
-31.068254,2.5028045,1.8351793
-31.094128,2.5566983,1.9237561
-31.12703,2.5820396,1.9661331
-31.15593,2.6188722,2.027142
-31.191135,2.6329215,2.0513206
-31.19038,3.0746052,2.7713432
-31.209421,3.1160643,2.8398128
-31.239416,3.1265705,2.8583078
-31.241228,3.207776,2.990962
-31.275217,3.205471,2.988821
-31.30626,3.2104614,2.998499
-31.337652,3.2145016,3.0066876
-31.370117,3.2160542,3.0109115
-31.400002,3.2233326,3.0244064
-31.429502,3.2311952,3.0388832
-31.459095,3.2386155,3.0526872
-31.48779,3.24764,3.0691118
-31.517591,3.254179,3.0815759
-31.549904,3.2556953,3.0860066
-31.583017,3.2557714,3.08817
-31.614235,3.259494,3.096242
-31.645115,3.2638044,3.1053019
-31.677074,3.2661662,3.11128
-31.70989,3.2670946,3.115006
-31.74212,3.2691221,3.120545
-31.775856,3.268714,3.12223
-31.809637,3.2683992,3.1241183
-31.842512,3.269687,3.1286235
-31.876999,3.2685542,3.1293092
-31.910894,3.2685208,3.1318078
-31.944826,3.268583,3.134513
-31.978794,3.2687397,3.137423
-32.01245,3.2694905,3.1413355
-32.047882,3.2678459,3.1414828
-32.08054,3.270279,3.1481862
-32.115715,3.2693293,3.1495543
-32.147648,3.2729359,3.1582303
-32.183266,3.271687,3.159236
-32.218956,3.2705426,3.1604671
-32.253178,3.2714703,3.165049
-32.287033,3.2729862,3.170621
-32.32485,3.2696965,3.1686296
-32.363987,3.2650557,3.164565
-32.399616,3.2649293,3.167718
-32.43406,3.2663674,3.1734066
-32.471024,3.2649887,3.1747012
-32.506794,3.2651753,3.178533
-32.54004,3.2683694,3.1871715
-32.573257,3.271655,3.1960096
-32.617,3.263478,3.1868482
-32.652523,3.2645736,3.1923656
-32.687172,3.2667313,3.199614
-32.722733,3.2680326,3.2055779
-32.768925,3.258471,3.1945572
-32.804188,3.2604842,3.2017784
-32.840874,3.2611766,3.2069921
-32.880936,3.2586665,3.2072625
-32.923527,3.2539246,3.2041206
-32.964813,3.2507355,3.2034893
-33.00031,3.2533138,3.211935
-33.03979,3.2522507,3.2147708
-33.08036,3.250378,3.216423
-33.11136,3.2574818,3.2321115
-33.15974,3.2488806,3.2234592
-33.19227,3.2548025,3.2374406
-33.229973,3.2561972,3.2444634
-33.268764,3.2567868,3.2503114
-33.30546,3.2593338,3.2592607
-33.339466,3.2642791,3.2719822
-33.37124,3.271146,3.2877274
-33.405125,3.2762794,3.3008575
-33.43951,3.281057,3.3135
-33.471615,3.2877414,3.329136
-33.502502,3.2954147,3.3463445
-33.533855,3.3027217,3.3630433
-33.56626,3.309218,3.3785567
-33.59278,3.3202653,3.4010806
-33.61854,3.3318172,3.4244142
-34.28682,2.8610122,2.7129393
-34.310974,2.879192,2.747501
-34.331806,2.899607,2.785481
-34.344406,2.9257405,2.8321471
-34.35712,2.9514143,2.8781018
-34.341698,2.9966536,2.9536247
-34.329082,3.0391245,3.0248594
-34.32996,3.071509,3.0807939
-34.33461,3.1008012,3.1320238
-34.345028,3.1257465,3.1766844
-34.34541,3.1570725,3.230896
-34.362534,3.1768303,3.267736
-34.37672,3.1982925,3.3071294
-34.39247,3.2184818,3.3446207
-34.40983,3.2374132,3.3802404
-34.431477,3.2534246,3.4115286
-34.442875,3.275728,3.4521747
-34.494743,3.2726727,3.4552612
-34.57171,3.2545025,3.4361424
-34.607727,3.2617834,3.4547853
-34.623158,3.2814808,3.4917803
-34.700153,3.2644212,3.4747849
-34.74229,3.2684247,3.488892
-34.81855,3.2527304,3.4742851
-34.827938,3.2760518,3.5168529
-34.905315,3.2604213,3.5026698
-34.970333,3.2523055,3.4996395
-35.0249,3.2504148,3.5058212
-35.068096,3.2550635,3.5216126
-35.090336,3.2712848,3.554213
-35.169693,3.2565703,3.5423026
-35.208538,3.264044,3.5625048
-35.259796,3.265042,3.5735216
-35.342876,3.2496128,3.5612035
-35.37586,3.2606869,3.5869274
-35.43259,3.259613,3.5954518
-35.499187,3.2538087,3.5974345
-35.56599,3.2482746,3.6000004
-35.58747,3.2656205,3.6350393
-35.6796,3.2481403,3.621131
-35.741512,3.2459788,3.6290107
-35.786613,3.2522242,3.6488347
-35.842506,3.253463,3.6618028
-35.900013,3.2541835,3.6742177
-35.98339,3.243085,3.6704311
-36.0066,3.260289,3.7060199
-36.089523,3.2501113,3.7039452
-36.171154,3.2410069,3.7036262
-36.21164,3.2508063,3.7294436
-36.272816,3.2515185,3.7429824
-36.369427,3.2369542,3.7359662
-36.411522,3.2466602,3.7621522
-36.489998,3.2408266,3.7674966
-36.562164,3.2380981,3.777289
-36.607487,3.2470343,3.802948
-36.703632,3.2349122,3.8006563
-36.762997,3.238522,3.8196225
-36.82238,3.2423677,3.839098
-36.903385,3.237715,3.8475747
-36.987076,3.2324083,3.8554897
-37.043304,3.2384062,3.8784904
-37.109596,3.2406702,3.896823
-37.222374,3.2252047,3.8924224
-37.271122,3.2349608,3.9210014
-37.35465,3.2316577,3.9329753
-37.454548,3.222622,3.9379458
-37.49386,3.236649,3.9726431
-37.62931,3.2153792,3.962798
-37.6824,3.224895,3.9922848
-37.761375,3.2252593,4.0104957
-37.88301,3.210787,4.0105352
-37.93524,3.22147,4.042266
-38.03635,3.2152631,4.0533695
-38.12361,3.2143564,4.0713964
-38.256763,3.198196,4.0712013
-38.31786,3.2071252,4.101986
-38.460392,3.189056,4.1005087
-38.608673,3.1698916,4.0983706
-38.73866,3.157547,4.1050205
-38.894882,3.137415,4.10307
-39.049755,3.1185951,4.1033926
-39.21584,3.0970893,4.1013184
-39.35623,3.0845602,4.1104255
-39.525864,3.063725,4.110662
-39.735855,3.0314767,4.0987206
-39.92466,3.0068507,4.096451
-40.116707,2.9823103,4.095223
-40.31383,2.957337,4.0944853
-40.537125,2.925797,4.0875053
-40.747246,2.8993273,4.0872355
-40.987373,2.8654351,4.0800133
-41.20968,2.8379354,4.0809364
-41.44084,2.8091803,4.08171
-41.730087,2.765644,4.0681415
-41.93828,2.7458873,4.0809984
-42.222363,2.7067432,4.0749555
-42.480053,2.6762228,4.0793257
-42.779495,2.6360934,4.075429
-43.180042,2.5712729,4.04856
-43.47637,2.535557,4.052805
-43.876022,2.475171,4.0346913
-44.17376,2.4426284,4.045818
-44.561916,2.389239,4.0388756
-44.94715,2.338704,4.036979
-45.41676,2.2698426,4.020485
-45.914085,2.196955,4.003254
-46.338192,2.1441064,4.0071955
-46.939743,2.0521839,3.9792547
-47.467106,1.9806721,3.9730058
-47.86714,1.9409676,3.997449
-14.193615,1.6727047,2.80205
-14.349536,1.6640782,2.748537
-15.622189,1.8694222,2.8516474
-15.755023,1.859653,2.8019109
-16.678505,2.0786798,3.0135527
-17.047867,2.1417484,3.0507636
-17.253754,2.1587188,3.0364327
-17.489208,2.185617,3.0346503
-17.682358,2.2010403,3.0205007
-17.90041,2.2250988,3.017458
-18.036777,2.2251284,2.986792
-18.06607,2.1923592,2.917375
-18.082409,2.155406,2.8429637
-18.21993,2.1569717,2.8153572
-18.46152,2.1928084,2.8302383
-18.65967,2.2158768,2.8304868
-16.381855,1.4228146,1.8215919
-17.094103,1.6107149,2.0228562
-17.12344,1.5730624,1.9450254
-19.427118,2.310804,2.8432217
-19.614433,2.3357134,2.8499112
-19.761068,2.3475327,2.8407288
-19.896925,2.3563464,2.828291
-20.035942,2.3669991,2.8187551
-20.223763,2.3959563,2.833404
-20.358479,2.4067311,2.82522
-20.416666,2.3901079,2.7818356
-20.430702,2.3572206,2.7173285
-20.416367,2.313469,2.6385117
-20.419704,2.275976,2.5678272
-19.318806,1.8148322,1.9348454
-19.346943,1.7818425,1.8676705
-19.501122,1.7980409,1.8663497
-20.305851,2.0725005,2.2125921
-20.342709,2.0462568,2.1565075
-20.357632,2.0110826,2.0884032
-20.362417,1.9715137,2.0143032
-20.347366,1.9234083,1.9284964
-20.23846,1.7924082,1.7086449
-20.462692,1.8441796,1.7599773
-20.486977,1.768105,1.6157031
-20.497675,1.7289464,1.5419507
-20.50347,1.6872616,1.4646244
-20.503643,1.6426554,1.3831401
-20.485685,1.5893714,1.2893662
-20.473389,1.5380344,1.1981831
-20.472157,1.4912097,1.1132474
-20.477962,1.4471636,1.0321617
-20.473717,1.3979192,0.94361115
-20.48265,1.3544025,0.86312914
-20.4495,1.2901509,0.7529197
-20.471588,1.251936,0.67985296
-20.477663,1.2055066,0.5949583
-20.467989,1.1507368,0.4979639
-20.439085,1.085618,0.38587523
-31.070608,1.7946026,0.5943346
-31.08609,1.9406092,0.83530045
-31.06953,2.2037313,1.2684603
-31.089008,2.302093,1.4311433
-31.081593,2.4921925,1.7443228
-31.10351,2.5616028,1.8594623
-31.122923,2.6341076,1.9796801
-31.153793,2.6634033,2.0290575
-31.196825,2.652157,2.0120153
-31.205122,2.7478402,2.17025
-31.13012,3.0820365,2.7191677
-31.156273,3.1061282,2.7599802
-31.189524,3.1092694,2.766519
-31.224072,3.108914,2.7673798
-31.245361,3.142897,2.824472
-31.243002,3.2340925,2.9751525
-31.277433,3.2308211,2.9713225
-31.307858,3.2373261,2.9835238
-31.338156,3.2439058,2.9958858
-31.368326,3.2505589,3.008407
-31.404919,3.2430663,2.9978724
-31.435236,3.249375,3.0099196
-31.464449,3.2577844,3.0254335
-31.494,3.2652507,3.0394459
-31.524435,3.270766,3.0503159
-31.557405,3.2713103,3.0531287
-31.590126,3.272448,3.0569549
-31.623402,3.272667,3.0593324
-31.655016,3.275991,3.0668116
-31.689455,3.2743793,3.0663085
-31.723965,3.2728639,3.0660148
-31.757349,3.2734473,3.0691824
-31.782839,3.2871087,3.093636
-31.82449,3.2743883,3.075303
-31.85762,3.2757444,3.0798745
-31.884966,3.2861376,3.0991464
-31.922262,3.281207,3.0936222
-31.952044,3.2877834,3.1067924
-31.985779,3.288498,3.1105175
-32.01954,3.2893064,3.1144457
-32.05577,3.286759,3.1130018
-32.091747,3.2848098,3.112584
-32.127087,3.283949,3.1139793
-32.164326,3.2807393,3.1116443
-32.198322,3.282043,3.1166468
-32.228924,3.287835,3.128932
-32.26366,3.288346,3.13276
-32.298435,3.2889562,3.1368022
-32.335217,3.287241,3.1371622
-32.372486,3.2851505,3.136982
-32.408222,3.285105,3.1401467
-32.442356,3.2870922,3.1466308
-32.484016,3.280519,3.1394491
-32.519947,3.280799,3.1433187
-32.561928,3.274481,3.136692
-32.59976,3.2730772,3.1379995
-32.636795,3.2727408,3.141078
-32.680122,3.265861,3.1337752
-32.715546,3.2676604,3.140396
-32.75463,3.2657785,3.1412106
-32.7952,3.2626023,3.1400352
-32.826553,3.2689688,3.1541114
-32.86585,3.267436,3.1556826
-32.90476,3.2664952,3.158265
-32.94471,3.2647398,3.1596274
-32.991108,3.2570572,3.1516714
-33.029346,3.25743,3.15656
-33.064644,3.2607002,3.1660972
-33.104965,3.2594528,3.1685596
-33.163715,3.2417512,3.1451359
-33.195137,3.2490761,3.1612897
-33.232693,3.250987,3.1689682
-33.271843,3.251642,3.1747403
-33.302555,3.259704,3.1922202
-33.33797,3.2637596,3.2034607
-33.354977,3.2833052,3.23904
-33.411983,3.2694738,3.2223768
-33.44404,3.2765465,3.2385273
-33.47766,3.2823606,3.2527647
-33.50842,3.2905045,3.2706938
-33.53736,3.3000646,3.2908773
-33.563305,3.3119159,3.31467
-33.59135,3.3220534,3.335834
-33.61517,3.3353455,3.3619342
-33.670975,3.3245094,3.3506784
-33.70406,3.330968,3.366312
-34.2891,2.932898,2.7569566
-34.340954,2.93053,2.7599807
-34.352997,2.9569464,2.8074641
-34.33952,3.0010417,2.882131
-34.32576,3.0445504,2.9557986
-34.326603,3.0771859,3.0126886
-34.334297,3.1046166,3.0615559
-34.34461,3.129876,3.1070771
