x,y,z
-29.82203,2.0129478,2.8993726
-29.857525,2.0121508,2.897644
-29.893074,2.012101,2.8968673
-29.928804,2.0154226,2.9000573
-29.96432,2.0155556,2.8996778
-29.999828,2.0157807,2.8994966
-30.035332,2.0160964,2.8995123
-30.070776,2.0138783,2.8967094
-30.10623,2.009126,2.891086
-30.141758,1.9979022,2.8781147
-30.17758,1.9736428,2.850253
-30.21473,1.8943481,2.7592206
-30.26577,1.3196747,2.0988712
-23.948757,1.0548961,2.8141146
-23.996712,1.0465395,2.7867942
-24.064817,1.0545168,2.775168
-24.172602,1.0952213,2.7950602
-24.279064,1.1358368,2.8154159
-24.346867,1.1453087,2.8063731
-24.418404,1.1583083,2.801035
-24.519451,1.1967852,2.8206983
-24.585833,1.2065501,2.8129468
-24.662241,1.2253788,2.814331
-24.75099,1.2555604,2.8271837
-24.8298,1.2777817,2.8326364
-24.893248,1.2869613,2.8255892
-24.967062,1.3058519,2.828422
-25.043009,1.3272612,2.8340874
-25.100266,1.3321359,2.8236213
-25.164692,1.3439572,2.8203301
-25.247555,1.3734982,2.8350801
-25.304241,1.3790464,2.8260756
-25.373846,1.3972669,2.8300843
-25.442541,1.4151788,2.8340812
-25.511501,1.433917,2.8392143
-25.57666,1.4494834,2.841412
-25.638098,1.4618497,2.8406167
-25.699306,1.4744351,2.8402967
-25.75972,1.4866633,2.8398585
-25.814875,1.4939075,2.8345308
-25.882637,1.5146549,2.8433619
-25.939587,1.5246282,2.841322
-26.00016,1.5388708,2.8439364
-26.055613,1.54808,2.8415542
-26.109282,1.5557253,2.8377542
-26.160679,1.5612082,2.831894
-26.419935,1.7994046,3.0702934
-26.466537,1.8028128,3.063222
-26.498632,1.7898529,3.0390668
-26.589096,1.8443675,3.0862722
-26.62758,1.8394089,3.0709195
-26.614605,1.7733951,2.9908938
-26.699291,1.8232708,3.033957
-26.790947,1.8830307,3.0879335
-26.83791,1.8893836,3.0852752
-26.888102,1.9000807,3.0874333
-26.937141,1.909745,3.0886679
-26.984114,1.917167,3.0876694
-27.030472,1.9241385,3.0863514
-27.080826,1.9366925,3.0912204
-27.123676,1.9397368,3.08599
-27.17139,1.949579,3.0882668
-27.216696,1.9565413,3.087586
-27.262299,1.9642553,3.0878787
-27.305584,1.9690671,3.085165
-27.347479,1.9721808,3.080741
-27.391415,1.9784794,3.0799356
-27.436474,1.9867523,3.08144
-27.481369,1.995168,3.0832524
-27.52081,1.9957321,3.0765877
-27.564638,2.0031843,3.0776281
-27.60792,2.0101564,3.0782833
-27.649889,2.015408,3.0771809
-27.690977,2.0195487,3.0749826
-27.727797,2.0169928,3.0654984
-27.764267,2.013917,3.055542
-27.794872,2.0009906,3.0347462
-27.812962,1.966337,2.989849
-27.828064,1.925451,2.9380107
-27.839634,1.8770583,2.8777862
-27.879456,1.878048,2.8727002
-27.919582,1.8797753,2.868558
-27.962683,1.8872616,2.870986
-28.004974,1.8936207,2.8722844
-28.042261,1.8906703,2.8632574
-28.084375,1.8972654,2.865068
-28.130432,1.9121819,2.8763742
-28.170046,1.9146144,2.8737602
-28.210205,1.9184229,2.8728156
-28.252064,1.9261429,2.8764067
-28.308046,1.9650352,2.9153776
-28.370468,2.0199838,2.9727263
-28.39408,1.9894145,2.9333968
-28.083618,1.1837552,2.0148249
-28.122711,1.170224,1.9940319
-28.166239,1.1669815,1.9850297
-28.204142,1.149818,1.9603052
-28.24586,1.1416795,1.9459467
-28.351692,1.2998405,2.1212478
-28.386892,1.277997,2.0916357
-28.415194,1.2363741,2.039515
-28.416063,1.1159415,1.8973732
-28.436707,1.0460956,1.812983
-28.467064,1.0012915,1.7572508
-28.85031,2.0254102,2.9259887
-28.886055,2.0234027,2.920321
-28.920223,2.016337,2.9089456
-28.95723,2.018377,2.9081097
-28.992113,2.0134227,2.8993402
-29.028904,2.015009,2.898179
-29.066895,2.0212142,2.902431
-29.103909,2.0242922,2.9031868
-29.14367,2.0384614,2.9168181
-29.179974,2.0398033,2.915784
-29.219936,2.056779,2.9328694
-29.256475,2.0602643,2.9345112
-29.283846,2.0223625,2.8884864
-29.322115,2.0331538,2.8987365
-29.355614,2.0213382,2.8829784
-29.390442,2.015447,2.8741493
-29.428812,2.0284805,2.887289
-29.46389,2.024073,2.8803635
-29.499792,2.0243063,2.8788962
-29.535784,2.0252824,2.8783836
-29.572323,2.0302563,2.8825946
-29.608679,2.0346751,2.8862596
-29.644531,2.035934,2.8863606
-29.680199,2.035983,2.8851519
-29.716148,2.0387304,2.887165
-29.75178,2.0389647,2.8863578
-29.787342,2.038639,2.884994
-29.82345,2.044924,2.8913913
-29.859488,2.0519564,2.8987498
-29.894886,2.0512552,2.8972292
-29.930586,2.0558639,2.9019632
-29.96626,2.0618699,2.908412
-30.00148,2.058833,2.9044557
-30.036526,2.0480556,2.8916068
-30.071997,2.0491147,2.8925886
-30.10741,2.0470023,2.8899803
-30.142866,2.0462859,2.8890839
-30.178562,2.0143347,2.8520174
-30.215197,1.9602871,2.789393
-30.26788,1.3131545,2.0383687
-23.726202,1.1113982,2.8833518
-23.785608,1.111265,2.863058
-23.858028,1.1213791,2.8527231
-23.896187,1.105259,2.8177714
-23.967102,1.1147695,2.807417
-24.054678,1.137887,2.810433
-24.144543,1.1634967,2.8162713
-24.226002,1.1830244,2.8166661
-24.310432,1.2055657,2.8203688
-24.393167,1.2273614,2.8237448
-24.469666,1.2446048,2.8230577
-24.545216,1.2615988,2.8224764
-24.63076,1.2876112,2.8311238
-24.696701,1.2975509,2.8242812
-24.766262,1.3110247,2.8212295
-24.840622,1.3291619,2.8231258
-24.912163,1.3453753,2.8234339
-24.98155,1.3601983,2.8226619
-25.04821,1.3730597,2.820218
-25.128702,1.3989725,2.8312306
-25.200853,1.4179432,2.8355803
-25.262424,1.427669,2.8308554
-25.339954,1.4527745,2.8420525
-25.401028,1.462981,2.8383698
-25.46367,1.4750981,2.836894
-25.530762,1.4919696,2.8405638
-25.59465,1.506252,2.8418474
-25.654255,1.5167837,2.8395147
-25.71309,1.5269551,2.837047
-25.7706,1.53619,2.833839
-25.838015,1.5559452,2.841824
-25.896742,1.5673282,2.8413382
-25.947542,1.5708518,2.8328447
-26.00481,1.581471,2.8319945
-26.070526,1.6015546,2.8413372
-26.130518,1.616076,2.8450737
-26.296972,1.7477472,2.973106
-26.416977,1.831193,3.0507827
-26.47509,1.847362,3.057446
-26.563356,1.8983016,3.1014266
-26.594505,1.8850193,3.077145
-26.643572,1.8924036,3.075087
-26.692488,1.89995,3.07338
-26.75663,1.9259791,3.0917435
-26.800663,1.9285569,3.085071
-26.854834,1.9437358,3.0921698
-26.894777,1.9418547,3.0809927
-26.94472,1.9526062,3.083654
-26.99069,1.9587474,3.0814815
-27.045374,1.9764051,3.092019
-27.086845,1.9774654,3.084639
-27.13601,1.9888632,3.0887017
-27.17461,1.9865799,3.077942
-27.222565,1.9970708,3.0813303
-27.271631,2.0095325,3.0870538
-27.312649,2.0112603,3.08112
-27.363903,2.0276656,3.0915232
-27.408499,2.0351317,3.0922236
-27.452106,2.0415204,3.0918794
-27.492281,2.0431676,3.0864162
-27.530367,2.0418785,3.077814
-27.574488,2.0498745,3.0796623
-27.617256,2.0561695,3.07976
-27.653244,2.0521603,3.0684857
-27.694683,2.0568557,3.0670514
-27.732216,2.0555172,3.0589857
-27.767128,2.0499647,3.0463033
-27.796944,2.035855,3.024098
-27.813519,1.9989176,2.9762774
-27.827497,1.9564002,2.9221654
-27.84645,1.9213116,2.8764167
-27.885477,1.9210308,2.8700008
-27.9327,1.9357948,2.8807154
-27.97089,1.9345052,2.873402
-28.01372,1.9420564,2.876224
-28.05477,1.9466112,2.8757744
-28.09796,1.9556649,2.8805618
-28.134684,1.952317,2.8713675
-28.174847,1.9559667,2.8702464
-28.217049,1.964128,2.8743901
-28.257898,1.9698977,2.8759298
-28.332203,2.048197,2.960517
-28.367582,2.0442014,2.9512072
-28.404139,2.0428216,2.9449897
-28.08786,1.230875,2.0092463
-28.117968,1.1965322,1.9644704
-28.164759,1.2008643,1.9641824
-28.212744,1.2084956,1.9678221
-28.290596,1.2917762,2.0586915
-28.353125,1.3397734,2.1091986
-28.39213,1.3282154,2.0912366
-28.414398,1.2709274,2.020586
-28.398912,1.105988,1.8255858
-28.432236,1.0715761,1.7813034
-28.465729,1.0359476,1.7356744
-28.855646,2.0715435,2.9304738
-28.890835,2.0682626,2.9233594
-28.92788,2.07083,2.923118
-28.963501,2.0690157,2.917893
-28.99971,2.0692158,2.915101
-29.032425,2.0573268,2.8983579
-29.072441,2.0711858,2.9116287
-28.81594,0.9767363,1.6356869
-28.861326,0.9740083,1.6291285
-28.906427,0.9701121,1.6213245
-29.217848,2.0775652,2.9086823
-29.257143,2.0925987,2.9238548
-29.293875,2.097436,2.9272437
-29.328053,2.0907688,2.9173055
-29.357634,2.06097,2.880446
-29.39437,2.065432,2.883667
-29.429707,2.0628905,2.8788004
-29.466782,2.0701265,2.8854566
-29.502644,2.0710008,2.8847709
-29.538992,2.0752006,2.8880687
-29.575735,2.0827293,2.8953571
-29.611437,2.0838866,2.8952847
-29.647282,2.0864303,2.8969293
-29.682371,2.0832424,2.8919516
-29.718596,2.0898561,2.898549
-29.754032,2.0900881,2.8977618
-29.789581,2.0917077,2.8986912
-29.825151,2.0940666,2.900579
-29.860674,2.0965173,2.902668
-29.896362,2.102302,2.9087563
-29.931648,2.1029925,2.9089622
-29.96655,2.0959918,2.900237
-30.001825,2.095566,2.899314
-30.0372,2.098473,2.9023895
-30.07243,2.0969312,2.9003382
-30.108,2.12402,2.9319692
-30.143078,2.1524975,2.9653196
-30.177786,2.1603088,2.9745111
-30.212341,2.1688569,2.9846563
-30.268852,1.3070817,1.9737873
-41.93847,0.30074024,3.8985662
-23.459469,1.1029375,2.8595157
-23.53352,1.1121235,2.8472595
-23.615799,1.1278086,2.8415241
-23.67556,1.127182,2.820609
-23.750519,1.1382406,2.8111515
-23.854132,1.1715703,2.8234854
-23.943539,1.194829,2.826601
-24.024406,1.2121253,2.8243594
-24.106998,1.2313256,2.8243527
-24.194622,1.2550948,2.829206
-24.273184,1.2722986,2.8280249
-24.343504,1.2834022,2.821188
-24.437943,1.314584,2.8345437
-24.502466,1.321979,2.8247113
-24.57852,1.3393083,2.8250642
-24.64847,1.3520658,2.8211827
-24.727783,1.3732185,2.8260412
-24.802912,1.391418,2.828281
-24.87204,1.4049981,2.826182
-24.94405,1.421572,2.8274207
-25.012653,1.4356751,2.826456
-25.086552,1.4549866,2.8311076
-25.15888,1.4734781,2.8352418
-25.22601,1.487817,2.8354187
-25.289856,1.4996297,2.8332744
-25.354677,1.5127878,2.8327837
-25.416874,1.5239506,2.8304915
-25.483578,1.5398135,2.833342
-25.54589,1.5519958,2.8326292
-25.609135,1.5655279,2.8335814
-25.66867,1.5759048,2.8314767
-25.730858,1.58932,2.8328066
-25.79449,1.6046598,2.8364158
-25.857838,1.6202314,2.8405275
-25.913105,1.6280549,2.8366718
-25.975933,1.6440651,2.8417363
-26.032993,1.6545761,2.841185
-26.08931,1.6647117,2.8404493
-26.143814,1.6733153,2.8382854
-26.413034,1.9151611,3.0869694
-26.439896,1.8969288,3.056901
-26.48375,1.8972921,3.0469646
-26.572035,1.9477501,3.0913882
-26.621025,1.9549026,3.0892334
-26.672403,1.9651353,3.0906014
-26.705511,1.954488,3.0694094
-26.78747,2.0013635,3.1111126
-26.823841,1.9951158,3.0950432
-26.865162,1.9948535,3.0856428
-26.914652,2.0047433,3.0875292
-26.961561,2.0118432,3.0865202
-27.007854,2.0185022,3.085188
-27.04981,2.0199685,3.0782733
-27.09725,2.0286987,3.0795383
-27.14588,2.0393717,3.0831227
-27.192047,2.04722,3.0837364
-27.239834,2.0576103,3.087339
-27.280817,2.0591657,3.0812507
-27.324356,2.0644474,3.079453
-27.366493,2.0680592,3.0759292
-27.411514,2.0760176,3.0774136
-27.454695,2.081704,3.0764947
-27.495274,2.0838947,3.0717816
-27.539873,2.0922642,3.0741572
-27.580679,2.0953126,3.070673
-27.620613,2.0972655,3.0660753
-27.662844,2.1029894,3.0658693
-27.702246,2.1045723,3.0610995
-27.743887,2.1099346,3.06074
-27.771887,2.0933921,3.0355973
-27.800903,2.0781314,3.0119734
-27.813395,2.0346942,2.9562736
-27.838856,2.0121353,2.924395
-27.858334,1.9785345,2.879932
-27.898241,1.9800904,2.8757348
-27.937075,1.979907,2.86966
-27.979937,1.9872518,2.8723364
-28.019001,1.9879136,2.8674626
-28.062923,1.9979854,2.873528
-28.1028,2.0007389,2.8712993
-28.14261,2.0036068,2.8693151
-28.184206,2.0103214,2.8718886
-28.221107,2.007809,2.8639174
-28.273237,2.0372226,2.8929944
-28.341488,2.1024275,2.9637156
-28.373268,2.0909433,2.9457545
-28.431103,2.1371543,2.9948487
-28.452553,2.1026843,2.9503927
-28.113914,1.2289574,1.9297247
-28.153692,1.2162392,1.909719
-28.195747,1.208648,1.8957839
-28.309433,1.3793802,2.0899553
-28.355541,1.3860512,2.0930629
-28.392826,1.3701346,2.069909
-28.414839,1.3126161,1.998189
-28.400658,1.1526835,1.8066168
-28.420734,1.0811667,1.7184262
-28.445152,1.0185087,1.6406107
-28.485144,0.9989717,1.6133909
-28.532501,1.0010965,1.6116891
-28.58061,1.0058873,1.613245
-28.629591,1.0139871,1.6188211
-28.675001,1.0107744,1.6112232
-28.71972,1.0051322,1.6008835
-28.766663,1.0072474,1.599791
-28.814411,1.0126739,1.602726
-29.154501,2.141436,2.9303246
-29.187744,2.1319025,2.916593
-29.222078,2.1262815,2.9075599
-29.260815,2.1392787,2.9206004
-29.29659,2.1402357,2.9195204
-29.336584,2.1611197,2.942089
-29.36204,2.1129858,2.8831482
-29.398504,2.11677,2.885676
-29.434294,2.1174476,2.8846207
-29.469837,2.1169357,2.8822494
-29.506136,2.121005,2.8853955
-29.542353,2.1251705,2.8887491
-29.577337,2.1217287,2.8831801
-29.613008,2.1228707,2.883131
-29.648989,2.1266747,2.8863325
-29.685204,2.133143,2.8927865
-29.720287,2.1307082,2.8887696
-29.756401,2.1380072,2.8963933
-29.791594,2.1370409,2.894298
-29.827072,2.139381,2.8962183
-29.862503,2.141813,2.8983374
-29.897675,2.1411195,2.8968334
-29.933294,2.1482391,2.9047003
-29.96841,2.1477273,2.9035902
-30.003408,2.1440868,2.8988514
-30.038378,2.137318,2.890483
-30.073677,2.1409388,2.8945494
-30.109123,2.1639667,2.9217672
-30.144169,2.1999621,2.9644842
-30.17873,2.2115815,2.9783216
-30.213514,2.1968918,2.9609804
-30.270891,1.3138094,1.9118276
-23.330278,1.1122608,2.8140354
-23.41617,1.1289234,2.8088398
-23.484158,1.1331444,2.792087
-23.606003,1.1771286,2.8140578
-23.750801,1.2391479,2.8541603
-23.803885,1.2341199,2.8296895
-23.942364,1.2935619,2.8685222
-23.990252,1.2854617,2.8417077
-24.049805,1.2863855,2.8239741
-24.135666,1.3079445,2.8269286
-24.21645,1.3261693,2.8269682
-24.292246,1.3410208,2.8240132
-24.36446,1.3535194,2.8190413
-24.452902,1.3795578,2.8280058
-24.530426,1.3974364,2.8291469
-24.611528,1.4188201,2.8341875
-24.682571,1.4324889,2.8317523
-24.757847,1.4501872,2.833736
-24.832804,1.4681764,2.8363495
-24.90617,1.4853721,2.8384767
-24.971064,1.4958005,2.83395
-25.04261,1.5124483,2.836123
-25.110756,1.5266407,2.8360562
-25.18171,1.5438216,2.839385
-25.251125,1.5601745,2.842153
-25.316006,1.5729377,2.8414545
-25.384842,1.5898004,2.845327
-25.45039,1.6041558,2.846846
-25.514484,1.6176426,2.8477178
-25.574219,1.62747,2.8449717
-25.638992,1.6425295,2.8480177
-25.700596,1.6550305,2.8486004
-25.76196,1.6677535,2.8496642
-25.827614,1.6851933,2.8560228
-25.880571,1.6904771,2.8495936
-25.93564,1.6981993,2.845982
-25.994415,1.7100749,2.8470597
-26.053507,1.7227256,2.8492026
-26.110722,1.7338786,2.8499455
-26.185467,1.7640626,2.8716002
-26.405138,1.9507055,3.064106
-26.439941,1.9411266,3.0433373
-26.482727,1.9402587,3.0322037
-26.537933,1.9533474,3.036528
-26.599041,1.9735584,3.048894
-26.659262,1.9934144,3.0611067
-26.72967,2.0256705,3.087254
-26.784058,2.0401778,3.094037
-26.83915,2.0560412,3.1025276
-26.879797,2.055167,3.0926142
-26.92719,2.062605,3.0920877
-26.97395,2.0696118,3.0912433
-27.018673,2.07442,3.0881004
-27.066088,2.0829024,3.089221
-27.114714,2.0933096,3.092667
-27.158108,2.0973763,3.0891485
-27.202309,2.1027622,3.0872574
-27.248623,2.1112545,3.089017
-27.29564,2.1210856,3.0924459
-27.340284,2.128091,3.092834
-27.383919,2.1340444,3.0921726
-27.425722,2.1377428,3.0890894
-27.469118,2.143964,3.0890088
-27.511963,2.1497202,3.0885377
-27.553457,2.1538055,3.0862927
-27.593645,2.1562095,3.0822544
-27.632574,2.1569226,3.0763984
-27.67618,2.1649983,3.0791063
-27.716133,2.167763,3.0758495
-27.752579,2.1651902,3.0665693
-27.784155,2.1548228,3.0484095
-27.803288,2.123853,3.0065484
-27.821493,2.090457,2.9618936
-27.838482,2.054016,2.913723
-27.86745,2.0371242,2.8881993
-27.905077,2.0349748,2.8798404
-27.948902,2.0439572,2.884513
-27.986464,2.0420284,2.8766303
-28.027363,2.0463462,2.876124
-28.069798,2.0538588,2.8794599
-28.109507,2.0565684,2.8773174
-28.14757,2.0563066,2.8718147
-28.189028,2.0629442,2.8744879
-28.22913,2.0672295,2.874527
-28.266447,2.066054,2.868279
-28.333363,2.1276116,2.935751
-28.371264,2.1291964,2.9330206
-28.426302,2.1688032,2.9751034
-28.452444,2.1451266,2.9428887
-28.097273,1.241813,1.8743448
-28.135994,1.2259905,1.8505244
-28.178612,1.218998,1.8372121
-28.27781,1.3514924,1.9887953
-28.34263,1.403671,2.045802
-28.383749,1.3972013,2.0336246
-28.416473,1.3682673,1.9949436
-28.407341,1.223932,1.8195395
-28.379065,1.0185199,1.5715361
-28.42673,1.0203137,1.5692582
-28.471148,1.0127981,1.556046
-28.52066,1.0205076,1.5610437
-28.568403,1.0233116,1.5603395
-28.614513,1.021198,1.5539055
-28.664633,1.0324614,1.5635247
-28.70533,1.0122774,1.5357966
-28.754223,1.0200033,1.5414467
-28.801926,1.0240674,1.5428567
-29.154182,2.1868646,2.927918
-29.186516,2.1742144,2.9103575
-29.220928,2.1692474,2.9020548
-29.257359,2.172614,2.9038024
-29.291143,2.1646526,2.8920927
-29.332474,2.1910684,2.9216123
-29.363064,2.168044,2.892045
-29.398336,2.1667027,2.8885202
-29.433865,2.1667247,2.8867168
-29.47018,2.171293,2.8904538
-29.506618,2.1772306,2.8959274
-29.541922,2.176896,2.893968
-29.577896,2.181113,2.8975606
-29.613605,2.18415,2.8998275
-29.649084,2.186005,2.9007645
-29.6846,2.1885898,2.902669
-29.719774,2.1887147,2.9017062
-29.75514,2.190845,2.903242
-29.790764,2.196259,2.908812
-29.82623,2.2011275,2.913817
-29.86121,2.2009792,2.9128785
-29.896189,2.2009206,2.9121342
-29.93113,2.2003133,2.9108171
-29.966017,2.1985176,2.9081578
-30.001009,2.198729,2.908
-30.035976,2.198391,2.9072666
-30.070446,2.173856,2.8775086
-30.105957,2.20118,2.910231
-30.140799,2.1506174,2.8493276
-30.175983,2.1825979,2.887827
-30.212397,2.1040943,2.7934809
-30.269426,1.2811248,1.8035364
-23.220648,1.1245961,2.7791748
-23.253511,1.1028101,2.7367744
-23.451313,1.1983426,2.8084579
-23.597467,1.2587783,2.8469763
-23.692827,1.2837267,2.8514843
-23.754288,1.2845488,2.832708
-23.796299,1.2712369,2.8002167
-23.941856,1.3351989,2.8445678
-23.998001,1.3332286,2.8239703
-24.069805,1.3433619,2.8157058
-24.159004,1.3672771,2.8216033
-24.245094,1.389468,2.8261786
-24.322111,1.4052036,2.8246202
-24.399502,1.421763,2.8242426
-24.477911,1.439676,2.825592
-24.554686,1.4568386,2.8265219
-24.62529,1.4695303,2.8232017
-24.702763,1.4883361,2.8264847
-24.781176,1.5085089,2.831524
-24.85986,1.5295234,2.8377829
-24.918547,1.5342159,2.8273973
-24.989063,1.5493379,2.8281364
-25.057423,1.563107,2.8277564
-25.13481,1.5852509,2.836463
-25.203186,1.6000972,2.837813
-25.264572,1.6092093,2.833383
-25.339699,1.6311004,2.842752
-25.400604,1.6406882,2.839353
-25.461912,1.6510425,2.8370113
-25.528929,1.667124,2.8410401
-25.593292,1.6812458,2.8432388
-25.655056,1.6933892,2.843566
-25.715427,1.7046452,2.8431783
-25.783016,1.7233524,2.8510866
-25.842873,1.7350569,2.8516731
-25.901373,1.745857,2.8515053
-25.957983,1.7551799,2.8499508
-26.007763,1.7579508,2.8414469
-26.066238,1.7699051,2.8431783
-26.120129,1.777544,2.8403907
-26.33645,1.9564757,3.026382
-26.412525,1.9904542,3.0534925
-26.483223,2.0196085,3.0755863
-26.521969,2.0147955,3.0603137
-26.561295,2.010665,3.0459156
-26.646362,2.057675,3.088583
-26.677698,2.045268,3.0653086
-26.731876,2.0588515,3.0711784
-26.797749,2.0864785,3.0929832
-26.840912,2.0883207,3.0860944
-26.888409,2.0955155,3.0853667
-26.938166,2.1057706,3.088252
-26.984848,2.1126995,3.0875545
-27.028072,2.1156962,3.082562
-27.07262,2.1205807,3.0798492
-27.117517,2.1261919,3.0781078
-27.164118,2.1342938,3.0793476
-27.210094,2.141959,3.0802445
-27.255465,2.1491828,3.0807905
-27.300238,2.155961,3.0809736
-27.343557,2.1611056,3.079431
-27.388481,2.168757,3.080903
-27.43282,2.1759572,3.0820022
-27.475325,2.1809177,3.0806642
-27.514812,2.1818361,3.0747948
-27.553852,2.1822736,3.0684857
-27.595686,2.1870098,3.0672665
-27.6406,2.1966674,3.071879
-27.683744,2.204067,3.0740147
-27.722467,2.2049868,3.0687537
-27.75733,2.1999962,3.0567245
-27.786612,2.186051,3.0343485
-27.8035,2.1516275,2.9881334
-27.823553,2.12144,2.946868
-27.834045,2.0742989,2.8857765
-27.871626,2.0720344,2.8772373
-27.912018,2.0747344,2.8746266
-27.952341,2.0775506,2.8722668
-27.994282,2.0835307,2.873744
-28.034761,2.0871928,2.8726144
-28.0745,2.0897493,2.8702965
-28.114492,2.0930312,2.868946
-28.156616,2.1007178,2.8729138
-28.198578,2.108529,2.877152
-28.236115,2.1078613,2.8714714
-28.273344,2.1066806,2.865284
-28.330519,2.147493,2.9090257
-28.370531,2.1533482,2.9114404
-28.423103,2.187109,2.9471498
-28.458466,2.183952,2.9390955
-28.021,1.0989254,1.642345
-28.066942,1.0959904,1.6335626
-28.168882,1.2271683,1.7849493
-28.304108,1.446311,2.041798
-28.332493,1.4080529,1.9915009
-28.381887,1.4221044,2.0038252
-28.407152,1.3733904,1.9411378
-28.372707,1.1607244,1.6820054
-28.367563,1.0182965,1.5068312
-28.417341,1.0250182,1.5105209
-28.45888,1.0081205,1.4859786
-28.502993,0.99820256,1.4699149
-28.552711,1.0053015,1.4744234
-28.604826,1.0206857,1.4890337
-28.651323,1.0186551,1.4828172
-28.693241,1.0010529,1.4579554
-28.744556,1.0155861,1.4719315
-28.794554,1.0264928,1.4816704
-29.157845,2.2221131,2.9214578
-29.1898,2.208277,2.9023433
-29.226955,2.2146733,2.9077458
-29.261154,2.2091942,2.8988905
-29.294298,2.1987562,2.88412
-29.335997,2.2268922,2.916098
-29.366789,2.2052722,2.887968
-29.401737,2.202673,2.8829365
-29.437801,2.2058513,2.8849907
-29.473799,2.2091253,2.887251
-29.508865,2.2074323,2.8835802
-29.54538,2.2146904,2.890852
-29.580986,2.21698,2.892188
-29.616093,2.2161965,2.8898845
-29.651628,2.2186706,2.8916216
-29.68758,2.2250407,2.8981762
-29.723045,2.2283351,2.9010873
-29.758312,2.230454,2.9026575
-29.793413,2.2313957,2.9028845
-29.82833,2.2305236,2.9009938
-29.863403,2.2316458,2.9016128
-29.898495,2.2334933,2.9031997
-29.933474,2.2341616,2.9034395
-29.96844,2.2349195,2.903873
-30.00341,2.236403,2.9052758
-30.038145,2.2309902,2.8983784
-30.073004,2.2269375,2.8932185
-30.107979,2.2267845,2.8928866
-30.142952,2.223546,2.888888
-30.178074,2.2083292,2.870409
-30.214447,2.136044,2.7826152
-30.272375,1.2947817,1.7598171
-23.105465,1.1402075,2.7463589
-23.244808,1.1917682,2.775247
-23.416176,1.2669032,2.8280067
-23.501724,1.2832081,2.8236837
-23.613132,1.3184569,2.8385234
-23.707077,1.3420708,2.842348
-23.774065,1.3468285,2.8277922
-23.941631,1.4255142,2.887659
-23.950516,1.3887007,2.832121
-24.050528,1.4193809,2.8447528
-24.105007,1.4165905,2.8238983
-24.210999,1.4531391,2.8433318
-24.279324,1.4617033,2.8346605
-24.356174,1.4772651,2.8334632
-24.4334,1.4936457,2.833449
-24.509,1.5092828,2.8330073
-24.580374,1.5220699,2.8299384
-24.65085,1.5346026,2.82691
-24.723673,1.5495095,2.8266616
-24.802643,1.5699823,2.8325582
-24.86847,1.580157,2.8279705
-24.934723,1.5911059,2.8244705
-25.011461,1.6113725,2.8311052
-25.133434,1.6710134,2.879881
-25.220245,1.7016563,2.898353
-25.259096,1.6911881,2.8732882
-25.38609,1.7585933,2.9317918
-25.3524,1.6841116,2.8384027
-25.439716,1.7174559,2.8609562
-25.495974,1.7233732,2.8542447
-25.551504,1.7289398,2.8473635
-25.616898,1.7440095,2.8510213
-25.681417,1.7587707,2.8546014
-25.743336,1.7715671,2.8562903
-25.798693,1.7785134,2.8518095
-25.849918,1.7817738,2.843482
-25.90782,1.7918658,2.8428602
-25.967749,1.8043873,2.8451385
-26.02909,1.8187973,2.8497338
-26.08905,1.8323102,2.8535686
-26.132412,1.8292117,2.8391523
-26.391554,2.0511377,3.0757575
-26.423897,2.0392692,3.0523934
-26.494541,2.068157,3.0747595
-26.54052,2.071267,3.0684733
-26.58953,2.0779305,3.0663404
-26.645082,2.092154,3.0729008
-26.684563,2.0888944,3.0599122
-26.763409,2.130336,3.0976534
-26.812534,2.1388648,3.0983787
-26.856043,2.141241,3.0922804
-26.901438,2.1460552,3.0890985
-26.948172,2.1527452,3.0882072
-26.994278,2.1590097,3.0869846
-27.039772,2.1648436,3.085422
-27.086071,2.171985,3.0855079
-27.132215,2.1792758,3.085919
-27.179575,2.188464,3.0886688
-27.223122,2.193137,3.0863638
-27.269241,2.2014563,3.0884142
-27.313858,2.2081664,3.08875
-27.357891,2.2144308,3.0887117
-27.399628,2.2178915,3.085557
-27.442982,2.223838,3.0854216
-27.48452,2.2275572,3.0828257
-27.525549,2.2308097,3.0798116
-27.567726,2.2359655,3.079146
-27.608974,2.2400622,3.0773706
-27.649324,2.2430937,3.0744681
-27.691172,2.2486289,3.0746264
-27.729012,2.248323,3.06804
-27.762619,2.2415469,3.0539408
-27.79142,2.2270715,3.030846
-27.803349,2.1850643,2.975298
-27.82372,2.1556475,2.9346123
-27.841362,2.1208324,2.8875504
-27.874552,2.1113288,2.8704991
-27.916292,2.1163905,2.8708143
-27.958605,2.1227844,2.8728347
-28.00044,2.1286993,2.8744073
-28.040146,2.1311014,2.8719163
-28.081095,2.1360445,2.8725672
-28.12322,2.1435382,2.8763785
-28.163288,2.1475048,2.8760977
-28.20233,2.1497586,2.8738785
-28.2407,2.1509023,2.8704348
-28.293707,2.1820934,2.9031243
-28.359932,2.2422206,2.9707208
-28.37775,2.202136,2.9181561
-27.952652,1.1991696,1.707613
-27.980024,1.1561241,1.6504059
-28.01414,1.1266308,1.6095543
-28.063381,1.1310465,1.609653
-28.23642,1.4294746,1.9647546
-28.32158,1.5288424,2.0801225
-28.346775,1.4840658,2.0215306
-28.37133,1.4356055,1.9585056
-28.402214,1.4013944,1.9127536
-28.29766,1.0024991,1.4250975
-28.343996,0.99779844,1.4149051
-28.399178,1.018033,1.4350901
-28.448406,1.0222869,1.4360218
-28.49255,1.0117576,1.4191155
-28.53788,1.0044482,1.4062281
-28.591965,1.0246439,1.4269209
-28.633657,1.0057468,1.4001603
-28.682333,1.0093915,1.4009571
-28.730923,1.0131676,1.4020381
-28.782019,1.0264399,1.4148264
-28.83118,1.0336065,1.4202976
-28.888412,1.0727973,1.4650011
-29.230797,2.2640743,2.9174333
-29.266006,2.263635,2.9147043
-29.304085,2.2758167,2.9274964
-29.334354,2.253629,2.8983388
-29.367664,2.2440517,2.8846793
-29.403538,2.2464786,2.8857965
-29.439117,2.247744,2.8855796
-29.47512,2.2516155,2.8886442
-29.511152,2.2562103,2.8926845
-29.54668,2.2583854,2.8938475
-29.581678,2.2575085,2.891354
-29.616865,2.257981,2.8906012
-29.652122,2.2591732,2.8908172
-29.68743,2.2610865,2.892005
-29.722694,2.2630918,2.893392
-29.75785,2.2645586,2.8942032
-29.792912,2.265486,2.8944373
-29.827787,2.2646132,2.8925443
-29.863066,2.268873,2.8970447
-29.898218,2.2725942,2.900968
-29.933111,2.2732534,2.9012127
-29.967957,2.2733717,2.9008765
-30.00267,2.2704253,2.8968563
-30.037477,2.2688298,2.8945813
-30.072325,2.267954,2.8932757
-30.107166,2.265276,2.8898373
-30.142054,2.2620556,2.885817
-30.177147,2.2387354,2.8571649
-30.213118,2.1890075,2.7961273
-30.271803,1.3021865,1.7059441
-23.252216,1.2958777,2.817006
-23.357086,1.3239713,2.8241978
-23.46648,1.3559637,2.8358002
-23.565355,1.3814788,2.8414445
-23.643965,1.3934696,2.8339405
-23.74557,1.4222507,2.8437786
-23.814487,1.4283981,2.8311138
-23.928478,1.4675031,2.8523607
-23.990633,1.469737,2.83641
-24.071272,1.4858742,2.8350067
-24.148878,1.5002952,2.8321948
-24.219425,1.509918,2.8247542
-24.294498,1.5233905,2.8216166
-24.372663,1.53972,2.8217864
-24.44919,1.555325,2.8215408
-24.528065,1.5732946,2.8241124
-24.596746,1.5837936,2.8191485
-24.695238,1.6184876,2.8400745
-24.815147,1.6713424,2.8807364
-24.919958,1.7131953,2.9102507
-24.942831,1.6887684,2.8694196
-24.994656,1.6880822,2.8540688
-25.07608,1.7124143,2.8658137
-25.163311,1.7423728,2.8839808
-25.22825,1.7540703,2.8827715
-25.318237,1.7878785,2.9058204
-25.401485,1.8167055,2.9238439
-25.411922,1.7820115,2.8728828
-25.448242,1.7698822,2.8465843
-25.502682,1.7740369,2.8382635
-25.562353,1.7832489,2.835709
-25.627716,1.7981005,2.8396063
-25.6887,1.8093843,2.8398108
-25.75003,1.8214331,2.8410964
-25.808245,1.8309674,2.839818
-25.865688,1.8401577,2.8383732
-25.924065,1.8506508,2.8385959
-25.98838,1.8674169,2.8460655
-26.0446,1.8766782,2.8453512
-26.093468,1.8789268,2.8369408
-26.199507,1.939698,2.8947673
-26.407074,2.106798,3.0733824
-26.449451,2.1056025,3.0621262
-26.504547,2.1179771,3.0664277
-26.55624,2.1271777,3.0673146
-26.606176,2.1348674,3.066659
-26.663673,2.151186,3.076047
-26.698399,2.142836,3.0573654
-26.78729,2.195209,3.1085343
-26.81521,2.1797955,3.0820475
-26.857729,2.180946,3.0747218
-26.903627,2.1862214,3.0722966
-26.950369,2.1927876,3.0715146
-26.996006,2.1983602,3.069734
-27.043882,2.2069511,3.07161
-27.092045,2.2162752,3.0744967
-27.137226,2.2222993,3.0736947
-27.184105,2.2307792,3.0759077
-27.227627,2.2353597,3.073707
-27.272383,2.2418163,3.073844
-27.315666,2.2466712,3.0722413
-27.360582,2.2539916,3.0736709
-27.403177,2.2585375,3.0719757
-27.44737,2.265553,3.0733228
-27.4893,2.26978,3.0715127
-27.531128,2.2741354,3.069981
-27.572437,2.2780302,3.068028
-27.613245,2.281461,3.0656476
-27.653564,2.284425,3.062831
-27.695383,2.289872,3.063089
-27.732796,2.288936,3.0558596
-27.764065,2.278617,3.037531
-27.793232,2.2648077,3.0150995
-27.806236,2.2248857,2.9614658
-27.82436,2.1920936,2.9163609
-27.847408,2.166468,2.8798614
-27.878738,2.154021,2.8592281
-27.91974,2.1578074,2.8581967
-27.962717,2.165311,2.8617573
-28.004175,2.1705422,2.8627024
-28.044512,2.1740928,2.8617349
-28.086401,2.1807692,2.8646584
-28.126852,2.1851587,2.8649335
-28.166567,2.1884573,2.8639994
-28.204641,2.1888466,2.859645
-28.25247,2.2087128,2.8790355
-28.307108,2.2432814,2.9164395
-28.356073,2.2677217,2.9417038
-28.393017,2.2680173,2.9377232
-27.95169,1.2402301,1.6808772
-27.97326,1.1846902,1.6078238
-27.976566,1.0858517,1.4819021
-28.067307,1.1835012,1.5960035
-28.24203,1.4831879,1.9575381
-28.344196,1.6227345,2.1237783
-28.38231,1.6114087,2.1055765
-28.39463,1.5345697,2.0071373
-28.397469,1.4294596,1.8739705
-28.282673,1.006644,1.3505988
-28.33009,1.0037501,1.3425922
-28.382154,1.0139053,1.3507471
-28.435934,1.0297518,1.366044
-28.479612,1.0167747,1.3459935
-28.526752,1.0137758,1.3383374
-28.575308,1.0152235,1.336277
-28.626675,1.0260725,1.3459358
-28.673386,1.022218,1.3375788
-28.752542,1.130538,1.4678845
-28.797783,1.1251464,1.4579287
-28.843779,1.1223509,1.4512887
-28.89643,1.1451099,1.4763737
-29.233513,2.3053393,2.9094725
-29.26881,2.3055136,2.907539
-29.30467,2.3082654,2.9088864
-29.336056,2.2912116,2.8857727
-29.36868,2.2785857,2.8682175
-29.40443,2.2803588,2.8685951
-29.44026,2.2828484,2.8699493
-29.476376,2.2873015,2.873829
-29.51229,2.2912269,2.877142
-29.54761,2.2921283,2.8767853
-29.583002,2.2937453,2.8774033
-29.618357,2.2954545,2.87822
-29.653502,2.2960064,2.8776846
-29.688866,2.2985234,2.8796759
-29.723959,2.2992582,2.8795357
-29.759232,2.301959,2.881926
-29.794327,2.3035002,2.882958
-29.829443,2.305758,2.8849645
-29.864464,2.3074813,2.8863902
-29.899488,2.3099203,2.888791
-29.934391,2.3111985,2.8898292
-29.969233,2.3119411,2.890283
-30.003984,2.3108954,2.8885942
-30.038656,2.3068087,2.8831987
-30.073456,2.3053155,2.8811169
-30.108305,2.3057897,2.8815665
-30.143124,2.2975886,2.8712945
-30.178171,2.2794602,2.8487406
-30.214195,2.2238605,2.7795997
-23.257507,1.3540642,2.7960324
-23.400635,1.4075389,2.8297086
-23.489805,1.425457,2.8279886
-23.58221,1.4461913,2.8295574
-23.689121,1.4776521,2.8425488
-23.76095,1.4853306,2.8315883
-23.918076,1.5538409,2.8837771
-23.951468,1.5353823,2.8465729
-24.012821,1.5369997,2.830357
-24.099567,1.5574005,2.834021
-24.16816,1.5650604,2.8247094
-24.252892,1.5851028,2.828723
-24.339275,1.6070058,2.8350792
-24.459469,1.6552019,2.8697066
-24.614803,1.7314832,2.9347992
-24.625097,1.6973312,2.882728
-24.65107,1.6749587,2.8432355
-24.714636,1.6820111,2.8354244
-24.846191,1.7436013,2.8866963
-24.899948,1.7440271,2.872406
-24.951101,1.7425537,2.8562517
-25.018768,1.7548265,2.8552504
-25.095024,1.7746842,2.8628082
-25.140823,1.7696216,2.843379
-24.22137,0.94679904,1.9254074
-25.304192,1.821238,2.8730268
-25.401073,1.8613188,2.9041452
-25.4358,1.8480973,2.8766055
-25.476757,1.8402958,2.8551822
-25.532185,1.8454473,2.8483214
-25.593428,1.8561547,2.8478713
-25.65091,1.8638558,2.8442845
-25.710558,1.8739166,2.8435578
-25.772892,1.886895,2.8463416
-25.832085,1.8973885,2.8465548
-25.894476,1.911356,2.8509192
-25.950363,1.9195521,2.8489685
-26.012238,1.9339571,2.854282
-26.06715,1.9420087,2.8525805
-26.122435,1.950799,2.8519192
-26.272495,2.0556593,2.9615092
-26.410906,2.1512532,3.0611506
-26.461285,2.1583023,3.0595298
-26.52,2.1744049,3.068524
-26.558407,2.1695726,3.0535393
-26.595308,2.163176,3.0368533
-26.660664,2.187638,3.0560837
-26.718391,2.2044995,3.0667214
-26.795,2.2429187,3.1026907
-26.830832,2.2365925,3.0867205
-26.876656,2.2416523,3.084168
-26.926281,2.2513862,3.0872402
-26.974728,2.2601528,3.0893445
-27.021542,2.267377,3.0897942
-27.064398,2.2701993,3.085208
-27.107641,2.2737255,3.0815835
-27.152184,2.279102,3.0802803
-27.197973,2.2863398,3.081324
-27.244057,2.2942996,3.0833678
-27.29131,2.3041353,3.0877886
-27.334364,2.308938,3.08637
-27.37555,2.311565,3.0824862
-27.419254,2.3177886,3.0830212
-27.46367,2.3253107,3.0852427
-27.5075,2.3323927,3.0870752
-27.550335,2.338449,3.0878096
-27.590979,2.341724,3.085331
-27.631126,2.344536,3.0824142
-27.671196,2.3474689,3.0797567
-27.710001,2.348762,3.0752368
-27.744083,2.3431222,3.0624442
-27.774023,2.3311012,3.0420141
-27.799997,2.3126667,3.0138788
-27.82107,2.2860174,2.975819
-27.827549,2.2351556,2.9083648
-27.851242,2.2108798,2.873199
-27.891047,2.2127256,2.869876
-27.934649,2.2212176,2.8747654
-27.97496,2.2244906,2.8734093
-28.014849,2.2272847,2.8715796
-28.057333,2.2349656,2.875836
-28.098663,2.240982,2.8781748
-28.13792,2.2435317,2.8763785
-28.178377,2.2485886,2.8777637
-28.216534,2.2495651,2.8742466
-28.259548,2.2602568,2.8827767
-28.31735,2.3011472,2.9286108
-28.361692,2.3163521,2.942984
-28.395327,2.3099926,2.9308853
-27.952991,1.2890368,1.6661558
-27.972834,1.2302659,1.5883155
-28.00681,1.2005272,1.5463753
-28.079103,1.2568622,1.6110449
-28.258072,1.5645053,1.9873204
-28.34387,1.6647203,2.1071248
-28.37898,1.6461537,2.0798283
-28.400814,1.593596,2.010388
-28.386375,1.4454374,1.8221326
-28.2715,1.0252335,1.2953434
-28.317146,1.0168054,1.2804508
-28.36557,1.0158203,1.2749338
-28.399864,0.97461796,1.2194071
-28.464907,1.021575,1.2738872
-28.510212,1.0117943,1.257752
-28.557255,1.0070279,1.247982
-28.606468,1.009129,1.2469025
-28.653034,1.0027678,1.2353644
-28.755022,1.1863492,1.4615421
-28.80379,1.1938887,1.4677472
-28.860762,1.2323222,1.5127611
-28.911013,1.2481515,1.5296154
-29.23374,2.3446536,2.9012322
-29.264044,2.3244674,2.8738046
-29.308235,2.3623273,2.9192672
-29.33901,2.343545,2.8937573
-29.373434,2.3402708,2.887784
-29.409548,2.3451157,2.8920913
-29.44484,2.3463483,2.8919463
-29.4793,2.3433437,2.886559
-29.51424,2.3429022,2.8844752
-29.549387,2.343789,2.8841434
-29.584892,2.3472447,2.8871279
-29.620056,2.3489347,2.8879747
-29.655348,2.3519554,2.8905807
-29.690968,2.3581681,2.8972893
-29.725807,2.3588936,2.8971715
-29.76103,2.363431,2.901938
-29.795187,2.3581324,2.894394
-29.829988,2.359127,2.8948598
-29.864962,2.3626945,2.8986502
-29.899818,2.3657312,2.901854
-29.934246,2.362649,2.8974257
-29.96879,2.3608973,2.8947535
-30.003565,2.3642027,2.8985395
-30.038101,2.3620071,2.8954701
-30.072706,2.3611426,2.8941598
-30.107359,2.363474,2.8969598
-30.14193,2.3460128,2.8748775
-30.176825,2.3298833,2.854557
-30.21303,2.2560675,2.7615643
-30.272831,1.3579848,1.6291399
-23.116314,1.3489308,2.7450933
-23.352634,1.4622753,2.8402262
-23.431139,1.4723902,2.8307095
-23.530972,1.4973605,2.8368487
-23.620361,1.5159318,2.8368392
-23.726433,1.546593,2.849802
-23.789623,1.5482779,2.8330417
-23.922892,1.5994146,2.868329
-23.96322,1.5859289,2.8363323
-24.0481,1.6042874,2.8380685
-24.126429,1.6185088,2.8357992
-24.19421,1.6255467,2.8262324
-24.268637,1.6378491,2.8225622
-24.392849,1.6876493,2.859364
-24.436226,1.677947,2.8328109
-24.552485,1.7235587,2.8660522
-24.608904,1.7244616,2.8514562
-24.663292,1.72403,2.8356256
-24.72485,1.7294104,2.8263254
-24.81617,1.7586126,2.843297
-24.918562,1.7974553,2.8712397
-25.033703,1.8475723,2.9120407
-23.962805,0.9336314,1.8898945
-24.053574,0.9562421,1.8980913
-24.013401,0.8707814,1.7867279
-24.150942,0.9329777,1.8393736
-25.378517,1.921454,2.9265757
-25.41418,1.9092379,2.9000888
-25.436016,1.884978,2.8601794
-25.492083,1.8903735,2.8536706
-25.552814,1.9002097,2.852377
-25.612738,1.9097323,2.850956
-25.674814,1.9216056,2.8524232
-25.732544,1.9299569,2.8501172
-25.791832,1.9401236,2.850091
-25.854927,1.9542694,2.8548307
-25.915451,1.9664874,2.8575974
-25.96213,1.9659343,2.8459163
-26.02169,1.9780102,2.8489265
-26.079329,1.9886672,2.8505158
-26.13784,2.0006194,2.8538094
-26.379745,2.1965494,3.0706234
-26.413881,2.1869044,3.0497108
-26.485722,2.2158275,3.0738006
-26.519255,2.205904,3.052836
-26.576109,2.2203727,3.0604835
-26.608149,2.2090168,3.0380692
-26.616083,2.1716468,2.9851823
-26.719807,2.237731,3.0539827
-26.791395,2.2702343,3.0836282
-26.837795,2.275623,3.0815191
-26.885054,2.2822838,3.0810637
-26.92872,2.2851696,3.0762863
-26.974247,2.2904437,3.0744796
-27.022528,2.2992487,3.0770202
-27.07347,2.3116074,3.0839534
-27.118977,2.3179078,3.0838213
-27.162014,2.321517,3.0806127
-27.205872,2.3263986,3.0790586
-27.249155,2.3308485,3.0771203
-27.294573,2.3382902,3.0789113
-27.337603,2.3430164,3.0775723
-27.37613,2.342141,3.0696054
-27.417675,2.3454006,3.0667415
-27.460415,2.3505132,3.0662417
-27.507257,2.3615284,3.07302
-27.549694,2.3669167,3.0731177
-27.58912,2.3683841,3.0685744
-27.632553,2.3757682,3.071344
-27.671413,2.3768969,3.0666175
-27.709827,2.3775556,3.0614257
-27.743914,2.3719113,3.0486364
-27.775387,2.3622665,3.0310345
-27.791475,2.328707,2.9842038
-27.810785,2.2992468,2.9423966
-27.824,2.2592313,2.8876357
-27.856428,2.2491832,2.8697124
-27.894375,2.2480452,2.862831
-27.934074,2.2499619,2.8598142
-27.975786,2.255536,2.8614168
-28.01975,2.2653747,2.8684034
-28.058485,2.2664623,2.8646936
-28.10211,2.2765584,2.872239
-28.14164,2.2796588,2.8712368
-28.179815,2.280492,2.8675265
-28.219202,2.2838147,2.8670077
-28.264017,2.2979887,2.8800826
-28.32749,2.3499353,2.9402995
-28.36133,2.3440995,2.9287505
-27.947304,1.411299,1.7614384
-27.995543,1.4158876,1.7620077
-28.051174,1.4368212,1.7831202
-28.09876,1.4410996,1.7835689
-28.145174,1.4431043,1.7812958
-28.259317,1.6018622,1.9754424
-28.353832,1.7218919,2.1214814
-28.382475,1.6883497,2.0752392
-28.40419,1.6361167,2.0055752
-28.37674,1.4562435,1.7755756
-28.775879,2.381291,2.9343543
-28.812738,2.3844714,2.9351811
-28.360989,1.042023,1.2421594
-28.40974,1.0417373,1.2376776
-28.454515,1.0300319,1.2189198
-28.494625,1.0038347,1.1819811
-28.542112,0.99903274,1.1721215
-28.5912,0.999228,1.1686826
-28.640078,0.99894285,1.1647534
-28.761944,1.2471883,1.4751339
-28.808058,1.2461231,1.4706168
-28.86792,1.2952971,1.529788
-28.91857,1.3134677,1.5498753
-28.967295,1.3256621,1.5625219
-29.274279,2.3938417,2.913567
-29.311464,2.4032788,2.9235468
-29.338097,2.3668299,2.8754148
-29.373222,2.366629,2.8733234
-29.408468,2.3671324,2.8722086
-29.444056,2.369571,2.8736334
-29.478672,2.367187,2.8690162
-29.514301,2.3704245,2.8716216
-29.54986,2.3737564,2.8744307
-29.585442,2.377796,2.8782248
-29.620758,2.3806982,2.8806562
-29.65584,2.3824615,2.88172
-29.690962,2.3849316,2.8837667
-29.726028,2.387494,2.8860111
-29.76104,2.390147,2.888453
-29.79575,2.3904245,2.8879514
-29.830395,2.3901753,2.8868594
-29.865286,2.3930993,2.8898892
-29.900114,2.3961139,2.8931146
-29.934809,2.397984,2.8949623
-29.969275,2.3962414,2.8922873
-30.003696,2.3927352,2.887444
-30.03828,2.3924036,2.886725
-30.072906,2.3940132,2.8885589
-30.107508,2.3963284,2.8913727
-30.142036,2.3863864,2.8786435
-30.17687,2.3617184,2.8472285
-30.213306,2.2717085,2.7326221
-30.272196,1.4120858,1.637353
-23.265594,1.4993529,2.8212433
-23.393099,1.5407708,2.8443422
-23.484451,1.5593164,2.8442087
-23.604923,1.5979173,2.8655014
-23.672527,1.601865,2.8509312
-23.762058,1.6210597,2.8527417
-23.892916,1.6692641,2.885714
-23.937912,1.6590796,2.8571768
-24.001898,1.6622384,2.8430467
-24.075508,1.6725044,2.8367963
-24.152353,1.6855175,2.8338113
-24.213848,1.687952,2.819725
-24.295023,1.7049983,2.8217192
-24.376537,1.7228651,2.824954
-24.440212,1.7280631,2.8147087
-24.51445,1.7415166,2.813754
-24.9186,1.8840699,2.9114313
-23.895247,0.9332802,1.8047657
-25.185333,1.9303916,2.9080448
-25.255013,1.9455659,2.911899
-25.313778,1.9521999,2.9063783
-25.405203,1.986584,2.9325151
-25.417927,1.9551508,2.8842669
-25.457397,1.9461727,2.8615746
-25.504253,1.9435983,2.8463097
-25.566727,1.9548454,2.847025
-25.62896,1.96632,2.8482366
-25.68681,1.9743199,2.8456779
-25.739199,1.9777496,2.8380532
-25.808352,1.9967833,2.848659
-25.867893,2.0075436,2.8499355
-25.926056,2.0174482,2.8504305
-25.986837,2.0302408,2.8544989
-26.044537,2.0405648,2.8559036
-26.096992,2.0462382,2.8520684
-26.155935,2.058579,2.8562322
-26.395815,2.2505746,3.071867
-26.43306,2.2442317,3.0548868
-26.441359,2.2085679,3.0033817
-26.568491,2.294136,3.0953097
-26.600124,2.2827852,3.0728512
-26.64238,2.2824903,3.0636044
-26.66029,2.2564588,3.0238404
-26.777521,2.3369043,3.1111164
-26.80396,2.3205388,3.0831642
-26.849247,2.3247316,3.0798821
-26.888956,2.3229594,3.0695848
-26.94096,2.3352249,3.0762753
-26.99173,2.3465545,3.0820117
-27.039848,2.3552608,3.084752
-27.082056,2.3574014,3.07971
-27.123251,2.358549,3.0735922
-27.167652,2.3637629,3.072524
-27.211464,2.3685534,3.0710773
-27.255154,2.3734825,3.0699291
-27.30412,2.3853476,3.0773654
-27.349276,2.3928366,3.0796175
-27.389868,2.3947828,3.0752306
-27.432127,2.3991308,3.0738997
-27.477276,2.407607,3.077754
-27.519274,2.4122243,3.0770063
-27.55823,2.4129586,3.0716052
-27.597141,2.4138064,3.0664506
-27.63723,2.4164944,3.0636716
-27.67724,2.4193017,3.061151
-27.71598,2.4204962,3.056748
-27.74803,2.4119706,3.0404153
-27.77405,2.3942537,3.0127602
-27.793926,2.366718,2.9729605
-27.81018,2.3328023,2.9252467
-27.828896,2.3017952,2.8811483
-27.865604,2.298792,2.8719459
-27.904846,2.2999759,2.8680582
-27.944744,2.302442,2.8658752
-27.986298,2.3079534,2.8676038
-28.025679,2.3100672,2.8651934
-28.067003,2.3158193,2.8674455
-28.106876,2.31934,2.8670096
-28.146008,2.3217967,2.8653436
-28.18698,2.3279064,2.8683696
-28.224058,2.3270438,2.8627338
-28.273409,2.3499563,2.8871293
-28.328625,2.3854768,2.9275656
-27.89066,1.4325926,1.721148
-27.910185,1.3775282,1.6464067
-28.00236,1.4723649,1.7611194
-28.04729,1.4704754,1.7537947
-28.10778,1.5026953,1.7897639
-28.138521,1.4700396,1.7437053
-28.317463,1.7751272,2.1260066
-28.354586,1.7626915,2.1060362
-28.382189,1.7269819,2.056584
-28.401192,1.6685238,1.97825
-28.362484,1.4617965,1.711309
-28.243885,1.0378578,1.1676059
-28.278883,0.9993391,1.1142144
-28.85242,2.4280148,2.931038
-28.889915,2.4337633,2.9354324
-28.440039,1.0337205,1.1457257
-28.483173,1.0155041,1.1186008
-28.533352,1.0179279,1.1179385
-28.584417,1.0235097,1.1214347
-28.633314,1.0225735,1.1167164
-28.762552,1.2924814,1.4587822
-28.812468,1.3047326,1.4713573
-28.871365,1.3504817,1.5269775
-28.923035,1.3727453,1.5526567
-28.975506,1.4000175,1.5848913
-29.278252,2.4417744,2.9189138
-29.31038,2.4304564,2.9024425
-29.340504,2.4094794,2.8736372
-29.37646,2.4135323,2.8770447
-29.411438,2.4134164,2.8751798
-29.446049,2.411563,2.871161
-29.482061,2.4171154,2.8767452
-29.517303,2.4191046,2.8778296
-29.552807,2.4230156,2.8814688
-29.587645,2.4233575,2.8805962
-29.622469,2.4237893,2.8799186
-29.657446,2.4255333,2.88101
-29.692383,2.4273682,2.882299
-29.727642,2.4323516,2.8877249
-29.76253,2.4349806,2.8901973
-29.797298,2.4370878,2.892077
-29.8318,2.4368377,2.8909965
-29.866402,2.4379005,2.8916879
-29.901152,2.4415014,2.8957295
-29.935564,2.4409063,2.8944392
-29.969955,2.4397876,2.8925505
-30.00434,2.4381442,2.8900628
-30.038752,2.4365888,2.8877668
-30.0731,2.4308338,2.8801308
-30.10766,2.4337435,2.8837495
-30.14212,2.4183633,2.8638506
-30.176872,2.4042974,2.845725
-30.213823,2.2782137,2.683167
-30.272148,1.4502258,1.6152158
-41.953693,0.3080039,2.666903
-42.13573,0.2713182,2.6766577
-41.80982,0.6659825,3.204764
-41.934402,0.6565225,3.2385826
-41.997356,0.6751962,3.2952085
-42.125446,0.66512346,3.3298507
-43.457134,0.6246624,3.8144712
-43.546757,0.6366463,3.8738055
-43.708485,0.62047243,3.915123
-43.79149,0.6358702,3.9780931
-23.225101,1.5659802,2.8321376
-23.327374,1.5900223,2.8376198
-23.443026,1.6234517,2.853497
-23.550833,1.6526456,2.8654327
-23.641544,1.6713705,2.866723
-23.719013,1.6818817,2.8596368
-23.810493,1.7022712,2.8634915
-23.94262,1.7509153,2.8982048
-23.945847,1.7123337,2.8391867
-24.032207,1.7308202,2.8420568
-24.099438,1.7365322,2.8313808
-24.169983,1.7449348,2.8239174
-24.262997,1.7697623,2.8347716
-24.42513,1.845093,2.9016643
-24.447586,1.820565,2.8589654
-25.173275,2.004126,2.9356813
-25.2429,2.018921,2.9394565
-25.275726,2.0043101,2.9098735
-25.350622,2.0241613,2.919897
-25.41644,2.0370996,2.9222665
-25.43029,2.0069063,2.8751469
-25.463577,1.9927518,2.8465543
-25.537682,2.0134854,2.8584895
-25.5801,2.00741,2.8395514
-25.645851,2.0218441,2.8446412
-25.706566,2.0323298,2.845364
-25.772331,2.0477662,2.8521023
-25.827293,2.0539584,2.8482342
-25.882677,2.060871,2.8454003
-25.939613,2.069565,2.844861
-25.999756,2.0816503,2.8485265
-26.056257,2.090754,2.8488727
-26.105854,2.0936415,2.842031
-26.233345,2.1722593,2.9254847
-26.404839,2.2960372,3.063354
-26.453424,2.3010018,3.059969
-26.506723,2.3109908,3.0627575
-26.578463,2.340119,3.0887012
-26.612123,2.330984,3.0688949
-26.669981,2.3469703,3.0794473
-26.666893,2.2993352,3.0133777
-26.767252,2.3609767,3.0794172
-26.80751,2.3594532,3.0693002
-26.853794,2.3646443,3.067453
-26.90542,2.3760452,3.0733042
-26.954334,2.3848643,3.076178
-26.997202,2.387208,3.0713015
-27.04433,2.3946764,3.0728197
-27.087467,2.3978546,3.0692282
-27.130985,2.4017248,3.0666132
-27.175327,2.4068484,3.0656672
-27.219078,2.411554,3.0643406
-27.268635,2.423686,3.0723004
-27.31072,2.4269974,3.069522
-27.353155,2.4310024,3.0677223
-27.393724,2.4328823,3.063414
-27.435528,2.4365804,3.0614734
-27.479378,2.4432387,3.0633311
-27.520527,2.446631,3.061252
-27.559488,2.4473066,3.055904
-27.59882,2.448666,3.0515137
-27.640541,2.4535644,3.0516524
-27.68013,2.4557326,3.0484924
-27.717663,2.4551551,3.0419989
-27.749311,2.4460795,3.024942
-27.776093,2.4296098,2.9986658
-27.798597,2.4062834,2.9638138
-27.810284,2.3656883,2.9072437
-27.830841,2.337773,2.866634
-27.86754,2.3347507,2.85746
-27.907135,2.336462,2.8543577
-27.948076,2.3406088,2.8544393
-27.989605,2.346039,2.8562536
-28.030321,2.350428,2.856861
-28.070255,2.3537705,2.8562465
-28.110428,2.3578126,2.8566236
-28.149849,2.3608017,2.8557673
-28.189507,2.3644888,2.8559008
-28.227188,2.3647723,2.851798
-28.274061,2.3827736,2.8703885
-28.342283,2.4432552,2.9433465
-28.375273,2.4362993,2.9303608
-28.414759,2.4423916,2.9341364
-28.456667,2.453911,2.9449615
-28.489965,2.4478307,2.9333506
-28.525818,2.4471583,2.9287481
-28.562464,2.448359,2.9266343
-28.602467,2.4573686,2.934639
-28.644577,2.4718387,2.9497643
-28.684885,2.4828706,2.9605813
-28.718853,2.479149,2.9525132
-28.753592,2.4773018,2.9469347
-28.790672,2.481507,2.9492383
-28.823572,2.475074,2.937911
-28.855474,2.4657357,2.922906
-28.892061,2.4690292,2.9242826
-28.928146,2.4712267,2.9243283
-28.96458,2.474719,2.9261355
-28.999744,2.474714,2.9235044
-29.035852,2.4778013,2.9249573
-29.072998,2.484589,2.9312887
-29.10838,2.4860716,2.9308348
-29.142323,2.4828374,2.9243464
-29.17682,2.4814954,2.9203882
-29.209871,2.4748225,2.9095898
-29.24695,2.483299,2.9185328
-29.28024,2.4774039,2.908896
-29.309874,2.4559028,2.8790498
-29.34477,2.4555998,2.8768206
-29.379528,2.454783,2.8740005
-29.414545,2.455265,2.87295
-29.449423,2.4552338,2.8713098
-29.48452,2.456503,2.8714418
-29.519474,2.457259,2.8709836
-29.554815,2.460528,2.873879
-29.589502,2.4602544,2.8722377
-29.624369,2.4612837,2.8723717
-29.659037,2.4611893,2.871121
-29.693937,2.4630053,2.872436
-29.728794,2.4649117,2.8739486
-29.763742,2.468122,2.8772411
-29.798683,2.4720306,2.8815231
-29.83332,2.4736009,2.882831
-29.867626,2.4716167,2.8795772
-29.90227,2.473973,2.8820653
-29.936787,2.4752035,2.8831606
-29.971058,2.4722688,2.8788943
-30.005434,2.4706373,2.8764052
-30.039898,2.4709182,2.8764906
-30.074368,2.4718952,2.8775601
-30.10877,2.4693134,2.8740592
-30.143188,2.4516222,2.8509002
-30.177914,2.4394903,2.8350787
-30.217196,2.179423,2.4955254
-30.272434,1.5219266,1.6370444
-42.103455,0.21307397,2.4035091
-42.130047,0.2515118,2.4768915
-42.134872,0.30000758,2.5589771
-41.715374,0.595171,2.890768
-41.73977,0.6316514,2.9609537
-41.778248,0.66148496,3.025638
-41.67655,0.7546356,3.1426983
-41.672165,0.8029301,3.2222524
-41.8598,0.76545906,3.2322044
-41.934734,0.7787218,3.2840204
-42.03567,0.7808361,3.3273888
-42.13743,0.7829964,3.3713803
-42.294495,0.76184773,3.3978539
-42.501175,0.72044015,3.409751
-42.673027,0.6948948,3.4350762
-42.974983,0.66383266,3.5039964
-43.04509,0.68258405,3.565093
-43.136356,0.692889,3.6204548
-43.18173,0.72197604,3.6898098
-43.263508,0.7365067,3.749093
-43.320717,0.76098776,3.8157983
-43.465153,0.7513461,3.8593588
-43.56528,0.75958943,3.9160156
-43.7215,0.7466078,3.959147
-43.862343,0.74024224,4.007714
-44.880947,0.5537741,4.112852
-23.069054,1.5660818,2.7691174
-23.26421,1.6469059,2.8353324
-23.397121,1.6900907,2.862226
-23.487705,1.7072868,2.8618093
-23.5794,1.7257898,2.8632088
-23.65199,1.7324505,2.8521771
-23.724422,1.7393899,2.8417492
-23.825191,1.7655537,2.8526258
-23.93538,1.7987976,2.8717203
-23.99071,1.7957611,2.8513818
-24.057247,1.8005807,2.8399248
