x,y,z
-34.98806,2.979523,2.8527198
-35.051888,2.9732747,2.851035
-35.113266,2.9688911,2.8523607
-35.17754,2.9631236,2.8517175
-35.24543,2.955592,2.8485389
-35.307426,2.9519253,2.8514185
-35.372356,2.9468985,2.8523812
-35.440266,2.9405344,2.8514757
-35.510506,2.9332492,2.849348
-35.567673,2.9337068,2.8591075
-35.650345,2.9202905,2.8480701
-35.685818,2.9333003,2.8770514
-35.736115,2.938269,2.8940125
-35.76771,2.9534385,2.9263868
-35.81716,2.9590893,2.94457
-35.870953,2.9626186,2.9596996
-35.924034,2.96672,2.975813
-35.983753,2.967607,2.987277
-36.05465,2.963073,2.9908557
-36.12129,2.9610672,2.9983678
-36.1948,2.9559677,3.0014944
-36.26477,2.953016,3.0079885
-36.347,2.944443,3.0064197
-36.42496,2.9384105,3.008812
-36.500866,2.9337893,3.0134907
-36.578514,2.9287498,3.0177794
-36.679516,2.913204,3.0070224
-36.791035,2.8934302,2.9904523
-51.959816,0.73252416,2.0450745
-52.034203,0.7812195,2.1591659
-51.869934,0.9512272,2.4604673
-51.673935,1.0609477,2.6344104
-51.721535,1.1143785,2.7525783
-51.62303,1.2002134,2.9018068
-51.725315,1.2411785,3.008162
-51.784798,1.2916946,3.123879
-51.82817,1.3457003,3.2430353
-51.986248,1.3755503,3.3407617
-52.232574,1.3877313,3.423903
-52.669884,1.3620005,3.4759016
-52.883247,1.3836565,3.5708203
-53.048843,1.4157536,3.6757398
-53.165466,1.4581146,3.79002
-53.35914,1.4859936,3.8935304
-53.592236,1.5072031,3.9931517
-54.810173,1.3448663,3.9557753
-54.846878,1.4071989,4.0924706
-8.778801,1.8736961,3.934538
-8.511065,1.7608566,3.7648377
-8.146393,1.6271179,3.574648
-8.151531,1.5650136,3.447052
-8.632767,1.5992935,3.4084563
-8.739067,1.5588982,3.3026218
-8.806547,1.5107398,3.189931
-8.856499,1.4589818,3.0740604
-8.882305,1.4020467,2.9532924
-8.8927,1.3416171,2.8290849
-8.900175,1.2803047,2.7039366
-8.924749,1.2225533,2.5823717
-8.919756,1.1579394,2.4537153
-8.965071,1.1045215,2.3366795
-8.996605,0.98360753,2.087902
-8.995329,0.918725,1.9586644
-8.986565,0.8516791,1.8269258
-9.022018,0.79505134,1.7065802
-9.022697,0.7296648,1.5764933
-9.032787,0.6662779,1.4485488
-9.005577,0.59310293,1.3093619
-8.676968,0.44183397,1.079948
-8.754898,0.3939724,0.96887493
-9.397089,0.4283085,0.90119743
-9.640867,0.42708588,0.84768486
-10.121742,0.49184108,0.874434
-11.191954,0.722342,1.1038251
-11.298763,0.6898203,1.0179796
-11.637766,0.72336555,1.013566
-12.220739,0.82867527,1.0992856
-12.466591,0.8397598,1.070509
-12.605225,0.8206587,1.0050011
-12.838783,0.83026004,0.9761734
-13.640718,1.0116303,1.1659636
-13.72554,0.9804337,1.088347
-14.272427,1.0912957,1.193162
-14.527039,1.1148167,1.1876993
-14.822778,1.1526501,1.2018304
-14.892386,1.1203613,1.1257391
-15.000435,1.1005147,1.0661592
-15.158886,1.0974083,1.0290036
-15.637689,1.2002461,1.1327267
-16.019707,1.2740307,1.1997395
-15.901972,1.1824269,1.047122
-16.147522,1.212862,1.057868
-16.184328,1.1730742,0.9747648
-16.191525,1.1228681,0.8775916
-16.27524,1.0991316,0.81639147
-16.806686,1.2343752,0.97285366
-16.841497,1.1952491,0.8919139
-16.88542,1.1592607,0.81534624
-17.04263,1.1646767,0.7961812
-17.053413,1.1166711,0.7032919
-17.128088,1.0922112,0.6432009
-18.276579,1.4741466,1.1524992
-18.131424,1.3702784,0.9832678
-18.25845,1.3699815,0.9595041
-18.247005,1.3161945,0.8604059
-18.899496,1.524004,1.1328325
-18.820654,1.4450126,0.9987993
-18.29763,1.1857479,0.60653543
-18.397911,1.1756005,0.5696907
-18.586578,1.2022448,0.5860877
-18.749454,1.2193093,0.5892587
-19.237219,1.3740296,0.79233027
-19.546288,1.4566169,0.8923006
-19.565125,1.4167652,0.8149009
-19.567192,1.369313,0.72637415
-19.540115,1.3085856,0.61831236
-19.669632,1.3165686,0.6110425
-20.72467,1.695324,1.1336432
-20.734623,1.6545069,1.0565834
-20.133144,1.3303235,0.5586071
-20.172127,1.2992718,0.49493313
-20.498194,1.4037592,0.63362694
-20.950537,1.5244842,0.7817278
-21.437435,1.7147188,1.0520673
-21.643106,1.7707822,1.1217852
-21.343401,1.5765812,0.8141308
-21.428703,1.5726047,0.7933407
-21.497778,1.5607195,0.76075745
-21.53556,1.5329127,0.70411825
-21.560001,1.4980035,0.636703
-22.46133,1.8360853,1.1132193
-22.5336,1.8306262,1.0923786
-22.571314,1.8064723,1.0429292
-22.58141,1.7668545,0.9696851
-22.492731,1.6713583,0.81008863
-22.370773,1.5552924,0.6183057
-22.478699,1.5688415,0.62699604
-22.505608,1.5361359,0.564116
-22.356083,1.3997333,0.339921
-28.301212,2.190509,1.1082654
-28.366909,2.229069,1.1706967
-28.422386,2.2479389,1.2001724
-28.48368,2.2809324,1.2534556
-28.544147,2.3141263,1.3071733
-28.600792,2.3405237,1.3495622
-28.657804,2.369599,1.3965416
-28.710659,2.3903463,1.4296002
-28.77022,2.4297934,1.4941988
-28.815718,2.434828,1.500978
-28.858124,2.4319556,1.4945059
-28.898434,2.4231625,1.478118
-28.954544,2.460236,1.5390315
-29.00659,2.4879239,1.5842185
-29.061615,2.5273576,1.6492753
-29.109678,2.5473022,1.6815672
-29.152666,2.5517457,1.6877947
-29.197361,2.5628688,1.7053404
-29.242172,2.5756326,1.7257133
-29.28743,2.5915554,1.7514753
-29.330683,2.6010277,1.7664161
-29.373804,2.6111252,1.7824674
-29.414885,2.6132343,1.7850947
-29.45537,2.612918,1.783678
-29.492674,2.596478,1.7550912
-29.53175,2.5877373,1.7395468
-29.570932,2.5785863,1.7233567
-29.694082,3.095628,2.5959191
-29.730583,3.1087246,2.6175013
-29.764835,3.1076908,2.6152601
-29.806173,3.1641908,2.7102609
-29.840952,3.174029,2.726482
-29.875183,3.180908,2.7377458
-29.90933,3.1888938,2.7509232
-29.94305,3.1939156,2.7591348
-29.976547,3.1974983,2.7649555
-30.009874,3.199641,2.7683835
-30.043247,3.2044144,2.7763
-30.076363,3.2041826,2.7757974
-30.109528,3.2070906,2.7806435
-30.142616,3.2085571,2.7830915
-30.175667,3.210108,2.7857246
-30.208649,3.2132719,2.7911234
-30.241623,3.214483,2.793263
-30.274706,3.212724,2.7904239
-30.307688,3.2135963,2.7920713
-30.340548,3.21608,2.7964816
-30.373228,3.2201738,2.8036542
-30.405909,3.223333,2.809288
-30.438784,3.2240326,2.8108053
-30.471828,3.223292,2.809929
-30.504831,3.223145,2.8100963
-30.53763,3.2246072,2.813024
-30.570013,3.2286928,2.8204226
-30.60256,3.2313378,2.8254266
-30.635412,3.2320347,2.8271823
-30.66797,3.2343392,2.8316908
-30.700077,3.238754,2.8398027
-30.733927,3.2346358,2.833551
-30.76903,3.2255433,2.8189468
-30.80244,3.2246456,2.8182178
-30.835888,3.2238355,2.8176775
-30.869503,3.2226071,2.816475
-30.903578,3.219952,2.8129082
-30.937588,3.217893,2.8103905
-30.970762,3.21895,2.8131695
-31.004087,3.2195892,2.8152862
-31.03774,3.2193089,2.8158941
-31.07058,3.2216322,2.820932
-31.104256,3.2215261,2.8219194
-31.138859,3.218998,2.818871
-31.17373,3.2160618,2.8151817
-31.207926,3.2152252,2.8150716
-31.241768,3.2154822,2.816845
-31.274813,3.21783,2.8221788
-31.31056,3.2137659,2.8167748
-31.345783,3.2112992,2.8141036
-31.379759,3.2119215,2.816669
-31.414888,3.210143,2.8152466
-31.450323,3.2079637,2.8131986
-31.484879,3.207869,2.8146973
-31.519958,3.2068758,2.814734
-31.555346,3.2054827,2.814147
-31.590282,3.2051768,2.8154306
-31.626314,3.202989,2.8136077
-31.661623,3.2023828,2.8144832
-31.698084,3.1999023,2.8122687
-31.73323,3.1999853,2.8143954
-31.768986,3.199182,2.8150878
-31.80509,3.1979868,2.8151736
-31.840961,3.1973832,2.816298
-31.877192,3.1963902,2.816822
-31.914104,3.1945226,2.8159356
-31.951418,3.1922722,2.8144636
-31.984316,3.1969438,2.8245926
-32.020424,3.1968405,2.8268032
-32.06025,3.1915033,2.8203416
-32.097187,3.1906445,2.8213987
-32.13488,3.1889238,2.821076
-32.17336,3.1863484,2.8193855
-32.210163,3.1862938,2.8219438
-32.247375,3.185863,2.8239307
-32.286488,3.1831415,2.8221664
-32.324215,3.1824503,2.823833
-32.36201,3.18187,2.8257375
-32.40179,3.1790152,2.8239284
-32.443253,3.1743774,2.8192267
-32.48171,3.1736665,2.821093
-32.52023,3.173069,2.823205
-32.559635,3.17164,2.823999
-32.599953,3.1693852,2.8234906
-32.641212,3.1663122,2.8216958
-32.68218,3.1638367,2.820952
-32.7224,3.1624236,2.8220258
-32.76315,3.160666,2.8225951
-32.803555,3.159499,2.8242025
-32.8436,3.1589205,2.8268418
-32.889584,3.1524332,2.8198338
-32.933956,3.1479485,2.816195
-32.976646,3.1454537,2.815896
-33.01805,3.1444747,2.818153
-33.060493,3.142706,2.8191843
-33.103035,3.1410704,2.820506
-33.147133,3.1381981,2.8198771
-33.190876,3.1359243,2.8203006
-33.23424,3.1342447,2.8217692
-33.280212,3.1304386,2.8198452
-33.324825,3.1281395,2.820457
-33.36854,3.1268854,2.8228483
-33.413902,3.124424,2.8233533
-33.462513,3.1194258,2.8198166
-33.50921,3.1163785,2.8195362
-33.554985,3.1143754,2.8210344
-33.60249,3.1111925,2.8207045
-33.646893,3.1108222,2.8250122
-33.698483,3.1048658,2.8203712
-33.74367,3.1043618,2.8246326
-33.79284,3.1009395,2.8242702
-33.84104,3.0985584,2.8256779
-33.890514,3.0954702,2.8260403
-33.941277,3.0916843,2.8253756
-33.9899,3.089803,2.827868
-34.038067,3.0885177,2.831408
-34.09162,3.083533,2.8291187
-34.140644,3.08216,2.8327117
-34.19276,3.078823,2.8332644
-34.25045,3.071849,2.8281217
-34.302925,3.0688937,2.8295012
-34.351284,3.069073,2.8359747
-34.40588,3.0652177,2.836133
-34.466854,3.0573757,2.8300815
-34.51934,3.0555956,2.833767
-34.57763,3.050265,2.8319435
-34.629784,3.0492835,2.8371153
-34.687805,3.0447793,2.8368406
-34.749237,3.0384374,2.833798
-34.807667,3.034369,2.8344684
-34.86824,3.0292957,2.8336892
-34.926388,3.026069,2.8359413
-34.98206,3.0246696,2.8411818
-35.035187,3.0250788,2.84937
-35.098476,3.0196762,2.848607
-35.17415,3.0073447,2.8372025
-35.220943,3.0123682,2.852962
-35.29169,3.0037313,2.847619
-35.367558,2.9926207,2.8386188
-35.42574,2.9919882,2.8460078
-35.49172,2.9872851,2.8472495
-35.555794,2.9839995,2.8508334
-35.61298,2.9848163,2.860879
-35.655327,2.9939058,2.8837495
-35.70759,2.9977775,2.898715
-35.761307,3.0010722,2.9129167
-35.81072,3.0068302,2.9309978
-35.86375,3.010874,2.94658
-35.92851,3.0091114,2.9534655
-35.996357,3.0061066,2.958632
-36.07104,3.0000281,2.9593253
-36.137035,2.9986792,2.967352
-36.206913,2.9957511,2.9731703
-36.28599,2.9887156,2.9730053
-36.36609,2.9816408,2.9729977
-36.44037,2.977785,2.9780226
-36.524017,2.9699159,2.9772654
-36.591053,2.9702556,2.9889536
-36.692154,2.9552188,2.9780102
-36.79137,2.941679,2.9695835
-51.897774,0.87644744,2.0030298
-51.812805,0.96195817,2.1555786
-52.5048,0.93646646,2.2560592
-51.770283,1.2304711,2.6854377
-51.577053,1.336122,2.8556128
-51.65629,1.3822436,2.96632
-51.651344,1.4462378,3.0946074
-51.80122,1.477812,3.1920247
-51.910202,1.5183349,3.2986245
-52.11024,1.5408559,3.3893118
-52.43942,1.5385959,3.4588814
-52.925377,1.5072467,3.5048032
-52.941895,1.5689976,3.634552
-53.093346,1.604918,3.7423673
-53.26758,1.637166,3.8480606
-53.429657,1.6723819,3.9572697
-54.834206,1.482507,3.8889704
-54.845573,1.5494711,4.0292935
-54.96534,1.5971508,4.155061
-8.67577,1.9797597,3.8569512
-8.38574,1.8641582,3.6819186
-8.092627,1.7460637,3.5026245
-8.148073,1.6937377,3.3839178
-8.693237,1.7379913,3.358797
-8.778311,1.6931007,3.24936
-8.842878,1.64427,3.1364055
-8.872637,1.5883751,3.0165854
-8.885969,1.5289419,2.8932076
-8.898275,1.4690816,2.7693577
-8.917192,1.410419,2.6467366
-8.93507,1.3513417,2.523673
-8.958586,1.2933075,2.4017277
-8.968718,1.2321095,2.27635
-9.187265,1.2178733,2.2027664
-9.098579,1.1340957,2.0526462
-9.024427,1.0528305,1.9047742
-8.983568,0.9786215,1.7644353
-9.017843,0.856457,1.513268
-9.088751,0.8081691,1.4026332
-8.892424,0.6936605,1.2139797
-8.67193,0.5714719,1.0150714
-8.746185,0.5224869,0.9029231
-10.449869,0.8932643,1.2995358
-9.440525,0.5670719,0.85339403
-11.396439,1.0167809,1.3567247
-11.761816,1.0537238,1.3577857
-12.030819,1.0666046,1.3304334
-12.377169,1.1020486,1.3325844
-12.695232,1.1315622,1.3287296
-12.981548,1.153909,1.3171024
-13.303535,1.1879113,1.3216105
-13.363834,1.1485772,1.232902
-13.56105,1.1490402,1.1959848
-13.882296,1.1869097,1.2086487
-14.025698,1.1737249,1.1556191
-14.120808,1.1466177,1.0847392
-14.256398,1.1320956,1.0308666
-14.362694,1.1091106,0.96618366
-14.529547,1.1053221,0.927588
-14.727193,1.1120086,0.9037075
-15.510596,1.3062036,1.1344714
-15.028263,1.0980592,0.8209224
-15.239086,1.1117294,0.8085308
-16.18946,1.3700655,1.1329036
-16.193222,1.319768,1.0352721
-16.212538,1.2743311,0.94429684
-16.164341,1.2056386,0.8209429
-16.16641,1.1534646,0.7203846
-16.863155,1.3426707,0.95837736
-16.835384,1.2818246,0.84678316
-16.88018,1.2461562,0.7705908
-16.833061,1.1773388,0.6474242
-16.873358,1.1394935,0.56811094
-18.174274,1.5649436,1.1513352
-18.143745,1.5055616,1.0436001
-17.553902,1.2353857,0.63210726
-18.250559,1.44852,0.9167261
-18.244095,1.3970125,0.82012653
-19.019815,1.6485214,1.1641903
-19.074337,1.6232004,1.1070061
-18.52707,1.3593116,0.7006922
-18.781464,1.312932,0.57066536
-19.594896,1.5995123,0.97523785
-19.537523,1.528595,0.8514013
-19.56675,1.4933012,0.7803607
-19.316612,1.3384182,0.5306673
-19.277256,1.2717822,0.41222954
-20.55735,1.7802205,1.157342
-20.643198,1.7732191,1.1305118
-20.627098,1.7210929,1.0357685
-20.06926,1.424171,0.5703964
-20.126362,1.4014874,0.5191598
-19.872593,1.2356989,0.2503891
-21.02718,1.6306195,0.8051133
-21.098763,1.6184187,0.77157736
-21.663198,1.8457808,1.1066899
-21.702583,1.820749,1.0544734
-21.448446,1.6499667,0.77716064
-21.503468,1.6309824,0.733943
-21.540482,1.6029017,0.67671347
-21.562708,1.5670729,0.6074834
-22.442253,1.9316621,1.1496677
-22.484991,1.9104025,1.104487
-22.553581,1.9029057,1.0809231
-22.571438,1.8681929,1.0147972
-22.58852,1.8326881,0.9474106
-22.430822,1.7001677,0.7272434
-22.389433,1.6301293,0.60508394
-22.500011,1.6448181,0.61660194
-22.385405,1.53158,0.42590523
-22.353964,1.4642677,0.30760193
-28.311192,2.2558289,1.1254134
-28.371635,2.283617,1.1705861
-28.428818,2.306184,1.2069511
-28.48857,2.3358307,1.2554684
-28.547123,2.3646834,1.302721
-28.604725,2.393229,1.349536
-28.6589,2.4155276,1.385777
-28.716526,2.447896,1.4392815
-28.766884,2.464093,1.4652619
-28.814917,2.4754777,1.4830923
-28.859703,2.4790537,1.487648
-28.903484,2.4802659,1.4882202
-28.955952,2.506969,1.5324116
-29.013699,2.5517597,1.6075954
-29.06268,2.572815,1.642282
-29.110199,2.5910225,1.6721654
-29.152388,2.5928957,1.6741705
-29.197191,2.6043718,1.692657
-29.241014,2.6134734,1.7071362
-29.28744,2.6337004,1.7407126
-29.330639,2.643049,1.7557273
-29.373474,2.652014,1.7701402
-29.41385,2.651073,1.7676425
-29.454231,2.6502354,1.7653699
-29.491644,2.634451,1.7375431
-29.527195,2.6067095,1.6892729
-29.567478,2.6026506,1.6816149
-29.689983,3.1101391,2.5505338
-29.726173,3.119556,2.566154
-29.768631,3.176834,2.6638455
-29.802635,3.1774063,2.6644006
-29.837969,3.1901412,2.6858444
-29.872835,3.2014606,2.704904
-29.907417,3.2128725,2.7241635
-29.941488,3.2213538,2.738442
-29.975061,3.225393,2.7451434
-30.008453,3.2280078,2.7494416
-30.0416,3.226176,2.7461553
-30.07495,3.2304733,2.7534175
-30.10817,3.2333457,2.758275
-30.141312,3.2337847,2.758998
-30.174461,3.2322936,2.7564507
-30.207592,3.2334063,2.7584066
-30.240711,3.234101,2.7596836
-30.273703,3.2373984,2.7654629
-30.30679,3.237759,2.766244
-30.339834,3.238708,2.7680736
-30.372738,3.2412522,2.7726755
-30.405392,3.245893,2.7809105
-30.438477,3.2455854,2.7807007
-30.471634,3.2448602,2.7798128
-30.50442,3.247238,2.7842827
-30.537157,3.2496986,2.7889338
-30.570154,3.2502334,2.7903214
-30.60298,3.2518575,2.7936144
-30.635777,3.2535663,2.7970905
-30.668158,3.2573662,2.8041863
-30.700972,3.2587402,2.807166
-30.734087,3.258694,2.8077517
-30.76699,3.259736,2.8102393
-30.80169,3.2533526,2.8000536
-30.834785,3.2540684,2.802063
-30.868544,3.25237,2.7999792
-30.901943,3.25226,2.800654
-30.935217,3.2527366,2.8023725
-30.9685,3.2532997,2.8042793
-31.0021,3.2529526,2.804669
-31.036055,3.2516973,2.803546
-31.069891,3.2510302,2.8034701
-31.103765,3.2504528,2.8035884
-31.137314,3.2509587,2.8055997
-31.17106,3.2510562,2.806953
-31.20502,3.2507467,2.807653
-31.238617,3.251519,2.8102407
-31.273243,3.2499049,2.808797
-31.308567,3.2469018,2.8050265
-31.343775,3.24449,2.8023095
-31.37684,3.2471066,2.8082123
-31.411243,3.246853,2.8092613
-31.447327,3.2432477,2.8046427
-31.482082,3.2426932,2.8052678
-31.51639,3.2432132,2.8077664
-31.552988,3.2394147,2.802956
-31.587902,3.2391465,2.804202
-31.624971,3.2350628,2.7990026
-31.660282,3.234502,2.7998433
-31.695642,3.2340386,2.8008938
-31.731895,3.2322123,2.7996755
-31.766504,3.2334037,2.8036294
-31.802588,3.2322628,2.8036685
-31.839937,3.2292843,2.8006372
-31.875565,3.229316,2.802762
-31.911234,3.2294471,2.8051014
-31.94789,3.2282295,2.8052034
-31.98365,3.228561,2.8079767
-32.020103,3.2280302,2.8093395
-32.057945,3.225684,2.8076797
-32.096573,3.2224913,2.8046398
-32.13463,3.220368,2.8034635
-32.172077,3.2193103,2.8041391
-32.20746,3.2212164,2.8098712
-32.24357,3.2222695,2.8142114
-32.28559,3.2158377,2.805976
-32.32483,3.2133229,2.8044071
-32.365314,3.209509,2.8007069
-32.403633,3.2086468,2.8020349
-32.442024,3.2078965,2.8036065
-32.480484,3.2072587,2.8054218
-32.521427,3.2039254,2.802763
-32.56006,3.2035215,2.8050852
-32.597515,3.20463,2.81
-32.634163,3.2067757,2.81671
-32.67591,3.2034583,2.8143134
-32.717365,3.200734,2.8129754
-32.7572,3.199985,2.8150067
-32.796673,3.1998174,2.81807
-32.84112,3.1947138,2.8129444
-32.88394,3.191588,2.811191
-32.92233,3.1931696,2.8173623
-32.96537,3.190304,2.816175
-33.010414,3.185756,2.812253
-33.05326,3.183623,2.812426
-33.09431,3.1834362,2.8159037
-33.13737,3.1815708,2.816656
-33.18103,3.1793919,2.816958
-33.225304,3.1769052,2.8168201
-33.269203,3.1750085,2.8177333
-33.312714,3.1736994,2.8196926
-33.3645,3.1654131,2.8101788
-33.40881,3.163961,2.8120556
-33.45688,3.1595566,2.8091311
-33.50144,3.1584005,2.8116488
-33.548225,3.1556313,2.811584
-33.593544,3.1543322,2.8140206
-33.641678,3.1509974,2.8131876
-33.689423,3.1482615,2.8134232
-33.73841,3.1448183,2.812582
-33.789787,3.1398132,2.809268
-33.836864,3.138435,2.8119907
-33.88519,3.136355,2.8136487
-33.9325,3.1352947,2.817061
-33.98165,3.1331131,2.818728
-34.035007,3.1281245,2.8159056
-34.088566,3.123325,2.8134952
-34.14055,3.119983,2.813558
-34.195675,3.11472,2.8105993
-34.248005,3.1117508,2.811472
-34.294426,3.1131406,2.819511
-34.349464,3.1088617,2.8184566
-34.402225,3.1064384,2.8205118
-34.45141,3.1066773,2.82697
-34.512566,3.0992732,2.821196
-34.568943,3.095375,2.821196
-34.624233,3.0924976,2.8229523
-34.682243,3.0881946,2.8225322
-34.73465,3.0877469,2.8284135
-34.791054,3.0850656,2.8308234
-34.850887,3.080583,2.830471
-34.91158,3.0759246,2.8299637
-34.976456,3.0691051,2.8261447
-35.033577,3.0672889,2.83043
-35.08748,3.067654,2.8383021
-35.149597,3.0634985,2.8391151
-35.21395,3.0584047,2.8385792
-35.293602,3.0449944,2.825036
-35.35366,3.043145,2.8299356
-35.41942,3.0384338,2.8304572
-35.47561,3.0393503,2.8399825
-35.53259,3.0400887,2.84935
-35.583298,3.0444565,2.8645315
-35.636864,3.047487,2.877726
-35.691185,3.0503314,2.8907466
-35.74771,3.052246,2.9024367
-35.815166,3.0487742,2.9058733
-35.885727,3.0440807,2.907576
-35.952843,3.041512,2.9127421
-36.024544,3.0370011,2.9150686
-36.100906,3.0305824,2.91463
-36.17157,3.0273805,2.9193377
-36.245415,3.023012,2.9224296
-36.32399,3.0167816,2.9228554
-36.39752,3.0133748,2.927805
-36.475807,3.0081282,2.9301348
-36.553566,3.0035543,2.9336953
-36.639233,2.9957783,2.9325976
-36.736004,2.983462,2.9248538
-36.829285,2.9732985,2.9206347
-51.655823,0.93368196,1.743516
-51.63021,1.0051522,1.8815718
-51.818394,1.0273964,1.9647508
-52.02626,1.046016,2.0448694
-52.430954,1.0884233,2.2137966
-52.46173,1.1480014,2.3404598
-51.66117,1.3845086,2.6522274
-51.674362,1.4450662,2.777588
-51.64541,1.5141335,2.9115744
-51.653854,1.575109,3.0371547
-51.723934,1.6234426,3.150176
-51.82705,1.6653528,3.2572632
-51.94597,1.704495,3.3622313
-52.22674,1.7128699,3.4388685
-52.32929,1.7564147,3.5497284
-54.78627,1.3600872,3.2617326
-52.996582,1.759372,3.698225
-53.13674,1.7983809,3.8083878
-53.333755,1.827775,3.9111814
-53.59175,1.8473127,4.0069957
-54.860596,1.69325,3.9630709
-54.874878,1.7594507,4.102951
-8.873484,2.2010841,3.9625673
-8.497175,2.073479,3.7753124
-8.157719,1.9502406,3.5898242
-8.572296,1.9646838,3.5366445
-8.612497,1.9107299,3.4179535
-8.704632,1.8666801,3.3093967
-8.785831,1.820775,3.1993847
-8.832085,1.7681901,3.0828056
-8.861822,1.712301,2.9629107
-8.868412,1.6516137,2.8379612
-8.888346,1.5934277,2.7156549
-8.906277,1.5346518,2.5927105
-8.923172,1.4754679,2.4693098
-8.960936,1.4205604,2.35069
-8.957706,1.3566532,2.2219672
-9.086281,1.3214831,2.1260324
-8.971178,1.2322915,1.9681592
-8.909443,1.1541715,1.8225241
-9.012539,1.048511,1.5902262
-9.027235,0.9869497,1.463809
-9.039118,0.9244528,1.3362207
-10.299976,1.1638775,1.5774641
-8.692923,0.70791817,0.96812963
-10.419439,1.0690134,1.365365
-10.770538,1.0948615,1.3512459
-11.160698,1.1325235,1.3535433
-11.524977,1.1656437,1.351768
-11.866274,1.1947477,1.3464184
-12.173706,1.216747,1.3333664
-12.39436,1.2171712,1.293644
-12.4530525,1.174818,1.1990337
-13.050877,1.2802503,1.2984266
-13.082951,1.2323351,1.197959
-13.327803,1.2439997,1.1766181
-13.602001,1.2652733,1.1690521
-13.652069,1.2235858,1.0780253
-13.678482,1.1749771,0.977767
-13.917948,1.1888752,0.962337
-13.993446,1.1552036,0.8829136
-14.150414,1.146208,0.8375263
-14.405852,1.1679244,0.8349848
-15.400324,1.4189167,1.150722
-13.8341465,0.87790346,0.3689556
-16.281738,1.4909561,1.1379261
-16.18503,1.408498,0.99443865
-16.152279,1.3460417,0.87891626
-16.147411,1.2922409,0.7755289
-16.81584,1.4147847,0.8994026
-16.828346,1.3681822,0.8073435
-16.814354,1.3120031,0.70136833
-18.066135,1.654711,1.1530704
-18.094814,1.6173344,1.0765243
-17.740625,1.4401057,0.79451036
-18.277637,1.588289,0.99087477
-18.220188,1.5187318,0.86701536
-18.207977,1.4653227,0.7668309
-19.094196,1.7537436,1.1752715
-19.150032,1.7291927,1.119473
-18.784267,1.3943586,0.54002523
-19.552406,1.6570883,0.9188595
-19.528759,1.6006103,0.8154435
-20.481565,1.8617392,1.1632118
-20.549313,1.8463995,1.1239638
-20.556965,1.8051531,1.0450163
-20.077805,1.5022774,0.5464101
-20.132534,1.4785306,0.49363947
-21.06316,1.7164583,0.80372477
-21.114265,1.6945891,0.7554531
-21.738808,1.9467881,1.1373391
-21.808224,1.9367216,1.1086679
-21.4638,1.7247546,0.76203203
-21.508429,1.7006803,0.7109041
-21.546844,1.673429,0.65481377
-22.438313,1.9909592,1.1218762
-22.523893,1.9920416,1.1122437
-22.629156,2.0039182,1.1200252
-22.559032,1.9230151,0.9796958
-22.513042,1.8537216,0.8576913
-22.352127,1.720711,0.63326025
-22.402527,1.7014966,0.5911732
-22.488287,1.7019482,0.58081436
-22.329155,1.5649765,0.34907913
-22.360458,1.5337355,0.2875476
-28.251244,2.275917,1.0703864
-28.313581,2.3055882,1.1195312
-28.375862,2.3369224,1.1716394
-28.434317,2.3621297,1.2132444
-28.493238,2.3899603,1.2594681
-28.55056,2.416027,1.3027225
-28.60763,2.443253,1.348063
-28.665863,2.4750633,1.4014177
-28.719042,2.4967747,1.4373689
-28.768124,2.5098233,1.4583879
-28.814001,2.5156522,1.4669604
-28.857492,2.5157125,1.4655943
-28.90255,2.5203137,1.472148
-28.961905,2.5663846,1.5506463
-29.017612,2.605261,1.6167545
-29.065302,2.6226199,1.6456218
-29.110386,2.6332088,1.6628046
-29.155771,2.6458995,1.6836891
-29.199404,2.653776,1.6962738
-29.245398,2.6711693,1.7254295
-29.290161,2.685724,1.7497144
-29.331703,2.6890142,1.7544937
-29.3742,2.6968741,1.7672582
-29.414032,2.6939404,1.7613249
-29.454021,2.6916044,1.756474
-29.48988,2.6685214,1.7156248
-29.528149,2.655454,1.6922121
-29.649752,3.1160147,2.49185
-29.68979,3.1460917,2.5435853
-29.728481,3.172305,2.588656
-29.765486,3.191166,2.6209922
-29.801012,3.2021654,2.639707
-29.835976,3.2107704,2.6543002
-29.870617,3.218472,2.6673622
-29.905907,3.235728,2.697075
-29.939617,3.2381327,2.7010055
-29.973358,3.2421193,2.7077236
-30.006968,3.2456954,2.7137656
-30.040407,3.247364,2.7165284
-30.07376,3.247624,2.716878
-30.107126,3.2494645,2.7200131
-30.140448,3.2523882,2.7250686
-30.173693,3.2558956,2.731176
-30.206894,3.2574947,2.7340012
-30.240107,3.2576838,2.7344112
-30.273247,3.259453,2.737605
-30.306402,3.2603102,2.7392502
-30.339436,3.2627482,2.74368
-30.372496,3.2642736,2.74656
-30.405098,3.2703662,2.7574162
-30.438356,3.2690728,2.755468
-30.471592,3.2683628,2.7545705
-30.504591,3.2697296,2.7573195
-30.537636,3.270683,2.7593875
-30.570435,3.2732139,2.7642326
-30.603094,3.276324,2.770121
-30.636139,3.2770343,2.771875
-30.669083,3.278326,2.774675
-30.702005,3.2797022,2.7776585
-30.735449,3.2786832,2.7765183
-30.769272,3.2762637,2.772985
-30.802568,3.2764115,2.7739468
-30.835499,3.2781303,2.7776737
-30.86893,3.2779558,2.7781496
-30.902662,3.2768786,2.7770982
-30.936295,3.2763846,2.7770967
-30.969355,3.2779536,2.780713
-31.003021,3.2776353,2.7810917
-31.037369,3.275434,2.7782435
-31.071115,3.2752943,2.7790103
-31.104887,3.2752435,2.7799702
-31.138865,3.27479,2.78027
-31.173063,3.273936,2.7799163
-31.207115,3.2736635,2.7806087
-31.241198,3.273482,2.781499
-31.276949,3.2694743,2.775804
-31.31072,3.270456,2.778789
-31.34601,3.268108,2.7760496
-31.381165,3.266344,2.774365
-31.416393,3.2646766,2.7728891
-31.450987,3.2645664,2.7741475
-31.485857,3.2640626,2.774767
-31.522741,3.2597694,2.7688813
-31.55699,3.2609153,2.7724347
-31.592018,3.2606995,2.7736773
-31.627615,3.2596118,2.773459
-31.662735,3.2595882,2.7751193
-31.698166,3.2591789,2.7761564
-31.73421,3.2579036,2.775745
-31.770609,3.2562482,2.7747226
-31.805328,3.2575753,2.7788835
-31.843046,3.254204,2.7749963
-31.880278,3.2518992,2.7729936
-31.914188,3.254955,2.780261
-31.950916,3.253809,2.780343
-31.988037,3.2522912,2.7798324
-32.026554,3.2489781,2.776287
-32.062523,3.2495744,2.7795038
-32.099545,3.2488499,2.7805
-32.137665,3.246813,2.7792926
-32.176937,3.2434728,2.7759013
-32.21705,3.2393086,2.7711506
-32.254417,3.2390246,2.7731013
-32.2911,3.239786,2.7768908
-32.32969,3.2383108,2.7769012
-32.368744,3.2364829,2.77636
-32.407127,3.2357025,2.7776637
-32.4448,3.2359653,2.7807999
-32.48371,3.2349448,2.7817955
-32.522705,3.2340395,2.783042
-32.561367,3.2337117,2.7853265
-32.59968,3.2339594,2.7886443
-32.638466,3.2338598,2.7914228
-32.680286,3.2306635,2.7889838
-32.72181,3.2280557,2.7876081
-32.762154,3.2269459,2.7888393
-32.80523,3.2232265,2.785695
-32.846226,3.221916,2.7867036
-32.887318,3.220731,2.7879853
-32.93033,3.2178655,2.7864776
-32.972553,3.2160373,2.7867928
-33.015354,3.2138922,2.786634
-33.058746,3.2114344,2.7860107
-33.101307,3.2100093,2.787199
-33.144943,3.2078266,2.7871718
-33.189674,3.2048943,2.7859488
-33.235046,3.201664,2.7842917
-33.277565,3.2012343,2.787425
-33.32219,3.1991754,2.7878804
-33.366425,3.1977005,2.78939
-33.41232,3.1950543,2.7889996
-33.456787,3.1938696,2.7911363
-33.50189,3.1923933,2.7928553
-33.5471,3.1910646,2.7948942
-33.596176,3.186853,2.792181
-33.644894,3.1832418,2.790554
-33.692135,3.1810858,2.7914414
-33.738956,3.179516,2.7933865
-33.786453,3.1776755,2.7949576
-33.83464,3.1755693,2.796165
-33.885227,3.1719282,2.7949028
-33.93427,3.1697314,2.7961287
-33.984028,3.1672802,2.797018
-34.033348,3.16542,2.798974
-34.083385,3.1633108,2.8006034
-34.13593,3.1597059,2.799848
-34.187454,3.1571178,2.8008676
-34.240334,3.1538823,2.8009105
-34.292168,3.1516578,2.802719
-34.344757,3.149205,2.8042455
-34.395035,3.1485734,2.8088675
-34.448524,3.1460786,2.8105164
-34.5078,3.1401217,2.8065844
-34.566048,3.1351926,2.8044548
-34.62197,3.1320896,2.805427
-34.67678,3.1299913,2.8081498
-34.732388,3.1276896,2.810647
-34.788143,3.12559,2.813581
-34.84863,3.12092,2.81244
-34.90735,3.1176586,2.8137121
-34.966248,3.1146152,2.8154554
-35.026653,3.1110077,2.8164039
-35.088593,3.1068475,2.8165827
-35.146,3.1056337,2.8216515
-35.213078,3.0992303,2.8184624
-35.279037,3.0938542,2.8170743
-35.34109,3.0910258,2.8199267
-35.406094,3.0869102,2.8208437
-35.465015,3.086452,2.827764
-35.519844,3.0884717,2.8387742
-35.577564,3.0891895,2.8478165
-35.637516,3.0889986,2.8555322
-35.70188,3.086804,2.860186
-35.764977,3.0855951,2.8665485
-35.834003,3.081685,2.8687673
-35.905426,3.0769486,2.869834
-35.97707,3.0724947,2.8715158
-36.059254,3.0632577,2.865819
-36.11657,3.066602,2.8801298
-36.19628,3.0594108,2.8780146
-36.268787,3.056108,2.8821912
-36.349022,3.0495512,2.8814507
-36.42271,3.0464938,2.8863726
-36.498875,3.0426798,2.890296
-36.59208,3.0315065,2.8829699
-36.655678,3.0342429,2.897459
-36.755657,3.0210283,2.8874178
-36.867706,3.0031059,2.8703775
-51.61624,1.0012691,1.5579524
-51.60575,1.0691948,1.6926069
-51.65471,1.1233249,1.811039
-51.754967,1.166019,1.916441
-51.973694,1.2482958,2.1249928
-52.486008,1.2701759,2.268906
-52.621147,1.3080051,2.3721027
-51.88707,1.5239692,2.6675115
-51.612877,1.6426969,2.8554125
-51.64916,1.6978993,2.975101
-51.664413,1.7571495,3.0990734
-51.797394,1.7935243,3.199759
-51.888344,1.8383782,3.3096304
-52.136307,1.8541238,3.3912573
-52.36859,1.8739128,3.4782286
-53.07982,1.8079026,3.4848452
-54.760628,1.5725522,3.3375707
-53.09302,1.9348078,3.7488751
-53.260883,1.970058,3.855464
-53.45652,2.00128,3.9595232
-54.840122,1.8345454,3.8947067
-54.879837,1.8964248,4.031011
-54.93626,1.9555786,4.165257
-8.826105,2.3052452,3.896603
-8.3263645,2.1581151,3.6867142
-8.113106,2.0587337,3.5216913
-8.266478,2.0239525,3.4212527
-8.632078,2.0286303,3.3625221
-8.7339,1.986115,3.2561274
-8.805471,1.9382176,3.1444693
-8.851734,1.8856225,3.0280318
-8.865141,1.8266375,2.904746
-8.879419,1.7676308,2.7814145
-8.897448,1.7091804,2.6586885
-8.908699,1.6491742,2.5341911
-8.909399,1.5867691,2.4068947
-8.931986,1.5286503,2.2844868
-9.137915,1.5092537,2.2075953
-9.078407,1.4336808,2.0649624
-8.865782,1.3240426,1.8811045
-8.967394,1.2180417,1.648273
-9.015118,1.1643047,1.5311613
-8.99979,1.0959992,1.3960762
-9.013632,1.0340564,1.2687812
-9.012524,0.96830916,1.1366405
-10.39053,1.2325892,1.4241447
-10.466383,1.1890941,1.3234334
-10.768345,1.201314,1.2948713
-11.177206,1.241708,1.3041706
-11.552689,1.2759297,1.3070936
-11.778927,1.2740784,1.2640381
-11.971867,1.2647142,1.2119021
-11.684519,1.1304562,0.9938841
-11.972717,1.1465645,0.9763541
-13.04611,1.3749664,1.246532
-13.003677,1.3068612,1.1184893
-13.56072,1.4030111,1.2144394
-13.563185,1.3481054,1.1052055
-13.562014,1.2918231,0.99398804
-13.577927,1.2400286,0.8888955
-13.643946,1.2024179,0.80354595
-13.923124,1.2271268,0.80566454
-14.030502,1.202601,0.73947334
-15.240111,1.5080147,1.1401882
-13.808722,1.0225282,0.4219222
-13.843222,0.9751997,0.3233099
-16.386055,1.605047,1.1429529
-16.185349,1.4904759,0.95140266
-16.169086,1.4338326,0.8434062
-16.128717,1.3687618,0.72294235
-16.869308,1.5619745,0.98129225
-16.802702,1.4896061,0.8510127
-16.835804,1.4501443,0.76905775
-17.984781,1.7463317,1.1635823
-18.025782,1.7133479,1.0932693
-17.587172,1.4603977,0.67176294
-18.245388,1.6489191,0.93475723
-18.220535,1.5918212,0.8283763
-18.287119,1.5679913,0.77230453
-19.24944,1.8349123,1.140614
-18.746214,1.4998357,0.57247686
-19.559387,1.7727923,0.97529554
-19.529951,1.7150278,0.86907196
-19.55288,1.6777451,0.79444265
-20.397705,1.9328449,1.1589441
-20.464619,1.9167624,1.118669
-20.053326,1.6050937,0.5842662
-20.11303,1.5836105,0.5350852
-21.018368,1.802172,0.8235693
-21.082758,1.7864289,0.78502893
-21.13078,1.7631893,0.73464155
-21.341343,1.8164876,0.8067565
-21.8419,2.009531,1.1033802
-21.648762,1.8732646,0.87259865
-21.515934,1.763804,0.6843214
-21.552874,1.7359226,0.62707233
-22.44813,2.050151,1.1001558
-22.52869,2.0484085,1.086566
-22.580723,2.0322025,1.0496273
-22.572277,1.9842565,0.96108866
-22.442753,1.8713143,0.7664623
-22.36309,1.7830503,0.6117296
-22.4834,1.8018513,0.6318722
-22.442749,1.7330744,0.5087795
-22.340633,1.6290288,0.3276372
-22.36985,1.5968177,0.26420546
-28.254433,2.31703,1.0541372
-28.31821,2.3492408,1.1085591
-28.385658,2.39081,1.1794682
-28.441841,2.4113991,1.2136984
-28.50108,2.4398851,1.2618465
-28.558472,2.4661462,1.3061714
-28.616241,2.4950078,1.3551345
-28.671179,2.5192115,1.3959999
-28.725277,2.5431018,1.4363861
-28.7762,2.5608497,1.4660573
-28.823038,2.5695198,1.4798498
-28.865768,2.5681088,1.4759903
-28.867065,2.4533885,1.2731037
-28.96497,2.604601,1.5374932
-29.030088,2.6708584,1.6527205
-29.072453,2.6729138,1.6551747
-29.113813,2.6721513,1.6527205
-29.160925,2.6905622,1.68403
-29.20387,2.69639,1.6932616
-29.25112,2.7184908,1.7311697
-29.294819,2.7294612,1.7495494
-29.340075,2.747906,1.7811332
-29.3791,2.7424424,1.7706871
-29.418463,2.7380579,1.7621822
-29.492096,2.7030532,1.6990991
-29.613737,3.1306365,2.4513898
-29.655731,3.1681633,2.5169368
-29.693464,3.1856377,2.547217
-29.729706,3.1963239,2.5655818
-29.766289,3.2115407,2.591967
-29.802107,3.2239003,2.6133595
-29.837383,3.2343845,2.631486
-29.87224,3.243484,2.6472106
-29.906818,3.252182,2.6622653
-29.940947,3.2580113,2.6723022
-29.97489,3.2634366,2.6816626
-30.008564,3.2664826,2.6868663
-30.042118,3.2686296,2.6905193
-30.075588,3.2698755,2.6926198
-30.109024,3.2712076,2.6949077
-30.142424,3.272626,2.6973815
-30.175783,3.2746234,2.7009115
-30.209114,3.2757194,2.7028875
-30.24242,3.276901,2.705049
-30.275719,3.2776744,2.7065263
-30.308945,3.27952,2.7099276
-30.342054,3.282438,2.7152529
-30.375181,3.2844534,2.7190218
-30.408403,3.2850747,2.7203689
-30.441725,3.2847955,2.7201643
-30.474998,3.2850955,2.721014
-30.508009,3.287451,2.725521
-30.541042,3.2893984,2.729343
-30.574114,3.2909381,2.7324805
-30.606905,3.2940388,2.7384024
-30.639992,3.2952557,2.7410407
-30.672962,3.2970483,2.7447286
-30.705902,3.2989264,2.7485995
-30.73935,3.2984328,2.7483315
-30.773283,3.2960644,2.7447968
-30.806927,3.2952561,2.7440462
-30.840227,3.296007,2.7460732
-30.873528,3.2968438,2.7482886
-30.90724,3.296298,2.7481065
-30.940693,3.2968197,2.7498379
-30.973703,3.298894,2.7543354
-31.007622,3.2981231,2.7538652
-31.042068,3.2959788,2.751018
-31.076591,3.293927,2.7483711
-31.110138,3.2948897,2.751058
-31.143866,3.2954528,2.7530808
-31.178352,3.2941606,2.7518811
-31.212317,3.2944179,2.7534394
-31.246899,3.2933092,2.7526383
-31.281534,3.2922943,2.7520385
-31.316435,3.2908885,2.750793
-31.351616,3.2890935,2.7489028
-31.386425,3.2883608,2.7489152
-31.42151,3.2872396,2.7482867
-31.456657,3.2862139,2.7478652
-31.491138,3.2867274,2.7501798
-31.527367,3.2839699,2.7468038
-31.564203,3.2803543,2.7419672
-31.599354,3.280197,2.7432284
-31.63481,3.2796574,2.7438602
-31.670586,3.278737,2.7438674
-31.706144,3.278393,2.744923
-31.741188,3.2791,2.7478566
-31.777117,3.2784746,2.7485027
-31.813396,3.2774742,2.7485366
-31.85004,3.2761009,2.747961
-31.886759,3.2748315,2.7476115
-31.922932,3.274611,2.749136
-31.957567,3.2768502,2.754992
-31.99639,3.2730603,2.7503786
-32.03338,3.272206,2.7509289
-32.06776,3.2752113,2.7582455
-32.10688,3.2717505,2.7543454
-32.14475,3.2702758,2.753951
-32.183052,3.2684448,2.752984
-32.222523,3.265329,2.7498317
-32.261032,3.2637246,2.7493572
-32.29853,3.2636259,2.7515454
-32.33683,3.2627087,2.7523599
-32.375965,3.26098,2.7518144
-32.415585,3.2589064,2.7507224
-32.453354,3.2592516,2.7538733
-32.49117,3.2597055,2.7572603
-32.53024,3.2588959,2.7585073
-32.568165,3.259572,2.7623763
-32.607372,3.2589912,2.7641206
-32.64875,3.2562537,2.762189
-32.690258,3.253644,2.7605352
-32.73146,3.2516155,2.7599401
-32.77321,3.2492626,2.758844
-32.815083,3.2470393,2.758027
-32.855732,3.2462943,2.7598152
-32.897823,3.2443292,2.7595592
-32.94003,3.2424953,2.7595873
-32.98188,3.2412395,2.7606692
-33.024303,3.2396698,2.761269
-33.067307,3.2377899,2.7613974
-33.110428,3.2360463,2.7618217
-33.15366,3.2344394,2.7625418
-33.197983,3.2320907,2.762055
-33.24293,3.2294466,2.7611265
-33.28552,3.2291338,2.7642531
-33.332737,3.2250335,2.7609692
-33.381668,3.2197883,2.7558026
-33.423054,3.2212062,2.7620797
-33.469704,3.2184336,2.7612743
-33.51228,3.21926,2.7666688
-33.556515,3.2189324,2.770163
-33.603527,3.2166092,2.7703314
-33.651215,3.2140162,2.7701159
-33.697407,3.2128587,2.7724109
-33.746475,3.2097363,2.7714472
-33.79403,3.2080472,2.7729902
-33.84171,3.2065182,2.774881
-33.89008,3.2047303,2.7764096
-33.939728,3.2022705,2.7768826
-33.98894,3.2003973,2.7784271
-34.037712,3.1991074,2.781036
-34.08954,3.1959174,2.7805257
-34.14272,3.192085,2.7790246
-34.191902,3.191313,2.7827559
-34.246017,3.1874397,2.781365
-34.298492,3.1849809,2.7824411
-34.35235,3.1818967,2.7825603
-34.400208,3.1830435,2.789853
-34.451866,3.1819377,2.7934604
-34.50929,3.1774054,2.7914429
-34.567547,3.1726851,2.7892165
-34.626015,3.1681795,2.787455
-34.67893,3.167452,2.7920856
-34.737125,3.1637592,2.7918863
-34.793564,3.161457,2.7941031
-34.85212,3.1581883,2.7948241
-34.910202,3.1555254,2.796658
-34.970444,3.1519132,2.7970352
-35.028873,3.1496837,2.7998095
-35.089485,3.1465175,2.8011532
-35.14486,3.1466372,2.8080192
-35.20716,3.14315,2.8090677
-35.277203,3.1357322,2.8037958
-35.341312,3.1319838,2.804677
-35.405624,3.1284795,2.8060894
-35.463844,3.1285822,2.81352
-35.52358,3.1281567,2.8202057
-35.586277,3.1264741,2.8249655
-35.6534,3.1228206,2.826654
-35.72503,3.1172307,2.825345
-35.79042,3.1152034,2.8299599
-35.85525,3.113791,2.8357058
-35.931175,3.1072168,2.8332653
-36.00664,3.1013083,2.8320665
-36.076466,3.098558,2.836114
-36.151672,3.093597,2.8367705
-36.225624,3.089645,2.839212
-36.298294,3.0866904,2.8434176
-36.376434,3.0815806,2.8443513
-36.452553,3.07783,2.847632
-36.53193,3.073005,2.8493824
-36.607716,3.0702202,2.8545566
-36.69832,3.0612545,2.8501334
-36.78926,3.0526707,2.846538
-36.926373,3.0245626,2.8124237
-51.595238,0.99689007,1.2488537
-51.588566,1.0643103,1.3836212
-51.589333,1.1296625,1.5157051
-51.611748,1.1898577,1.6414146
-51.645554,1.2473521,1.7638693
-51.622597,1.3170123,1.9008894
-51.673576,1.3704231,2.018495
-51.888367,1.3893297,2.0959263
-52.622593,1.4337003,2.3204641
-52.69304,1.4854059,2.4389772
-51.5618,1.7726135,2.817637
-51.608536,1.8256438,2.9348173
-51.67665,1.874609,3.0477896
-51.72767,1.926903,3.1645756
-51.84266,1.9674337,3.2692704
-51.98322,2.003725,3.3701801
-52.284157,2.0119069,3.4433775
-52.63067,2.0135303,3.511765
-53.113304,1.9933064,3.5608149
-53.02793,2.072241,3.7079325
-53.182106,2.1103492,3.8159842
-53.38452,2.1411366,3.9181752
-53.58944,2.1724143,4.022027
-54.865067,2.0342312,3.9776917
-54.898926,2.0970168,4.114822
-8.80415,2.4278862,3.8369484
-8.942589,2.3914137,3.7371206
-8.104355,2.188126,3.4621634
-8.547506,2.203076,3.4160285
-8.6825905,2.165757,3.315477
-8.747652,2.1163657,3.2022748
-8.806665,2.06599,3.0882359
-8.850037,2.012794,2.9712296
-8.855728,1.9524858,2.8462133
-8.881512,1.8957889,2.7253237
-8.895683,1.8367136,2.601684
-8.929861,1.7813878,2.482469
-8.926668,1.7185001,2.3542686
-8.93491,1.6576254,2.2283964
-9.003979,1.6090362,2.117488
-8.931057,1.467433,1.8410354
-8.93738,1.4050324,1.712966
-8.967295,1.347491,1.5909853
-8.93782,1.2766743,1.4520769
-8.356482,1.0148051,1.0174999
-10.2811775,1.3907838,1.4610596
-10.371435,1.3502328,1.3642464
-10.625109,1.3485487,1.3192825
-10.937971,1.362289,1.2959061
-11.230825,1.372796,1.2694073
-11.670105,1.4208219,1.2948017
-11.816872,1.3984206,1.2260389
-11.61722,1.2891922,1.0388608
-11.605682,1.2263942,0.91474676
-13.075813,1.5466485,1.3212233
-13.061419,1.4870515,1.2042336
-12.553162,1.2959437,0.9028864
-13.610636,1.5218155,1.1866078
-13.157034,1.3433006,0.90200424
-13.046949,1.2559788,0.7452817
-12.760363,1.1183302,0.51612186
-13.768497,1.3436623,0.80701065
-13.95624,1.3411996,0.77295685
-15.093822,1.6141744,1.1386142
-13.742146,1.1091785,0.34603596
-16.18243,1.6828556,1.1080112
-16.461548,1.719163,1.1374531
-16.17331,1.5790391,0.9047804
-16.148357,1.520025,0.7923894
-16.82837,1.6374035,0.92183685
-16.836575,1.5902424,0.82810545
-17.859108,1.833184,1.1538405
-17.916908,1.8057027,1.0916619
-18.145447,1.7429514,0.9361553
-18.217056,1.7207928,0.88273954
-18.236427,1.679997,0.80058575
-18.282202,1.6485374,0.73293114
-19.286217,1.9248409,1.128037
-18.779675,1.5935452,0.55682373
-19.547045,1.8433666,0.93415785
-19.532108,1.7918019,0.8366213
-19.575048,1.762665,0.77455807
-20.320744,2.0158546,1.161602
-20.381983,1.9971082,1.1172514
-20.075739,1.6892095,0.56638575
-20.11827,1.660388,0.50556374
-21.033031,1.8779144,0.80342674
-21.101128,1.8637991,0.7678213
-21.373072,1.8989768,0.80055666
-21.891586,2.0970633,1.1127739
-21.951765,2.0829062,1.0783739
-21.535374,1.8406711,0.669508
-21.526833,1.7909708,0.57619953
-22.431816,2.1459556,1.1393051
-22.495607,2.1355324,1.1118898
-22.554466,2.1227903,1.0807424
-22.530329,2.0677142,0.9794831
-22.561691,2.040522,0.92441607
-22.383692,1.9036252,0.68688345
-22.39009,1.8615983,0.60687685
-22.492945,1.8706286,0.6120062
-22.356453,1.7508359,0.40210915
-22.342363,1.6956997,0.29997826
-22.356594,1.6554008,0.22260714
-28.260807,2.3728714,1.0562587
-28.330055,2.415608,1.1303926
-28.392002,2.4462087,1.183032
-28.448963,2.4684343,1.2208471
-28.50758,2.495611,1.2675433
-28.565252,2.522498,1.313796
-28.621994,2.54909,1.3595972
-28.676989,2.573469,1.4015241
-28.731333,2.5980196,1.4438238
-28.780907,2.6126626,1.4685326
-28.827795,2.6216872,1.483283
-28.870188,2.6197853,1.4786038
-28.878765,2.5265477,1.3110905
-28.968252,2.653408,1.5361271
-29.038265,2.7333608,1.6776133
-29.079372,2.732486,1.6749754
-29.116623,2.7196434,1.6510215
-29.16422,2.7397592,1.6859293
-29.209019,2.752275,1.7073226
-29.25497,2.7702417,1.7384968
-29.299667,2.7854335,1.7647657
-29.341118,2.789602,1.7713952
-29.380676,2.786604,1.7652664
-29.420065,2.7827363,1.7576213
-29.452364,2.7459435,1.6911864
-29.573154,3.1378102,2.3907628
-29.620903,3.2005496,2.5023384
-29.656609,3.205072,2.5099196
-29.69324,3.216014,2.5290122
-29.729807,3.2285159,2.5509315
-29.766325,3.2430644,2.5765476
-29.802217,3.255763,2.5988932
-29.837383,3.2651474,2.6153498
-29.872152,3.2731621,2.6293926
-29.906578,3.2798054,2.641017
-29.940716,3.285076,2.6502218
-29.974554,3.2879953,2.6552553
-30.008339,3.291491,2.6613512
-30.041933,3.2926338,2.6632733
-30.075535,3.2953267,2.6680012
-30.109043,3.2966425,2.670298
-30.142511,3.2965803,2.6701627
-30.175957,3.299044,2.6745782
-30.20936,3.300618,2.6774344
-30.24276,3.3013008,2.678731
-30.276167,3.301582,2.6793413
-30.309483,3.3034132,2.6827545
-30.342754,3.305329,2.6863527
-30.376106,3.3058674,2.68752
-30.409449,3.306491,2.6888719
-30.442783,3.3072007,2.6904106
-30.475927,3.3094575,2.6947484
-30.509089,3.3113124,2.6983995
-30.542282,3.3127651,2.7013636
-30.575527,3.313816,2.7036414
-30.608757,3.3149521,2.7061052
-30.641788,3.317146,2.7104921
-30.674395,3.3213694,2.7185369
-30.70711,3.3247025,2.7250233
-30.740515,3.32472,2.725617
-30.77462,3.321913,2.7211976
-30.80845,3.3206508,2.7195725
-30.842327,3.3194776,2.7181406
-30.875988,3.319362,2.7186313
-30.909668,3.3193345,2.7193122
-30.942934,3.3208458,2.7227745
-30.976484,3.321476,2.7246976
-31.01004,3.3221943,2.7268095
-31.044086,3.321553,2.7265296
-31.079187,3.3181088,2.7212873
-31.112822,3.319095,2.7239804
-31.146458,3.3201683,2.7268639
-31.181211,3.3184464,2.7247968
-31.215265,3.318738,2.726356
-31.249737,3.3181612,2.7264013
-31.284248,3.3176763,2.726647
-31.319647,3.315369,2.7236834
-31.354265,3.3150713,2.7243342
-31.388475,3.3158212,2.7268867
-31.423843,3.3142781,2.7253928
-31.459517,3.3123548,2.7232609
-31.495512,3.3100548,2.7204971
-31.531599,3.307855,2.7179508
-31.567524,3.3062298,2.7164645
-31.603268,3.3051777,2.7160358
-31.639074,3.3042245,2.7158217
-31.674944,3.30337,2.7158217
-31.710596,3.3030863,2.7168741
-31.745451,3.304314,2.7206469
-31.781754,3.3032837,2.7204518
-31.818127,3.3023555,2.7204766
-31.855461,3.300123,2.7182302
-31.891674,3.2998688,2.719531
-31.92825,3.299249,2.7202249
-31.964886,3.2987313,2.7211413
-32.001583,3.2983172,2.7222805
-32.038334,3.298007,2.7236452
-32.07648,3.2959447,2.7219534
-32.114727,3.2939935,2.7205014
-32.15169,3.2940028,2.722559
-32.188,3.2950387,2.7264724
-32.22505,3.2952552,2.7289805
-32.263237,3.2941997,2.7292848
-32.30298,3.2914212,2.7265959
-32.3421,3.2896774,2.725779
-32.382072,3.2871366,2.7236047
-32.421013,3.286083,2.7240992
-32.45925,3.2860532,2.7264428
-32.497154,3.2865884,2.7298265
-32.536713,3.2854235,2.7302642
-32.575542,3.2852795,2.7325459
-32.615265,3.2843494,2.7334943
-32.65675,3.2817416,2.731545
-32.697517,3.280158,2.7314463
-32.73881,3.2782528,2.730835
-32.780224,3.2764745,2.7304983
-32.822186,3.2743788,2.7296605
-32.864265,3.2724137,2.7291055
-32.90601,3.2710228,2.729609
-32.948772,3.2688787,2.7288508
-32.991196,3.2673092,2.7291527
-33.03373,3.265873,2.7297435
-33.077316,3.263694,2.7290955
-33.11959,3.2629647,2.7310333
-33.163414,3.2610607,2.7309813
-33.20834,3.2584293,2.729722
-33.25192,3.257242,2.7310376
-33.2946,3.2570562,2.7341561
-33.342934,3.2522728,2.7293415
-33.387375,3.2510839,2.7308397
-33.431404,3.2504659,2.7333899
-33.476574,3.2491364,2.7347684
-33.52133,3.248379,2.7372017
-33.56513,3.2486134,2.741415
-33.612762,3.2460332,2.7408218
-33.65892,3.244874,2.7427564
-33.70245,3.2459655,2.7486415
-33.753227,3.241761,2.7454534
-33.801407,3.2398155,2.7462378
-33.848595,3.2388625,2.7488036
-33.897034,3.2372406,2.750288
-33.94789,3.234133,2.7492943
-33.99661,3.2328453,2.7515035
-34.048363,3.2296767,2.7505622
-34.10264,3.225058,2.7472181
-34.15001,3.2255092,2.7526407
-34.200455,3.2240944,2.7549467
-34.25525,3.2200322,2.7528076
-34.308414,3.2173715,2.7531524
-34.361134,3.2152994,2.7545877
-34.41277,3.2142096,2.757783
-34.463913,3.2136974,2.7620444
-34.52018,3.2102013,2.7613192
-34.57285,3.2092705,2.7650447
-34.631367,3.2049985,2.7631917
-34.68497,3.204065,2.767096
-34.742573,3.2009895,2.767468
-34.79776,3.1996741,2.770915
-34.857666,3.1958597,2.7702398
-34.9158,3.1934197,2.7719884
-34.9741,3.1911933,2.7742014
-35.0339,3.188421,2.7756014
-35.09523,3.1851141,2.7762122
-35.150654,3.1854298,2.7830105
-35.217094,3.1799438,2.7801929
-35.279667,3.1769552,2.7816792
-35.34588,3.172345,2.7805758
-35.410236,3.1691,2.781877
-35.47199,3.167573,2.7861614
-35.5339,3.1662786,2.7909508
-35.599503,3.1633956,2.793222
-35.66886,3.158953,2.793037
-35.74275,3.1526172,2.7898607
-35.813305,3.1483717,2.790289
-35.878284,3.1472602,2.7960296
-35.949986,3.1432016,2.7970476
-36.02264,3.1390731,2.7981005
-36.09331,3.1362877,2.8015099
-36.167885,3.1320338,2.8026605
-36.24045,3.1291208,2.8061643
-36.31322,3.1264966,2.8102932
-36.389954,3.1224432,2.8122482
-36.471466,3.1166492,2.811543
-36.54944,3.112888,2.8143187
-36.624573,3.1107953,2.8199701
-36.70528,3.1066525,2.822473
-36.830315,3.0838087,2.7949896
-51.8334,0.8717022,0.70999765
-51.66507,0.9781668,0.89748096
-51.815063,1.0103898,0.98735476
-51.57911,1.1302896,1.191185
-51.582733,1.1950488,1.3230724
-51.571228,1.2628095,1.4586883
-51.58133,1.3254824,1.5877204
-51.62833,1.3800089,1.7064972
-51.585415,1.4534268,1.8488226
-51.66484,1.5008764,1.9589262
-51.680782,1.5614779,2.085319
-52.622314,1.5012915,2.1217418
-52.659195,1.5598443,2.2479525
-51.696167,1.8111796,2.599112
-51.70751,1.8715248,2.724948
-51.588074,1.9561305,2.8783765
-51.657154,2.0050554,2.9909382
-51.689816,2.0607195,3.1112576
-51.8077,2.1011045,3.2149353
-51.910507,2.1445584,3.3224893
-52.132942,2.1676743,3.4089203
-52.383266,2.1870627,3.49264
-53.075825,2.133675,3.50286
-54.87066,1.9027014,3.3375702
-53.12603,2.253558,3.7605639
-53.300163,2.2896886,3.8663192
-53.52853,2.3180933,3.9656982
-54.87027,2.1768308,3.908033
-54.899254,2.240395,4.045851
15.495096,0.40691113,3.2546883
15.417093,0.29457784,3.0043187
-8.978638,2.5801566,3.8069873
-8.541374,2.4498343,3.6061692
-8.752773,2.4242392,3.5189986
-8.631968,2.343666,3.3710384
-8.703104,2.2950382,3.2587938
-8.787489,2.2488801,3.1496892
-8.833923,2.1962442,3.033352
-8.854143,2.1389127,2.911601
-8.872334,2.0810697,2.7892532
-8.9000225,2.0248327,2.6688547
-8.922791,1.9675632,2.5472383
-8.911968,1.903727,2.4175167
-8.940321,1.8471582,2.2967377
-9.098177,1.8160071,2.2080808
-9.060419,1.7463479,2.0710125
-8.948746,1.6611593,1.9137273
-8.932283,1.594624,1.780024
-8.99629,1.5445025,1.6676059
-8.243544,1.1884477,1.0563788
-9.216246,1.3366826,1.2098646
-10.3175125,1.5193677,1.4140315
-10.403984,1.4777951,1.3164024
-10.690268,1.4824705,1.2826033
-11.132206,1.5249486,1.3021574
-11.465467,1.5441334,1.2909613
-11.727781,1.5480604,1.2596259
-11.564642,1.4499068,1.0854692
-11.576164,1.3933744,0.9695382
-11.519777,1.3196177,0.82903576
-13.062956,1.6493239,1.2658
-13.063181,1.5937955,1.1539197
-13.559311,1.666465,1.2273536
-13.595337,1.6212687,1.1312332
-13.593136,1.5657964,1.0201564
-12.791517,1.2947807,0.59279585
-13.752508,1.4429109,0.750823
-14.963434,1.7253027,1.141882
-16.201803,1.7791584,1.0738783
-16.565771,1.8398206,1.1435866
-16.121468,1.6032712,0.73595047
-16.87659,1.7895634,1.0009007
-16.8243,1.7239313,0.87818384
-16.8222,1.673691,0.7791319
-17.761131,1.9297037,1.1571021
-17.818718,1.9018624,1.0943532
-18.221664,1.850574,0.93938494
-18.22018,1.8030391,0.84619904
-18.255371,1.7680285,0.7728448
-19.389202,2.037639,1.15305
-19.455875,2.017915,1.105856
-18.807194,1.6835692,0.53607893
-19.529356,1.9112773,0.8882723
-19.541065,1.8703563,0.80704117
