x,y,z
-44.328484,3.0779417,0.8814106
-44.375793,3.113717,0.9589
-44.54649,3.1251817,0.9810362
10.860029,3.6588054,1.04248
0.21295738,3.2879162,0.58693504
-9.675364,3.075404,0.44386148
-11.092627,3.1647806,0.68547297
-11.471268,3.1658282,0.69982815
-11.7403145,3.1520963,0.67818975
-12.223047,3.172973,0.7393856
-12.609062,3.1811004,0.76946163
-12.980183,3.1888587,0.79823256
-13.362225,3.2003775,0.8355942
-13.589022,3.187902,0.8152628
-14.01125,3.2098994,0.87689734
-14.223111,3.1976495,0.8565483
-14.580222,3.212113,0.8995185
-14.8127775,3.2061026,0.893507
-15.079215,3.207464,0.90476274
-15.378311,3.2162905,0.93345356
-15.664773,3.2243292,0.9599962
-15.863354,3.2169979,0.9499388
-16.141989,3.226304,0.97899294
-16.37782,3.2286072,0.9912777
-16.642284,3.2379282,1.0198922
-16.901428,3.2475884,1.0490732
-17.15262,3.2569978,1.0774393
-17.174194,3.2191832,0.9946418
-17.317402,3.2073731,0.9728832
-17.276905,3.1561468,0.8585744
-17.24443,3.1061454,0.74719286
-17.238142,3.0615237,0.6484542
-17.249994,3.0207033,0.5586314
-17.28239,2.9844184,0.47942019
-28.528715,3.2902033,1.4172015
-28.611582,3.3578749,1.5700684
-28.671467,3.389524,1.641727
-28.713987,3.392104,1.6478615
-28.754436,3.3912368,1.6462169
-28.79945,3.399205,1.6644726
-28.841124,3.4013453,1.6695852
-29.0513,3.422143,1.7177501
-29.090773,3.4217696,1.7171426
-29.130053,3.4210992,1.7158585
-29.170702,3.42414,1.7229242
-29.210327,3.4248836,1.7248058
-29.25046,3.4273381,1.7305326
-29.290752,3.4307044,1.7383037
-29.33169,3.4365928,1.7517452
-29.371546,3.439774,1.7590823
-29.409737,3.4378226,1.7548513
-29.445604,3.4275,1.7317615
-29.483871,3.4253354,1.7270336
-29.521778,3.421654,1.718883
-29.55827,3.4116025,1.6963811
-29.601696,3.4323697,1.7432647
-29.639664,3.4293919,1.7366729
-29.677097,3.4232721,1.7229996
-29.715527,3.4221065,1.7204719
-29.755297,3.429547,1.7373128
-29.795738,3.443576,1.7689795
-29.83111,3.4208233,1.7178254
-29.870064,3.4245136,1.7261977
-29.907848,3.4173539,1.7101331
-29.947369,3.4293582,1.7372079
-29.985039,3.418742,1.7133465
-30.023405,3.4159324,1.7070518
-30.062006,3.4176857,1.7110229
-30.10039,3.4114203,1.6969314
-30.139006,3.415808,1.7068157
-30.177475,3.4215126,1.719657
-30.216085,3.4151378,1.7052946
-30.254541,3.4173865,1.7103391
-30.293045,3.4177043,1.7110286
-30.331745,3.4152815,1.7055387
-30.37105,3.4068727,1.6865649
-30.409792,3.4066799,1.6860785
-30.448833,3.4041529,1.6803308
-30.48823,3.399701,1.670239
-30.526104,3.406698,1.685916
-30.56516,3.4052842,1.6826477
-30.604849,3.400733,1.672307
-30.643444,3.402761,1.6767721
-30.680319,3.4129767,1.6996641
-30.719696,3.410751,1.6945353
-30.758585,3.4110532,1.6950879
-30.79718,3.4126666,1.698586
-30.83575,3.414379,1.7022991
-30.874296,3.4161909,1.7062278
-30.910042,3.4273677,1.7312379
-30.948263,3.4297729,1.736486
-30.99109,3.4181976,1.7102413
-31.022497,3.4409046,1.7611952
-31.178173,3.117565,1.0327659
-31.229208,3.0990024,0.99072886
-31.276289,3.0922134,0.9752002
-31.315792,3.1047716,1.0032377
-31.364431,3.0950258,0.9810281
-31.40728,3.0994012,0.9906149
-31.492727,3.1084766,1.0104957
-31.546339,3.090489,0.9696708
-31.589386,3.0949283,0.9793644
-31.635025,3.0943155,0.97766495
-31.678627,3.0977912,0.98516655
-31.64004,3.2510412,1.330164
-31.660967,3.2905056,1.4187675
-31.683283,3.3256285,1.4975863
-31.705538,3.3591838,1.5728717
-31.733112,3.382517,1.6251159
-31.767952,3.3933153,1.6491027
-31.814423,3.3857543,1.6316962
-31.867662,3.368541,1.5925193
-31.911951,3.3655772,1.5854511
-31.935001,3.3935728,1.6481752
-31.972498,3.4001577,1.662622
-32.017498,3.396336,1.6535935
-32.0774,3.3728523,1.6002116
-32.120422,3.37282,1.5997024
-32.15242,3.3872123,1.6317186
-32.189564,3.3947232,1.6482058
-32.245594,3.3788376,1.6119065
-32.299324,3.3665986,1.5838175
-32.346714,3.3625872,1.5742764
-32.386078,3.368283,1.586626
-32.41597,3.3847675,1.623313
-32.45364,3.3921647,1.6394854
-32.49464,3.3958545,1.6472836
-32.546196,3.3882835,1.6296535
-32.618492,3.3593237,1.5637236
-32.659737,3.3638318,1.5733294
-32.682835,3.3868883,1.624805
-32.726727,3.3885682,1.6280084
-32.784763,3.3765225,1.6002035
-32.84559,3.3624356,1.5677705
-32.88655,3.3679235,1.5795345
-32.909943,3.3898604,1.6284485
-32.95054,3.395522,1.6405878
-33.033623,3.3628876,1.5661845
-33.073017,3.3703487,1.5823617
-33.099274,3.389292,1.6244812
-33.14381,3.3921626,1.6302667
-33.195713,3.388958,1.6223049
-33.274925,3.3633616,1.5637026
-33.29265,3.3892155,1.6214123
-33.325836,3.402042,1.6496615
-33.395947,3.3853853,1.6112175
-33.469902,3.3664753,1.5676522
-33.506485,3.3772054,1.5911202
-33.538647,3.3912346,1.6220431
-33.597607,3.3850563,1.6072302
-33.67755,3.363842,1.5583639
-33.719402,3.371192,1.5741324
-33.75086,3.386046,1.6068778
-33.804356,3.385181,1.6040244
-33.888138,3.3635297,1.5540757
-33.939247,3.3651814,1.556881
-33.962784,3.3857193,1.6024566
-34.030376,3.3765693,1.5807614
-34.102585,3.3649142,1.5533648
-34.143612,3.3740942,1.5731678
-34.183983,3.3837247,1.5939808
-34.272697,3.3628623,1.5456414
-34.325233,3.3653812,1.550293
-34.36359,3.3768358,1.5751963
-34.41728,3.378984,1.5789766
-34.504616,3.361246,1.5376153
-34.54753,3.3704906,1.5574551
-34.610264,3.3682525,1.551219
-34.677265,3.363926,1.5402184
-34.73415,3.3657563,1.5431743
-34.811028,3.356659,1.5212889
-34.870686,3.357621,1.5222278
-34.97329,3.3354616,1.470604
-35.05459,3.3256588,1.4470215
-35.134567,3.3171353,1.4263124
-35.233273,3.2993393,1.3844881
-35.332108,3.2822666,1.344265
-35.41744,3.2728705,1.3214631
-35.495163,3.2678993,1.3086915
-35.569485,3.2650998,1.3008332
-35.657394,3.2560391,1.2786899
-35.729225,3.255378,1.2756362
-35.80194,3.2546725,1.2724533
-35.876846,3.2533157,1.2677565
-35.957886,3.2494953,1.2574143
-36.02812,3.251139,1.2594914
-36.10118,3.251831,1.2593727
-36.18245,3.2491968,1.251636
-36.255997,3.2504497,1.2527323
-36.335148,3.2496052,1.2490115
-36.41118,3.250534,1.2493038
-36.48743,3.2517471,1.2502127
-36.574913,3.248591,1.2411075
-36.658592,3.247513,1.2367115
-36.732117,3.2510707,1.2428727
-36.83455,3.2431893,1.2228479
-36.904324,3.2490683,1.2342443
-37.002594,3.2439194,1.2203798
-37.11273,3.2346864,1.1971211
-37.23061,3.2231302,1.1684875
-37.315155,3.2250679,1.1706977
-37.38175,3.2341986,1.1893463
-37.581463,3.193925,1.0947347
-38.378197,3.048202,0.75039625
-38.403294,3.0762482,0.8120823
-38.19126,3.1860852,1.0616713
-38.219383,3.2117324,1.117919
-38.34942,3.2029264,1.094945
-38.44934,3.2048974,1.0966864
-38.905327,3.090447,0.83044624
-38.548393,3.242993,1.1786432
-39.152187,3.0847883,0.8112912
-39.18072,3.1129282,0.8729782
-39.22844,3.134965,0.92058897
-39.16829,3.1902335,1.0448427
-39.297535,3.1871579,1.0344949
-39.389725,3.1958842,1.0513225
-39.446735,3.215413,1.0930572
-39.573624,3.2146654,1.087892
-39.687157,3.2184243,1.0930715
-39.843243,3.210646,1.0714808
-40.004044,3.2024174,1.0487456
-40.54433,3.0901177,0.7847719
-40.60758,3.1117184,0.8308301
-40.6524,3.1384268,0.8887043
-40.693512,3.1661336,0.94887877
-40.749214,3.1900096,1.0001402
-41.00637,3.1619637,0.9306903
-41.29426,3.12764,0.8464484
-41.705162,3.0641816,0.6941762
-41.691574,3.1084015,0.7923827
-41.852264,3.109692,0.7905555
-41.916946,3.1348944,0.8443885
-41.976204,3.1615334,0.90153885
-42.21742,3.1457732,0.85960484
-42.46911,3.1289563,0.81500864
-42.89764,3.0734398,0.6796522
-42.969475,3.1002352,0.73670244
-44.533646,2.8937614,0.23397875
-44.50657,2.9465318,0.351264
-44.48288,2.9981246,0.46582508
-44.523804,3.0361013,0.54836893
-44.443317,3.1440294,0.788856
-0.7094841,3.4473279,0.54595995
-1.907793,3.4734137,0.6590481
-2.7389069,3.472386,0.69543886
-3.1397686,3.4353657,0.63270235
-11.141727,3.1668167,0.4071455
-11.252438,3.127627,0.32545376
-11.917242,3.17364,0.4569502
-12.150869,3.1560485,0.42845106
-12.538712,3.1641045,0.46354246
-12.984131,3.183543,0.5263524
-13.423498,3.2043939,0.59198713
-13.586777,3.1812427,0.5479193
-14.032957,3.207215,0.6251335
-14.049322,3.1607997,0.5229769
-14.743077,3.2342536,0.7162509
-14.821254,3.2007356,0.64533377
-15.157004,3.2146735,0.69089746
-15.446758,3.2218573,0.71944237
-15.673015,3.2185464,0.7219062
-15.960185,3.2281384,0.75562525
-16.21884,3.2336924,0.77911663
-16.450981,3.2353451,0.7927699
-16.68155,3.2378972,0.80832577
-16.931643,3.2456806,0.83631754
-17.145798,3.247307,0.8490596
-17.17056,3.2098649,0.7668333
-17.20291,3.1739397,0.6882763
-17.225418,3.1357875,0.604321
-17.246841,3.097252,0.5194392
-17.241352,3.052491,0.41953897
-28.52758,3.3219223,1.3923392
-28.57116,3.3228648,1.394999
-28.641174,3.3695276,1.5023484
-28.69799,3.3957567,1.5628757
-28.744274,3.4045842,1.5835357
-28.776655,3.3881054,1.546238
-28.828953,3.4093206,1.5952291
-28.866768,3.4032283,1.5816879
-29.041443,3.4302838,1.6450992
-29.0823,3.432223,1.6498728
-29.12273,3.4334815,1.6530766
-29.162924,3.4344518,1.6556082
-29.202896,3.4351335,1.6574655
-29.243235,3.4371097,1.6622734
-29.283339,3.4387965,1.6664062
-29.321009,3.4334426,1.6544175
-29.356821,3.4218233,1.6280851
-29.39567,3.4194374,1.6228652
-29.436016,3.422326,1.6296973
-29.475925,3.424126,1.6340265
-29.51515,3.423639,1.6331148
-29.552958,3.417272,1.6187396
-29.591986,3.4157877,1.6155214
-29.632826,3.4231877,1.6326118
-29.677485,3.4522698,1.6992755
-29.715763,3.4499054,1.6940074
-29.748796,3.414053,1.6121402
-29.787865,3.4130723,1.6100144
-29.829287,3.4305983,1.6501975
-29.868053,3.429423,1.647604
-29.905842,3.417939,1.6214213
-29.945074,3.420165,1.6265802
-29.984648,3.4289007,1.6466122
-30.023441,3.4277248,1.6439676
-30.062265,3.4266477,1.6415381
-30.100927,3.416055,1.6173363
-30.139982,3.4219892,1.6309152
-30.179075,3.4075897,1.5979843
-30.218252,3.4069133,1.5964227
-30.257435,3.4067385,1.5959964
-30.296854,3.402659,1.586628
-30.335997,3.404288,1.590303
-30.374817,3.4092207,1.6015201
-30.413534,3.413852,1.6120372
-30.452923,3.411778,1.6072078
-30.492493,3.4090059,1.60077
-30.531326,3.4119363,1.6073608
-30.569887,3.4161644,1.6169076
-30.609627,3.4132977,1.6102171
-30.648926,3.4133306,1.610147
-30.68841,3.4126675,1.6084714
-30.726854,3.4168942,1.6179671
-30.76548,3.4200213,1.624938
-30.803728,3.4244425,1.6348557
-30.842731,3.425774,1.6376958
-30.882181,3.4256146,1.6371126
-30.922146,3.4239678,1.6331148
-30.96143,3.4248104,1.6347985
-31.001915,3.4221818,1.6285295
-31.040293,3.4260077,1.6370149
-31.178314,3.1573138,1.0219483
-31.229006,3.139823,0.98160124
-31.27258,3.1418607,0.98592424
-31.31646,3.1432207,0.9886837
-31.360346,3.1446953,0.99169016
-31.40476,3.145102,0.99223995
-31.491451,3.1509862,1.0049024
-31.540928,3.1415277,0.9828272
-31.586163,3.1412349,0.98171806
-31.629206,3.145373,0.99073696
-31.67049,3.152751,1.0071611
-31.671404,3.2325013,1.1892891
-31.700083,3.2594798,1.250586
-31.69544,3.3418078,1.4386358
-31.714453,3.3808331,1.527525
-31.74584,3.3981066,1.5665917
-31.786154,3.4007075,1.572041
-31.844425,3.3759356,1.5147681
-31.893421,3.3664312,1.4924512
-31.935093,3.3682632,1.4960904
-31.978678,3.3675113,1.4937963
-32.02291,3.3661134,1.4900041
-32.0667,3.365607,1.4882412
-32.11,3.36599,1.4885006
-32.15455,3.364964,1.485518
-32.198906,3.3644466,1.4836836
-32.25102,3.354541,1.4603057
-32.28667,3.365308,1.4843159
-32.3313,3.365166,1.4832945
-32.368572,3.3738482,1.5024991
-32.39678,3.3928053,1.5452652
-32.434883,3.400136,1.5613489
-32.479675,3.4000492,1.5604005
-32.528725,3.3955953,1.5494137
-32.605145,3.3625107,1.472693
-32.662262,3.3509734,1.4453974
-32.705276,3.3545055,1.4526753
-32.750877,3.3555584,1.4542465
-32.799553,3.3537827,1.4493027
-32.846863,3.3536308,1.448071
-32.902794,3.345521,1.4285402
-32.9634,3.333558,1.4001327
-33.004993,3.339742,1.4133968
-33.05216,3.3409247,1.4151545
-33.08918,3.3513467,1.4381309
-33.136364,3.3527818,1.4404345
-33.19288,3.3463948,1.4247346
-33.2446,3.344525,1.4193978
-33.30556,3.3352647,1.3970394
-33.359074,3.3326688,1.389986
-33.42651,3.319164,1.3578076
-33.49763,3.3034081,1.3204169
-33.55713,3.297504,1.3056664
-33.60777,3.2988784,1.3076501
-33.661293,3.2982924,1.3050966
-33.71451,3.298228,1.303721
-33.765976,3.2997327,1.3059387
-33.820423,3.299302,1.3036752
-33.879894,3.295568,1.2937732
-33.93521,3.2951531,1.2914968
-33.987217,3.2973354,1.2951832
-34.03881,3.3000233,1.3000131
-34.09809,3.2977297,1.2933302
-34.154015,3.2980251,1.2925935
-34.207508,3.3002043,1.2961779
-34.277832,3.2917104,1.2751017
-34.333267,3.2932596,1.2771783
-34.507244,3.220374,1.1073208
-34.452053,3.2922106,1.2716732
-34.498135,3.3003194,1.2888265
-34.55787,3.3002603,1.2870841
-34.61557,3.3017256,1.2888346
-34.673412,3.3033817,1.2910013
-34.72913,3.30654,1.2966142
-34.80657,3.2974849,1.2739406
-34.866676,3.2987888,1.2752004
-34.911877,3.3087008,1.2963576
-34.992607,3.2991123,1.2723384
-35.45873,3.191605,1.0154448
-35.479668,3.216609,1.0713677
-35.495758,3.2437978,1.13236
-35.511234,3.270959,1.1932926
-35.59092,3.2659214,1.1794729
-35.878147,3.230713,1.0910215
-35.9269,3.2424595,1.1160154
-36.097816,3.1974294,1.0089293
-35.966682,3.2927327,1.2282462
-37.581448,3.1419783,0.8341193
-37.659378,3.1483858,0.84577894
-37.720703,3.1612759,0.8725872
-37.849224,3.149761,0.84211063
-38.08264,3.1734984,0.88702106
-38.2152,3.1630158,0.8586407
-38.310833,3.1660006,0.86183405
-38.423344,3.1637328,0.8525944
-38.49676,3.175142,0.8754792
-38.629757,3.167153,0.85259914
-38.732647,3.1697412,0.85455227
-38.82116,3.1774604,0.86853504
-38.957882,3.170261,0.84722424
-39.156002,3.144608,0.78219795
-39.166527,3.1782207,0.85712004
-39.19528,3.206011,0.91827583
-39.27653,3.2178822,0.94173527
-39.567577,3.167737,0.8181896
-39.72328,3.1592312,0.79309654
-39.91174,3.1421351,0.7474799
-39.979496,3.160611,0.78616095
-40.03091,3.1838775,0.83617973
-40.247025,3.1614685,0.7775216
-40.524685,3.1235087,0.68163204
-40.550625,3.1553235,0.7517047
-40.620476,3.1753058,0.7935567
-40.75547,3.178365,0.7949648
-41.177288,3.1077662,0.6202793
-41.348347,3.1039915,0.6049228
-41.38189,3.1357808,0.6745119
-41.693092,3.0985293,0.5786867
-41.70307,3.1369286,0.66393757
-41.836,3.1454175,0.67740154
-41.931755,3.1633723,0.71348095
-42.540386,3.06148,0.46116066
-42.565117,3.0983267,0.54223824
-42.756023,3.0972276,0.531827
-42.96822,3.0923512,0.5120859
-42.99581,3.1293662,0.593338
-44.55166,3.0231915,0.29116535
-3.243473,3.615715,0.57603455
-3.251669,3.5433288,0.4166665
-4.763958,3.6103046,0.659039
-5.3615646,3.5979638,0.66900253
-5.6168118,3.5550432,0.5899677
-13.34761,3.2033668,0.28093815
-13.688789,3.2094455,0.3147726
-13.986416,3.2099082,0.33343506
-14.031626,3.1681175,0.2426982
-14.295921,3.1650293,0.25136614
-14.90909,3.2260087,0.42380762
-15.093159,3.2120671,0.4033966
-15.381174,3.218339,0.43427277
-15.679782,3.2281544,0.47365856
-15.933075,3.2308702,0.49446487
-16.155571,3.2289014,0.50294685
-16.366005,3.2256854,0.50789547
-16.645115,3.2374194,0.5502949
-16.872498,3.2400687,0.5692992
-17.077374,3.2392297,0.5791464
-17.135033,3.2082663,0.5129056
-17.166298,3.1717172,0.43257618
-28.606903,3.3543355,1.3520508
-28.660168,3.3723166,1.3946705
-28.714521,3.3935432,1.4448371
-28.74667,3.3752675,1.4027901
-28.778921,3.3562837,1.3590798
-28.844332,3.4014797,1.465105
-28.888271,3.4062974,1.4768896
-29.016777,3.416827,1.5029707
-29.058956,3.4197943,1.5103617
-29.09811,3.415875,1.5016708
-29.14027,3.4194527,1.5104494
-29.1802,3.4176888,1.5067515
-29.223127,3.4242213,1.5223818
-29.263905,3.4254053,1.5255222
-29.304867,3.4274778,1.5307183
-29.34647,3.4320076,1.5416226
-29.3866,3.432342,1.5427303
-29.427244,3.4347405,1.5486321
-29.465036,3.4270527,1.5310068
-29.504627,3.4257355,1.5282154
-29.54582,3.4311943,1.5411983
-29.585419,3.430478,1.539773
-29.624123,3.4255404,1.5284929
-29.663555,3.4238467,1.5247569
-29.703638,3.4257948,1.5294914
-29.743515,3.4270601,1.5326171
-29.783278,3.428035,1.5350494
-29.823095,3.4299006,1.5395398
-29.862082,3.425171,1.5286489
-29.902428,3.4331524,1.5473561
-29.941322,3.4266534,1.5323095
-29.980227,3.4174938,1.5110469
-30.019926,3.4186862,1.5138865
-30.059566,3.4195857,1.5160289
-30.099213,3.4225595,1.5229864
-30.138727,3.416563,1.5090289
-30.178284,3.4228961,1.5237803
-30.217846,3.4218361,1.5212908
-30.257376,3.4224555,1.522697
-30.29698,3.4215996,1.5206499
-30.337141,3.4137487,1.5022898
-30.377481,3.4067917,1.4859934
-30.417383,3.4062455,1.4846182
-30.457598,3.403438,1.4779568
-30.497107,3.406643,1.4852881
-30.537306,3.4048302,1.4809117
-30.57863,3.3968256,1.4620905
-30.617989,3.401125,1.4719219
-30.657309,3.405131,1.4810548
-30.696356,3.4100225,1.4922333
-30.735994,3.41187,1.4963036
-30.776371,3.4106798,1.4932766
-30.815784,3.4135172,1.49962
-30.85633,3.4121437,1.496131
-30.895802,3.414793,1.5020032
-30.934132,3.4210656,1.516304
-30.973186,3.4246957,1.5244298
-31.008837,3.438192,1.555541
-31.047997,3.44084,1.561347
-31.18029,3.1932166,0.98359156
-31.22552,3.1904655,0.97673416
-31.269934,3.190171,0.97558546
-31.314075,3.1907718,0.9765053
-31.358585,3.190712,0.9758649
-31.40262,3.1919334,0.97819567
-31.452112,3.1816468,0.9536605
-31.490728,3.194723,0.98360634
-31.537506,3.1908805,0.9740639
-31.581867,3.1921859,0.976511
-31.626041,3.1939933,0.9801116
-31.670431,3.1955328,0.98306656
-31.71179,3.20257,0.99883413
-31.733551,3.2431026,1.092772
-31.707766,3.3610494,1.3674359
-31.737469,3.3827069,1.417325
-31.770664,3.3979173,1.4521527
-31.920692,3.2324076,1.0649295
-31.990084,3.1966515,0.98064756
-32.034485,3.1995358,0.9865818
-32.209145,3.1521854,0.87339926
-32.24221,3.1718712,0.91850424
-32.277924,3.1874716,0.9540496
-32.31236,3.2042706,0.9923854
-32.345757,3.2218852,1.0326161
-32.38605,3.2305772,1.0519729
-32.426167,3.2393663,1.0715384
-32.45275,3.2639046,1.1279297
-32.39579,3.3836663,1.4071012
-32.4301,3.3961673,1.4353538
-32.481552,3.3894925,1.418714
-32.527508,3.3892581,1.4171214
-32.655422,3.3022103,1.2122579
-32.727627,3.2767284,1.1514621
-32.76562,3.2874386,1.175386
-32.80921,3.2923863,1.1857929
-32.859783,3.29052,1.1802168
-32.910152,3.2891703,1.1758251
-32.961823,3.286884,1.1692109
-33.01755,3.2811387,1.154458
-33.08849,3.2618616,1.107944
-33.15219,3.250038,1.0788665
-33.19338,3.258884,1.0982366
-33.1718,3.3225641,1.2462516
-33.23299,3.3132627,1.2230248
-33.279045,3.3173277,1.2311363
-33.30338,3.339602,1.2819815
-33.430717,3.2770777,1.133668
-33.553154,3.220742,0.9997916
-33.60314,3.2239244,1.0056715
-33.633015,3.2430038,1.0488877
-33.672413,3.254451,1.0741539
-33.708847,3.2680776,1.1045275
-33.748726,3.27901,1.1285496
-33.79358,3.2862406,1.1438441
-33.841213,3.2915287,1.1545444
-33.88451,3.3000402,1.1728072
-33.93256,3.30525,1.1832743
-33.984047,3.3082173,1.1884322
-34.05249,3.2998126,1.1667681
-34.103794,3.3034766,1.1735015
-34.169353,3.2978756,1.1583605
-34.21988,3.3025603,1.1674337
-34.278717,3.3020554,1.1642346
-34.359715,3.2877789,1.1285005
-34.44345,3.2724879,1.0903106
-34.600403,3.2126656,0.94689846
-34.703938,3.1873727,0.88491917
-35.573647,3.25832,1.014391
-35.992584,3.1607661,0.77329683
-36.012177,3.1875296,0.8338108
-36.044567,3.2080176,0.8793812
-36.081062,3.2264838,0.92011976
-36.183884,3.2146535,0.88860416
-36.24758,3.2211266,0.9006629
-36.314617,3.2263572,0.9097085
-36.414146,3.21762,0.88534546
-36.487595,3.2208083,0.88939
-36.56524,3.2225444,0.8899026
-36.647156,3.2228594,0.8869524
-36.72798,3.2240508,0.8860283
-36.807007,3.2263894,0.887784
-36.893818,3.2259488,0.882813
-36.978855,3.2266767,0.88056517
-37.081593,3.220833,0.8624768
-37.19323,3.2121177,0.83739614
-37.253933,3.22374,0.8610654
-37.379196,3.2109518,0.8260069
-37.466602,3.213201,0.8269949
-37.55569,3.2152534,0.82742786
-37.638535,3.220036,0.8343549
-37.763,3.2101378,0.8058176
-37.845695,3.2159162,0.81496716
-37.96385,3.2095604,0.7947483
-38.062576,3.21065,0.79239273
-38.183186,3.2047248,0.77297974
-38.31555,3.195504,0.7454643
-38.408726,3.2001882,0.75147676
-38.527058,3.1969972,0.73831034
-38.65574,3.19108,0.71840477
-38.77964,3.1874325,0.70386505
-38.87025,3.1950362,0.7165265
-39.08217,3.1650195,0.6376114
-39.131786,3.1865928,0.68400335
-39.165524,3.2130618,0.7422857
-39.270092,3.218126,0.74835587
-39.557514,3.1693616,0.6229286
-39.778114,3.142132,0.549736
-39.8991,3.1451044,0.55012417
-39.97013,3.1629286,0.5867305
-40.045845,3.179647,0.62055635
-40.260033,3.1581776,0.5606189
-40.421143,3.152537,0.53927326
-40.502426,3.1693354,0.57288885
-40.55751,3.1933894,0.6242771
-40.905,3.1407628,0.48664904
-41.202793,3.103238,0.38578176
-41.253414,3.130647,0.44488907
-41.41408,3.1304128,0.43558407
-41.641964,3.114346,0.38685083
-41.723564,3.1353445,0.42970133
-41.97393,3.1159496,0.37215853
-42.09638,3.1283686,0.39334774
-42.308754,3.1202974,0.3633523
-42.60867,3.093214,0.2856326
-42.67022,3.1219978,0.34695673
-42.98411,3.0944688,0.26737928
-43.0493,3.123535,0.32906008
-3.2715206,3.6942303,0.36186266
-5.537485,3.684487,0.5125494
-28.574867,3.3385937,1.2139635
-28.637346,3.3705833,1.2906857
-28.69574,3.3974757,1.3552694
-28.739435,3.399489,1.3607974
-28.76698,3.3715696,1.2953029
-28.827229,3.4053988,1.376246
-28.867271,3.401289,1.3671794
-28.910526,3.403773,1.3737278
-28.953825,3.4067578,1.3814397
-28.997322,3.4106266,1.391223
-29.038145,3.408866,1.3876376
-29.082186,3.414885,1.4024711
-29.125216,3.4191062,1.4130182
-29.167027,3.4207535,1.4174428
-29.2076,3.4194338,1.414813
-29.24613,3.412441,1.3987217
-29.289137,3.418267,1.4129806
-29.331549,3.423052,1.4247503
-29.372828,3.424862,1.4294496
-29.412893,3.4229164,1.425231
-29.451717,3.4164324,1.4102426
-29.490114,3.407723,1.3899646
-29.519009,3.3588307,1.2745032
-29.558878,3.351837,1.258254
-29.60049,3.3523095,1.259666
-29.642363,3.3544414,1.264986
-29.68366,3.3539665,1.2641106
-29.725077,3.3543732,1.2653041
-29.766745,3.3568306,1.2713284
-29.808165,3.3582299,1.2748275
-29.849077,3.3558493,1.2693563
-29.890242,3.3555179,1.2687149
-29.931404,3.3552923,1.2683029
-29.972538,3.354783,1.267199
-30.013676,3.3543801,1.266325
-30.054806,3.353694,1.2647595
-30.095936,3.3523343,1.2615795
-30.137108,3.3518593,1.2604723
-30.17831,3.3499336,1.2559094
-30.219532,3.3496702,1.255261
-30.260796,3.3487346,1.2530003
-30.302092,3.3479054,1.2509694
-30.343563,3.3452375,1.2445655
-30.384531,3.3492877,1.254044
-30.426899,3.3390574,1.2296939
-30.468422,3.3386564,1.2285914
-30.511833,3.324764,1.1955252
-30.60801,3.2499692,1.0180135
-30.649862,3.256246,1.0326295
-30.685469,3.2928798,1.1191101
-30.726488,3.2993495,1.1341457
-30.764896,3.3163822,1.1741748
-30.80433,3.3273084,1.1997252
-30.84355,3.3379426,1.2245636
-30.882788,3.3475118,1.2468605
-30.920494,3.361425,1.2794299
-30.957916,3.3750398,1.3112745
-31.001017,3.3702252,1.2994399
-31.021355,3.4322045,1.4458342
-31.068077,3.415627,1.4060941
-31.173576,3.244535,1.000186
-31.223253,3.2299259,0.9650235
-31.266531,3.2323554,0.9702139
-31.311897,3.2299109,0.9638281
-31.354853,3.233335,0.97133017
-31.396702,3.2391658,0.98451424
-31.445662,3.2298117,0.9616761
-31.486738,3.2373958,0.97897196
-31.534971,3.230593,0.96213055
-31.579296,3.2319236,0.96454954
-31.624048,3.2326102,0.96541834
-31.669052,3.2330368,0.9656453
-31.784657,3.2675467,1.0450411
-31.752464,3.3918085,1.339107
-31.801027,3.3835456,1.318634
-31.941065,3.2366326,0.96894693
-31.986914,3.23716,0.9692383
-32.032566,3.2381876,0.9706907
-32.113747,3.1892006,0.85331964
-32.14657,3.2733285,1.0510678
-32.23032,3.2241938,0.9332204
-32.26842,3.236279,0.96081877
-32.310352,3.243261,0.9762664
-32.339252,3.2662492,1.0297508
-32.380672,3.2734058,1.0455785
-32.421967,3.280666,1.0616293
-32.43962,3.315219,1.1425905
-32.4288,3.3809142,1.2976608
-32.474266,3.3817017,1.2982836
-32.521145,3.3811588,1.2957115
-32.60528,3.341071,1.1989517
-32.678318,3.3143854,1.1340413
-32.72518,3.3158653,1.1361642
-32.77068,3.3189235,1.1420202
-32.819103,3.3192246,1.1412773
-32.869846,3.3175097,1.1356997
-32.921135,3.3155894,1.1295996
-32.96994,3.3163292,1.129808
-33.02889,3.3079407,1.108211
-33.077644,3.309348,1.1099453
-33.147556,3.292107,1.0671382
-33.225403,3.268754,1.009686
-33.341335,3.2136176,0.87626886
-33.398632,3.210278,0.8664694
-33.425926,3.2323468,0.9173403
-33.48459,3.2282472,0.90566206
-33.511616,3.2501028,0.95599365
-33.55644,3.2574089,0.9715247
-33.592773,3.271407,1.0030375
-33.630608,3.284102,1.0314145
-33.66275,3.3010042,1.0698442
-33.703682,3.311113,1.0919948
-33.74584,3.3202996,1.1119123
-33.790676,3.3275542,1.1271763
-33.83734,3.3335752,1.1394567
-33.880615,3.3420923,1.1576905
-33.930096,3.346351,1.1656842
-33.980095,3.3504212,1.173192
-34.03063,3.3543084,1.1802244
-34.093746,3.3500338,1.1676235
-34.157684,3.3456454,1.1547003
-34.209637,3.349399,1.1612873
-34.285973,3.337866,1.1310897
-34.350834,3.334147,1.1196165
-34.420746,3.3277206,1.1015749
-34.602478,3.2537057,0.920794
-34.691475,3.2377293,0.8795676
-34.779552,3.2230663,0.8414211
-35.960506,3.1871808,0.7010741
-36.000725,3.204244,0.7386122
-36.034325,3.2243445,0.78351116
-36.026756,3.263253,0.87414885
-36.137623,3.2478223,0.8325553
-36.2195,3.2461753,0.82441187
-36.30496,3.2433975,0.8134289
-36.417023,3.2294931,0.77522326
-36.49414,3.2314243,0.77553415
-36.568813,3.2347698,0.77922344
-36.6651,3.2293875,0.761508
-36.764553,3.2232697,0.741889
-36.850243,3.2233825,0.7374072
-36.94374,3.220786,0.7261977
-37.0452,3.2155411,0.7083936
-37.137444,3.2145183,0.7008276
-37.211224,3.2211637,0.7119818
-37.33979,3.2071018,0.6721935
-37.412704,3.2149532,0.6861162
-37.53466,3.2047622,0.65557384
-37.604443,3.2145774,0.67414236
-37.699387,3.215481,0.67067623
-37.82788,3.2048106,0.63855124
-37.956345,3.1949446,0.6082473
-38.048927,3.1984239,0.610754
-38.154995,3.1976898,0.6027298
-38.262188,3.1971333,0.59501314
-38.388355,3.1907544,0.5727353
-38.51361,3.1854057,0.55284643
-38.606354,3.1914296,0.56102514
-38.74311,3.183631,0.534739
-38.861526,3.1824841,0.5248127
-39.098244,3.219165,0.5941906
-39.289845,3.1978612,0.5333538
-39.535545,3.1616037,0.43482447
-39.761723,3.1327233,0.35438156
-39.81699,3.1549692,0.401762
-39.901226,3.168992,0.4284463
-40.027554,3.1714244,0.4258933
-40.30907,3.131211,0.3158412
-40.36551,3.154732,0.36590958
-40.67533,3.1096125,0.24274063
-40.698338,3.1432128,0.3179164
-40.94255,3.1183093,0.24508953
-41.11138,3.114488,0.22525692
-41.21447,3.1284313,0.25021887
-41.394165,3.1234412,0.22692204
-28.57112,3.2967567,1.0033131
-28.653015,3.3607674,1.1588569
-28.69414,3.3558512,1.1479216
-28.717907,3.318809,1.059413
-28.758154,3.3110552,1.0415878
-28.806984,3.3199334,1.0638771
-28.882088,3.3831356,1.217207
-28.93132,3.3965073,1.2502499
-28.981453,3.4130416,1.2908869
-29.02533,3.4168885,1.3008852
-29.067585,3.4174528,1.3029375
-29.109774,3.4181294,1.305234
-29.151297,3.417403,1.3041186
-29.194935,3.4224727,1.3169522
-29.237957,3.4265242,1.327301
-29.27781,3.4219527,1.3168368
-29.316275,3.412919,1.2955937
-29.339151,3.3529856,1.1516519
-29.379604,3.3463852,1.1362362
-29.426596,3.3627536,1.1761451
-29.471529,3.3735342,1.202558
-29.515148,3.3806212,1.2200418
-29.558598,3.3882082,1.2387013
-29.60096,3.3920906,1.2484078
-29.642643,3.393408,1.2519097
-29.68412,3.39407,1.2538042
-29.725302,3.3933077,1.252244
-29.766716,3.3941834,1.2546034
-29.808031,3.3947828,1.2562714
-29.849176,3.39434,1.255403
-29.890205,3.3928537,1.251996
-29.931364,3.392622,1.2515864
-29.972494,3.392113,1.2504826
-30.013529,3.389793,1.2449908
-30.054686,3.3891118,1.2434225
-30.095867,3.3889194,1.2430053
-30.137037,3.3861487,1.2363539
-30.178307,3.382334,1.2271614
-30.219717,3.377858,1.216352
-30.26134,3.3719552,1.2020802
-30.303354,3.3627102,1.1797338
-30.345757,3.3524249,1.1548557
-30.387869,3.3491492,1.146833
-30.429766,3.349048,1.1464291
-30.47196,3.3467565,1.1407232
-30.51456,3.3422773,1.1297231
-30.559986,3.320685,1.0774755
-30.609322,3.2804735,0.9803457
-30.650736,3.2897394,1.0023699
-30.693972,3.2887878,0.99975395
-30.738012,3.2845109,0.989099
-30.781946,3.2814956,0.9814563
-30.82322,3.2896605,1.0007257
-30.864666,3.2964027,1.01654
-30.890572,3.357354,1.1629643
-30.93078,3.36426,1.1791358
-30.972248,3.366701,1.1845198
-31.002293,3.4034588,1.2725959
-31.075325,3.3137913,1.0558991
-31.126734,3.29156,1.0017138
-31.171663,3.288439,0.9935646
-31.219448,3.278622,0.9692421
-31.263517,3.2787776,0.968935
-31.306488,3.2816942,0.97525835
-31.343845,3.297178,1.011868
-31.39265,3.2871048,0.98680544
-31.530506,3.2787752,0.96423435
-31.57529,3.2790022,0.9638972
-31.619308,3.2808478,0.96743727
-31.663332,3.2828085,0.9712291
-31.702583,3.293102,0.9951129
-31.799076,3.2834284,0.9697194
-31.84437,3.2840042,0.97004604
-31.889961,3.2843308,0.9697423
-31.935617,3.2847817,0.96970654
-31.981844,3.2846177,0.96815395
-32.026344,3.287165,0.97312355
-32.11371,3.230125,0.8339839
-32.090996,3.325722,1.0639048
-32.141594,3.31975,1.048193
-32.22042,3.2776515,0.9450393
-32.262646,3.2841246,0.9593506
-32.30211,3.2939885,0.98184204
-32.338352,3.3075867,1.01335
-32.375786,3.319443,1.0406227
-32.41356,3.330657,1.0663176
-32.452026,3.3408704,1.0895662
-32.49285,3.348284,1.1060095
-32.535515,3.3536386,1.1174345
-32.58012,3.3569486,1.1238747
-32.624046,3.3610969,1.1323161
-32.66864,3.3646479,1.1392789
-32.717106,3.3643978,1.1369867
-32.765335,3.3646448,1.1358662
-32.81258,3.3660972,1.1376338
-32.861374,3.3662696,1.1362581
-32.910656,3.3662329,1.134337
-32.961205,3.365286,1.1301665
-33.010746,3.365545,1.1288857
-33.07295,3.354752,1.100698
-33.139603,3.3406825,1.0644836
-33.214096,3.3205857,1.013545
-33.353954,3.2459576,0.829824
-33.380344,3.2687721,0.88315725
-33.446453,3.2585125,0.8559413
-33.483685,3.272195,0.88698816
-33.52364,3.2835584,0.9123626
-33.559887,3.297747,0.9445987
-33.58699,3.3188167,0.9935956
-33.62207,3.3334699,1.0269322
-33.658646,3.3468416,1.0571208
-33.69678,3.3589444,1.0841899
-33.73747,3.3691196,1.1065292
-33.815998,3.3523045,1.0628891
-33.85109,3.366779,1.095653
-33.906044,3.3673797,1.0944686
-33.968914,3.3628619,1.0807152
-34.02817,3.361197,1.0738821
-34.079227,3.3653088,1.0811396
-34.15239,3.3551872,1.0534859
-34.226055,3.3453348,1.0264153
-34.287426,3.343862,1.0198159
-34.361443,3.3348424,0.99464417
-34.37899,3.361163,1.0561299
-34.466587,3.3445332,1.0121555
-34.57677,3.315167,0.9367914
-34.684338,3.2884834,0.867887
-34.779392,3.2701488,0.8193879
-35.975918,3.1950908,0.5733228
-36.009388,3.2156732,0.61969805
-36.03304,3.2406707,0.6770277
-36.111794,3.2402391,0.6711197
-36.181282,3.2444096,0.6765704
-36.27466,3.2382495,0.6562171
-36.35817,3.2370007,0.647985
-36.43876,3.237479,0.64395857
-36.523556,3.2365727,0.6363764
-36.625187,3.2290106,0.61206245
-36.70675,3.2304542,0.6101289
-36.794594,3.2297213,0.60264635
-36.880077,3.2304204,0.5986376
-36.973312,3.2284496,0.5878277
-37.067616,3.2265723,0.57712746
-37.147865,3.230706,0.5813942
-37.27536,3.2169876,0.54069424
-37.37996,3.2128232,0.5238385
-37.457703,3.2193496,0.5337539
-37.58705,3.207069,0.49617052
-37.67955,3.2091007,0.49449825
-37.790894,3.204787,0.47667456
-37.927155,3.192224,0.43783426
-39.464485,3.173345,0.28199387
-39.518375,3.1952796,0.32872295
-39.684147,3.1846626,0.29161596
-39.792812,3.1914387,0.29903316
-28.558155,3.3084085,0.92305136
-28.622822,3.3412125,1.0047574
-28.666735,3.3395565,1.0018015
-28.712051,3.3406024,1.005445
-28.757658,3.342512,1.0111723
-28.777784,3.2952724,0.89626217
-28.815628,3.280673,0.861434
-28.859955,3.2787855,0.8577652
-28.903591,3.275526,0.8506985
-28.949772,3.2779639,0.85757065
-28.995977,3.2808995,0.86562824
-29.039871,3.2787359,0.86114883
-29.083633,3.2763124,0.8560009
-29.127851,3.275124,0.8538475
-29.172058,3.2740502,0.85194254
-29.219898,3.2835808,0.8759918
-29.276936,3.3221133,0.9710703
-29.33492,3.3679547,1.0840077
-29.381422,3.3805604,1.1154652
-29.427582,3.3936713,1.1481247
-29.47418,3.410296,1.1893549
-29.5188,3.421408,1.2170453
-29.561806,3.4273698,1.2320876
-29.60402,3.430809,1.2409201
-29.645493,3.4313438,1.2426085
-29.686995,3.4323633,1.2454534
-29.728249,3.432358,1.2457595
-29.769484,3.432459,1.2462974
-29.810595,3.431912,1.2452159
-29.851795,3.432226,1.2462139
-29.892893,3.4318898,1.2455916
-29.933954,3.431282,1.2442737
-29.974974,3.4300234,1.241333
-30.016003,3.4284918,1.2376947
-30.057074,3.427066,1.2342863
-30.098192,3.426124,1.2320318
-30.13933,3.4233966,1.2253776
-30.180553,3.4207757,1.2189536
-30.221912,3.4163687,1.2081294
-30.263517,3.4098012,1.1919851
-30.305725,3.3969135,1.1603398
-30.348587,3.381114,1.1215339
-30.391792,3.3673174,1.0875993
-30.435907,3.3494809,1.0437407
-30.485668,3.2913492,0.9011946
-30.533056,3.2635722,0.8329277
-30.572258,3.2936745,0.906342
-30.629528,3.2144587,0.71205044
-30.662918,3.2745736,0.85889626
-30.701,3.3027067,0.92740774
-30.742138,3.3132188,0.9527383
-30.78404,3.3193133,0.9672222
-30.825676,3.3258886,0.98285437
-30.86764,3.330688,0.9941063
-30.909912,3.3340895,1.001905
-30.953823,3.331968,0.9961405
-30.998201,3.3288367,0.9878702
-31.041702,3.3288229,0.9872055
-31.08498,3.3296711,0.9886222
-31.12813,3.3310068,0.99120045
-31.171427,3.3320804,0.99310446
-31.222729,3.3134782,0.9467406
-31.26558,3.316663,0.95375156
-31.307886,3.3210757,0.96374226
-31.342833,3.3415968,1.0132084
-31.390999,3.3328228,0.9907985
-31.442038,3.3189902,0.95593977
-31.483665,3.3249607,0.9696255
-31.530182,3.3214085,0.95991325
-31.57249,3.3261194,0.97044516
-31.617378,3.3261373,0.9694257
-31.663599,3.3240645,0.96323776
-31.70257,3.3346362,0.9880638
-31.745283,3.3386807,0.9968333
-31.79985,3.3237505,0.95896006
-31.845337,3.324015,0.95836973
-31.890652,3.3247685,0.9589448
-31.935524,3.326376,0.96158314
-31.981438,3.3266447,0.9608965
-32.0326,3.3197625,0.9425883
-32.080894,3.3173916,0.9353318
-32.14938,3.2883325,0.86237955
-32.18599,3.3025715,0.89589834
-32.230137,3.306776,0.90469694
-32.264442,3.3233488,0.94390965
-32.298004,3.3403451,0.98414755
-32.337414,3.3498676,1.0059571
-32.37386,3.3627048,1.0359063
-32.410923,3.3745477,1.0633836
-32.451515,3.3821948,1.080493
-32.49325,3.3885193,1.0943103
-32.530285,3.3999171,1.1206098
-32.57978,3.3979468,1.1139045
-32.627403,3.3982422,1.1127462
-32.677555,3.3962095,1.1057992
-32.72683,3.3953815,1.1017818
-32.775536,3.3953996,1.0998106
-32.82327,3.3966093,1.1007409
-32.874775,3.3944716,1.0933537
-32.9276,3.391448,1.0837307
-32.97875,3.390322,1.0787487
-33.03006,3.3893504,1.0741034
-33.07997,3.3899138,1.0732083
-33.14391,3.3785996,1.0428576
-33.197063,3.3770988,1.036746
-33.330948,3.3084815,0.8642702
-33.363197,3.3259044,0.9049034
-33.405945,3.3345568,0.923769
-33.47707,3.320651,0.8866348
-33.522076,3.327908,0.9019456
-33.55652,3.3433511,0.9375448
-33.592384,3.3575191,0.9699578
-33.626152,3.3730977,1.0058494
-33.67588,3.3767624,1.0121031
-33.759125,3.3563752,0.95848274
-34.133633,3.1295354,0.3909979
-34.177338,3.141807,0.41824007
-34.235542,3.1440187,0.42039013
-34.26938,3.1630707,0.46444893
-34.283356,3.1951947,0.5410824
-34.295494,3.2279189,0.6192303
-34.291363,3.2705972,0.7222395
-34.301067,3.3034885,0.8008547
-34.33016,3.323502,0.84731627
-34.37978,3.3304722,0.86115885
-34.430923,3.3366325,0.87292814
-34.57403,3.2872648,0.7456808
-34.543747,3.3431067,0.88167524
-34.672253,3.3042703,0.78054047
-36.044464,3.2504604,0.5602784
-36.170033,3.2291503,0.5005307
-36.24411,3.231915,0.50176334
-36.34323,3.2239437,0.47559214
-28.562225,3.2866364,0.73753405
-28.667616,3.388865,0.99494314
-28.711424,3.3872893,0.9922595
-28.75659,3.3883746,0.99619913
-28.77822,3.34479,0.88827467
-28.808233,3.315065,0.8150382
-28.850052,3.3076568,0.7976327
-28.898088,3.313146,0.8124647
-28.94222,3.3107176,0.80744314
-28.987337,3.3106012,0.808167
-29.02916,3.3029006,0.78988457
-29.076817,3.3092575,0.80671835
-29.123499,3.3139079,0.819242
-29.163443,3.3010237,0.787889
-29.21885,3.3309543,0.8635254
-29.272478,3.358844,0.9340024
-29.327501,3.3942752,1.0232716
-29.378407,3.4202769,1.0889235
-29.424927,3.4342368,1.1244402
-29.469357,3.442411,1.1454573
-29.513203,3.449596,1.1639647
-29.557041,3.4580092,1.1855016
-29.599516,3.461725,1.1952662
-29.641842,3.4655528,1.2052746
-29.683739,3.4680088,1.2118192
-29.725025,3.4676049,1.2111888
-29.766191,3.4665658,1.2089353
-29.807524,3.466746,1.2096925
-29.848923,3.4677765,1.2125373
-29.889923,3.4655695,1.207263
-29.930952,3.4630952,1.2012897
-29.972075,3.4610991,1.1964722
-30.013336,3.4606948,1.1955957
-30.05467,3.4622557,1.1995907
-30.095892,3.46132,1.1973171
-30.137146,3.4612343,1.1971312
-30.178438,3.4579072,1.1888194
-30.219872,3.4535713,1.1779537
-30.261698,3.4437652,1.153398
-30.30399,3.4318385,1.1235108
-30.346706,3.4196508,1.0929365
-30.389555,3.4105487,1.0700283
-30.43378,3.3919003,1.0232491
-30.484875,3.3243494,0.8543296
-30.529718,3.315984,0.8331418
-30.578125,3.2873275,0.7612448
-30.611088,3.351546,0.9212289
-30.656303,3.341663,0.8961396
-30.703268,3.3252316,0.85465574
-30.744753,3.3355982,0.8800616
-30.780699,3.3675346,0.9593134
-30.822542,3.37291,0.972188
-30.865263,3.374693,0.97605324
-30.908714,3.3740003,0.97369814
-30.952108,3.3737903,0.97251034
-30.995546,3.3736935,0.9715681
-31.038391,3.3755524,0.97547674
-31.080551,3.3793635,0.98422813
-31.126513,3.372982,0.9674635
-31.170557,3.3722398,0.96475554
-31.217087,3.3657413,0.9476137
-31.266861,3.3524055,0.9133291
-31.307182,3.3615572,0.9352474
-31.349958,3.3649523,0.9427295
-31.39548,3.3626106,0.93582153
-31.434616,3.3735294,0.96205854
-31.474197,3.3830814,0.98484373
-31.521637,3.3774402,0.9695611
-31.56594,3.378112,0.9700427
-31.60967,3.3799908,0.973505
-31.651085,3.3859718,0.987205
-31.69454,3.3884363,0.99206066
-31.739548,3.3884861,0.99082613
-31.783482,3.3904614,0.99437666
-31.827425,3.3925533,0.9981799
-31.871376,3.3947616,1.0022359
-31.91731,3.3942158,0.99934435
-31.962837,3.3945136,0.99852467
-32.007664,3.3960087,1.000668
-32.05332,3.3965542,1.0003862
-32.099045,3.3972263,1.0003781
-32.14484,3.3980231,1.0006409
-32.192398,3.396818,0.9958315
-32.240376,3.395394,0.9904256
-32.289673,3.3926947,0.9817662
-32.33586,3.3940177,0.98316956
-32.378437,3.3996894,0.99546766
-32.42093,3.405471,1.0080023
-32.464607,3.4099612,1.0172491
-32.590992,3.377815,0.9320512
-32.635563,3.3824053,0.9413934
-32.68589,3.3812187,0.9361348
-32.73707,3.3794892,0.9294567
-32.78279,3.3834329,0.9370308
-32.828503,3.3875005,0.9448738
-32.93689,3.38027,0.9216299
-32.989952,3.378273,0.9140043
-33.061108,3.3604445,0.86631775
-33.12372,3.351016,0.8397727
-33.173462,3.353301,0.8427744
-33.191467,3.3827136,0.9143567
-33.246937,3.3801603,0.9050379
-33.321846,3.3620274,0.8562026
-33.444744,3.3060753,0.71145535
-33.470566,3.329255,0.76708317
-33.49109,3.3561049,0.83201075
-33.530273,3.3680558,0.8591428
-33.56573,3.3827348,0.89316607
-33.63489,3.3721771,0.8630748
-33.762295,3.319615,0.7261658
-34.006218,3.18503,0.38053942
-34.052658,3.1949995,0.40215492
-34.115185,3.1937482,0.39516973
-34.177475,3.193022,0.38944626
-34.219566,3.2063258,0.41938972
-34.23837,3.2351043,0.48874283
-34.282616,3.246627,0.51409197
-34.32079,3.2620733,0.5494137
-34.349216,3.2836146,0.6002679
-34.38264,3.301716,0.64232254
-34.42022,3.3170469,0.67727137
-34.47029,3.3246381,0.6923871
-34.638756,3.2610624,0.5252533
-34.67112,3.280408,0.5702481
-34.628128,3.343639,0.727726
-28.561726,3.3258812,0.71767664
-28.599352,3.3104289,0.67981577
-28.708735,3.420946,0.96301794
-28.748669,3.412283,0.94232845
-28.779488,3.386142,0.8770695
-28.806684,3.351431,0.78996134
-28.844086,3.3350894,0.7496271
-28.880762,3.316308,0.70304966
-28.94331,3.352396,0.7961402
-28.97282,3.317231,0.70777464
-29.023676,3.3294377,0.73996115
-29.07199,3.3367274,0.75958014
-29.104069,3.3035996,0.67631245
-29.163631,3.3408363,0.7720299
-29.209532,3.3437994,0.78049755
-29.268932,3.3868265,0.8908119
-29.328144,3.4340415,1.0117044
-29.375885,3.4494417,1.0516319
-29.422438,3.4627936,1.0863018
-29.467506,3.4726336,1.1119952
-29.51109,3.478224,1.1268392
-29.553928,3.4817414,1.1363721
-29.596617,3.4853718,1.1461506
-29.638027,3.4836383,1.1422553
-29.679121,3.4801838,1.1339488
-29.720749,3.4793925,1.1323695
-29.76261,3.4801714,1.1347389
-29.80488,3.4843502,1.1457062
-29.846634,3.485712,1.149476
-29.883617,3.4425266,1.0400438
-29.925669,3.4404316,1.0349574
-29.968382,3.4468677,1.0514984
-30.010527,3.4471874,1.0524645
-30.05288,3.453476,1.0685511
-30.09499,3.4587758,1.0820847
-30.136965,3.4733417,1.1191139
-30.178577,3.4770248,1.1284618
-30.220287,3.4731221,1.1185017
-30.26206,3.4707928,1.1124973
-30.304325,3.4619782,1.0899816
-30.347061,3.4510775,1.0621243
-30.39045,3.4373605,1.0270724
-30.43447,3.4222956,0.9885526
-30.477922,3.415764,0.9716668
-30.52134,3.4111753,0.95967436
-30.563978,3.4125497,0.9627919
-30.606915,3.412207,0.961503
-30.650028,3.4112444,0.9585991
-30.693117,3.4107587,0.95686436
-30.736078,3.411115,0.9572282
-30.779236,3.410853,0.9559789
-30.822334,3.4110668,0.95589924
-30.866068,3.409208,0.9505062
-30.909464,3.4089198,0.94906425
-30.953133,3.4080179,0.9460187
-30.996508,3.4083207,0.9459944
-31.039026,3.4112766,0.9526763
-31.081356,3.4147036,0.9605155
-31.12583,3.4124427,0.95384216
-31.16869,3.414643,0.9584775
-31.211975,3.4158704,0.96059275
-31.254642,3.418654,0.9666281
-31.298082,3.4197438,0.9683099
-31.341202,3.421668,0.97207403
-31.384663,3.4229844,0.9742465
-31.428679,3.4233367,0.9739218
-31.47293,3.4234467,0.9729347
-31.518398,3.4215248,0.9667239
-31.562801,3.4218745,0.96625566
-31.606646,3.423415,0.96877956
-31.649872,3.4261425,0.97428465
-31.698069,3.4207869,0.95913076
-31.741169,3.424108,0.96606016
-31.787893,3.421858,0.9587302
-31.835945,3.417966,0.9471588
-31.880356,3.4198756,0.950346
-31.927006,3.4187236,0.9456687
-31.972513,3.419465,0.94577885
-32.017826,3.4206827,0.9470568
-32.067154,3.4167526,0.9351306
-32.11292,3.4178765,0.936069
-32.161503,3.4156258,0.928329
-32.210537,3.413166,0.9199991
-32.261196,3.4091046,0.90751696
-32.31033,3.4072816,0.9007039
-32.361126,3.4038653,0.88975525
-32.434143,3.3756685,0.8152733
-32.474895,3.3847036,0.8360877
-32.563255,3.3951564,0.85807085
-32.639732,3.3667696,0.7827678
-32.86718,3.18538,0.31471157
-32.9232,3.183208,0.30632544
-32.96454,3.1958416,0.33589602
-32.995033,3.218752,0.39183474
-33.020603,3.245761,0.45829535
-32.992363,3.3220825,0.65155697
-33.000797,3.3624442,0.7524152
-33.044353,3.3701622,0.7692857
-33.09882,3.3682823,0.76139593
-33.146156,3.3729126,0.77020884
-33.203667,3.3690193,0.7570014
-33.350048,3.2913163,0.5533891
-33.309044,3.3703852,0.75397015
-33.372547,3.362733,0.7308407
-33.44806,3.3460908,0.68440723
-33.48443,3.360848,0.7189908
-33.530243,3.3681672,0.73431635
-33.601383,3.3564088,0.7002406
-33.691414,3.3312826,0.6314626
-33.808533,3.2874389,0.51406527
-33.939384,3.2353892,0.37519932
-33.99976,3.2352393,0.37065315
-34.04521,3.2458315,0.39389038
-34.112278,3.2415676,0.37851667
-34.13513,3.2676754,0.44193363
-34.19857,3.2662797,0.43386698
-34.249775,3.2732794,0.44754505
-34.286392,3.289833,0.48602533
-34.326576,3.303958,0.51814795
-34.3526,3.3268836,0.57316685
-34.402607,3.334643,0.5886278
-34.547764,3.284535,0.4530182
-34.716335,3.222155,0.28508186
-34.704784,3.2685196,0.40099812
-34.652195,3.3378527,0.5770645
-28.620426,3.385185,0.74796104
-28.663393,3.3795512,0.734992
-28.715712,3.3905911,0.7652602
-28.776531,3.4183755,0.8389182
-28.817516,3.410307,0.8194647
-28.861744,3.408354,0.81583357
-28.907005,3.4086432,0.8179679
-28.951195,3.4069242,0.8148432
-28.99538,3.4053202,0.8119683
-29.041567,3.408455,0.8213277
-29.086107,3.408154,0.8217311
-29.130177,3.4069014,0.81961775
-29.176142,3.4107578,0.83069277
-29.219713,3.4086683,0.826313
-29.276077,3.443504,0.9175215
-29.326849,3.4652808,0.9748373
-29.373482,3.4764667,1.0046692
-29.417368,3.4798994,1.0143728
-29.460003,3.479505,1.014121
-29.490269,3.431859,0.89151955
-29.531214,3.4216022,0.8656621
-29.577354,3.4330006,0.8958039
-29.6224,3.44129,0.9178467
-29.66541,3.4407082,0.9168873
-29.708916,3.4431162,0.92361546
-29.752884,3.449237,0.93990135
-29.796522,3.4547534,0.95457506
-29.838346,3.4474156,0.93595266
-29.88229,3.4578397,0.9632273
-29.925282,3.4618924,0.97397375
-29.967964,3.4638932,0.97936726
-30.009014,3.4382403,0.91319466
-30.05198,3.4397361,0.917192
-30.09481,3.437736,0.9121022
-30.13769,3.4333215,0.9007206
-30.1807,3.43046,0.89331055
-30.223913,3.4241033,0.8768134
-30.266613,3.4337237,0.9015932
-30.307041,3.4744596,1.0067987
-30.349577,3.4716728,0.99940014
-30.392912,3.461789,0.973598
-30.436964,3.4487765,0.93965673
-30.482367,3.4290383,0.8882685
-30.524298,3.4375086,0.9097991
-30.567026,3.439606,0.9147978
-30.609507,3.442891,0.92282534
-30.652184,3.444846,0.9273658
-30.695127,3.4454727,0.9284229
-30.7369,3.4512384,0.94273376
-30.780214,3.450289,0.93961906
-30.823687,3.449094,0.935822
-30.867435,3.4472954,0.93041515
-30.910305,3.4488356,0.93360424
-30.953957,3.4479814,0.9305458
-30.997677,3.4472418,0.9277363
-31.040577,3.449118,0.931653
-31.084515,3.4482489,0.92841196
-31.12825,3.448209,0.9272709
-31.172323,3.447572,0.9245324
-31.218124,3.443137,0.91190195
-31.263344,3.4406054,0.90415144
-31.308052,3.4396164,0.9003482
-31.351667,3.4412284,0.90324116
-31.398258,3.4369342,0.89076376
-31.442705,3.4373672,0.89049816
-31.48645,3.4393315,0.8941536
-31.576122,3.4397283,0.892149
-31.622381,3.437821,0.88560104
-31.668566,3.4363916,0.8802414
-31.721596,3.4242194,0.84691477
-31.81471,3.422383,0.838562
-31.861551,3.4214833,0.83434916
-31.905617,3.4248927,0.8412881
-31.95952,3.4145093,0.8122935
-32.008812,3.4112334,0.80172396
-32.05572,3.4115634,0.8004794
-32.10377,3.41064,0.7959137
-32.161682,3.3974304,0.759284
-32.202736,3.4060998,0.77958775
-32.246418,3.4114316,0.79114723
-32.29031,3.4165318,0.80205584
-32.3691,3.3810334,0.70699835
-32.40905,3.391572,0.7319579
-32.447838,3.4032235,0.7597842
-32.531483,3.3656921,0.65911245
-32.710087,3.2284799,0.29784346
-32.770462,3.220916,0.27511263
-32.822353,3.2226512,0.27661228
-32.874313,3.2245317,0.2784295
-32.92124,3.2315931,0.29373932
-32.962185,3.2444654,0.32421112
-32.992977,3.2667747,0.37936497
-33.020287,3.291784,0.44157982
-33.052326,3.3118348,0.49078226
-33.07202,3.342525,0.5678768
-33.10692,3.3590047,0.60767794
-33.142155,3.374889,0.64588594
-33.18317,3.3855882,0.6704416
-33.267826,3.3597448,0.5988803
-33.38847,3.3055255,0.45252895
-33.3452,3.385753,0.6597929
-33.430416,3.3616157,0.5923834
-33.477715,3.3681653,0.60568
-33.51489,3.382569,0.6396241
-33.632072,3.3364098,0.5137634
-33.673943,3.3479743,0.5400424
-33.76095,3.3265,0.4790101
-33.825027,3.3225029,0.46401215
-33.93727,3.2848687,0.35995197
-33.96954,3.304432,0.40704203
-34.054455,3.2876139,0.35776377
-34.108173,3.292702,0.36638308
-34.17129,3.2917135,0.3588128
-34.215202,3.3036594,0.38546753
-34.261307,3.3141656,0.408247
-34.305317,3.3260217,0.434556
-34.3555,3.3339987,0.45049477
-34.499798,3.28408,0.31226206
-34.695236,3.2849793,0.29762888
-34.67417,3.3360524,0.42811298
-28.65348,3.4046764,0.6784563
-28.706844,3.416845,0.71242476
-28.759138,3.4281316,0.7439861
-28.816324,3.4496615,0.8025389
-28.86126,3.4490767,0.80259037
-28.905285,3.446867,0.79829407
-28.951319,3.4489627,0.80531216
-28.996895,3.450484,0.81075287
-29.041586,3.4503772,0.811841
-29.085629,3.4489858,0.809484
-29.129948,3.4484115,0.80922794
-29.174368,3.448305,0.8101506
-29.219131,3.4493685,0.814106
-29.266417,3.4579396,0.83780146
-29.320211,3.4870675,0.9156308
-29.363317,3.4860473,0.9139137
-29.385857,3.416707,0.7320771
-29.435524,3.4349205,0.78096676
-29.48077,3.4391463,0.79293156
-29.528728,3.455157,0.8358903
-29.573082,3.458214,0.8446622
-29.616394,3.4571414,0.8425002
-29.661932,3.4675107,0.87042475
-29.705505,3.469146,0.87528896
-29.748539,3.4680588,0.87293196
-29.787146,3.4362354,0.78958845
-29.829615,3.4264922,0.76434183
-29.873259,3.424661,0.7598758
-29.916523,3.4183273,0.7435055
-29.962013,3.4390814,0.79839754
-30.0069,3.4620855,0.8591571
-30.050251,3.467099,0.8725009
-30.093292,3.4665432,0.87113047
-30.136326,3.4629016,0.8615861
-30.179497,3.4583058,0.8494773
-30.223007,3.4474294,0.8207841
-30.266666,3.4416363,0.8054218
-30.311068,3.4274373,0.76787424
-30.356619,3.4051914,0.7090883
-30.394258,3.4721372,0.8850727
-30.437666,3.4689178,0.8762789
-30.482367,3.4569452,0.8443837
-30.526014,3.455018,0.8388872
-30.564133,3.4868715,0.9222951
-30.612968,3.4546938,0.83702993
-30.657164,3.4513366,0.8276067
-30.702501,3.4434953,0.80631876
-30.74463,3.4506297,0.8244252
-30.788605,3.44974,0.8213415
-30.832159,3.4507303,0.82315874
-30.874187,3.4571269,0.8391714
-30.920881,3.4477584,0.8135829
-30.965546,3.4459193,0.8077812
-31.013552,3.4346921,0.77717304
-31.0548,3.4436507,0.79972935
-31.096445,3.4509516,0.81786776
-31.140371,3.4520357,0.81955814
-31.184599,3.452532,0.8196449
-31.22916,3.4524438,0.81813526
-31.269087,3.4629717,0.8445878
-31.315039,3.4599607,0.83525753
-31.358963,3.4616137,0.838182
-31.416153,3.4368832,0.77136993
-31.461079,3.4377553,0.7721071
-31.505295,3.4401379,0.77677774
