x,y,z
-38.768196,2.4575493,0.94992447
-38.74606,2.5067875,1.0480661
-38.72981,2.5530481,1.1406326
-38.734215,2.590619,1.2170997
-38.749523,2.6235805,1.2850404
-38.763454,2.6568074,1.3534603
-38.774426,2.6908877,1.4234362
-38.785557,2.7246194,1.492753
-38.80476,2.7550743,1.5560446
-38.832165,2.7823184,1.61345
-38.878265,2.8026586,1.6582355
-38.937714,2.8182507,1.6943917
-38.99459,2.8348994,1.7325454
-39.062607,2.8477771,1.7638927
-39.141106,2.8572505,1.7891316
-39.228584,2.8639596,1.8094544
-39.321053,2.8693569,1.8275213
-39.394703,2.881444,1.8578405
-39.153442,2.9976075,2.0765128
-39.16426,3.0294423,2.142404
-39.190353,3.0561414,2.199019
-39.22271,3.080751,2.2518868
-39.257217,3.1046407,2.3034883
-39.298107,3.1265204,2.3515153
-40.164047,2.8954697,1.9466
-40.251675,2.9063268,1.9758186
-40.394737,2.90095,1.9762025
-40.49197,2.9098713,2.0023012
-40.680332,2.8926127,1.9820147
-40.802128,2.8956127,1.9980164
-40.964798,2.8875637,1.9946623
-41.016777,2.911499,2.0481243
-41.134678,2.9172213,2.069538
-41.24047,2.9268072,2.097959
-42.22378,2.6994624,1.710576
-42.225166,2.740887,1.7960839
-42.22231,2.783146,1.8830099
-42.22581,2.8234434,1.9664645
-42.230408,2.8632011,2.048946
-42.222748,2.905821,2.1363602
-42.37535,2.9080343,2.153789
-42.55153,2.9051805,2.162776
-42.738873,2.9005075,2.1689935
-42.85714,2.9133956,2.205749
-43.071346,2.904063,2.2047033
-43.277912,2.8976464,2.2090988
-43.382996,2.9156957,2.2555747
-43.62944,2.9020338,2.2484717
-43.861877,2.8928273,2.2494621
-43.966377,2.9131079,2.3006787
-44.161804,2.9139922,2.3195329
-44.426712,2.9009364,2.315506
-44.611797,2.906172,2.3426204
-44.79245,2.9132323,2.373201
-45.046684,2.906049,2.3806334
-45.336815,2.8929179,2.3788896
-45.564087,2.8938408,2.4009624
-45.837536,2.8868403,2.4106503
-46.108665,2.8816972,2.4240737
-46.39812,2.874458,2.4348116
-46.64851,2.8760264,2.460534
-46.845387,2.8887115,2.504778
-47.22589,2.8690255,2.4978318
-47.516167,2.867447,2.5207448
-47.826775,2.863769,2.5411615
-48.11116,2.8661976,2.5720778
-48.46929,2.8575373,2.5864897
-48.844223,2.847919,2.6004896
-49.278122,2.830567,2.6036925
-49.500793,2.849493,2.663917
-49.924225,2.8377082,2.6780157
-50.40795,2.8187404,2.6826124
-50.801823,2.8159952,2.7131777
-51.21736,2.8120065,2.7432013
-51.67784,2.8035305,2.7679992
-52.086555,2.804873,2.8087983
-52.58293,2.79589,2.836022
-53.00309,2.8000078,2.8839145
-53.567543,2.7866464,2.9084005
-54.164795,2.771825,2.9329505
-0.6363239,2.408958,2.2608948
-0.7628174,2.3439963,2.1125093
-0.8062954,2.2690182,1.9496083
-0.8060608,2.188395,1.7783217
-0.7973156,2.106389,1.6048727
-0.8238201,2.0287962,1.4380612
-0.83013916,1.9483063,1.2668118
-0.8125038,1.8642175,1.0899372
-0.82613564,1.7841971,0.91928625
-0.829401,1.7024453,0.7458854
-0.8560772,1.6238732,0.57745504
-0.84737206,1.5397935,0.40026426
-12.838835,2.9524274,2.4421601
-12.6614685,2.766862,2.0653644
-13.661045,2.9006133,2.2696886
-13.829302,2.8830726,2.219933
-14.30338,2.9249802,2.271686
-14.734984,2.9612248,2.314848
-14.529577,2.873755,2.1469722
-15.632381,3.0477262,2.4281154
-15.882074,3.0541263,2.4226465
-16.05733,3.0464058,2.393262
-16.403822,3.075534,2.4281945
-16.560799,3.066143,2.396779
-16.826748,3.081087,2.4081602
-17.108429,3.1009202,2.4286342
-17.406595,3.1259685,2.458825
-17.50739,3.108063,2.4139738
-17.774221,3.1286235,2.4371963
-18.00766,3.1428955,2.449801
-18.157469,3.1387253,2.4301233
-18.232454,3.1174042,2.3802109
-18.469856,3.135677,2.4009867
-18.721663,3.158808,2.4308715
-18.854115,3.1536512,2.410563
-19.06274,3.1683488,2.4260993
-19.193687,3.1643403,2.4083638
-19.323551,3.1606843,2.3914776
-19.5297,3.1776857,2.4120922
-19.608925,3.1620924,2.3740954
-19.742403,3.1614048,2.3632255
-19.953068,3.1824546,2.3920326
-20.115202,3.1913052,2.3989959
-20.307938,3.2096102,2.423442
-20.369884,3.1919339,2.3825207
-20.553848,3.2094805,2.4060774
-20.585773,3.1838713,2.3508863
-20.763723,3.2012284,2.3745337
-20.913803,3.2113106,2.3850884
-20.98898,3.199615,2.355794
-21.193005,3.2275913,2.399703
-21.204006,3.1970925,2.3360043
-21.395952,3.2230818,2.3766937
-21.407284,3.19298,2.313857
-21.594776,3.2192278,2.3554406
-21.645206,3.2021136,2.3168268
-21.827282,3.2283976,2.3589077
-21.849726,3.2026982,2.3045278
-22.01432,3.2247686,2.339148
-22.066998,3.209713,2.3047466
-22.245773,3.238293,2.3518896
-22.288546,3.220552,2.3126707
-22.464355,3.2498667,2.3615742
-22.463972,3.2173476,2.294836
-22.60926,3.2372184,2.326363
-22.69385,3.2357929,2.318079
-22.84891,3.260885,2.3597546
-22.854649,3.2310395,2.2982264
-22.993895,3.251554,2.3315668
-23.069725,3.2486458,2.320907
-23.222387,3.2759187,2.3673105
-23.271511,3.263576,2.3390417
-23.35503,3.2650197,2.336895
-23.484533,3.2853885,2.3706746
-23.518318,3.267691,2.3324714
-23.617596,3.276925,2.3453736
-23.72538,3.2903037,2.3662572
-23.731014,3.2613416,2.3068128
-23.832354,3.2728672,2.324348
-23.904594,3.272488,2.3193398
-23.934364,3.2539394,2.2797928
-24.068825,3.2815278,2.3282194
-24.115883,3.271095,2.3042593
-24.218197,3.285735,2.3282142
-24.307121,3.29495,2.3419118
-24.331205,3.2747428,2.2994394
-24.43444,3.2914329,2.3275876
-24.511887,3.2966473,2.3338685
-24.54108,3.2792094,2.296813
-24.64443,3.297624,2.3285322
-24.702536,3.2946184,2.3192515
-24.746925,3.2850592,2.2974377
-24.788692,3.2742782,2.2733083
-24.899162,3.2984555,2.3164334
-24.945381,3.290499,2.297843
-24.992313,3.283034,2.2802334
-25.086704,3.3006773,2.3110342
-25.15692,3.306173,2.3185115
-25.186573,3.2902372,2.2847128
-25.285477,3.3119922,2.3236747
-25.35101,3.316143,2.3287387
-25.369267,3.294272,2.2835789
-25.451645,3.3084197,2.3080568
-25.515972,3.3128688,2.3138509
-25.571342,3.3125193,2.3104138
-25.607475,3.30116,2.2857013
-25.67678,3.3094962,2.299168
-25.737839,3.3133569,2.3040218
-25.778801,3.305359,2.2859273
-25.82521,3.3007884,2.2745113
-25.891724,3.3089173,2.2877798
-25.9526,3.3139584,2.2951093
-25.991684,3.3054507,2.2761607
-26.048744,3.308636,2.2799678
-26.118168,3.3202753,2.3002634
-26.16958,3.3205047,2.2984152
-26.198956,3.3061624,2.2682405
-26.260315,3.3135114,2.280322
-26.331282,3.3279397,2.3062449
-26.37988,3.327347,2.3029513
-26.415928,3.3180878,2.2827911
-26.481052,3.3297188,2.3034034
-26.522388,3.3245869,2.2913551
-26.57636,3.3288846,2.2977424
-26.618654,3.3248057,2.2878098
-26.669188,3.3271012,2.290358
-26.720568,3.330348,2.2948027
-26.774273,3.3357334,2.303464
-26.82223,3.3369641,2.3040385
-26.84831,3.32094,2.270886
-26.905504,3.3299673,2.2867742
-26.970083,3.3455672,2.3155727
-27.014065,3.344631,2.3120356
-27.041903,3.3302069,2.282102
-27.09479,3.3371341,2.294023
-27.151546,3.3478696,2.3134465
-27.195139,3.3474858,2.3111067
-27.232786,3.341965,2.298718
-27.273607,3.339392,2.2921348
-27.311325,3.3340843,2.280208
-27.36994,3.3485026,2.3070312
-27.41607,3.3516524,2.3117666
-27.449753,3.3430276,2.2934017
-27.484835,3.335722,2.2776456
-27.52868,3.337182,2.2791362
-27.590288,3.357002,2.3167496
-27.622812,3.3475623,2.2968688
-27.660254,3.343195,2.2869806
-27.70085,3.3422673,2.2838807
-27.742157,3.3422933,2.2826805
-27.794357,3.3545985,2.305676
-27.837204,3.356995,2.3091974
-27.867435,3.3452003,2.2847962
-27.90622,3.3431792,2.2796612
-27.943207,3.3391514,2.2705922
-27.999819,3.3589623,2.3085217
-28.040686,3.3602793,2.3100371
-28.07536,3.3540525,2.2967043
-28.105148,3.3415155,2.2709446
-28.141745,3.3375883,2.2621794
-28.19667,3.3581684,2.301775
-28.246876,3.3733602,2.3307776
-28.281147,3.3672254,2.3177276
-28.322803,3.3715117,2.3252625
-28.35625,3.3642728,2.3100696
-28.384293,3.348904,2.278841
-28.422983,3.3491738,2.2785058
-28.46637,3.3569238,2.2929635
-28.511955,3.3687146,2.3154292
-28.550732,3.3702059,2.317574
-28.586792,3.3674488,2.311345
-28.615955,3.3530033,2.282034
-28.654224,3.3539138,2.2830882
-28.702684,3.3733137,2.3207116
-28.74246,3.377968,2.3292112
-28.778809,3.3765907,2.3258061
-28.809484,3.364322,2.30088
-28.842876,3.3569617,2.285676
-28.884794,3.3668675,2.3046408
-28.93057,3.3857212,2.341332
-28.969515,3.3910253,2.351241
-29.005522,3.3902476,2.3491364
-29.04361,3.3944354,2.356876
-29.079884,3.3947392,2.3569489
-29.113438,3.388485,2.344058
-29.053473,3.1411507,1.8539386
-29.059788,3.052581,1.6780667
-29.071045,2.971068,1.5161552
-29.06797,2.8418567,1.2597866
-38.698868,2.256657,0.38281345
-38.70127,2.2985551,0.46837997
-38.723534,2.3315623,0.53701496
-38.711723,2.37858,0.63225746
-38.728844,2.413028,0.7035961
-38.836258,2.41021,0.70427036
-38.7362,2.49191,0.8651638
-38.764915,2.5207176,0.9257808
-38.782444,2.5537813,0.9944544
-38.737953,2.61081,1.108388
-38.751637,2.6445541,1.1782846
-38.77167,2.6755927,1.2430692
-38.792706,2.706034,1.3067269
-38.816334,2.7353048,1.3681808
-38.85283,2.7596595,1.4203997
-38.879456,2.7875476,1.4792738
-38.917522,2.8111773,1.5301728
-38.985558,2.8241122,1.5610652
-39.03908,2.8423624,1.601975
-39.124603,2.8495965,1.6223488
-39.19725,2.8616076,1.6517415
-39.292595,2.866174,1.6673365
-39.36768,2.8779635,1.6964993
-39.46485,2.8827105,1.7126532
-39.56381,2.8873158,1.7286687
-39.638115,2.9003408,1.7604265
-39.206024,3.075272,2.0921397
-39.240616,3.099381,2.1441607
-39.285717,3.1201828,2.1901007
-40.090878,2.9071593,1.8048558
-40.22445,2.9040437,1.8074794
-40.33636,2.908124,1.8235283
-40.468,2.9068828,1.8299646
-40.58886,2.909466,1.8436055
-40.71594,2.910837,1.8552036
-40.90773,2.8943553,1.8343754
-40.98723,2.9106205,1.8735771
-41.117687,2.912976,1.8875613
-41.181488,2.9342868,1.9361954
-41.270332,2.9489672,1.9728827
-42.223343,2.7325425,1.5912333
-42.211388,2.777543,1.6837773
-42.213593,2.8184702,1.7689133
-42.228348,2.8558922,1.8477063
-42.227417,2.8971171,1.9333205
-42.326252,2.913044,1.973546
-42.516876,2.9066515,1.9740071
-42.72588,2.8967757,1.9685893
-42.80174,2.9200685,2.0226097
-43.040264,2.9049652,2.0085378
-43.24699,2.8986025,2.0104036
-43.34829,2.9176714,2.0576096
-43.601982,2.9024248,2.0444837
-43.78901,2.9035149,2.0605812
-43.958096,2.9095113,2.0856423
-44.16034,2.90909,2.099803
-44.405163,2.9005322,2.1001744
-44.5668,2.9108849,2.1339264
-44.76083,2.9152293,2.1575823
-45.027267,2.905634,2.1575456
-45.323036,2.8914878,2.1502404
-45.533062,2.8960211,2.1756458
-45.783413,2.8936641,2.189713
-46.065014,2.8865354,2.196198
-46.412693,2.8682775,2.1844144
-46.592285,2.8833776,2.2298841
-46.88475,2.8784857,2.242056
-47.208817,2.869357,2.247805
-47.490036,2.8695593,2.2699342
-47.810455,2.864298,2.28365
-48.14371,2.8584614,2.2972064
-48.47655,2.8544054,2.3145413
-48.784172,2.8562586,2.3424268
-49.191383,2.8433275,2.3469667
-49.47025,2.8531895,2.3896198
-49.91114,2.8387797,2.3938012
-50.361404,2.8252032,2.4005423
-50.78933,2.8173695,2.4177246
-51.136974,2.8237517,2.458696
-51.576515,2.81837,2.4821177
-52.09677,2.8036046,2.4921432
-52.606163,2.7930636,2.5103235
-53.024162,2.797802,2.5536757
-53.49295,2.7977483,2.590994
-54.15559,2.7742982,2.5942492
-0.757967,2.4314039,1.8663735
-0.7821274,2.3538861,1.6994777
-0.7977066,2.2751665,1.5306673
-0.8096142,2.1957972,1.3607936
-0.7974968,2.1130695,1.1854391
-0.8147392,2.0339322,1.0158606
-0.8109417,1.9517269,0.84122133
-0.84412766,1.8743691,0.6745353
-0.81003,1.7873173,0.49173927
-0.68302155,1.6862731,0.2853861
-12.810728,3.1503701,2.6019177
-12.850975,3.1067967,2.5070286
-12.734743,2.986032,2.2588854
-12.728216,2.9337707,2.148755
-12.727236,2.8822155,2.0398107
-13.483431,2.9170122,2.0651784
-13.714256,2.9100497,2.0358343
-14.118389,2.936963,2.0670743
-14.312857,2.9258308,2.0313172
-14.708713,2.954891,2.0676956
-14.436333,2.8538032,1.8716898
-15.625348,3.0446405,2.1994147
-15.883597,3.0525298,2.1999202
-16.096191,3.0523126,2.1862383
-16.37442,3.0669837,2.1998563
-16.59518,3.0708804,2.1944036
-16.820927,3.077003,2.1933594
-17.152554,3.1075857,2.2372575
-17.425882,3.1270316,2.2613668
-17.622375,3.1305985,2.2568579
-17.868914,3.1466696,2.275587
-18.04815,3.148429,2.268404
-18.197407,3.1440332,2.2501578
-18.313368,3.1323977,2.2187748
-18.472046,3.1316407,2.2076583
-18.703226,3.1495175,2.2312698
-18.893764,3.1585546,2.2388282
-19.078444,3.167138,2.2458186
-19.236187,3.1698186,2.242086
-19.325165,3.15547,2.2068248
-19.511166,3.1669881,2.2199717
-19.713959,3.1840086,2.2436633
-19.858734,3.1865165,2.2404552
-19.978065,3.1828167,2.2257938
-20.161793,3.1975384,2.245885
-20.288189,3.1972108,2.2379122
-20.365551,3.1835825,2.2050438
-20.551174,3.2014103,2.2315936
-20.621458,3.186689,2.196908
-20.773006,3.1962013,2.208126
-20.927385,3.2074056,2.2227354
-20.983042,3.1895933,2.1825237
-21.14082,3.2032213,2.202043
-21.291306,3.2154996,2.2191882
-21.3923,3.2130928,2.2085743
-21.403137,3.1824954,2.1443782
-21.605165,3.213259,2.197176
-21.6351,3.1892128,2.1455936
-21.8088,3.2125459,2.1845632
-21.844536,3.1908858,2.137671
-22.038872,3.222829,2.193441
-22.093025,3.208084,2.1599493
-22.249754,3.228999,2.1949224
-22.360275,3.2347097,2.2008715
-22.450577,3.2338629,2.1943321
-22.531193,3.2299874,2.182056
-22.656437,3.2426941,2.2017903
-22.724836,3.2352638,2.1828442
-22.866302,3.255288,2.2169213
-22.899445,3.235451,2.1741886
-23.056076,3.2626202,2.2223058
-23.091496,3.244141,2.1823087
-23.26664,3.2801454,2.2477846
-23.30718,3.2642975,2.2130084
-23.418058,3.276571,2.2327724
-23.506641,3.280532,2.236518
-23.552387,3.2674706,2.2072997
-23.657625,3.2791042,2.226091
-23.696686,3.263701,2.192418
-23.735222,3.248096,2.1583757
-23.908909,3.290421,2.2371402
-23.910114,3.2593355,2.1730623
-24.039566,3.2841494,2.2179394
-24.112251,3.284718,2.2156458
-24.162643,3.2756476,2.1945963
-24.265486,3.2905579,2.2204218
-24.324808,3.2861617,2.2086072
-24.38826,3.2839293,2.2010698
-24.457146,3.284548,2.1991606
-24.543785,3.2939816,2.2145653
-24.57716,3.2782977,2.1808367
-24.67826,3.2956126,2.2118073
-24.740795,3.294634,2.2069874
-24.766861,3.2757397,2.1670594
-24.872763,3.2970757,2.2061267
-24.938772,3.298835,2.206828
-24.9591,3.2773023,2.1618018
-25.083218,3.3099473,2.2233124
-25.140022,3.307996,2.2168694
-25.16383,3.288591,2.1761093
-25.27571,3.3168654,2.2292514
-25.35616,3.328847,2.2503877
-25.362328,3.3000731,2.1912522
-25.432348,3.3068614,2.2022352
-25.52253,3.3256075,2.2368627
-25.568903,3.3198118,2.2231207
-25.583485,3.2955742,2.1729903
-25.648325,3.3007598,2.1809826
-25.739355,3.3220506,2.2208505
-25.784895,3.3165562,2.2078304
-25.81505,3.3017483,2.1764169
-25.891253,3.3154864,2.201499
-25.959373,3.3247547,2.2177906
-25.991331,3.3114543,2.1894379
-26.041817,3.3100545,2.1846733
-26.113184,3.3225515,2.20748
-26.17284,3.3278706,2.2161083
-26.199923,3.3117125,2.1821818
-26.255455,3.314747,2.1863403
-26.331,3.331916,2.218585
-26.396202,3.3425715,2.2379527
-26.417553,3.322722,2.196783
-26.489775,3.3390825,2.2275524
-26.54723,3.345398,2.238409
-26.597103,3.3465443,2.239028
-26.626728,3.3328402,2.2101445
-26.666304,3.3265362,2.1959925
-26.732693,3.3408875,2.222959
-26.781591,3.342264,2.224144
-26.827377,3.3414576,2.2210126
-26.85694,3.327876,2.1924648
-26.912876,3.335561,2.2062912
-26.983316,3.3556523,2.244872
-27.026154,3.3534875,2.239142
-27.051186,3.336389,2.20366
-27.102915,3.3419893,2.21345
-27.163975,3.356136,2.2403193
-27.207859,3.3557065,2.238143
-27.250767,3.354609,2.2346563
-27.272926,3.3347363,2.1937122
-27.32682,3.3439252,2.2108006
-27.388517,3.3609822,2.2436333
-27.432293,3.361637,2.2437382
-27.463007,3.349819,2.218946
-27.497667,3.341737,2.2016296
-27.541407,3.3427334,2.202475
-27.605085,3.36435,2.2445707
-27.647522,3.3648393,2.2444563
-27.676996,3.3518655,2.217433
-27.709435,3.341841,2.1963215
-27.756449,3.3476152,2.2068353
-27.814035,3.3655653,2.2417417
-27.847555,3.357114,2.2238326
-27.883036,3.3508267,2.21027
-27.918259,3.3442116,2.1960664
-27.966885,3.3535872,2.2139044
-28.02241,3.3719258,2.2497225
-28.059757,3.3686056,2.2421775
-28.088146,3.3540156,2.2120662
-28.123732,3.3483412,2.199832
-28.163258,3.347831,2.1979651
-28.2166,3.3660688,2.2337031
-28.259785,3.3713315,2.2434535
-28.298813,3.3711967,2.2424011
-28.34076,3.3754299,2.2501268
-28.366476,3.356318,2.211041
-28.404385,3.3547735,2.2072072
-28.446758,3.3601813,2.217342
-28.49386,3.3734348,2.2432418
-28.538933,3.3842602,2.2642918
-28.570005,3.3728511,2.2407312
-28.606213,3.3696985,2.2337575
-28.641705,3.3653452,2.2243886
-28.682156,3.369728,2.232576
-28.727924,3.3841813,2.2610073
-28.766964,3.3870738,2.266243
-28.799528,3.3779228,2.2473006
-28.832079,3.368414,2.2276516
-28.869572,3.3685539,2.2274022
-28.921211,3.398424,2.2869086
-28.957792,3.3979287,2.285421
-28.995527,3.4001515,2.2894106
-29.034115,3.4046636,2.298017
-29.066261,3.3943996,2.2769394
-29.101868,3.3920987,2.2718806
-29.054981,3.1802108,1.8454642
-29.062712,3.0966535,1.6770234
-29.05569,2.966451,1.4147816
-29.073696,2.897264,1.275217
-38.688328,2.3255231,0.3608055
-38.69435,2.3655019,0.44347477
-38.723232,2.3955293,0.5067806
-38.736706,2.4317026,0.58202934
-38.780876,2.4550462,0.63236475
-38.725468,2.5183926,0.76030445
-38.707935,2.5657153,0.8570981
-38.76006,2.5850809,0.8997078
-38.799713,2.6093402,0.9518218
-38.764526,2.6622477,1.0593414
-38.77217,2.698188,1.1340156
-38.78766,2.7308583,1.2023602
-38.81735,2.7580154,1.2600656
-38.84893,2.784354,1.3162036
-38.893456,2.80591,1.3631482
-38.960606,2.819395,1.3946004
-39.004623,2.8412495,1.4421911
-39.081856,2.8515322,1.4675989
-39.17832,2.8554747,1.4809194
-39.234684,2.873519,1.5213561
-39.32806,2.879228,1.53823
-39.41587,2.8872027,1.5595331
-39.51354,2.8923092,1.5754461
-39.630203,2.8916981,1.5805535
-39.74552,2.8921108,1.5877428
-39.82639,2.9040015,1.6169124
-39.97281,2.8957033,1.6077738
-39.98887,2.9284613,1.6767936
-40.204384,2.9002004,1.630043
-40.309177,2.9066038,1.6492529
-40.435184,2.9071703,1.657536
-40.55555,2.9100232,1.6702929
-40.658295,2.9185705,1.693943
-40.860096,2.8991966,1.6650791
-40.959938,2.9098196,1.6929536
-41.06325,2.9198935,1.7199135
-41.155403,2.933487,1.7536054
-41.274357,2.9401512,1.7744179
-42.08506,2.76162,1.4487524
-42.20495,2.7715485,1.4765038
-42.205074,2.8133354,1.5638547
-42.21412,2.8525243,1.6463318
-42.222504,2.8916533,1.7286806
-42.29649,2.914069,1.7799792
-42.472183,2.9114904,1.7850399
-42.705204,2.895795,1.7660885
-42.78286,2.918857,1.8190651
-43.02403,2.9032571,1.8008733
-43.238125,2.8953252,1.7971635
-43.328552,2.9171379,1.8483992
-43.596653,2.8987384,1.8260736
-43.798576,2.8966882,1.8340788
-43.91738,2.914097,1.8779111
-44.149033,2.9073434,1.8779311
-44.365707,2.9050245,1.8863916
-44.591064,2.901972,1.8938837
-44.761795,2.9114954,1.9244914
-45.00263,2.90739,1.9308066
-45.292862,2.8945029,1.9217482
-45.52646,2.8944693,1.9362698
-45.7586,2.895903,1.9538336
-46.058975,2.885288,1.9503226
-46.358162,2.8764744,1.9505806
-46.600998,2.8797927,1.9729228
-46.87319,2.878902,1.9882836
-47.234047,2.8632905,1.9782281
-47.500717,2.866409,2.0017982
-47.853516,2.8557296,2.0017438
-48.108776,2.863739,2.035018
-48.455154,2.8575287,2.0441022
-48.81256,2.8512619,2.053823
-49.14301,2.8512557,2.0751133
-49.52534,2.8445659,2.085647
-49.88157,2.8439732,2.1074643
-50.3769,2.8235776,2.0963736
-50.74867,2.824623,2.1227794
-51.09594,2.831218,2.1594195
-51.556,2.8229876,2.172008
-52.0928,2.8060722,2.171229
-52.61409,2.7941356,2.1800714
-53.02118,2.800698,2.2207894
-53.474094,2.8030896,2.2557173
-54.10675,2.7838967,2.2566414
-0.7332058,2.4448023,1.436985
-0.74422646,2.3653345,1.26646
-0.77196884,2.2877579,1.099174
-0.7805252,2.2076085,0.92743826
-0.7883682,2.1271348,0.75510836
-0.8215809,2.0498073,0.5882549
-0.82605934,1.9684548,0.41434193
-12.707663,3.090222,2.20256
-12.667194,3.0324566,2.0817218
-13.370277,2.901785,1.7691607
-13.617746,2.8972611,1.7473664
-14.038549,2.9266782,1.7891083
-14.321882,2.9320416,1.7866001
-14.760807,2.9691806,1.8439021
-14.704127,2.9107158,1.7227297
-14.381849,2.7982833,1.5001364
-15.833054,3.0453982,1.9533052
-16.054365,3.0465472,1.9450455
-16.39654,3.0742455,1.9872003
-16.596561,3.0735083,1.9760342
-16.815237,3.0778275,1.9747014
-17.074997,3.092317,1.992948
-17.371845,3.1164904,2.0299325
-17.561548,3.118083,2.024301
-17.82523,3.1376307,2.0531392
-17.986118,3.1347182,2.0394049
-18.168089,3.1375833,2.03691
-18.297205,3.1287413,2.0122018
-18.459831,3.1286328,2.0043874
-18.679459,3.1433794,2.0252876
-18.893053,3.1578398,2.0458894
-19.089247,3.169088,2.0605488
-19.163345,3.150118,2.01716
-19.324677,3.154052,2.0180569
-19.505516,3.1639717,2.030695
-19.696125,3.1774912,2.0504937
-19.760258,3.1578937,2.0063362
-19.96279,3.176378,2.0360928
-20.119167,3.1832292,2.0434756
-20.275894,3.1910267,2.052857
-20.346363,3.175125,2.016282
-20.548012,3.1972847,2.0538993
-20.592087,3.1746252,2.0043402
-20.783287,3.1955264,2.0398211
-20.905935,3.1970358,2.0376115
-20.970821,3.1816597,2.0024986
-21.180038,3.2108216,2.0545998
-21.223104,3.1896148,2.0082436
-21.401245,3.2109842,2.0453844
-21.423847,3.183852,1.9875245
-21.605799,3.2080352,2.0304432
-21.670803,3.1951404,2.000658
-21.82634,3.2124126,2.0302587
-21.901537,3.2037265,2.0088997
-22.02312,3.211069,2.0191755
-22.145836,3.2194865,2.031674
-22.24189,3.2193475,2.0273957
-22.372412,3.2318156,2.0480857
-22.451286,3.2266903,2.034123
-22.553497,3.2303188,2.0375295
-22.64447,3.2304077,2.0340137
-22.725908,3.227442,2.0245185
-22.863394,3.2457852,2.0573025
-22.889818,3.2230554,2.0087729
-23.056097,3.253698,2.0661263
-23.090141,3.234342,2.024375
-23.25344,3.2655675,2.0830998
-23.300142,3.2517557,2.0524554
-23.421597,3.2680087,2.0816197
-23.486736,3.2622068,2.0669975
-23.545176,3.2539175,2.0474668
-23.673319,3.2747986,2.0860744
-23.678852,3.2450106,2.0238004
-23.795956,3.2623787,2.0555453
-23.887852,3.269695,2.0673227
-23.918415,3.2508388,2.0269232
-24.054735,3.278544,2.0795202
-24.103695,3.2682993,2.056394
-24.18159,3.2712421,2.0596576
-24.307465,3.296544,2.1076899
-24.31707,3.2690415,2.050156
-24.43912,3.2938526,2.0973392
-24.497852,3.2896225,2.0864477
-24.527199,3.2715514,2.0478568
-24.634731,3.2913096,2.0851064
-24.705212,3.2936935,2.0875874
-24.735353,3.2764294,2.0506935
-24.801622,3.2772424,2.0500908
-24.890095,3.2897015,2.0729108
-24.947945,3.2870166,2.0653696
-24.99725,3.2801309,2.0494194
-25.087849,3.2951868,2.0776014
-25.15097,3.2962475,2.0776978
-25.192919,3.2861974,2.0554776
-25.295538,3.309415,2.1002269
-25.36229,3.3136382,2.1068025
-25.374094,3.2874415,2.052154
-25.462898,3.304623,2.0848918
-25.533333,3.311967,2.0978575
-25.57125,3.3008564,2.0736609
-25.613535,3.2923303,2.0546904
-25.687538,3.3028116,2.0740833
-25.753405,3.308926,2.0847063
-25.78725,3.295878,2.0566845
-25.82946,3.2879615,2.0390372
-25.934067,3.319302,2.1006994
-25.974731,3.3110623,2.0824575
-25.997341,3.2912471,2.0408387
-26.074306,3.3066623,2.0704446
-26.128986,3.3080177,2.0716634
-26.192871,3.3158424,2.0859952
-26.21486,3.295703,2.0437808
-26.291965,3.3131967,2.0777326
-26.348072,3.3167868,2.0835814
-26.402355,3.3194444,2.0875692
-26.434874,3.3068488,2.060689
-26.503025,3.3200214,2.0860252
-26.552643,3.3201766,2.0850182
-26.630192,3.3414218,2.1267805
-26.63988,3.3121858,2.0662417
-26.698221,3.3196874,2.0801945
-26.747833,3.3208587,2.0813355
-26.8193,3.339545,2.1180344
-26.834518,3.3140078,2.065031
-26.894808,3.3245544,2.0852642
-26.944763,3.3271384,2.0893617
-27.00108,3.3353531,2.1049151
-27.03858,3.3280919,2.0890632
-27.085308,3.328788,2.0893908
-27.135517,3.3327827,2.0964398
-27.190414,3.3412895,2.1126795
-27.23485,3.340866,2.1107936
-27.264423,3.3270612,2.0817223
-27.317877,3.33524,2.0973587
-27.37143,3.3439984,2.1141982
-27.414194,3.3429172,2.1110477
-27.453184,3.3383448,2.100812
-27.493835,3.3354907,2.0940862
-27.534876,3.3331554,2.0884318
-27.586569,3.3418725,2.105289
-27.632473,3.3450758,2.1109452
-27.671669,3.3415022,2.10282
-27.707851,3.3347723,2.0882816
-27.753084,3.3379495,2.093934
-27.804754,3.3486423,2.1149154
-27.84737,3.3496466,2.1161785
-27.879208,3.3384233,2.0925422
-27.91898,3.3363492,2.0875611
-27.966305,3.3434832,2.1013627
-28.00963,3.346207,2.1061935
-28.048483,3.34366,2.100296
-28.083084,3.33581,2.0835977
-28.117832,3.3280437,2.0670815
-28.166912,3.3391623,2.0890923
-28.226442,3.3650894,2.1413293
-28.263931,3.3618703,2.1341343
-28.302635,3.3604314,2.1305847
-28.343359,3.3620446,2.133276
-28.369675,3.3426905,2.093194
-28.405993,3.33774,2.0825133
-28.442936,3.3337286,2.073763
-28.496569,3.3560874,2.1188545
-28.53902,3.3616483,2.129675
-28.574594,3.3562796,2.1181955
-28.605253,3.3424847,2.0895224
-28.64529,3.3445318,2.0932083
-28.691664,3.358221,2.1206856
-28.732716,3.363073,2.1301308
-28.769503,3.3603344,2.124085
-28.803226,3.3516877,2.1059823
-28.838648,3.346126,2.094193
-28.885452,3.36387,2.1300306
-28.92685,3.3714283,2.1450744
-28.965042,3.3726413,2.1471663
-29.0064,3.381292,2.164472
-29.040459,3.373648,2.1484895
-29.07487,3.3665195,2.1335707
-29.10012,3.3360996,2.071056
-29.060553,3.1349964,1.6596484
-29.05835,3.019479,1.4231634
-29.071232,2.9372818,1.2547812
-38.778366,2.3550935,0.25180197
-38.704006,2.4284136,0.4017415
-38.735912,2.4571056,0.46276808
-38.76806,2.4855373,0.5232835
-38.756332,2.5313144,0.6182904
-38.854164,2.5333347,0.6263256
-38.888725,2.5604749,0.68430996
-38.77313,2.6453013,0.8567791
-38.812103,2.6698442,0.9095621
-38.84224,2.697645,0.9688182
-38.836403,2.738671,1.0542755
-38.87006,2.7647505,1.1101203
-38.89472,2.7939982,1.172246
-38.941574,2.815123,1.2183166
-39.015686,2.826626,1.2454076
-39.079487,2.8419964,1.2801838
-39.15825,2.852368,1.3051448
-39.23143,2.8649442,1.334508
-39.300545,2.8791406,1.367115
-39.399376,2.8836544,1.3807187
-39.47733,2.8954935,1.4088058
-39.604843,2.891508,1.4058628
-39.713974,2.894102,1.4159484
-39.82006,2.8981905,1.42906
-39.938683,2.89885,1.4355421
-40.047672,2.9030824,1.4491272
-40.20335,2.8935647,1.4359093
-40.295395,2.90411,1.4620514
-40.402542,2.9105334,1.4802251
-40.563618,2.9015796,1.4684987
-40.657753,2.9129548,1.4965477
-40.8256,2.9035766,1.4842777
-40.92685,2.913973,1.5106359
-41.04437,2.920253,1.5290899
-41.131214,2.9355404,1.5651388
-41.303967,2.9277582,1.5565424
-42.013107,2.776747,1.2707825
-42.02085,2.8164752,1.3547702
-41.977493,2.8693256,1.4640918
-42.192963,2.85473,1.4431958
-42.2193,2.8895216,1.5177169
-42.296005,2.9115412,1.5676622
-42.442963,2.9163723,1.5846419
-42.706818,2.8933177,1.5482554
-42.79965,2.9130182,1.59414
-43.055992,2.8941495,1.5662913
-43.24808,2.8917794,1.5702901
-43.387814,2.9025083,1.5995193
-43.592285,2.89911,1.6019888
-43.83956,2.887146,1.5884118
-43.97918,2.9003644,1.6229844
-44.151466,2.9070768,1.6453857
-44.429333,2.8918974,1.6265583
-44.623306,2.8960063,1.6445503
-44.821243,2.9002461,1.6630421
-45.059784,2.8971097,1.6679068
-45.33556,2.8876548,1.661221
-45.58531,2.8848433,1.6673818
-45.83281,2.883758,1.6771226
-46.10668,2.878832,1.6800418
-46.392258,2.873093,1.6818428
-46.66449,2.8713336,1.6914659
-46.936295,2.8710434,1.7042212
-47.24595,2.865272,1.7072439
-47.56839,2.8588204,1.7094879
-47.851112,2.8610024,1.7281418
-48.1606,2.8599951,1.741385
-48.54226,2.8483362,1.7356181
-48.86329,2.8487654,1.7525668
-49.184814,2.8507435,1.7728734
-49.578903,2.8426855,1.775507
-49.95849,2.8389537,1.7866597
-50.444427,2.8206906,1.7722721
-50.754784,2.8316762,1.8113556
-51.13903,2.8331695,1.8339987
-51.5688,2.8299477,1.8489447
-52.15947,2.8058295,1.8275609
-52.62246,2.8027778,1.8446493
-53.078384,2.8030694,1.868556
-53.671852,2.787096,1.8648314
-54.185127,2.784815,1.8862791
-0.67289543,2.442881,0.9980664
-0.8676262,2.38543,0.86747074
-0.762167,2.2912502,0.6694231
-0.78577805,2.2127037,0.50010014
-0.6871681,2.1180415,0.300848
-12.726032,3.1439142,2.051032
-12.807064,2.8492608,1.418675
-13.413818,2.9079452,1.5220971
-13.679262,2.9066412,1.5097914
-14.044046,2.9254417,1.5368438
-14.3073,2.9267304,1.5301976
-14.662889,2.9473693,1.5615501
-14.357926,2.83916,1.3417015
-15.62972,3.045862,1.7372208
-15.821652,3.0397093,1.71734
-16.103354,3.0531173,1.7359915
-16.35066,3.060804,1.7436862
-16.547554,3.0590272,1.7330189
-16.834248,3.0777228,1.7628207
-17.126286,3.0991747,1.7983251
-17.397581,3.1176193,1.8281717
-17.598228,3.1215587,1.8296232
-17.796574,3.1260188,1.8322821
-18.013927,3.1359546,1.8459506
-18.23769,3.1485822,1.8651433
-18.331852,3.1313553,1.825324
-18.512306,3.135479,1.8279581
-18.698395,3.1419427,1.835393
-18.895287,3.1521032,1.8503323
-19.091522,3.1631749,1.8672476
-19.280136,3.1733718,1.8825788
-19.351376,3.1540425,1.8391814
-19.508081,3.1574907,1.8412919
-19.71928,3.1763375,1.8742819
-19.809008,3.1634884,1.8440728
-19.947313,3.164338,1.841332
-20.152315,3.1844563,1.8772736
-20.32006,3.1952786,1.8947449
-20.369246,3.173193,1.8463502
-20.556313,3.1910594,1.8781538
-20.648966,3.1823676,1.8567634
-20.778992,3.1851664,1.8585229
-20.955036,3.2024841,1.8895679
-20.992445,3.1786523,1.8379364
-21.179798,3.2010221,1.8793478
-21.297476,3.2027981,1.8793983
-21.379763,3.1940053,1.8582187
-21.506618,3.1998162,1.866549
-21.593441,3.1933568,1.850193
-21.775034,3.218371,1.8974557
-21.816368,3.1979609,1.8530464
-21.984669,3.2202618,1.8950148
-22.010117,3.1950078,1.8408861
-22.199373,3.226087,1.9007883
-22.23746,3.2057045,1.8565955
-22.408728,3.2323418,1.9076905
-22.445978,3.2122183,1.8641
-22.63058,3.2453916,1.9286222
-22.662292,3.2238607,1.8822527
-22.846813,3.2589054,1.9507542
-22.846416,3.2258894,1.8811278
-23.01501,3.2566857,1.9411626
-23.053532,3.2386882,1.902101
-23.194332,3.2604716,1.943965
-23.263405,3.2549798,1.9304132
-23.358364,3.2600923,1.9384813
-23.454422,3.2661898,1.948607
-23.475973,3.2424455,1.8979864
-23.613953,3.2666168,1.9450278
-23.685751,3.2641158,1.9377651
-23.695383,3.2356577,1.8775897
-23.833181,3.2617702,1.9287629
-23.894503,3.2557724,1.9144654
-23.974897,3.2583761,1.9177599
-24.097939,3.2803466,1.9606557
-24.10054,3.2491357,1.8949442
-24.25951,3.2886076,1.9737105
-24.31633,3.282414,1.9591846
-24.375177,3.2773738,1.947043
-24.47419,3.291492,1.9741282
-24.52791,3.2847059,1.9584737
-24.576916,3.275826,1.9385552
-24.670746,3.2889724,1.963769
-24.72287,3.282159,1.948134
-24.765114,3.2705693,1.9227314
-24.87555,3.2935786,1.9682717
-24.949419,3.298732,1.9772506
-24.97781,3.2807271,1.9387627
-25.075684,3.2991166,1.9749517
-25.150616,3.3060756,1.9877286
-25.163351,3.2800243,1.9327726
-25.266804,3.3031044,1.9787016
-25.340235,3.3104978,1.9924603
-25.36582,3.2916384,1.952313
-25.461498,3.3122783,1.9933429
-25.51274,3.308275,1.9837623
-25.571758,3.3089805,1.983881
-25.595373,3.2891936,1.9418821
-25.685696,3.3088973,1.9811158
-25.74067,3.3080888,1.9781885
-25.773972,3.294318,1.9486051
-25.837517,3.2991796,1.9573832
-25.903637,3.3060622,1.9703479
-25.973948,3.3160665,1.9897661
-25.992128,3.2930999,1.9413028
-26.063715,3.3045876,1.96382
-26.135386,3.31671,1.9876747
-26.184708,3.3144825,1.9819837
-26.217707,3.3014047,1.9539423
-26.296526,3.3197079,1.9906101
-26.356102,3.3253796,2.0012627
-26.402763,3.322356,1.9940019
-26.440002,3.3127742,1.973227
-26.519651,3.3339329,2.0158906
-26.561329,3.3280265,2.0027328
-26.616175,3.332024,2.010028
-26.6478,3.3188365,1.9818659
-26.707357,3.3269353,1.9976635
-26.769007,3.3371444,2.0178394
-26.803167,3.326215,1.9943781
-26.83178,3.3107738,1.9616041
-26.90752,3.333389,2.007465
-26.965681,3.342433,2.025311
-27.010536,3.340864,2.0212436
-27.03798,3.3247073,1.9870348
-27.099598,3.3377433,2.013184
-27.156729,3.3474922,2.032559
-27.203356,3.3484476,2.0337682
-27.223345,3.3256333,1.9858308
-27.277767,3.3338857,2.0021567
-27.32889,3.3395622,2.0131721
-27.383097,3.3485687,2.0310936
-27.432413,3.3533974,2.040388
-27.4575,3.334935,2.0014944
-27.51029,3.3436046,2.0187635
-27.559973,3.3496528,2.0306225
-27.602764,3.3490522,2.0287333
-27.647018,3.3501825,2.0304403
-27.680176,3.3397722,2.0082612
-27.71764,3.3338766,1.9954381
-27.783455,3.3592174,2.0473266
-27.819193,3.351967,2.0317245
-27.85185,3.3411496,2.0087395
-27.889282,3.3356984,1.9968815
-27.925411,3.3287122,1.9818525
-27.984335,3.3492157,2.0238004
-28.029959,3.3543525,2.0339193
-28.06621,3.3481307,2.0205069
-28.096462,3.3341818,1.9910865
-28.13397,3.3293645,1.9806027
-28.195059,3.3560405,2.0354257
-28.24227,3.3651366,2.053815
-28.284986,3.3685744,2.0604854
-28.3182,3.3588443,2.0398579
-28.354769,3.3537674,2.0288906
-28.381893,3.3346102,1.9887252
-28.424028,3.3376312,1.9945703
-28.470848,3.3483021,2.0162964
-28.520714,3.3645651,2.0496373
-28.558779,3.3625233,2.0450149
-28.59559,3.3584816,2.0362515
-28.630749,3.3515878,2.0215788
-28.676308,3.3629072,2.044711
-28.718935,3.3697214,2.0585065
-28.757238,3.36905,2.0567765
-28.793743,3.3650947,2.0482407
-28.826231,3.353179,2.023188
-28.871532,3.3668017,2.0511584
-28.91316,3.3737628,2.0653105
-28.958479,3.3893523,2.0973873
-28.996447,3.3897452,2.0979257
-29.03344,3.3881066,2.094256
-29.066866,3.3780265,2.0730662
-29.102264,3.3722987,2.0609207
-29.061172,3.1698668,1.6403065
-29.053377,3.0407915,1.3720055
-38.71257,2.4901512,0.36657047
-38.72676,2.5258634,0.4421978
-38.77223,2.5488496,0.49191952
-38.754524,2.596543,0.59191895
-38.815495,2.6131887,0.62875366
-38.90578,2.6187584,0.6431012
-38.793278,2.701303,0.81388617
-38.826233,2.7281334,0.8714323
-38.877934,2.74794,0.91472816
-38.929375,2.767897,0.95835066
-38.958057,2.7960975,1.0187111
-39.136715,2.770848,0.9707427
-39.205902,2.7851958,1.0031047
-39.17817,2.8333755,1.104002
-39.232456,2.8528376,1.1467471
-39.30161,2.8673556,1.1795168
-39.37066,2.882118,1.2128172
-39.490143,2.8804364,1.2129312
-39.65026,2.8661163,1.187603
-39.84346,2.8420808,1.142775
-39.973408,2.8393662,1.1410813
-40.070274,2.8477306,1.1618013
-40.209877,2.8432486,1.1567059
-40.317814,2.849218,1.1727424
-40.46644,2.8433683,1.1650729
-40.6222,2.8361888,1.1548343
-40.796005,2.8245342,1.135715
-40.974663,2.8124444,1.1158476
-41.043045,2.833067,1.161736
-41.116283,2.8524926,1.2052636
-41.174095,2.8764563,1.2579265
-41.170387,2.9175406,1.3448887
-41.242733,2.9375267,1.3896322
-42.139084,2.7357593,0.99125814
-42.315544,2.7314239,0.9878912
-42.50028,2.7258458,0.9821806
-42.075836,2.8789053,1.2928486
-42.002228,2.9391217,1.4181991
-42.23786,2.9206438,1.3868709
-42.476997,2.9026203,1.3566456
-42.683643,2.8938982,1.345098
-42.83366,2.8999715,1.3630848
-42.989212,2.905446,1.3800063
-43.1867,2.9018188,1.379036
-43.346443,2.9079633,1.3975692
-43.572468,2.8997416,1.3878508
-43.72663,2.908898,1.4126387
-43.939327,2.9057922,1.4133859
-44.185856,2.8963892,1.4019299
-44.435783,2.887565,1.3918452
-44.66012,2.8854945,1.3952694
-44.868607,2.8878903,1.4076715
-45.12121,2.882248,1.4045253
-45.369858,2.878725,1.4057779
-45.619976,2.8761916,1.4092159
-45.87156,2.8746579,1.4148607
-46.120895,2.874846,1.4241219
-46.380863,2.8742766,1.4321709
-46.709824,2.8621044,1.4179606
-46.937553,2.8703334,1.4436765
-47.274384,2.8598948,1.4334984
-47.569115,2.8587298,1.441627
-47.90645,2.8516014,1.4385886
-48.201416,2.8535295,1.4533839
-48.571964,2.8441434,1.4467826
-48.880264,2.8470528,1.4642153
-49.250328,2.8414176,1.4656672
-49.58519,2.8433475,1.4820337
-49.977386,2.8379326,1.4848256
-50.406357,2.8288462,1.4811454
-50.834236,2.8221495,1.4825678
-51.181908,2.829621,1.5113807
-51.644535,2.8220239,1.5122223
-52.144302,2.8114908,1.5081863
-52.655502,2.8019404,1.5067124
-53.15606,2.796501,1.5136809
-53.768932,2.7784805,1.4979157
-54.1951,2.7883234,1.534925
2.4938412,2.2525067,0.22264767
-0.6380482,2.4462702,0.56575394
-0.67729187,2.36943,0.39937353
-12.593447,2.7576365,0.9576855
-13.569565,2.8855758,1.2102475
-13.807529,2.8798368,1.1925912
-13.990965,2.8648248,1.1562815
-14.746071,2.9621248,1.3481164
-14.527107,2.8709083,1.1573753
-15.624027,3.0427961,1.501586
-15.77653,3.028323,1.4671812
-16.142456,3.05883,1.5244994
-16.380737,3.0645041,1.5314178
-16.627375,3.0732217,1.5446877
-16.888536,3.0864105,1.5672355
-17.081814,3.0860639,1.5622797
-17.343266,3.1019487,1.5906239
-17.587828,3.1154454,1.6142311
-17.812084,3.1256094,1.631155
-17.980892,3.1240454,1.6241736
-18.232021,3.142831,1.6590037
-18.407661,3.1449008,1.6596799
-18.572342,3.1452165,1.6568484
-18.687836,3.1342294,1.6308875
-18.916931,3.152206,1.6645045
-19.069878,3.1521537,1.661171
-19.295685,3.1716378,1.6981039
-19.384895,3.1567862,1.6644778
-19.505795,3.150662,1.6488638
-19.730473,3.172922,1.6917915
-19.926975,3.188854,1.7217865
-19.985651,3.1679866,1.6759768
-20.16082,3.179741,1.6975026
-20.347893,3.195849,1.7281008
-20.416306,3.1790826,1.6908889
-20.56643,3.186224,1.7031026
-20.696941,3.188434,1.7051892
-20.780823,3.1774566,1.6800609
-20.955112,3.1940637,1.7120357
-21.030373,3.1814795,1.6836686
-21.183098,3.1931183,1.7054863
-21.365196,3.2148402,1.7482567
-21.394482,3.1892412,1.693048
-21.57699,3.2127533,1.7396507
-21.631231,3.1957178,1.7022467
-21.794031,3.214538,1.7392406
-21.835434,3.193907,1.6944361
-22.015274,3.2200112,1.7466578
-22.041668,3.1948614,1.692522
-22.229546,3.2254593,1.7541924
-22.29957,3.216053,1.7328143
-22.419897,3.2247453,1.7490792
-22.46499,3.2071416,1.7107148
-22.632149,3.233936,1.7647038
-22.676302,3.2166286,1.7270064
-22.853392,3.248855,1.7924032
-22.895782,3.2315748,1.7548146
-23.029192,3.2490435,1.7895913
-23.082747,3.236556,1.7620244
-23.261826,3.2732608,1.8369594
-23.280937,3.248018,1.7828684
-23.41427,3.2683184,1.8237123
-23.480381,3.2622955,1.8097181
-23.51233,3.2425263,1.767077
-23.652786,3.2677388,1.8182755
-23.689762,3.250489,1.7809234
-23.79613,3.262733,1.8051348
-23.878542,3.2653608,1.809308
-23.902924,3.2431579,1.7616606
-24.068344,3.2830045,1.8436041
-24.101006,3.2649417,1.804637
-24.18923,3.27192,1.8179975
-24.319595,3.2987144,1.872798
-24.313969,3.2635775,1.7981892
-24.432423,3.2860837,1.8440857
-24.509655,3.2899504,1.8510418
-24.539791,3.271654,1.8116679
-24.65056,3.2924478,1.8540716
-24.713737,3.2906864,1.8493185
-24.74666,3.274157,1.8136778
-24.848745,3.2924302,1.8508868
-24.927536,3.299602,1.8648887
-24.94829,3.2772944,1.8171849
-25.04324,3.2935774,1.8503017
-25.142588,3.312923,1.8898606
-25.154156,3.2859983,1.8325152
-25.244614,3.3015544,1.8641791
-25.335682,3.3181543,1.8980565
-25.35758,3.296975,1.8527751
-25.427858,3.302844,1.8641968
-25.49479,3.307257,1.8725843
-25.57456,3.319512,1.8974342
-25.591633,3.295664,1.8465886
-25.67206,3.309078,1.8739023
-25.722244,3.3049655,1.864469
-25.77585,3.3031213,1.8598065
-25.816761,3.2936933,1.8392415
-25.895784,3.3081124,1.8687358
-25.969183,3.3196385,1.8921766
-25.991966,3.2993,1.8487434
-26.04609,3.2990618,1.8475137
-26.130692,3.3191628,1.8890061
-26.184238,3.3193629,1.8887262
-26.216711,3.3055925,1.8591161
-26.297255,3.3246639,1.8985
-26.349228,3.32468,1.8978701
-26.397936,3.322665,1.8929853
-26.452238,3.3248525,1.8969412
-26.508385,3.3287,1.9043989
-26.56227,3.331256,1.9091525
-26.61295,3.3317583,1.9096036
-26.645687,3.3189836,1.8821516
-26.714369,3.3336284,1.9123545
-26.77138,3.3398824,1.924932
-26.815649,3.3365283,1.9173145
-26.84192,3.3189273,1.8797431
-26.903175,3.329452,1.9013333
-26.97048,3.3455238,1.9346066
-27.017115,3.34504,1.9330649
-27.04199,3.3263109,1.8931451
-27.105621,3.3406582,1.9228268
-27.158165,3.3459857,1.9335418
-27.203928,3.3456883,1.9324307
-27.236286,3.3335147,1.9063306
-27.283712,3.3350155,1.909019
-27.33141,3.3370533,1.9128461
-27.389671,3.349401,1.9383898
-27.432423,3.3474503,1.9338408
-27.457876,3.3287263,1.8939815
-27.511066,3.3372214,1.9114413
-27.567038,3.349052,1.9359365
-27.614119,3.3523617,1.9424982
-27.651924,3.34629,1.9293089
-27.69317,3.3438978,1.9238768
-27.735863,3.3432167,1.9220552
-27.78825,3.3534534,1.9432421
-27.831715,3.3542442,1.9445391
-27.865622,3.3443186,1.923264
-27.901794,3.3368862,1.9072475
-27.9469,3.3400319,1.913527
-28.002485,3.356249,1.9473615
-28.042812,3.3544245,1.9431839
-28.074118,3.3413444,1.9152908
-28.113924,3.3389056,1.909831
-28.154964,3.3382049,1.908041
-28.215996,3.3645701,1.9633131
-28.254456,3.361284,1.9560905
-28.303452,3.3728569,1.9801979
-28.341175,3.3689804,1.9717441
-28.368294,3.3495708,1.9305453
-28.404135,3.3425677,1.9155102
-28.44575,3.344321,1.9189425
-28.500114,3.366451,1.9653502
-28.541723,3.3692987,1.9711065
-28.576925,3.3618956,1.9552517
-28.611057,3.3525007,1.9352016
-28.647789,3.3473456,1.924099
-28.704868,3.3785307,1.9896488
-28.74444,3.3794544,1.9913797
-28.776865,3.367116,1.9651446
-28.810024,3.3556864,1.9408298
-28.847012,3.3514526,1.9317007
-28.899693,3.37961,1.9909062
-28.937937,3.3789647,1.9893594
-28.976538,3.3792613,1.9898047
-29.016563,3.3830276,1.9975781
-29.05626,3.3864834,2.0047026
-29.093742,3.3849857,2.0013824
-29.063385,3.2117152,1.6356344
-29.05627,3.0863883,1.3710341
-29.069094,3.0057783,1.2007818
-38.691463,2.5626397,0.35349464
-38.721813,2.5916398,0.41578102
-38.74197,2.6244314,0.48597002
-38.760754,2.6574912,0.5567155
-38.794697,2.6845312,0.61492395
-38.88336,2.690932,0.6301789
-38.85967,2.739335,0.7328634
-38.83339,2.7880552,0.83618593
-38.89511,2.8043208,0.8719926
-38.95745,2.8205123,0.9076643
-39.253124,2.7545462,0.77260494
-39.37868,2.7500198,0.76532316
-39.48588,2.752494,0.7726302
-39.519337,2.780558,0.8331094
-39.559444,2.8062873,0.88874674
-39.603127,2.8307884,0.9418459
-39.653633,2.853047,0.99030113
-39.705444,2.8749309,1.0379968
-39.758575,2.8964546,1.0849586
-39.84462,2.9076717,1.1105819
-39.959133,2.910358,1.1185699
-40.06656,2.9157827,1.1322737
-40.17663,2.9209027,1.145391
-40.319016,2.916849,1.1395764
-40.559444,2.884534,1.075388
-41.12084,2.759924,0.82055426
-41.28002,2.7552254,0.81373453
-41.39617,2.763624,0.83403444
-41.36454,2.8140779,0.94118977
-41.31585,2.8686993,1.0569143
-41.58707,2.835075,0.99062395
-41.860462,2.8025057,0.9266467
-41.94652,2.8215086,0.96905327
-42.07614,2.82935,0.98851347
-42.2412,2.8285973,0.99034786
-42.491264,2.8069339,0.9492545
-42.515427,2.8437347,1.0284796
-42.627632,2.85847,1.0623703
-42.76689,2.8670292,1.0836325
-42.985092,2.8571177,1.0670595
-43.591244,2.7557392,0.86301374
-43.659706,2.7847376,0.9265504
-43.730465,2.8133569,0.9893403
-43.83015,2.8355308,1.0389657
-43.9875,2.845064,1.0627818
-44.1388,2.8566823,1.0909481
-46.104572,2.6758294,0.7464752
-46.17527,2.811936,1.0398574
-46.223343,2.8522875,1.1274695
-46.40492,2.8672163,1.1635499
-46.683292,2.8648353,1.1646814
-47.031506,2.8510022,1.142827
-47.51391,2.8146667,1.0757236
-47.6082,2.850239,1.1542029
-48.05923,2.8235247,1.1070752
-48.27942,2.8390555,1.1454201
-48.648354,2.8304243,1.1352863
-49.0509,2.8181207,1.118051
-49.408386,2.8153024,1.1201777
-49.81078,2.807108,1.1118016
-50.25834,2.7938814,1.0936723
-50.52168,2.811522,1.1376495
-51.05034,2.7901201,1.103859
-51.516655,2.7808032,1.0946236
-51.91163,2.7843378,1.1113834
-52.210014,2.8037205,1.1599984
-52.822617,2.7804065,1.1241279
-53.10086,2.806341,1.1864066
-53.642616,2.7980692,1.1812811
-54.120037,2.8010902,1.1989684
-12.554195,2.8506784,0.89894676
-13.554468,2.9775066,1.1627088
-13.820997,2.9758306,1.1564412
-14.0218315,2.9632905,1.127388
-14.126358,2.9334965,1.0620637
-14.181887,2.894655,0.97770786
-14.232489,2.8549206,0.8914819
-14.625743,2.8832393,0.94872046
-15.572255,3.0253034,1.2459373
-15.129256,2.8884883,0.9551277
-16.27552,3.0791245,1.3551869
-16.350319,3.0505307,1.2927895
-16.074951,2.9470696,1.0723152
-16.583755,3.0122175,1.2079105
-16.845825,3.0258894,1.2348776
-17.076004,3.0338483,1.2498364
-17.22866,3.025408,1.2301822
-17.457638,3.0353127,1.2493601
-17.631481,3.0335522,1.243918
-17.835505,3.0398424,1.2555518
-18.017982,3.0420349,1.2585607
-18.24682,3.0565083,1.2876124
-18.415981,3.0574763,1.2881179
-18.784622,3.1094377,1.3966722
-19.013943,3.1281862,1.4349504
-19.209793,3.139611,1.4577594
-19.340973,3.1352007,1.4470487
-19.528778,3.1464555,1.4695764
-19.709093,3.1567495,1.490109
-19.913155,3.1745253,1.526547
-19.998821,3.1607893,1.4961791
-20.14219,3.1635337,1.5007973
-20.340889,3.1827302,1.5403605
-20.401028,3.1632924,1.4979553
-20.568707,3.1753106,1.5223436
-20.743082,3.1902673,1.5530071
-20.788956,3.167857,1.5043421
-20.97534,3.1880138,1.5461059
-21.068275,3.1806598,1.5294571
-21.178864,3.1791997,1.5253482
-21.372814,3.2045107,1.5781574
-21.42638,3.1863415,1.538579
-21.595716,3.2056196,1.5786228
-21.64994,3.1883519,1.540988
-21.830677,3.2130435,1.5925951
-21.91845,3.2077682,1.5804963
-22.0178,3.2068198,1.5776167
-22.147223,3.2166994,1.5977912
-22.227282,3.210182,1.5830975
-22.367321,3.2251253,1.6140876
-22.44609,3.2191062,1.6004844
-22.597944,3.2398,1.6437593
-22.640453,3.221551,1.6041503
-22.790348,3.2430387,1.649157
-22.856045,3.234009,1.6291995
-22.933676,3.229741,1.6193938
-23.06015,3.244566,1.6502686
-23.098091,3.2258234,1.609653
-23.25595,3.2542117,1.6694593
-23.285748,3.2327697,1.6231103
-23.44579,3.2637057,1.688386
-23.492872,3.2497633,1.6580372
-23.591026,3.2569797,1.6727958
-23.682312,3.2619185,1.682713
-23.695988,3.2345593,1.6237836
-23.847523,3.2659638,1.6901507
-23.890148,3.251334,1.6583767
-23.955912,3.2468917,1.6483335
-24.092049,3.273988,1.7055664
-24.109783,3.248902,1.6515102
-24.269197,3.2880628,1.7345109
-24.316143,3.2767453,1.7098432
-24.343681,3.2564673,1.6660614
-24.464506,3.280102,1.7159824
-24.528004,3.277282,1.7094684
-24.605877,3.2817068,1.7184234
-24.69978,3.2944498,1.7451415
-24.73006,3.2763026,1.705936
-24.807775,3.2818673,1.7173519
-24.893456,3.2919655,1.7384553
-24.93159,3.2781794,1.7085762
-25.022947,3.2921243,1.7379107
-25.103058,3.3008175,1.7560444
-25.152891,3.2938774,1.7408009
-25.213224,3.2927675,1.7380161
-25.296661,3.3046124,1.7629066
-25.363178,3.3076887,1.7690783
-25.396912,3.292729,1.7367296
-25.482862,3.3074265,1.7677402
-25.546297,3.3098276,1.7724915
-25.57131,3.2901554,1.7300882
-25.66661,3.3118627,1.7761021
-25.728203,3.3142333,1.780808
-25.780972,3.3116076,1.7748451
-25.813232,3.2965908,1.7424049
-25.89862,3.3145838,1.7805176
-25.96048,3.3184874,1.7885256
-25.991154,3.3028238,1.7547164
-26.052757,3.3070846,1.7634997
-26.122753,3.317261,1.784935
-26.18908,3.325552,1.8023477
-26.206657,3.3014255,1.7504597
-26.292149,3.3234034,1.7971478
-26.357056,3.3319807,1.8151917
-26.404552,3.3288147,1.8081331
-26.424433,3.3061259,1.7593298
-26.520617,3.3382742,1.8277974
-26.569237,3.3367004,1.8241572
-26.617275,3.3349097,1.8200579
-26.652512,3.3236642,1.7957406
-26.719881,3.3369632,1.8239255
-26.775251,3.3415847,1.8335562
-26.823265,3.3407962,1.8316183
-26.851065,3.3240616,1.7955728
-26.901878,3.3257713,1.7989879
-26.98861,3.3574018,1.8664193
-27.026909,3.349704,1.8497186
-27.049713,3.3288407,1.8048515
-27.096785,3.3285258,1.8039517
-27.165928,3.3477979,1.8449683
-27.215082,3.35012,1.849721
-27.25092,3.3407092,1.829371
-27.289015,3.3333082,1.813324
-27.342484,3.3402724,1.8280239
-27.405005,3.356307,1.8621392
-27.447289,3.3535664,1.8560777
-27.460262,3.3221793,1.7887073
-27.521646,3.3383112,1.8230457
-27.587074,3.3593485,1.867888
-27.633234,3.3614287,1.87216
-27.664684,3.3483338,1.8439522
-27.709652,3.349475,1.8462205
-27.752686,3.3487763,1.8445544
-27.80953,3.363626,1.8761768
-27.844843,3.354885,1.8573003
-27.884113,3.3505995,1.8479648
-27.920033,3.342436,1.8303304
-27.964764,3.3447347,1.8350978
-28.025047,3.3663602,1.881249
-28.056988,3.3537352,1.8540702
-28.089848,3.3419805,1.8287582
-28.12452,3.3323092,1.807908
-28.18097,3.3513412,1.8485222
-28.226662,3.356831,1.8601446
-28.27913,3.3721707,1.8928604
-28.316484,3.3670056,1.8816724
-28.353079,3.3607173,1.8680825
-28.380728,3.3410954,1.8259392
-28.420969,3.339858,1.8231692
-28.472473,3.3562827,1.8582292
-28.526005,3.3769636,1.9024072
-28.56508,3.3752952,1.898726
-28.599247,3.3655279,1.8776994
-28.636265,3.3603592,1.8665247
-28.678967,3.3651574,1.8767014
-28.728737,3.3832617,1.9153795
-28.768867,3.3846083,1.9181695
-28.80052,3.3699522,1.8866854
-28.833384,3.3570182,1.858891
-28.88058,3.372737,1.8924747
-28.930225,3.3948214,1.9396958
-28.969444,3.3958874,1.9418983
-29.005999,3.3912385,1.9318624
-29.04819,3.399583,1.9496622
-29.083353,3.3918002,1.9329176
-29.08934,3.3106985,1.7591124
-29.057287,3.1247458,1.360693
-38.728336,2.6492398,0.38164186
-38.757465,2.6784482,0.44470024
-38.786064,2.707683,0.50781536
-38.801353,2.741706,0.5811281
-38.858307,2.760102,0.6211653
-38.913525,2.7792242,0.66275597
-38.96545,2.7996082,0.7070389
-38.98179,2.8326735,0.7783189
-39.092426,2.8324404,0.77873325
-39.259235,2.8133311,0.7390027
-39.356762,2.8189461,0.7519026
-39.466988,2.8207152,0.7566371
-39.52791,2.8394675,0.797513
-39.560158,2.8677914,0.8587508
-39.599873,2.8935816,0.91460276
-39.647175,2.9168978,0.9651995
-39.735054,2.9273756,0.98851347
-39.93174,2.9041464,0.940207
-40.16181,2.8718128,0.87259436
-40.30862,2.8663456,0.86210585
-40.67313,2.7960994,0.71404743
-40.683327,2.8336859,0.79507446
-40.46637,2.9376822,1.0171108
-41.088634,2.7965233,0.7186389
-41.288506,2.7805216,0.68595934
-41.358326,2.8023796,0.73366594
-41.39527,2.8335729,0.8011904
-41.467026,2.8551362,0.8482895
-41.468533,2.8959491,0.9362259
-41.512478,2.9250925,0.99941397
-41.814495,2.8860936,0.91815233
-41.996834,2.8801088,0.9069309
