x,y,z
-36.800636,2.0916753,4.1912837
-36.9277,2.05153,4.1807203
-37.09225,1.9908146,4.1539297
-37.16822,1.9816843,4.170523
-37.29285,1.9455311,4.1655316
-37.413925,1.9122143,4.1636076
-37.501205,1.8984102,4.1780834
-37.636147,1.8589163,4.172634
-37.812717,1.7976786,4.150878
-37.942276,1.763096,4.151143
-38.05242,1.7397393,4.160944
-38.20276,1.69571,4.1555295
-38.3053,1.6778287,4.171036
-38.46163,1.6324556,4.166407
-38.642906,1.575212,4.1539283
-38.826607,1.517961,4.1426663
-38.973827,1.4805057,4.147187
-39.18006,1.4142017,4.1317163
-39.331802,1.3765583,4.1382966
-39.501076,1.3311465,4.1403694
-39.7206,1.2620873,4.126943
-39.913467,1.207494,4.1251435
-40.124237,1.1454751,4.11958
-40.336613,1.0840476,4.1159153
-40.56533,1.0162072,4.109449
-40.7844,0.95438814,4.1086354
-41.00855,0.89157534,4.1087527
-41.229034,0.8318646,4.11251
-41.529182,0.73688626,4.0953116
-41.80842,0.6534035,4.087618
-22.610611,1.1549392,3.0360417
-22.670254,1.1501532,3.007524
-22.75241,1.1601775,2.992978
-22.829926,1.1675973,2.9764118
-22.927313,1.1885617,2.972888
-23.005188,1.1971285,2.9582047
-23.080711,1.2045169,2.94278
-23.140781,1.2017782,2.918098
-23.21103,1.2062242,2.900527
-23.277576,1.2084348,2.881133
-23.334738,1.2043688,2.8559904
-23.38195,1.1934495,2.8244538
-23.417965,1.1745896,2.7853775
-23.427444,1.1365433,2.7276778
-23.425589,1.0897951,2.6613917
-23.431433,1.0480464,2.5998974
-23.428913,0.9995637,2.531664
-23.431974,0.9545677,2.4667578
-23.420673,0.89812946,2.3903465
-33.425556,1.162679,1.8869953
-33.471287,1.1675735,1.9012365
-33.47558,1.231533,1.9836764
-33.511765,1.2490482,2.0125823
-33.536522,1.282063,2.0593715
-33.566357,1.3073981,2.0973716
-33.607185,1.3174131,2.117877
-33.622078,1.3617404,2.1777043
-33.69947,1.447031,2.3027668
-33.436607,1.9439578,2.8934212
-33.458298,1.9693131,2.9308596
-33.47373,2.0016513,2.976182
-33.50237,2.0177648,3.0032582
-33.524796,2.0408678,3.0382323
-33.515247,2.100313,3.1139073
-33.516838,2.145815,3.173864
-33.513046,2.1964006,3.2394018
-33.587437,2.1592836,3.2072992
-33.63172,2.1561654,3.2132363
-33.657658,2.1731336,3.2415614
-33.680134,2.19356,3.273755
-33.702812,2.2134492,3.3053894
-33.73275,2.2254498,3.3283858
-33.760864,2.239213,3.3533902
-33.792072,2.24966,3.3748312
-33.827576,2.2556922,3.3915367
-33.862995,2.2618237,3.4084601
-33.89833,2.2680547,3.4255981
-33.941578,2.266585,3.434506
-33.984867,2.2652562,3.4437175
-34.025887,2.2662847,3.4556222
-34.06457,2.2696536,3.470183
-34.09438,2.2814076,3.4938526
-34.140057,2.2783926,3.5018287
-34.203175,2.2596352,3.4932075
-34.235252,2.269545,3.5152984
-34.261097,2.2849889,3.5433416
-34.28487,2.3021154,3.5732183
-34.34604,2.286229,3.5684032
-34.395058,2.2813838,3.5754333
-34.439167,2.28102,3.5873423
-34.48078,2.2829518,3.6018114
-34.542084,2.2684195,3.599328
-34.584457,2.2701378,3.6139379
-34.65195,2.25124,3.607431
-34.763252,2.1970677,3.5649562
-34.861107,2.1550236,3.5354748
-34.909695,2.1534653,3.5478182
-34.966934,2.1452456,3.5535789
-35.01301,2.1461427,3.5688257
-34.890778,2.2782214,3.7167244
-34.92297,2.2888827,3.741653
-34.952965,2.301187,3.7683306
-34.984833,2.312018,3.7936282
-35.019295,2.3208754,3.8170657
-35.056393,2.327781,3.8386898
-35.093403,2.3348002,3.860561
-35.129616,2.3424451,3.883182
-35.17206,2.3456292,3.901575
-35.213757,2.349463,3.9207726
-35.25399,2.354446,3.9412503
-35.297737,2.3570485,3.959591
-35.341457,2.3598022,3.9782605
-35.38732,2.3612108,3.9958267
-35.43682,2.3602977,4.0113835
-35.479027,2.3645163,4.0320177
-35.520443,2.369372,4.0534296
-36.70654,1.6140087,3.3626032
-36.720284,1.6441121,3.4115458
-36.71265,1.6878445,3.4731083
-36.69084,1.7401896,3.5424595
-36.684845,1.7816994,3.6016212
-36.70021,1.8091283,3.6477885
-36.71212,1.8384719,3.6956892
-36.738903,1.858242,3.7349257
-36.738476,1.8947167,3.7892175
-36.684177,1.9637945,3.8724742
-36.69096,1.9947758,3.9215083
-36.69884,2.0247748,3.9696202
-36.71411,2.0500605,4.01356
-36.729797,2.0748832,4.0570993
-36.736427,2.1048117,4.1050587
-36.745792,2.1328533,4.151344
-36.779453,2.1466222,4.1854315
-36.88975,2.1165705,4.182556
-36.994858,2.090202,4.183435
-37.15118,2.0357394,4.1614943
-37.27587,2.000062,4.1560955
-37.370968,1.981574,4.1655946
-37.43855,1.9787053,4.1883993
-37.60209,1.9240422,4.1696534
-37.753216,1.8772355,4.1582646
-37.936382,1.8143824,4.135064
-38.03749,1.7962649,4.1483893
-38.165462,1.7646242,4.1517444
-38.269634,1.7461646,4.166142
-38.46373,1.6819165,4.145962
-38.627552,1.6345053,4.1399164
-38.724472,1.6220956,4.1613846
-38.89098,1.5751972,4.157659
-39.073387,1.521456,4.1499815
-39.30508,1.4445591,4.126565
-39.50012,1.3872225,4.1189528
-39.661545,1.3474913,4.125325
-39.843258,1.2989731,4.1265526
-40.013466,1.2570882,4.1336975
-40.23441,1.1922009,4.1260414
-40.52565,1.0957243,4.098267
-40.688217,1.061142,4.1145926
-40.91147,0.99946547,4.1138983
-41.195923,0.91116357,4.097197
-41.410206,0.85657287,4.1046076
-41.698265,0.77006435,4.093005
-41.99438,0.6818006,4.082433
-42.264904,0.60674715,4.082364
-22.330383,1.1174943,2.9813566
-22.434826,1.1393642,2.976663
-22.519981,1.1497164,2.961802
-22.609478,1.1632917,2.950375
-22.68225,1.1666229,2.9297652
-22.773596,1.1823335,2.9211917
-22.85651,1.1930704,2.9083486
-22.93554,1.2016973,2.8938913
-23.019554,1.2140617,2.8833928
-23.087275,1.215944,2.863195
-23.186188,1.2392993,2.86409
-23.25507,1.2427537,2.8461175
-23.345434,1.2613826,2.843278
-23.364712,1.2309685,2.7927313
-23.39938,1.2110758,2.752562
-23.414555,1.177187,2.6986265
-23.444305,1.1533682,2.6546822
-23.459743,1.1189702,2.600235
-23.43683,1.0560951,2.5172076
-23.444595,1.0149288,2.4557834
-23.444775,0.9675596,2.3880167
-23.457972,0.9293299,2.3294072
-23.416206,0.8488171,2.2276797
-33.429134,1.1958559,1.8591304
-33.442318,1.2475729,1.9280329
-33.472157,1.2744153,1.9678736
-33.506622,1.2942188,1.9995604
-33.491,1.3824146,2.1108408
-33.538956,1.3822353,2.1193342
-33.580788,1.3904109,2.1376524
-33.631844,1.3863964,2.1419764
-33.64879,1.4269593,2.197946
-33.693943,1.4911408,2.2903209
-33.726646,1.5095949,2.320858
-33.454906,1.955138,2.8498468
-33.452244,2.009861,2.9211216
-33.474907,2.0333698,2.9566965
-33.493244,2.0615027,2.997559
-33.516575,2.0833304,3.0312653
-33.512436,2.136089,3.1000571
-33.529697,2.163615,3.1401968
-33.518333,2.222472,3.2156973
-33.605755,2.1714966,3.1673536
-33.6304,2.1900597,3.1975331
-33.65686,2.2064,3.225263
-33.67986,2.2261755,3.2568903
-33.70469,2.2437327,3.2860737
-33.730858,2.2596476,3.3134742
-33.75842,2.2739325,3.339117
-33.78796,2.2860408,3.3624086
-33.819546,2.295988,3.3833847
-33.854908,2.3021243,3.4002419
-33.891327,2.3072515,3.4160953
-33.92882,2.3113778,3.430963
-33.969727,2.3123062,3.4424515
-34.011223,2.3128133,3.453617
-34.050976,2.3150978,3.4668617
-34.088356,2.3196936,3.4827485
-34.13282,2.3178556,3.4917908
-34.19413,2.3009357,3.4847145
-34.22675,2.3102844,3.5061674
-34.26959,2.310526,3.517943
-34.282383,2.3373296,3.558292
-34.321945,2.3404617,3.5733733
-34.389492,2.3195956,3.5630698
-34.43296,2.3198414,3.575447
-34.482132,2.3154352,3.583067
-34.52504,2.3165154,3.5966601
-34.5923,2.297613,3.5894308
-34.621197,2.3106525,3.6159258
-34.733032,2.256402,3.5723228
-34.82357,2.2204843,3.548335
-34.87918,2.2131875,3.5544257
-34.940895,2.201407,3.5561228
-34.98616,2.20285,3.5716872
-34.97235,2.2500076,3.6342573
-34.90239,2.3393273,3.7396846
-34.936348,2.348493,3.7631102
-34.97086,2.3572438,3.7862282
-35.006626,2.365074,3.8085341
-35.04298,2.3725023,3.830563
-35.080624,2.3790278,3.8518167
-35.11958,2.3846602,3.8723197
-35.15706,2.3914256,3.8940935
-35.194443,2.3983088,3.9161234
-35.233875,2.403809,3.9369326
-35.276104,2.4074464,3.95607
-35.322617,2.4082496,3.9726152
-35.366234,2.4111955,3.9914393
-35.413464,2.4118304,4.008213
-35.465828,2.4092007,4.022052
-35.51162,2.4111667,4.040527
-36.710114,1.6552043,3.337698
-36.701538,1.6997502,3.400528
-36.686302,1.748029,3.466713
-36.683105,1.7879629,3.5248728
-36.697433,1.8162949,3.5720897
-36.715893,1.8417528,3.6166258
-36.722527,1.874352,3.6677651
-36.732506,1.9045358,3.7166286
-36.676575,1.974756,3.801962
-36.68535,2.0047102,3.850327
-36.69523,2.0336957,3.8977757
-36.710922,2.0589316,3.941831
-36.72311,2.0860236,3.987545
-36.734894,2.113103,4.03323
-36.74153,2.142923,4.0813036
-36.72786,2.1841347,4.139273
-36.739918,2.2101798,4.1838994
-36.85497,2.177753,4.178139
-36.949574,2.1575766,4.1835446
-37.087296,2.1140153,4.169631
-37.21186,2.0786905,4.1635094
-37.31331,2.056835,4.169419
-37.42733,2.0287876,4.170786
-37.51302,2.0166779,4.185982
-37.70764,1.9470465,4.154628
-37.86106,1.900602,4.143347
-37.979424,1.8735493,4.148647
-38.06066,1.8664796,4.1706257
-38.238983,1.8098704,4.153887
-38.381153,1.7729316,4.153741
-38.520443,1.7383524,4.156342
-38.67371,1.6976392,4.155118
-38.86143,1.6407845,4.1425843
-39.026928,1.596139,4.1405334
-39.199825,1.5489328,4.1376677
-39.39131,1.4938302,4.1301155
-39.562023,1.4499514,4.1320953
-39.72466,1.4109778,4.1387887
-39.955215,1.3409269,4.1242914
-40.133736,1.2967472,4.1297646
-40.38065,1.2219191,4.114975
-40.57525,1.1727731,4.119748
-40.808933,1.1069839,4.114489
-41.026726,1.0498602,4.116769
-41.335835,0.9531219,4.0941505
-41.62491,0.8673129,4.0810165
-41.822937,0.82348895,4.097328
-42.095093,0.7484064,4.095015
-42.461525,0.6341524,4.069951
-21.924538,1.0173414,2.854838
-22.053013,1.0509236,2.8600664
-22.290447,1.1521678,2.929398
-22.377666,1.1626465,2.9145713
-22.467735,1.1753693,2.9023004
-22.556822,1.1879828,2.89037
-22.633675,1.1933239,2.8719134
-22.70967,1.198484,2.8536425
-22.842793,1.2409647,2.871811
-22.940456,1.2613404,2.8692012
-23.044386,1.2864823,2.871726
-23.142033,1.3081684,2.8713799
-23.256767,1.3419819,2.8834653
-23.332565,1.3503015,2.8708897
-23.372923,1.334799,2.8349667
-23.407063,1.3149614,2.7948427
-23.385973,1.2565274,2.7160907
-23.401907,1.2232687,2.662465
-23.44791,1.2109725,2.6300273
-23.440216,1.1602137,2.5586758
-23.470186,1.1359785,2.5142164
-23.475637,1.093621,2.4512596
-23.454275,1.030925,2.36731
-23.464651,0.9908931,2.306508
-23.472265,0.94825983,2.2429523
-23.45763,0.88815546,2.1611576
-33.39951,1.2162056,1.7974548
-33.439453,1.2299073,1.8219647
-33.431606,1.31124,1.926682
-33.463783,1.334384,1.9624214
-33.479866,1.3792326,2.023848
-33.501606,1.4152935,2.074885
-33.532288,1.4385335,2.1108322
-33.57094,1.4507692,2.1338968
-33.602715,1.4718075,2.1673803
-33.644962,1.4789946,2.1846952
-33.677532,1.4984388,2.216457
-33.473495,1.9748704,2.8069787
-33.435272,2.0715942,2.9277372
-33.473316,2.0766559,2.9421778
-33.49406,2.1017659,2.9798694
-33.49696,2.146791,3.0405226
-33.502098,2.1883368,3.0970993
-33.494328,2.2434034,3.169127
-33.50458,2.2774498,3.2169518
-33.583138,2.2365406,3.1790857
-33.63264,2.2279842,3.1784406
-33.659622,2.243705,3.205593
-33.68049,2.26563,3.2398453
-33.703682,2.2847867,3.2709837
-33.72928,2.3011956,3.2990518
-33.755707,2.316542,3.3259702
-33.78521,2.3286173,3.349265
-33.817314,2.3380005,3.3696094
-33.853214,2.3436108,3.385816
-33.889046,2.3493228,3.402244
-33.92595,2.3540409,3.417673
-33.965103,2.3566813,3.4309072
-34.00831,2.3556278,3.440174
-34.05039,2.3558016,3.4509492
-34.08658,2.3615296,3.4679904
-34.119717,2.3700652,3.4882293
-34.161743,2.3706074,3.4998016
-34.23042,2.3476434,3.4858246
-34.242188,2.375314,3.5273356
-34.271328,2.3874724,3.5519643
-34.318237,2.3842556,3.560008
-34.360863,2.3849177,3.5724187
-34.41795,2.3735445,3.572019
-34.483486,2.3555243,3.5647182
-34.530235,2.3535466,3.5748715
-34.568707,2.3585486,3.5926485
-34.618744,2.3542583,3.600675
-34.81671,2.2688084,3.5361295
-34.868347,2.2647893,3.545321
-34.9307,2.252697,3.5462527
-34.983925,2.2480478,3.5552344
-35.014393,2.261023,3.582788
-34.904602,2.3798397,3.7202568
-34.93585,2.3910785,3.745778
-34.9683,2.401385,3.7704368
-35.00474,2.408749,3.7921786
-35.041084,2.4162235,3.8141618
-35.077324,2.423809,3.8363857
-35.116272,2.4295044,3.8568206
-35.154438,2.435824,3.8780317
-35.193943,2.4412718,3.8985066
-35.231953,2.4478374,3.9202523
-35.274902,2.4510734,3.9388213
-35.320705,2.4524922,3.955761
-35.36578,2.4545627,3.9735346
-35.41084,2.4567919,3.991653
-35.46175,2.4552956,4.0063148
-35.50754,2.4573743,4.024685
-35.530327,2.4745502,4.0578823
-36.6739,1.7700734,3.3951669
-36.68091,1.8036091,3.4476614
-36.6987,1.8299549,3.4932308
-36.71231,1.8586779,3.5410657
-36.72701,1.8864412,3.587977
-36.700027,1.9395859,3.6587267
-36.669167,1.9943821,3.7307448
-36.681435,2.0223637,3.7775507
-36.694836,2.0494003,3.823464
-36.70861,2.0759652,3.8689303
-36.725117,2.1006818,3.9127011
-36.725548,2.1345701,3.9648046
-36.710476,2.1770523,4.0245647
-36.698734,2.2171102,4.081958
-36.728577,2.2330713,4.1177206
-36.741405,2.258564,4.1620183
-36.761078,2.280019,4.2027597
-36.92632,2.2207885,4.173114
-37.033363,2.1947405,4.173243
-37.156227,2.1607778,4.1671896
-37.288567,2.1225388,4.158218
-37.38542,2.1041632,4.1668963
-37.45788,2.099278,4.1874957
-37.5923,2.062191,4.1816
-37.782757,1.9968314,4.1531043
-37.92591,1.9572675,4.1470356
-38.047085,1.9298947,4.151804
-38.17115,1.9017975,4.1567345
-38.274582,1.8848314,4.171357
-38.45416,1.8304797,4.15691
-38.62347,1.7824168,4.148587
-38.745014,1.7588701,4.1604967
-38.915443,1.7122798,4.1553664
-39.11641,1.6520798,4.1409464
-39.30016,1.60144,4.1351233
-39.4837,1.5520768,4.131491
-39.665287,1.5047977,4.1306453
-39.85267,1.4559593,4.1298833
-40.030235,1.4128158,4.134538
-40.266716,1.3438137,4.121827
-40.488327,1.283082,4.1166515
-40.729958,1.2147462,4.1076975
-40.975945,1.1460087,4.100182
-41.183968,1.0955927,4.106975
-41.47037,1.0120969,4.0928764
-41.71433,0.9488547,4.094387
-41.986565,0.8749261,4.090635
-42.239155,0.81106496,4.095424
-42.57556,0.7132647,4.080349
-42.93727,0.6069689,4.062448
-21.644575,1.0014439,2.8079486
-21.757214,1.0231795,2.8015456
-21.908188,1.0684106,2.8179107
-22.116213,1.1489913,2.8686619
-22.206387,1.1599672,2.8541431
-22.320784,1.186229,2.8547359
-22.426382,1.2078295,2.8514223
-22.535389,1.2322261,2.8513522
-22.652246,1.2622776,2.857345
-22.770838,1.2942543,2.8658214
-22.878466,1.3200786,2.8688464
-22.979723,1.3425362,2.8690805
-23.066591,1.3563015,2.8611736
-23.180313,1.388238,2.871817
-23.264334,1.4013205,2.8641205
-23.334337,1.4055159,2.8478608
-23.381174,1.3943832,2.8163977
-23.411674,1.3721459,2.773818
-23.329895,1.2724013,2.6522164
-23.367374,1.2539394,2.6133156
-23.403015,1.2340863,2.5730877
-23.431944,1.2093525,2.5279136
-23.467518,1.1891501,2.4874916
-23.463938,1.1405313,2.4175763
-23.48453,1.108851,2.3652277
-23.496727,1.0706275,2.3060188
-23.476915,1.0081103,2.2211823
-23.472301,0.95603347,2.1471496
-23.48128,0.9134917,2.0830855
-23.437613,0.8300524,1.9754257
-33.421055,1.22981,1.7372093
-33.44534,1.2662795,1.7892342
-33.43334,1.3528483,1.9014254
-33.452934,1.3933146,1.9581728
-33.475212,1.4291291,2.0093431
-33.50763,1.45047,2.0432177
-33.523556,1.4932573,2.1027417
-33.561226,1.5065947,2.127153
-33.60002,1.5182929,2.1496987
-33.668907,1.4915841,2.1267247
-33.680725,1.5373814,2.189959
-33.44173,2.1015332,2.8992543
-33.470097,2.1179636,2.9269905
-33.481415,2.1536565,2.9773326
-33.50757,2.1718438,3.007187
-33.552567,2.1687076,3.012219
-33.522858,2.248187,3.1135483
-33.542095,2.2725708,3.150639
-33.514225,2.3472223,3.2460074
-33.595062,2.30466,3.2055635
-33.6439,2.296884,3.2056088
-33.66888,2.3142211,3.234745
-33.690884,2.3343651,3.2671514
-33.713097,2.3539867,3.2989883
-33.737186,2.371437,3.328373
-33.764866,2.3850868,3.3534603
-33.798477,2.3927755,3.3718204
-33.833107,2.3994632,3.3891377
-33.870487,2.4035246,3.4035783
-33.91012,2.405525,3.415804
-33.946274,2.4108965,3.4319582
-33.986443,2.4125924,3.444088
-34.02896,2.4122605,3.4540744
-34.073883,2.4099188,3.461956
-34.11529,2.4109402,3.4737492
-34.161526,2.4078228,3.4810767
-34.205414,2.4069924,3.4911103
-34.24568,2.4094923,3.504982
-34.291477,2.4073563,3.5138736
-34.342915,2.4006276,3.5178795
-34.390755,2.39724,3.5257478
-34.431126,2.4003112,3.5408587
-34.49746,2.3820765,3.532877
-34.55009,2.3755693,3.5379262
-34.57008,2.3957484,3.5720983
-34.634415,2.380218,3.5677266
-34.68666,2.374748,3.5744605
-34.748867,2.36175,3.5733252
-34.848972,2.3197625,3.5414534
-34.89663,2.3191,3.5541039
-34.94433,2.3186033,3.5671134
-34.851967,2.4238675,3.6922293
-34.8785,2.4385183,3.7211785
-34.916416,2.444658,3.741251
-34.95631,2.4494085,3.7600036
-34.987865,2.4602962,3.7853003
-35.021347,2.4697728,3.809228
-35.060986,2.474873,3.8287368
-35.094234,2.4845586,3.8531194
-35.130882,2.4918737,3.8751774
-35.17241,2.495861,3.8939648
-35.21318,2.5004776,3.9135528
-35.2539,2.5052304,3.9334364
-35.29167,2.512063,3.9555774
-35.330074,2.518533,3.9774938
-35.380096,2.5174098,3.991962
-35.433094,2.5145493,4.0049167
-35.48616,2.5118892,4.0183077
-35.52666,2.517534,4.040126
-35.573063,2.5195174,4.058512
-36.70983,1.8345938,3.4062839
-36.72322,1.8637383,3.454824
-36.7248,1.8999012,3.510129
-36.699165,1.952333,3.5809884
-36.692623,1.9924579,3.639812
-36.694695,2.0269094,3.693098
-36.712467,2.0516076,3.7370672
-36.734528,2.0735614,3.77847
-36.736767,2.1069787,3.8306394
-36.7244,2.1485207,3.8902817
-36.69488,2.1994371,3.9584165
-36.697784,2.2311788,4.008644
-36.715298,2.254329,4.050949
-36.729275,2.2792835,4.094912
-36.741283,2.3051262,4.139674
-36.764164,2.3247578,4.178858
-36.835194,2.317986,4.194604
-36.995502,2.2632487,4.168331
-37.097214,2.2411413,4.1716747
-37.21642,2.2103596,4.168044
-37.340183,2.177959,4.1637187
-37.434776,2.1616154,4.1739235
-37.51886,2.1512532,4.1897726
-37.70599,2.088417,4.161719
-37.88903,2.0290165,4.1377325
-37.97595,2.0194147,4.1563573
-38.085655,1.9988556,4.1664386
-38.23437,1.9595841,4.161866
-38.381104,1.9222505,4.159806
-38.54107,1.8794011,4.154238
-38.679497,1.847987,4.1588135
-38.84396,1.8049476,4.1550884
-39.039833,1.7480435,4.1415863
-39.19523,1.7114828,4.1451464
-39.443336,1.6326153,4.117268
-39.55067,1.6205401,4.1418004
-39.75096,1.5663855,4.135386
-39.959778,1.5096264,4.1283965
-40.1379,1.4680219,4.1339793
-40.34893,1.4127901,4.130865
-40.595764,1.3430173,4.118762
-40.808243,1.289897,4.1202254
-41.046097,1.2270331,4.1163406
-41.326324,1.1473634,4.102501
-41.633263,1.0580461,4.084083
-41.80506,1.0279689,4.1078987
-42.06198,0.96306133,4.1097255
-42.396614,0.8673341,4.0931873
-42.70096,0.7862158,4.088602
-43.100677,0.667922,4.062579
-21.28712,0.9824033,2.8005943
-21.424637,1.015688,2.8037963
-21.581253,1.0608318,2.8189192
-21.720707,1.0971854,2.8265676
-21.871246,1.1409681,2.8420486
-21.980759,1.1617055,2.8362541
-22.137749,1.2113113,2.8588424
-22.238636,1.2284973,2.850865
-22.3652,1.2618144,2.8591027
-22.478271,1.2877953,2.860814
-22.597706,1.3184536,2.867701
-22.698544,1.338398,2.8646002
-22.834984,1.381316,2.8848271
-22.92225,1.3941736,2.8757396
-23.028553,1.4196985,2.8797731
-23.134405,1.4456737,2.8847814
-23.228058,1.4644575,2.8830252
-23.28488,1.4596586,2.8577251
-23.378763,1.4795988,2.857925
-23.408764,1.4574153,2.815343
-23.363016,1.3838885,2.7199244
-23.405533,1.3694165,2.685236
-23.348904,1.2866628,2.579742
-23.392403,1.2721777,2.5450258
-23.435406,1.257324,2.5100603
-23.46328,1.2317212,2.4639292
-23.495012,1.2086389,2.4205036
-23.489895,1.1587486,2.3487458
-23.470524,1.0977437,2.265028
-23.501139,1.0726144,2.2193704
-23.498335,1.022394,2.1468983
-23.474178,0.9554026,2.0562682
-23.477158,0.9079244,1.9864311
-23.438473,0.8278401,1.881207
-33.405468,1.2178547,1.6504269
-33.42485,1.2622709,1.7125211
-33.458588,1.2852302,1.748508
-33.433437,1.3898065,1.8836632
-33.406796,1.4935613,2.0175886
-33.46422,1.4806628,2.010036
-33.492607,1.5070634,2.0501733
-33.514435,1.541539,2.1000953
-33.552876,1.5536749,2.1230984
-33.591125,1.5659034,2.1463003
-33.632347,1.5742283,2.1649017
-33.64097,1.6230912,2.232225
-33.67602,1.6383655,2.259273
-33.47424,2.0957296,2.8393373
-33.468243,2.1521008,2.9146643
-33.481987,2.1847918,2.9618196
-33.505646,2.205711,2.9950385
-33.530464,2.2249863,3.026348
-33.51829,2.2844071,3.1049757
-33.530273,2.316446,3.1512704
-33.503784,2.3889294,3.244979
-33.545235,2.3881884,3.2527509
-33.64497,2.326891,3.189917
-33.669952,2.3441696,3.2191038
-33.69411,2.362041,3.249024
-33.715256,2.3826885,3.2822056
-33.74155,2.3979003,3.3091187
-33.769268,2.411529,3.3342547
-33.797886,2.424131,3.3582664
-33.829697,2.4335465,3.3786807
-33.866486,2.4381795,3.393693
-33.905514,2.440765,3.4064703
-33.946266,2.4418573,3.417666
-33.987026,2.4430785,3.4291406
-34.028385,2.443894,3.440288
-34.07035,2.444308,3.451117
-34.108757,2.4480462,3.4658418
-34.150135,2.449252,3.4778366
-34.19577,2.4468923,3.485961
-34.243317,2.443107,3.4926505
-34.292187,2.4384363,3.4985237
-34.341793,2.433414,3.5041852
-34.388386,2.4311767,3.5131273
-34.436943,2.427538,3.5206866
-34.490665,2.4199202,3.5240316
-34.54711,2.4104311,3.5255256
-34.60053,2.40373,3.5303068
-34.651505,2.3992796,3.5377607
-34.699974,2.39706,3.5478454
-34.775444,2.3740828,3.5355425
-34.839436,2.3605723,3.533835
-34.88172,2.3640432,3.5507402
-34.876415,2.4035301,3.6065617
-34.84349,2.4630535,3.6837578
-34.87608,2.4731455,3.7078462
-34.911938,2.4808283,3.7294693
-34.947693,2.4886186,3.7513247
-34.983345,2.4965172,3.7734146
-35.020977,2.5030377,3.7941742
-35.05433,2.5126348,3.8182921
-35.08895,2.5213456,3.8415933
-35.126995,2.5277133,3.8625712
-35.164246,2.5346897,3.8843179
-35.204983,2.5393548,3.903812
-35.24783,2.542704,3.9221082
-35.28847,2.547647,3.9422035
-35.331966,2.5508049,3.9606366
-35.375435,2.5541139,3.9793978
-35.42476,2.553763,3.994636
-35.469673,2.5564408,4.013131
-35.515305,2.5588048,4.031499
-35.580357,2.5490947,4.0380316
-36.713135,1.8735507,3.3849092
-36.721992,1.9053974,3.436304
-36.684834,1.9650967,3.5149841
-36.68258,2.0027628,3.5718222
-36.692772,2.0324976,3.6208463
-36.70328,2.0617445,3.669361
-36.7118,2.091878,3.7186952
-36.745506,2.1069596,3.753603
-36.70561,2.1647184,3.8291793
-36.695408,2.2046044,3.8875213
-36.691692,2.2403193,3.9417863
-36.70326,2.2670002,3.9874969
-36.720783,2.2901068,4.0298715
-36.74355,2.3101294,4.069422
-36.737167,2.3460643,4.1236115
-36.74795,2.3722415,4.1687813
-36.82705,2.3612854,4.180337
-36.925797,2.3402362,4.1832495
-37.045242,2.3088126,4.1774607
-37.193794,2.262869,4.159502
-37.291298,2.2446008,4.1667895
-37.42041,2.2105694,4.160864
-37.49457,2.205542,4.180861
-37.629456,2.1700244,4.1750226
-37.78904,2.1229558,4.1601415
-37.96019,2.0712068,4.1422844
-38.039696,2.06597,4.1645846
-38.20019,2.0213907,4.1545486
-38.3241,1.9956552,4.1610937
-38.479774,1.9553518,4.156466
-38.6309,1.9182177,4.1554
-38.79707,1.8749094,4.1503263
-38.94325,1.8420402,4.1546454
-39.11568,1.7978433,4.1509557
-39.314594,1.7425205,4.139694
-39.521175,1.6849806,4.12804
-39.699863,1.6414151,4.1284776
-39.88783,1.5947802,4.127776
-40.058914,1.5568175,4.1348457
-40.283066,1.4964511,4.126441
-40.561607,1.4137049,4.1031685
-40.763626,1.3659556,4.1072245
-40.9848,1.311188,4.107649
-41.227028,1.2487919,4.104224
-41.478905,1.1838098,4.1007085
-41.750282,1.1122077,4.0944266
-42.019836,1.0430355,4.091758
-42.299164,0.9714844,4.089448
-42.622444,0.88370943,4.078444
-42.90261,0.815351,4.0825047
-43.276543,0.71110296,4.065577
-43.62904,0.61767983,4.0583277
-20.919292,0.97632647,2.7942743
-21.07272,1.0151453,2.8015175
-21.197609,1.0392857,2.795762
-21.407837,1.1116054,2.8363729
-21.528366,1.1352739,2.8317466
-21.685478,1.1803858,2.84833
-21.806595,1.2060826,2.8470259
-21.931168,1.2345495,2.8490372
-22.03818,1.2536325,2.8425384
-22.172667,1.2894816,2.853026
-22.299622,1.3218277,2.8607569
-22.409187,1.3446715,2.8597226
-22.535864,1.3785405,2.8702197
-22.654375,1.4083524,2.8773003
-22.752762,1.4266393,2.8733778
-22.862816,1.452774,2.8778625
-22.964193,1.4742432,2.8781514
-23.068151,1.4980121,2.8812723
-23.163555,1.5170422,2.8800373
-23.2564,1.5350492,2.8781986
-23.34233,1.5491683,2.8727703
-23.393099,1.5407708,2.8443422
-23.424454,1.5196288,2.802806
-23.43312,1.4831927,2.7453232
-23.401623,1.4192393,2.6588397
-23.43442,1.398077,2.617259
-23.403233,1.3328025,2.5289888
-23.427206,1.3047943,2.4800944
-23.191837,1.0948534,2.2368484
-23.45494,1.2336273,2.3661375
-23.456896,1.1888838,2.2992482
-23.512043,1.1348457,2.2036028
-23.492168,1.072526,2.117433
-23.501589,1.0309858,2.0537248
-23.482935,0.9678252,1.9662704
-23.458027,0.89892507,1.8722897
-33.40181,1.2679076,1.6357303
-33.449833,1.2711389,1.6475782
-33.41381,1.3923304,1.8049088
-33.418728,1.4535546,1.888165
-33.40864,1.5335889,1.9944534
-33.42308,1.5785956,2.0576086
-33.45784,1.5956168,2.0864444
-33.49931,1.6036012,2.1042933
-33.544197,1.6071465,2.1168222
-33.588158,1.6119521,2.1310072
-33.63342,1.6151812,2.1433873
-33.635147,1.6721876,2.2212634
-33.657623,1.7026098,2.2667832
-33.474937,2.1327894,2.8207908
-33.45471,2.2049263,2.915873
-33.482132,2.2218065,2.9444022
-33.496284,2.253164,2.9903364
-33.51393,2.280076,3.0309353
-33.516323,2.3230064,3.0906653
-33.509205,2.3752272,3.1613927
-33.499077,2.429523,3.234467
-33.537342,2.43214,3.246059
-33.62754,2.3812697,3.1943965
-33.66412,2.3864298,3.20935
-33.686596,2.405842,3.241219
-33.70984,2.4241998,3.2718768
-33.73003,2.4453006,3.3057919
-33.763184,2.453462,3.3245625
-33.792866,2.4649422,3.347303
-33.825195,2.4738076,3.367062
-33.858536,2.481686,3.3857584
-33.89636,2.4853806,3.3996873
-33.93125,2.4918528,3.416946
-33.972485,2.4925802,3.4276676
-34.012558,2.4944983,3.4398947
-34.05441,2.4949574,3.4505725
-34.10107,2.4913385,3.4567142
-34.143005,2.4920807,3.4680047
-34.189213,2.4892936,3.475409
-34.23244,2.489274,3.486126
-34.278168,2.4873154,3.4947896
-34.320854,2.4881074,3.5067263
-34.36418,2.4885213,3.518383
-34.437813,2.4643314,3.502513
-34.469337,2.4748757,3.5259147
-34.48727,2.4962616,3.5615234
-34.591843,2.448721,3.5203075
-34.63889,2.4474502,3.5310001
-34.693176,2.440762,3.5358644
-34.74498,2.436296,3.5433946
-34.804176,2.4264746,3.5452309
-34.86557,2.4153712,3.5459013
-34.903046,2.4225237,3.5667887
-34.83646,2.5066035,3.671627
-34.86425,2.5201771,3.6994429
-34.9103,2.5204427,3.7129292
-34.94124,2.531727,3.738471
-34.976166,2.5401428,3.7610216
-35.008194,2.5506234,3.7858973
-35.042175,2.5597281,3.8094034
-35.08167,2.565042,3.8289933
-35.11472,2.5748448,3.8534746
-35.154045,2.5803993,3.8735862
-35.191875,2.5870438,3.8949866
-35.23178,2.5923724,3.9151468
-35.278152,2.593538,3.9311213
-35.319427,2.598197,3.9509053
-35.367245,2.5987344,3.9665942
-35.408447,2.6036894,3.987021
-35.455517,2.605028,4.003908
-35.50482,2.6051328,4.019735
-35.543674,2.6119418,4.0425673
-35.59748,2.609601,4.0563197
-36.665924,1.9875038,3.448223
-36.6831,2.0134902,3.4938078
-36.687668,2.0468113,3.5466876
-36.704,2.0727744,3.5922222
-36.71685,2.1005564,3.6395493
-36.737797,2.1233501,3.6819758
-36.686817,2.187584,3.7647638
-36.6919,2.218761,3.8151493
-36.694935,2.2507794,3.86628
-36.700638,2.2809596,3.9155788
-36.716976,2.3049045,3.958888
-36.732956,2.328858,4.002217
-36.750977,2.3515058,4.0443263
-36.738163,2.3907366,4.101953
-36.746513,2.4181154,4.148405
-36.76255,2.4411473,4.1908116
-36.907448,2.3958697,4.17064
-37.001644,2.3782067,4.1764536
-37.151005,2.3324497,4.157395
-37.268993,2.3039036,4.154673
-37.34944,2.2952724,4.170387
-37.445774,2.27902,4.1797957
-37.558155,2.2552686,4.183166
-37.75272,2.1913671,4.1522007
-37.89711,2.153572,4.1450267
-38.016823,2.128765,4.1498737
-38.14703,2.0996017,4.1517305
-38.253094,2.082816,4.1648245
-38.41889,2.0382202,4.155277
-38.597267,1.9887786,4.142753
-38.687347,1.9817474,4.166239
-38.912308,1.9127048,4.1397266
-39.07191,1.8751812,4.140133
-39.273506,1.8195391,4.127075
-39.43338,1.7840102,4.1312675
-39.619823,1.7375715,4.1279445
-39.81037,1.6904716,4.1253395
-39.933296,1.6742368,4.1476974
-40.15558,1.6154106,4.1384935
-40.418236,1.5405707,4.1187778
-40.65097,1.4802129,4.1116343
-40.879158,1.4232266,4.1085715
-41.116943,1.3636091,4.105184
-41.412434,1.2814264,4.087298
-41.60988,1.2415555,4.101442
-41.86685,1.1784725,4.100762
-42.119194,1.118814,4.1042786
-42.48109,1.0166588,4.080744
-42.777473,0.9428501,4.0788617
-43.07561,0.87012887,4.079876
-43.4779,0.75846696,4.057783
-43.865128,0.65512896,4.0440564
-20.602797,1.0054839,2.8212852
-20.710508,1.0171964,2.8021297
-20.8358,1.0387771,2.792841
-21.047691,1.107342,2.8288193
-21.16947,1.1289356,2.8211303
-21.33479,1.1749325,2.8375268
-21.48106,1.2116477,2.8458533
-21.62434,1.2477012,2.8543172
-21.743372,1.2711856,2.8512526
-21.858854,1.2934146,2.847561
-21.998152,1.3299117,2.8585596
-22.115835,1.3549778,2.858924
-22.244682,1.3872755,2.867106
-22.361416,1.413384,2.869731
-22.475386,1.4386399,2.872079
-22.58509,1.4621131,2.8731828
-22.698166,1.4883347,2.877625
-22.806995,1.5127513,2.880775
-22.896599,1.5261304,2.8730955
-23.003878,1.5509617,2.877667
-23.101036,1.5702178,2.876966
-23.22594,1.6075778,2.8955998
-23.289845,1.6071348,2.875248
-23.380795,1.6242998,2.87368
-23.411001,1.6027086,2.831584
-23.417652,1.5655591,2.7730503
-23.334198,1.4684806,2.6506176
-23.414112,1.4786804,2.642333
-23.436878,1.4508855,2.5935993
-23.403473,1.3846567,2.5034637
-23.42392,1.3543434,2.45189
-23.276325,1.2073257,2.2735896
-23.31333,1.1867979,2.2322273
-23.40543,1.1582377,2.1634908
-23.508753,1.1851826,2.1747417
-23.488806,1.0750556,2.0166807
-23.509659,1.0416055,1.9614501
-23.501125,0.9857297,1.8811817
-23.465117,0.90819955,1.7765007
-33.397762,1.2474253,1.525629
-33.413246,1.2981646,1.5968561
-33.391346,1.4002609,1.732265
-33.411457,1.4411373,1.7910185
-33.415024,1.5036247,1.8767109
-33.40859,1.5779428,1.9770484
-33.448143,1.5892043,1.9988446
-33.45727,1.6401591,2.0700173
-33.492157,1.6566148,2.0983577
-33.54846,1.6455362,2.092681
-33.579018,1.6672547,2.127716
-33.610107,1.6879027,2.1614776
-33.633507,1.7175648,2.2063994
-33.66242,1.7399788,2.2424183
-33.69329,1.7596502,2.2751107
-33.729996,1.7721448,2.299056
-33.424824,2.27713,2.9416456
-33.480633,2.2618806,2.931119
-33.493225,2.294688,2.9791923
-33.522934,2.3082633,3.0039077
-33.53149,2.3443499,3.055944
-33.510525,2.4109783,3.1448507
-33.517525,2.4468987,3.1965275
-33.53335,2.4729867,3.236319
-33.62836,2.4177501,3.178401
-33.660652,2.4272718,3.198522
-33.68415,2.4455054,3.2291455
-33.707893,2.4632378,3.2592063
-33.73189,2.480471,3.2887096
-33.7595,2.493998,3.3138452
-33.78857,2.5059836,3.3372111
-33.821415,2.5143104,3.3563137
-33.856995,2.52007,3.3724704
-33.893078,2.5254023,3.3882246
-33.927937,2.5318947,3.4054456
-33.967976,2.5337477,3.417326
-34.008015,2.5357265,3.4294777
-34.04983,2.536261,3.4400702
-34.092274,2.5364084,3.450348
-34.137165,2.5346134,3.4585109
-34.18151,2.5334885,3.4676008
-34.226524,2.531994,3.4764166
-34.2716,2.5306523,3.4855614
-34.31673,2.5294626,3.4950366
-34.35816,2.5315,3.5083642
-34.40337,2.530607,3.5184817
-34.44227,2.5349588,3.53473
-34.524055,2.5054312,3.5126386
-34.574135,2.501537,3.519918
-34.62627,2.496309,3.525878
-34.680492,2.4897628,3.5305524
-34.73552,2.4829156,3.535099
-34.79402,2.4737773,3.5372982
-34.85138,2.465856,3.5410876
-34.904877,2.4611251,3.5486488
-34.833427,2.5479662,3.6577964
-34.864586,2.559056,3.682889
-34.901752,2.5658152,3.7033086
-34.936073,2.5746436,3.726119
-34.97097,2.583086,3.7486162
-35.004353,2.5926018,3.7723937
-35.03761,2.6022139,3.796379
-35.072845,2.610478,3.819014
-35.1101,2.6174102,3.840332
-35.145836,2.6254148,3.8629293
-35.182903,2.6325774,3.8847494
-35.225655,2.6360648,3.902792
-35.26838,2.6396987,3.921153
-35.311066,2.64348,3.9398332
-35.358124,2.6445966,3.955881
-35.403713,2.6468167,3.9732733
-35.446327,2.6510587,3.9929533
-35.492622,2.6531339,4.010555
-35.54116,2.6539936,4.027093
-35.58293,2.6591623,4.0482583
-36.666363,2.0355732,3.4273396
-36.686554,2.0596426,3.4711409
-36.71021,2.0814657,3.512692
-36.72431,2.108743,3.5597782
-36.710205,2.1521802,3.6230364
-36.683014,2.202619,3.6930885
-36.686977,2.2345843,3.744574
-36.69593,2.2633877,3.7928743
-36.706802,2.2908368,3.83981
-36.719627,2.3169467,3.8854141
-36.736816,2.3404243,3.9284554
-36.74409,2.3691354,3.9765563
-36.707718,2.4211931,4.0469723
-36.71796,2.4475622,4.092616
-36.73991,2.4674785,4.132129
-36.741306,2.4981067,4.1817656
-36.827682,2.4840748,4.189601
-36.95596,2.448863,4.1782455
-37.044594,2.4348488,4.187167
-37.20181,2.386491,4.1651278
-37.310173,2.363851,4.1674037
-37.425526,2.3383846,4.1677437
-37.531277,2.3183854,4.173648
-37.665764,2.2849236,4.1681824
-37.79656,2.2541218,4.165864
-37.953083,2.2117548,4.154193
-38.046852,2.2003775,4.170405
-38.21034,2.1565099,4.15915
-38.350636,2.124585,4.159114
-38.491398,2.0933099,4.1604867
-38.666885,2.0469007,4.150009
-38.816387,2.0134883,4.1514645
-38.949104,1.9885767,4.160869
-39.134094,1.9409938,4.152565
-39.31627,1.895833,4.1474147
-39.518227,1.8430976,4.137373
-39.720028,1.7917084,4.129726
-39.874344,1.7621325,4.1405478
-40.10022,1.7027531,4.129203
-40.32777,1.6440873,4.119929
-40.54637,1.5906112,4.1161427
-40.78605,1.5296743,4.1082344
-41.003403,1.4794548,4.109936
-41.217823,1.4317384,4.114969
-41.525787,1.3472807,4.0948477
-41.7685,1.2910323,4.0971055
-42.01819,1.2334454,4.100128
-42.26406,1.1788452,4.107007
-42.59547,1.0921633,4.0935936
-42.959602,0.99480176,4.075369
-43.304024,0.9072666,4.066394
-43.653103,0.8200345,4.060174
-44.006832,0.73313904,4.056778
-44.41181,0.6291573,4.045164
-20.292324,1.0063739,2.78796
-20.432842,1.0327268,2.7819242
-20.65701,1.1028092,2.8182268
-20.78897,1.126833,2.811727
-20.946432,1.164962,2.8195071
-21.125832,1.2156949,2.8403482
-21.278694,1.2535915,2.8496623
-21.393333,1.2720163,2.8407025
-21.52436,1.299983,2.8417315
-21.65569,1.328958,2.8444376
-21.803085,1.367646,2.8575048
-21.911316,1.3855779,2.8505335
-22.041115,1.4162633,2.8569484
-22.159473,1.4413435,2.8583422
-22.289774,1.4740243,2.8680649
-22.389423,1.4899216,2.8612666
-22.514858,1.5214338,2.8710022
-22.628273,1.5467591,2.8749657
-22.727547,1.564455,2.8715568
-22.840088,1.5907176,2.877553
-22.938608,1.6092756,2.8760147
-23.053236,1.638294,2.8859477
-23.139782,1.6508353,2.8790064
-23.254955,1.6816895,2.8919
-23.321674,1.6829796,2.8738093
-23.392723,1.6873045,2.8592415
-23.430859,1.6709187,2.8226953
-23.417046,1.6209307,2.7499752
-23.404049,1.5707774,2.676897
-23.421257,1.5398076,2.6245227
-23.364132,1.4590938,2.5177898
-23.392006,1.3900526,2.404778
-23.265335,1.2587087,2.2412524
-23.305862,1.2405887,2.2024746
-23.325212,1.2076073,2.1472688
-23.349903,1.1780114,2.0958352
-23.304686,1.0983546,1.988337
-23.474018,1.1715803,2.0523434
-23.501617,1.0952234,1.9306021
-23.502369,1.0466318,1.857852
-23.511873,1.0038719,1.7916341
-23.46886,0.9208286,1.6793404
-33.419323,1.1863904,1.3569427
-33.404297,1.2828996,1.487225
-33.45227,1.2873518,1.5004444
-33.40934,1.4187176,1.674715
-33.4005,1.4994633,1.784575
-33.389317,1.5811772,1.895514
-33.400227,1.6312034,1.9662795
-33.43543,1.6480353,1.995132
-33.46688,1.669426,2.0297923
-33.504093,1.6830375,2.0547214
-33.526894,1.7146027,2.1022716
-33.60213,1.7393963,2.149405
-33.627277,1.7666306,2.1916409
-33.48246,2.2491808,2.8405142
-33.46851,2.3118722,2.926003
-33.48398,2.3411546,2.9701324
-33.510067,2.3584661,2.999515
-33.530754,2.381247,3.0356622
-33.525738,2.4305599,3.1043706
-33.53861,2.4603274,3.149044
-33.56149,2.4793077,3.1805172
-33.632957,2.4489121,3.151805
-33.654587,2.4691544,3.1849942
-33.675873,2.4894223,3.2182398
-33.69572,2.5107815,3.252833
-33.715763,2.5316277,3.2868228
-33.742683,2.5456026,3.3125367
-33.773872,2.5554047,3.3332806
-33.80435,2.5658123,3.3548265
-33.83581,2.575244,3.375276
-33.8729,2.5795135,3.3896284
-33.908195,2.5854619,3.4060912
-33.94752,2.5878623,3.4184284
-33.986244,2.590905,3.4316483
-34.024357,2.594585,3.4457407
-34.067833,2.593731,3.454588
-34.11378,2.5909607,3.461317
-34.157986,2.5898879,3.4702005
-34.20286,2.5884516,3.4788036
-34.253986,2.5820625,3.481763
-34.299652,2.5804372,3.490466
-34.342873,2.5809963,3.5018678
-34.395607,2.5741148,3.5047793
-34.44404,2.5709546,3.5121922
-34.49385,2.5669594,3.5188131
-34.545704,2.5616398,3.5240917
-34.59509,2.5585046,3.5320678
-34.6485,2.5525608,3.537013
-34.69941,2.5487964,3.5446439
-34.75839,2.5392885,3.5459347
-34.820915,2.5275443,3.5449252
-34.874943,2.5224197,3.5516462
-34.908787,2.5321574,3.575307
-34.85869,2.6018927,3.6663876
-34.88556,2.615972,3.6948771
-34.919117,2.6252785,3.718113
-34.948383,2.6375723,3.7447667
-34.98445,2.6451416,3.766273
-35.019012,2.6537776,3.789073
-35.052753,2.6629927,3.8126197
-35.090633,2.6694608,3.8332658
-35.129147,2.6755774,3.8536596
-35.172623,2.678522,3.8707438
-35.211014,2.6849003,3.8917055
-35.249332,2.6914032,3.9129372
-35.29122,2.6957045,3.9319425
-35.336746,2.6978323,3.9487834
-35.377094,2.7033525,3.9694128
-35.423317,2.7053323,3.9864426
-35.47103,2.706564,4.0028677
-35.521008,2.7066019,4.0182343
-35.56875,2.708188,4.035428
-35.611183,2.7131124,4.0562935
-36.713387,2.092411,3.4293547
-36.72722,2.120069,3.4770956
-36.692924,2.175363,3.5531693
-36.68867,2.2126398,3.6105561
-36.69005,2.246277,3.6641288
-36.699486,2.2750027,3.712655
-36.714752,2.3001935,3.7575927
-36.729637,2.325385,3.8025331
-36.732273,2.3570848,3.8539414
-36.735218,2.3882895,3.904786
-36.701775,2.438775,3.9745107
-36.699604,2.471904,4.02698
-36.7098,2.4981365,4.072648
-36.73092,2.5184188,4.1125484
-36.80773,2.509651,4.1246157
-36.76817,2.5611916,4.194588
-36.929092,2.5097861,4.1666837
-37.02101,2.4944367,4.1736507
-37.14287,2.4646177,4.167587
-37.25776,2.4390554,4.1661663
-37.354767,2.4230103,4.174171
-37.45537,2.4057665,4.181617
-37.59058,2.3723826,4.1749544
-37.7658,2.3207083,4.1525817
-37.899643,2.2898805,4.1499333
-38.0001,2.275594,4.1627717
-38.139847,2.2435408,4.1605234
-38.258762,2.2219787,4.1682854
-38.4259,2.1790304,4.158209
-38.570496,2.1473827,4.1588783
-38.706085,2.120666,4.164634
-38.892162,2.0722497,4.1528893
-39.1032,2.0140028,4.1340966
-39.2603,1.9807383,4.1373734
-39.452744,1.93308,4.12982
-39.644985,1.8867142,4.124561
-39.774696,1.8681725,4.1429467
-39.97241,1.8216201,4.13983
-40.17163,1.7756418,4.1384664
-40.40511,1.71667,4.128291
-40.641148,1.6580956,4.1199965
-40.84591,1.6137054,4.1241155
-41.081593,1.5580506,4.1211305
-41.409286,1.4670374,4.0934486
-41.630463,1.4202921,4.100611
-41.83872,1.3799047,4.113919
-42.094368,1.3222666,4.116313
-42.392323,1.2498324,4.110064
-42.726517,1.1653512,4.0975637
-43.062645,1.0821667,4.088383
-43.41798,0.9938004,4.078159
-43.817276,0.89124084,4.061104
-44.156456,0.8132229,4.063127
-44.557976,0.7144568,4.054298
-45.068188,0.578815,4.0251226
-19.909544,1.0114901,2.806026
-20.051277,1.0355191,2.7964678
-20.213284,1.07037,2.7979412
-20.407665,1.1223476,2.816659
-20.561802,1.1554494,2.8183184
-20.711288,1.1871729,2.8194752
-20.896053,1.2378774,2.8399086
-21.043488,1.2706103,2.8437529
-21.17744,1.2972779,2.8423996
-21.298866,1.3181989,2.8360476
-21.435123,1.3477118,2.8388758
-21.575642,1.3803856,2.8455753
-21.721935,1.417114,2.8570862
-21.828873,1.4333963,2.8486323
-21.952017,1.4592173,2.8504167
-22.08722,1.4925282,2.8604865
-22.22806,1.5299313,2.8754497
-22.309284,1.5346239,2.8572812
-22.412775,1.552417,2.8530965
-22.543581,1.5865812,2.866507
-22.629423,1.5955348,2.8540964
-22.779737,1.6427913,2.8824682
-22.877728,1.6602271,2.8799949
-22.983662,1.6830258,2.8836808
-23.07867,1.6999414,2.8815727
-23.166634,1.713162,2.875928
-23.281021,1.7431638,2.8887668
-23.3528,1.7475479,2.874404
-23.411251,1.7439263,2.851636
-23.448553,1.727118,2.814694
-23.425869,1.6719167,2.7357821
-23.40049,1.6141772,2.653852
-23.430603,1.5917387,2.6106715
-22.52994,0.95693207,1.888669
-22.554056,0.92421436,1.8316555
-23.258638,1.3022282,2.2146773
-23.280388,1.2712288,2.1613874
-23.311634,1.2464533,2.115129
-23.328144,1.1158738,1.9125628
-23.462082,1.1634367,1.9490571
-23.50318,1.0960453,1.8367534
-23.47355,1.0245733,1.7369838
-23.49976,0.9936907,1.683948
-23.44936,0.90454984,1.5632715
-33.41851,1.2279675,1.3391318
-33.41488,1.3074718,1.4488583
-33.388916,1.4161038,1.5958834
-33.411217,1.4548211,1.6529775
-33.40977,1.52494,1.7503114
-33.430763,1.5630355,1.8065538
-33.39743,1.6720693,1.9534554
-33.43045,1.6916184,1.9858966
-33.456203,1.7201324,2.029819
-33.492844,1.7342343,2.0554223
-33.52659,1.7517436,2.0854301
-33.550606,1.7809343,2.130322
-33.58864,1.7924845,2.1528778
-33.624653,1.8063283,2.178419
-33.664623,1.815309,2.1978912
-33.497,2.265984,2.8050861
-33.463306,2.3499777,2.9180822
-33.49124,2.3655672,2.9454184
-33.50372,2.3973956,2.9930463
-33.53405,2.4098253,3.0165153
-33.523865,2.4641976,3.0921383
-33.54192,2.4884408,3.1302824
-33.51633,2.556493,3.2226372
-33.593792,2.519896,3.1855545
-33.658012,2.4974332,3.1661882
-33.679317,2.5176215,3.1995173
-33.698093,2.5399487,3.2354965
-33.718143,2.5607078,3.269566
-33.74285,2.5767539,3.2978926
-33.77067,2.5896986,3.3224783
-33.801685,2.5995667,3.3433762
-33.831413,2.6105561,3.3657112
-33.867886,2.6153767,3.3806386
-33.909542,2.6156385,3.3901558
-33.945957,2.6206868,3.4055772
-33.977585,2.6299665,3.4261942
-34.02516,2.6254513,3.430328
-34.06145,2.6308377,3.4464817
-34.101917,2.632755,3.4585948
-34.147873,2.6302176,3.4655242
-34.16994,2.647639,3.496335
-34.197304,2.6605396,3.5218196
-34.236942,2.6634111,3.5355048
-34.263996,2.6764674,3.561326
-34.336437,2.6534898,3.5448217
-34.36342,2.666785,3.5711632
-34.39983,2.6726708,3.5888963
-34.461395,2.6593082,3.5842881
-34.542774,2.6313426,3.5629363
-34.58929,2.630344,3.5732021
-34.628597,2.6349123,3.5900679
-34.74562,2.5823157,3.5411682
-34.79739,2.5785506,3.5489163
-34.826374,2.5915053,3.5760098
-34.9209,2.5575366,3.5495973
-34.85102,2.6407971,3.6570258
-34.877155,2.6553206,3.6860294
-34.909977,2.6651106,3.7097416
-34.94822,2.6711738,3.7293525
-34.98499,2.6783102,3.7502937
-35.020267,2.6865077,3.7725444
-35.05331,2.696229,3.7966037
-35.088356,2.7046347,3.819304
-35.12687,2.7108054,3.8396444
-35.16603,2.7166333,3.8597403
-35.199333,2.7263072,3.8841953
-35.240505,2.7309895,3.9032965
-35.2809,2.7362714,3.9232025
-35.32197,2.7412302,3.942904
-35.368908,2.7426715,3.9589567
-35.412136,2.7465587,3.9778275
-35.45757,2.7492373,3.9955683
-35.50224,2.7525303,4.0141454
-35.555946,2.7505884,4.0273385
-35.603645,2.7524328,4.0447636
-35.652107,2.7540076,4.0620995
-36.677776,2.1901822,3.4875336
-36.684,2.221572,3.5391817
-36.685085,2.2555492,3.5934582
-36.69963,2.2815733,3.639441
-36.709095,2.310206,3.6880965
-36.726746,2.3340392,3.7318144
-36.729847,2.3656533,3.783453
-36.730083,2.3984942,3.8362613
-36.70118,2.446652,3.904376
-36.700275,2.479267,3.9566932
-36.714916,2.5033348,4.000423
-36.726772,2.528669,4.0454073
-36.7342,2.5560882,4.092425
-36.735527,2.5863938,4.142222
-36.756783,2.6062584,4.1818113
-36.84409,2.592708,4.1892266
-36.992477,2.5491314,4.168337
-37.09121,2.531186,4.1726885
-37.21925,2.4994462,4.1645336
-37.320347,2.4816444,4.1701913
-37.443447,2.4538324,4.167072
-37.566154,2.4269834,4.1655445
-37.687607,2.401492,4.165966
-37.857582,2.3539891,4.147004
-37.958813,2.3395772,4.1590157
-38.096836,2.308777,4.1568785
-38.241302,2.2758908,4.1536975
-38.395683,2.239419,4.1482115
-38.530857,2.2125244,4.152054
-38.662125,2.1881666,4.158912
-38.85774,2.136253,4.1428185
-38.99252,2.112135,4.1516867
-39.178997,2.0664492,4.143129
-39.346054,2.0302484,4.1437
-39.515373,1.9940912,4.1453605
-39.757225,1.928446,4.1238604
-39.912785,1.900313,4.1344657
-40.101418,1.8594081,4.1357775
-40.359726,1.7911221,4.116506
-40.560314,1.7478676,4.1186905
-40.822075,1.6812282,4.1039844
-41.031113,1.6372011,4.108471
-41.284622,1.5768578,4.101947
-41.535324,1.5191472,4.0991406
-41.80658,1.4549766,4.093268
-42.047047,1.4042499,4.0991406
-42.297188,1.3512418,4.105039
-42.63148,1.2679982,4.0911283
-42.926765,1.2013323,4.0912814
-43.31314,1.1027327,4.0714245
-43.697056,1.0073805,4.0566187
-44.06103,0.92156863,4.0510616
-44.430603,0.8358977,4.048297
-44.844414,0.736645,4.039455
-45.34883,0.6078825,4.014862
-19.587547,1.0145841,2.7774596
-19.763832,1.0524986,2.7803922
-20.001234,1.1207104,2.8132448
-20.144424,1.145165,2.8053617
-20.314512,1.1835492,2.8117275
-20.457558,1.2097497,2.8071465
-20.70777,1.2899103,2.8562393
-20.801178,1.2935169,2.8311892
-20.923014,1.3119004,2.8212595
-21.10051,1.359333,2.840962
-21.239204,1.3880544,2.8428125
-21.36451,1.410711,2.8392487
-21.524658,1.4523757,2.855629
-21.617847,1.4597714,2.8378272
-21.739471,1.4828019,2.836524
-21.878067,1.5157259,2.8460383
-22.031025,1.5573928,2.865323
-22.119755,1.5649397,2.8497834
-22.274622,1.6095471,2.87351
-22.467512,1.6765418,2.921608
-22.540981,1.6777616,2.9010506
-22.612076,1.6779525,2.8797135
-22.707611,1.6924856,2.874003
-22.816557,1.7153647,2.8776898
-22.922031,1.7369354,2.8804703
-23.021053,1.7553885,2.880361
-23.112206,1.7697823,2.8762832
-23.241863,1.8079205,2.8985505
-23.299543,1.8033025,2.8745203
-23.387527,1.8174706,2.8714037
-23.425272,1.801049,2.8348327
-23.417965,1.7563934,2.767014
-23.307507,1.645989,2.625762
-23.43734,1.6869676,2.653222
-23.415543,1.6313705,2.5727997
-22.506868,0.998276,1.8410935
-22.52189,0.959574,1.777
-22.502241,0.89743304,1.6862535
-23.33281,1.403646,2.242916
-23.305286,1.3399539,2.1521912
-23.301035,1.2911677,2.0783167
-23.32444,1.213728,1.953434
-23.31226,1.1574616,1.8705935
-23.485996,1.0866168,1.7184391
-23.482496,1.0339704,1.6395783
-23.494286,0.99195194,1.5731282
-23.452862,0.90914726,1.458364
-33.40819,1.292732,1.3426285
-33.444252,1.315139,1.379128
-33.399277,1.4497683,1.5617847
-33.387486,1.535034,1.6799498
-33.40209,1.5823224,1.7486424
-33.387413,1.6673014,1.8661861
-33.405376,1.7072384,1.9252253
-33.413177,1.7593176,1.9999552
-33.44689,1.7771325,2.0303636
-33.46537,1.8137293,2.0850592
-33.502293,1.8266954,2.1093054
-33.552498,1.8233037,2.1125846
-33.6019,1.8211594,2.1176028
-33.617302,1.8595555,2.1747499
-33.64924,1.8777752,2.206037
-33.476067,2.3289254,2.8207107
-33.445488,2.4084256,2.9292765
-33.48978,2.4062204,2.934163
-33.505226,2.4346278,2.97787
-33.534004,2.4486263,3.003388
-33.559967,2.4653463,3.0323877
-33.545387,2.5229702,3.1128573
-33.53027,2.5799024,3.1923094
-33.53809,2.6129153,3.2416506
-33.617413,2.5753274,3.2026916
-33.67305,2.561698,3.1939254
-33.69556,2.5802212,3.2253852
-33.71665,2.5998209,3.2582135
-33.74131,2.6157987,3.286573
-33.76909,2.628705,3.311173
-33.79836,2.6401184,3.3339844
-33.829174,2.6500509,3.3550367
-33.859844,2.660061,3.3762574
-33.891525,2.6691213,3.3963847
-33.927773,2.6741674,3.411676
-33.967518,2.676257,3.4234567
-34.00547,2.679998,3.4373698
-34.044598,2.682841,3.4503002
-34.100685,2.6716387,3.4463139
-34.13075,2.6823354,3.4690228
-34.15819,2.6951187,3.4943218
-34.210247,2.687915,3.4956217
-34.243103,2.6963902,3.5159297
-34.312355,2.6760714,3.501844
-34.351585,2.6798575,3.516821
-34.406113,2.6718936,3.517922
-34.461468,2.6636388,3.5188756
-34.50924,2.6614885,3.5272646
-34.564922,2.6536293,3.5290751
-34.600426,2.6611094,3.549159
-34.6484,2.659452,3.5586185
-34.689117,2.6632957,3.5746856
-34.73383,2.6643734,3.587657
-34.769115,2.672342,3.6088014
-34.823303,2.6669884,3.6145945
-34.845528,2.6842918,3.6467934
-34.87435,2.6968722,3.6735873
-34.903683,2.7090507,3.6999922
-34.935616,2.7194147,3.7243972
-34.966705,2.730338,3.7495313
-34.999043,2.7404094,3.7737837
-35.033367,2.7491708,3.7966485
-35.06686,2.7585008,3.82026
-35.103096,2.7660756,3.842001
-35.139954,2.773302,3.86347
-35.181793,2.7774286,3.8816
-35.22287,2.7821546,3.9005485
-35.263897,2.78702,3.9197989
-35.314457,2.7861228,3.9328375
-35.355434,2.7912924,3.952746
-35.401573,2.7934487,3.9695067
-35.45669,2.7903929,3.9807644
-35.496094,2.7969232,4.0026584
-35.53996,2.800919,4.0219564
-35.58759,2.8028584,4.0392113
-35.636745,2.804091,4.0559015
-36.668346,2.2441447,3.474578
-36.685257,2.269232,3.5197873
-36.69404,2.2986703,3.5695963
-36.714813,2.3211505,3.6120539
-36.724297,2.3496869,3.660874
-36.716835,2.3871927,3.7189918
-36.69773,2.4305534,3.7830362
-36.69459,2.4648237,3.8375206
-36.70047,2.4939313,3.8866138
-36.713905,2.5187898,3.9313278
-36.729366,2.542389,3.9747586
-36.733173,2.5718217,4.024074
-36.73329,2.6028583,4.0749326
-36.73944,2.6305275,4.122356
-36.768856,2.646266,4.1579304
-36.76113,2.6804433,4.21173
-36.922516,2.6309104,4.183608
-37.05991,2.5942519,4.168898
-37.18297,2.5654604,4.1625443
-37.296505,2.5420265,4.162006
-37.412106,2.5183132,4.1618285
-37.469337,2.5227847,4.1889257
-37.619186,2.484253,4.175955
-37.767956,2.4472046,4.1652336
-37.911373,2.4135733,4.1585364
-38.06043,2.3782904,4.151159
-38.199783,2.348315,4.1494904
-38.278732,2.3461134,4.173719
-38.473854,2.292966,4.152744
-38.630077,2.2581239,4.1492214
-38.748734,2.2405326,4.161836
-38.890236,2.2137773,4.167147
-39.101856,2.158002,4.148209
-39.30468,2.1073003,4.1349525
-39.487194,2.0663643,4.1312714
-39.674698,2.0244746,4.1279364
-39.855743,1.986372,4.1289473
-40.012554,1.9591982,4.1401186
-40.21233,1.9156024,4.138887
