x,y,z
-30.897503,3.4476597,2.7471704
-30.936224,3.4299872,2.7148018
-30.973915,3.4171016,2.6913948
-31.005527,3.4234617,2.7039108
-31.037323,3.428967,2.7148557
-31.07137,3.428028,2.7138119
-31.107916,3.420664,2.700818
-31.140333,3.4245625,2.708846
-31.177916,3.415537,2.6928177
-31.211899,3.4159007,2.694314
-31.245106,3.4182086,2.6994596
-31.26905,3.4414382,2.7435937
-31.300661,3.4466677,2.7542253
-31.344109,3.4265704,2.7177315
-31.384094,3.4149177,2.6969972
-31.418003,3.4162884,2.7005353
-31.449324,3.422811,2.713686
-31.475454,3.43906,2.7449517
-31.51083,3.43746,2.74304
-31.543505,3.440999,2.7507129
-31.58777,3.4240284,2.7202902
-31.629074,3.4131422,2.7012181
-31.657444,3.4247422,2.7239623
-31.687212,3.4336698,2.7417607
-31.728653,3.423561,2.7242336
-31.764635,3.4226646,2.7238483
-31.797155,3.4273095,2.7337775
-31.832901,3.4270587,2.7346487
-31.865643,3.4314253,2.7441163
-31.90237,3.4300127,2.7428946
-31.94458,3.4210505,2.7277122
-31.988361,3.4104242,2.7094865
-32.027534,3.4066684,2.704033
-32.06083,3.411088,2.7137566
-32.086235,3.425871,2.7426949
-32.117546,3.432673,2.756876
-32.157887,3.4279792,2.7498145
-32.201626,3.4194124,2.7356296
-32.25291,3.4021215,2.7053614
-32.27923,3.4155293,2.731883
-32.304134,3.4303117,2.76096
-32.340897,3.4310453,2.7641082
-32.392765,3.4147477,2.7358522
-32.44746,3.3960037,2.7031422
-32.48005,3.4023876,2.7168417
-32.50488,3.4171443,2.746005
-32.546154,3.4140968,2.7423706
-32.58467,3.4142175,2.7446146
-32.6476,3.3893278,2.7008452
-32.676357,3.400109,2.7228055
-32.707066,3.4087987,2.7409377
-32.742855,3.4124026,2.7497435
-32.806465,3.3890963,2.7091227
-32.8533,3.3827097,2.6996646
-32.897198,3.3794641,2.6960273
-32.916508,3.3993247,2.73484
-32.95069,3.405204,2.7480125
-33.014355,3.3845322,2.7125387
-33.056324,3.3839238,2.7139096
-33.103664,3.3788216,2.7070947
-33.12744,3.3944194,2.7382236
-33.1563,3.405457,2.7610216
-33.20281,3.401557,2.7565312
-33.282085,3.3708112,2.7030377
-33.299416,3.3917403,2.7440257
-33.321934,3.408132,2.7767339
-33.349293,3.42044,2.8020039
-33.408806,3.4073753,2.7810407
-33.4814,3.3847232,2.7426882
-33.528023,3.3827326,2.742055
-33.560806,3.391456,2.7609687
-33.596176,3.39824,2.7763853
-33.656677,3.3865712,2.758306
-33.72366,3.3707094,2.7326956
-33.745354,3.3879442,2.7672315
-33.79488,3.3852556,2.7656503
-33.848553,3.379956,2.7593985
-33.897297,3.3784127,2.7600179
-33.95023,3.3742745,2.756001
-33.967777,3.3943024,2.7957444
-34.013756,3.395149,2.800836
-34.1061,3.3657231,2.7513375
-34.134674,3.3786511,2.778377
-34.163635,3.3912554,2.8048553
-34.220963,3.385808,2.7988505
-34.27792,3.3809571,2.7939968
-34.330788,3.3789911,2.794407
-34.358295,3.3928225,2.8232632
-34.405636,3.3945808,2.8304734
-34.44483,3.401406,2.84683
-34.50562,3.3955717,2.8405519
-34.556404,3.3959548,2.845489
-34.58339,3.4103,2.8754592
-34.634857,3.410608,2.880375
-34.729042,3.387101,2.8428597
-34.786972,3.3845768,2.8429093
-34.841095,3.3844626,2.8473353
-34.901367,3.381267,2.8463545
-34.97397,3.371777,2.8342743
-35.030655,3.3712327,2.838192
-35.08065,3.3744855,2.8489265
-35.167114,3.3589854,2.8265057
-35.19462,3.374408,2.858953
-35.24553,3.3778663,2.8702755
-35.315395,3.3720067,2.8652167
-35.395405,3.3615246,2.852119
-35.42547,3.3760898,2.8832755
-35.504524,3.3668308,2.8725457
-35.5739,3.362719,2.8709936
-35.618248,3.3708742,2.8910828
-35.671974,3.3747444,2.9037218
-35.78562,3.3510191,2.8681412
-35.82582,3.3618355,2.8931513
-35.896915,3.3587012,2.893859
-36.00313,3.3401887,2.8678808
-36.044983,3.3509638,2.8930855
-36.102486,3.354955,2.9065537
-36.198532,3.3424594,2.8914976
-36.249508,3.349907,2.9111843
-36.28443,3.3643286,2.943019
-36.438763,3.3286798,2.8883824
-36.45155,3.3528721,2.9372964
-36.50495,3.3602135,2.9571786
-36.62371,3.3412342,2.9318886
-36.669563,3.3522666,2.9583569
-36.79547,3.3316681,2.9306884
-36.858864,3.3364031,2.946619
-36.924683,3.3404596,2.9615035
-37.071075,3.3139172,2.924345
-37.106155,3.3305302,2.9609318
-37.20777,3.3222258,2.955246
-37.267735,3.329928,2.976901
-37.35203,3.3289392,2.9839625
-37.460976,3.3194485,2.9768367
-37.53757,3.3221593,2.9905028
-37.653736,3.3112175,2.9813647
-37.715015,3.320144,3.0058165
-37.835125,3.308949,2.9966946
-37.924038,3.309104,3.0068016
-38.019814,3.3073757,3.013959
-38.11413,3.3066206,3.022941
-38.179996,3.3157248,3.0484867
-38.323643,3.2997012,3.0325775
-38.36172,3.3185565,3.0745916
-38.518852,3.2995067,3.0542445
-38.58851,3.308931,3.0810518
-38.73883,3.2935185,3.067318
-38.834553,3.2957582,3.0827942
-38.96154,3.2889507,3.0837526
-39.048965,3.294701,3.105425
-39.15908,3.2941055,3.1170187
-39.327076,3.2770975,3.1023746
-39.359764,3.3002133,3.1527767
-39.494156,3.2942383,3.1565313
-39.66594,3.2784069,3.1448617
-39.785164,3.2782004,3.158574
-39.91436,3.2758353,3.1691656
-40.042915,3.2742991,3.1814108
-40.14758,3.2798293,3.205154
-40.211983,3.2965226,3.2467284
-52.192417,1.1125154,0.27538586
-52.264015,1.1649745,0.3920989
-52.29747,1.2256732,0.5210142
-52.25316,1.3026268,0.67356205
-52.238586,1.3727756,0.8160267
-52.36222,1.4141674,0.91709995
-52.270256,1.4995058,1.081171
-52.24398,1.5708935,1.2250481
-52.25921,1.6336708,1.3566298
-52.239304,1.7030036,1.4973259
-52.2516,1.7657921,1.628788
-52.265793,1.8279941,1.7594042
-52.353527,1.87644,1.8712406
-52.332504,1.9448249,2.0103064
-52.348747,2.0061562,2.1397429
-52.33335,2.072858,2.2762928
-53.73246,1.8949928,2.0910196
-54.449486,1.8406711,2.0727892
-52.31093,2.26687,2.6771193
-52.34562,2.324025,2.8008995
-52.37754,2.3815768,2.9252577
-52.409576,2.4390488,3.0495844
-52.448544,2.495389,3.1725874
-52.489597,2.5513961,3.2952957
-52.546394,2.605047,3.4153018
-52.75158,2.6369336,3.5097837
-53.12626,2.6452408,3.5777826
-53.59482,2.642091,3.634533
-54.141907,2.6303859,3.6840625
-54.57177,2.6374474,3.757288
-6.6846943,2.4124467,2.8224425
-7.176443,2.4225788,2.784378
-7.8060207,2.4568734,2.7804747
-8.460661,2.4984806,2.7889857
-8.998398,2.5245318,2.7790637
-9.645035,2.5714235,2.799798
-10.190422,2.604715,2.8042984
-10.658989,2.627737,2.7966032
-11.071205,2.643404,2.780353
-12.933872,2.716642,2.7132907
-11.59001,2.2975783,2.0008454
-12.806047,2.4858572,2.249745
-12.826429,2.4377034,2.1477604
-12.8438015,2.3887825,2.0446234
-12.866596,2.3408318,1.9429517
-12.95529,2.2538147,1.7532644
-9.0352745,1.3422453,0.32107162
-13.034468,2.164626,1.560525
-13.044113,2.1132123,1.45364
-13.038002,2.0579543,1.340714
-13.04105,2.0044672,1.2304802
-13.161297,1.9781873,1.1630497
-13.089022,1.9065504,1.0241704
-13.007093,1.8317897,0.8800483
-13.022825,1.7800255,0.77227545
-13.046627,1.730016,0.66728735
-13.057659,1.676605,0.5568361
-13.056046,1.6196909,0.44070292
-23.500265,3.239408,2.6358857
-23.808447,3.2450945,2.6192808
-23.86043,3.2366416,2.5978942
-24.259651,3.3807175,2.8478217
-24.323147,3.3794332,2.8396835
-24.388723,3.3793838,2.8338408
-24.45195,3.37859,2.8267674
-24.541265,3.39008,2.8417382
-23.995642,3.1072843,2.3302994
-23.846544,3.004591,2.1403995
-23.87739,2.9853792,2.0998917
-23.870838,2.9481096,2.026988
-24.709484,3.3211226,2.6914616
-24.754822,3.3130581,2.6718097
-24.805105,3.3075728,2.6568575
-24.84705,3.29807,2.6347237
-24.925642,3.3072948,2.6464405
-24.994947,3.3122516,2.6505594
-25.081684,3.3266926,2.671929
-25.129362,3.3211906,2.6573224
-25.18779,3.3215742,2.6534376
-25.235392,3.3164172,2.6395802
-25.318771,3.3309312,2.6614895
-25.420073,3.3559506,2.7026086
-25.431732,3.3318026,2.654457
-25.478912,3.327415,2.6422668
-25.53831,3.330176,2.6431556
-25.61477,3.343138,2.6627197
-25.655865,3.3359823,2.6456752
-25.72788,3.347227,2.662281
-25.810112,3.3651226,2.6911402
-25.908514,3.393511,2.7393084
-25.980827,3.406831,2.7600298
-25.92075,3.338499,2.6312485
-25.621153,3.1181757,2.2236514
-25.617985,3.081342,2.1522021
-25.626364,3.0513117,2.0932088
-25.634201,3.0204587,2.0326872
-25.63684,2.98568,1.9649291
-25.636757,2.948488,1.8927021
-25.6375,2.9111977,1.8202634
-25.644218,2.8773375,1.7541122
-25.63922,2.8347654,1.6718783
-25.667175,2.814548,1.6308484
-25.686626,2.7880383,1.5782142
-25.687897,2.7480178,1.5006194
-25.53231,2.5926828,1.2098393
-26.81141,3.4950302,2.8750415
-26.841684,3.485287,2.8542986
-26.855139,3.4627275,2.8098469
-26.900068,3.4640021,2.8095512
-26.942791,3.463802,2.8065681
-27.003956,3.4783854,2.8310494
-27.053951,3.4846277,2.8401232
-27.076468,3.4689324,2.808516
-27.112272,3.4639509,2.796822
-27.159964,3.468959,2.8037295
-27.215248,3.4807413,2.823285
-27.251791,3.476972,2.8139653
-27.281662,3.4674864,2.7940364
-27.310276,3.4568212,2.7719316
-27.342354,3.449147,2.7554207
-27.38654,3.4524584,2.7594142
-27.456541,3.4798858,2.8084297
-27.496025,3.4797535,2.8061032
-27.537659,3.4818554,2.8079839
-27.573887,3.4789999,2.8006449
-27.60317,3.469445,2.7808213
-27.62663,3.4539905,2.749989
-27.666908,3.45524,2.7504044
-27.715008,3.4647524,2.7663136
-27.759493,3.4709926,2.7761455
-27.800495,3.473932,2.7798438
-27.82333,3.4575777,2.7474437
-27.854418,3.4499104,2.731329
-27.896147,3.4540262,2.7373214
-27.946909,3.4687028,2.7631521
-27.985504,3.470052,2.7640386
-28.017673,3.4640954,2.7512503
-28.040768,3.4472826,2.718111
-28.085892,3.456811,2.7344365
-28.13177,3.4678042,2.7535572
-28.17695,3.478509,2.7721772
-28.211138,3.475686,2.76542
-28.239258,3.4649992,2.7439055
-28.269594,3.4570303,2.7275205
-28.307913,3.4597838,2.7313232
-28.358288,3.479543,2.7671537
-28.399906,3.487896,2.7815685
-28.431368,3.4821017,2.7693872
-28.455353,3.4652116,2.7363367
-28.490429,3.4644809,2.7337317
-28.531593,3.4732642,2.7490792
-28.572477,3.4821749,2.7647028
-28.607769,3.4826617,2.7644844
-28.63862,3.4760363,2.750884
-28.666384,3.4640694,2.7272325
-28.699917,3.4616554,2.7216148
-28.733727,3.4597816,2.7170434
-28.779297,3.4793062,2.7528744
-28.814547,3.4808192,2.7547536
-28.845188,3.4737923,2.7405376
-28.874117,3.4631975,2.719606
-28.908491,3.4631517,2.7186136
-28.946352,3.4705002,2.7316155
-28.979696,3.4688199,2.7275896
-29.017218,3.4763765,2.7410426
-29.047623,3.4684691,2.7252998
-29.079185,3.4629273,2.7140489
-29.112953,3.4625125,2.7125125
-29.149834,3.469999,2.7259398
-29.187023,3.4789698,2.7422042
-29.222912,3.4852853,2.7534752
-29.254452,3.4801795,2.7431693
-29.283693,3.468233,2.719945
-29.31569,3.46374,2.7108412
-29.349998,3.4662592,2.7150278
-29.386347,3.4758065,2.732542
-29.42174,3.4831424,2.7458973
-29.45484,3.483165,2.7454371
-29.482594,3.4633455,2.7074351
-29.514849,3.4593532,2.699417
-29.547749,3.4577634,2.69597
-29.584154,3.4715815,2.721724
-29.616299,3.467382,2.7133832
-29.64835,3.4623337,2.7034574
-29.678772,3.4480639,2.6760874
-29.711016,3.4422426,2.6647396
-29.7458,3.451398,2.6817865
-29.778124,3.445745,2.670804
-29.81341,3.4611373,2.6997156
-29.845844,3.456586,2.6908684
-29.878387,3.4521177,2.6821995
-29.91068,3.444002,2.6666422
-29.943527,3.4401646,2.6592145
-29.977013,3.4443412,2.6669955
-30.011219,3.463534,2.7032566
-30.044235,3.466953,2.7096486
-30.0768,3.4583237,2.6932335
-30.109678,3.4553776,2.6876106
-30.142607,3.445049,2.6680207
-30.175701,3.4455392,2.6689558
-30.208378,3.463848,2.703682
-30.24126,3.4631066,2.7023296
-30.273869,3.4685163,2.7126555
-30.307236,3.459546,2.695757
-30.340422,3.456261,2.6896534
-30.37378,3.4521296,2.6819696
-30.406967,3.4508822,2.6797752
-30.438751,3.4623048,2.7016106
-30.471552,3.463555,2.704193
-30.505053,3.4597657,2.6972523
-30.54003,3.447218,2.6737428
-30.573862,3.443608,2.6671915
-30.607382,3.442414,2.6652393
-30.637878,3.4571166,2.6934204
-30.667233,3.4756083,2.7287974
-30.705025,3.4537551,2.687789
-30.740475,3.444547,2.670755
-30.775152,3.4396114,2.6618395
-30.808167,3.4417243,2.6662927
-30.838102,3.4550407,2.691979
-30.871428,3.4554622,2.6932755
-30.91365,3.4263628,2.638722
-30.94593,3.431604,2.6491928
-30.980816,3.428611,2.644106
-31.010933,3.4400187,2.6662908
-31.044527,3.4408906,2.6685638
-31.074402,3.4519837,2.6901941
-31.112774,3.4401357,2.668456
-31.15275,3.4251816,2.6408768
-31.187342,3.4245865,2.6404786
-31.220627,3.4272947,2.6463509
-31.249687,3.4397132,2.6705995
-31.285229,3.4370885,2.666438
-31.321503,3.4331903,2.6598969
-31.35748,3.4303062,2.6553016
-31.390219,3.434364,2.663845
-31.42747,3.429394,2.6553636
-31.450308,3.452737,2.700367
-31.487522,3.4479427,2.6922665
-31.520452,3.4514222,2.6998105
-31.568005,3.4287095,2.657958
-31.6092,3.418372,2.6394954
-31.639585,3.4271338,2.6570902
-31.668161,3.4386716,2.6799402
-31.705883,3.4349601,2.6740594
-31.736685,3.4425974,2.689599
-31.783768,3.424723,2.6570888
-31.821363,3.4222414,2.6536207
-31.856369,3.4238954,2.6579719
-31.886486,3.432789,2.6759796
-31.918917,3.4381855,2.6874251
-31.956654,3.4360988,2.684813
-32.00355,3.4216852,2.659042
-32.03936,3.4229448,2.6627927
-32.069492,3.4318247,2.6808996
-32.100815,3.439008,2.695836
-32.13824,3.438334,2.6960325
-32.18701,3.423694,2.6700253
-32.23944,3.4052696,2.6369615
-32.267685,3.4168143,2.6602073
-32.294212,3.4301655,2.686861
-32.339203,3.4217632,2.6727223
-32.376102,3.423081,2.6768527
-32.425777,3.4101763,2.654355
-32.45978,3.4152012,2.6655045
-32.491337,3.4229083,2.681705
-32.52558,3.4276743,2.6924205
-32.569992,3.42178,2.68321
-32.629955,3.400158,2.6446137
-32.685932,3.3834662,2.6153064
-32.71135,3.3981361,2.6446915
-32.74034,3.409018,2.6670108
-32.795753,3.3940625,2.6410847
-32.8587,3.3725312,2.602941
-32.882004,3.389249,2.6362562
-32.91084,3.4005246,2.659429
-32.95505,3.3975818,2.6561084
-33.000813,3.3935251,2.650753
-33.05145,3.3854413,2.6379433
-33.08814,3.3900259,2.6487746
-33.114227,3.4038475,2.6768293
-33.14636,3.4123352,2.6949778
-33.19553,3.4064589,2.6864438
-33.26528,3.3838825,2.6469254
-33.3011,3.38988,2.6605678
-33.323685,3.4066067,2.6941566
-33.356678,3.414805,2.7119322
-33.420067,3.399121,2.6854463
-33.48813,3.3804402,2.6534834
-33.517193,3.3922896,2.678155
-33.54764,3.402996,2.7007308
-33.593513,3.402151,2.7019582
-33.681335,3.370703,2.6466465
-33.708645,3.3841991,2.6745057
-33.736263,3.3973522,2.7017498
-33.792686,3.390015,2.691194
-33.834183,3.3935125,2.7006898
-33.91038,3.373211,2.666359
-33.943027,3.383308,2.6881237
-33.972054,3.395823,2.7143664
-34.02479,3.392502,2.7114987
-34.09067,3.3808687,2.6934137
-34.124313,3.390653,2.7147555
-34.167393,3.3943932,2.7250314
-34.21833,3.393308,2.726503
-34.280354,3.3855581,2.715817
-34.343914,3.3772852,2.7042532
-34.368256,3.3933833,2.737372
-34.422195,3.3915017,2.737626
-34.45622,3.4017746,2.7601547
-34.519814,3.394646,2.7509437
-34.566513,3.3977656,2.7605119
-34.58566,3.4169042,2.7993307
-34.676186,3.3952918,2.7639422
-34.753716,3.3817396,2.743353
-34.791058,3.391065,2.7644653
-34.86593,3.3798513,2.7483091
-34.96049,3.3584845,2.7138362
-34.972713,3.382012,2.7608957
-35.04176,3.3751652,2.752934
-35.12061,3.3636153,2.736559
-35.18349,3.3608732,2.7362208
-35.21427,3.3749065,2.7662654
-35.27873,3.37186,2.765524
-35.377518,3.3519955,2.7345629
-35.405483,3.3678973,2.768148
-35.44517,3.3779984,2.7913232
-35.53298,3.364905,2.7728767
-35.607704,3.3586595,2.7668552
-35.618835,3.382903,2.8155951
-35.72771,3.3612406,2.7821379
-35.81331,3.3511264,2.7695131
-35.87081,3.35438,2.7809
-35.946754,3.3495514,2.7779517
-36.02297,3.34503,2.775669
-36.071213,3.3532782,2.796229
-36.138084,3.3535402,2.80266
-36.234398,3.341423,2.7872214
-36.275288,3.3535573,2.8149328
-36.39726,3.3315558,2.78227
-36.429897,3.347652,2.8171697
-36.48684,3.3537111,2.834385
-36.576942,3.3464646,2.8282328
-36.64492,3.348655,2.8388448
-36.71846,3.3489406,2.8462186
-36.832848,3.3334885,2.826099
-36.892746,3.339983,2.8446417
-37.019802,3.3208387,2.8184295
-37.06654,3.3330946,2.8472958
-37.157806,3.328696,2.84719
-37.26698,3.3181245,2.836506
-37.30416,3.3346791,2.8731642
-37.45833,3.3087099,2.8361044
-37.50451,3.32257,2.8683228
-37.610878,3.3151362,2.8638034
-37.696316,3.3156483,2.873198
-37.757248,3.3250854,2.8981204
-37.90156,3.306119,2.8743324
-37.93787,3.324674,2.9151993
-38.101334,3.3006077,2.8831582
-38.155197,3.3138783,2.9152446
-38.30883,3.2946234,2.8919792
-38.347656,3.3134494,2.9338164
-38.493675,3.298024,2.9175782
-38.561275,3.3082328,2.9450655
-38.71834,3.2907503,2.9258966
-38.79559,3.2988157,2.950139
-38.940697,3.2865095,2.9402819
-39.01648,3.2958994,2.9671407
-39.14328,3.290409,2.9692578
-39.292114,3.2791095,2.9619656
-39.37435,3.2879722,2.9885736
-39.439983,3.3019404,3.0238285
-39.653706,3.2741725,2.9901352
-39.733665,3.2850947,3.0208263
-39.903625,3.2714636,3.011283
-40.044895,3.266602,3.0165472
-40.116302,3.2812977,3.0541453
-40.227695,3.2856102,3.074966
-52.258972,1.2947197,0.33655405
-52.290527,1.3556924,0.4660778
-52.28647,1.4238153,0.60638666
-52.302002,1.4876056,0.74010706
-52.260998,1.5624156,0.8901992
-52.23764,1.6331849,1.03408
-52.253822,1.6958537,1.1658783
-52.34391,1.7442417,1.276783
-52.297554,1.818409,1.4253526
-52.25856,1.8906422,1.570879
-52.247017,1.9573715,1.7082939
-52.304146,2.0114832,1.8276563
-52.30405,2.075695,1.9613986
-52.335556,2.1341698,2.0870342
-52.422,2.3104048,2.4653187
-52.424942,2.3731372,2.5968723
-52.34283,2.4491205,2.7460666
-52.382477,2.5054438,2.8688226
-52.42421,2.5614347,2.991241
-52.470955,2.6166785,3.1128025
-52.52955,2.6702132,3.232317
-52.837677,2.6877904,3.3066244
-53.20131,2.6989894,3.3743691
-53.688023,2.6948733,3.4249673
-54.16722,2.6942468,3.482112
-54.53994,2.7102535,3.5614276
-54.646927,2.7628422,3.6855173
16.65901,0.4436984,0.8061843
16.672758,0.31553006,0.5358019
-6.5567474,2.601924,2.8710365
-6.750536,2.5644855,2.7714858
-7.455576,2.6036522,2.7789736
-8.076191,2.633784,2.7765083
-8.640718,2.6585426,2.7687821
-9.265135,2.695631,2.7807283
-9.813271,2.7238586,2.7822032
-10.293137,2.74389,2.7737517
-10.79525,2.7701015,2.77601
-11.443977,2.8235943,2.8201618
-12.080669,2.8785326,2.86868
-12.493401,2.898,2.8664021
-12.792942,2.8996363,2.838686
-12.880066,2.8646393,2.7565317
-12.9277725,2.8227277,2.6640902
-11.977411,2.433661,1.9508505
-12.829641,2.5473485,2.1004143
-12.836683,2.4965036,1.9939842
-12.860411,2.4488292,1.8925223
-12.893257,2.402909,1.7938561
-12.978632,2.3150177,1.6029568
-13.030149,2.272942,1.5106087
-13.037941,2.2213209,1.4029441
-13.042871,2.1688135,1.2938051
-13.054153,2.1174612,1.1864986
-13.02227,2.0560126,1.0626793
-13.096537,2.0186138,0.9781194
-13.019094,1.9457579,0.83539534
-13.022049,1.8911994,0.7225938
-13.03949,1.8398137,0.6149907
-13.059557,1.7888365,0.508049
-13.030878,1.7255607,0.38060522
-23.880238,3.2955253,2.59304
-24.219072,3.410818,2.7971826
-24.322063,3.4263117,2.820129
-24.37511,3.4204757,2.8043385
-24.434006,3.4174447,2.7937322
-24.503017,3.4192352,2.7920108
-23.975595,3.1167502,2.2283964
-23.867466,3.0333972,2.0703077
-23.850979,2.9917524,1.9885316
-23.991724,3.0246215,2.0435486
-22.0236,2.039415,0.22715473
-24.71731,3.3108463,2.5599194
-24.775064,3.3086045,2.551248
-24.834103,3.3072612,2.544302
-24.89302,3.3061337,2.5378232
-24.970884,3.314984,2.5498405
-25.022663,3.3108296,2.537919
-25.095228,3.3177705,2.5465808
-25.148113,3.314733,2.5368576
-25.205574,3.314369,2.532146
-25.316216,3.343152,2.5815544
-25.405052,3.3609276,2.6106815
-25.44332,3.3513017,2.5890274
-25.471388,3.335989,2.5568347
-25.52914,3.3374758,2.5559125
-25.598782,3.3461185,2.568376
-25.661762,3.3513582,2.574582
-25.711966,3.3494577,2.5675478
-25.781948,3.3595822,2.5829992
-25.868778,3.3803945,2.6184874
-25.91584,3.377655,2.6100826
-25.95497,3.3701935,2.592896
-25.695375,3.175618,2.2257075
-25.614246,3.0897,2.0614982
-25.632208,3.0655591,2.0128546
-25.640697,3.0349329,1.9520545
-25.637642,2.9962156,1.8760643
-25.641228,2.9612277,1.8070407
-25.645023,2.9257739,1.7371187
-25.655842,2.8944998,1.6750255
-25.657803,2.8565724,1.6004124
-25.68454,2.8353276,1.5571523
-25.69186,2.8000214,1.4874377
-25.68468,2.7536461,1.3968606
-25.64505,2.6826804,1.2599158
-26.800728,3.493068,2.7842307
-26.8241,3.4777522,2.7529278
-26.851974,3.4656613,2.7277207
-26.888391,3.460026,2.7147183
-26.924856,3.4544945,2.7019405
-26.988888,3.4707973,2.730452
-27.029703,3.4691756,2.725143
-27.078947,3.474565,2.7331305
-27.090435,3.4492435,2.6830482
-27.136683,3.4524279,2.686926
-27.188068,3.4602618,2.6996527
-27.22865,3.4592528,2.695673
-27.26539,3.4550784,2.6857247
-27.29702,3.4464695,2.667397
-27.335709,3.444145,2.6610112
-27.377108,3.4444227,2.6595964
-27.434185,3.4593883,2.6861043
-27.479212,3.4637144,2.692459
-27.519209,3.4635863,2.6903887
-27.564337,3.4686115,2.6981463
-27.592113,3.4569628,2.6742349
-27.61293,3.438205,2.636814
-27.648355,3.4338412,2.6267924
-27.703585,3.4499154,2.655705
-27.750597,3.4581146,2.6696725
-27.788906,3.457527,2.6669421
-27.822023,3.451502,2.6538787
-27.857954,3.4485576,2.6467104
-27.897345,3.449572,2.6471167
-27.93815,3.4524226,2.6510568
-27.976208,3.4523818,2.6495118
-28.014565,3.4528835,2.6490297
-28.048872,3.4487367,2.6397018
-28.082157,3.4433799,2.6280875
-28.126707,3.452014,2.6432219
-28.175776,3.466886,2.670313
-28.211884,3.465782,2.6669106
-28.239656,3.4538493,2.6428318
-28.269972,3.4450407,2.624741
-28.313606,3.4542952,2.6412206
-28.35316,3.4584117,2.6479044
-28.392242,3.4622054,2.6540012
-28.43147,3.4665556,2.661192
-28.459232,3.454226,2.636475
-28.494556,3.4530227,2.6330833
-28.54071,3.4687696,2.6621819
-28.579126,3.4731169,2.6694784
-28.61053,3.4664528,2.655702
-28.639654,3.4558544,2.6344037
-28.670845,3.4484448,2.6192355
-28.70654,3.44871,2.618801
-28.753187,3.4687688,2.656353
-28.789003,3.4701529,2.658121
-28.819735,3.4622085,2.6420174
-28.852495,3.4579334,2.6329722
-28.880573,3.4442902,2.605968
-28.916689,3.4464788,2.6093693
-28.957638,3.4591448,2.6329098
-28.996544,3.4683213,2.6497808
-29.032541,3.4717321,2.6556067
-29.062126,3.4607522,2.6338172
-29.09273,3.4516532,2.6156573
-29.129072,3.4562397,2.6238093
-29.169186,3.4709208,2.6513815
-29.203362,3.4711704,2.6512518
-29.235508,3.4660497,2.6408205
-29.265837,3.4555423,2.6200562
-29.297806,3.4492092,2.6073327
-29.330359,3.444324,2.5974135
-29.365288,3.446828,2.6017222
-29.401485,3.4539964,2.6150231
-29.438118,3.4635508,2.632938
-29.470634,3.4590178,2.6237812
-29.501839,3.4490697,2.60423
-29.534288,3.443322,2.5927758
-29.567507,3.4404068,2.5867906
-29.604263,3.4536378,2.6118922
-29.637476,3.45136,2.6071782
-29.670906,3.4500859,2.6044154
-29.701841,3.43465,2.574422
-29.73497,3.4303234,2.565825
-29.769787,3.4366596,2.5777698
-29.805176,3.4486096,2.600542
-29.838478,3.4463859,2.596057
-29.871372,3.4401028,2.5837793
-29.904247,3.4320612,2.5681362
-29.93775,3.42917,2.5624275
-29.971739,3.4323537,2.5684333
-30.006367,3.4485285,2.5994701
-30.0399,3.4495852,2.6014252
-30.07325,3.4456577,2.5938063
-30.106539,3.4321353,2.567737
-30.140198,3.4219258,2.5480661
-30.173977,3.4265537,2.5569797
-30.207357,3.443253,2.5891533
-30.240679,3.4494355,2.6011004
-30.273954,3.4533982,2.6087961
-30.307882,3.4454653,2.5936131
-30.34206,3.4371605,2.577736
-30.376299,3.4307885,2.5656004
-30.409147,3.4397023,2.582911
-30.441656,3.4496188,2.60217
-30.475523,3.4471896,2.5976877
-30.510056,3.440708,2.5854268
-30.546423,3.4237409,2.5530095
-30.58021,3.4248035,2.555313
-30.613308,3.4296281,2.564878
-30.645748,3.4372919,2.579925
-30.677229,3.4487073,2.602211
-30.711391,3.446894,2.5990634
-30.75083,3.4231622,2.553772
-30.785872,3.4197092,2.5475183
-30.81909,3.4236765,2.5555592
-30.845882,3.4506066,2.6077852
-30.889523,3.417229,2.544046
-30.914892,3.4470444,2.6018553
-30.951385,3.4394658,2.5877767
-30.992638,3.418304,2.5476089
-31.024887,3.4250705,2.5611596
-31.056822,3.4323711,2.575756
-31.09062,3.4342897,2.5800276
-31.126146,3.4317513,2.575756
-31.165577,3.419774,2.5533733
-31.202356,3.415171,2.545185
-31.23523,3.420184,2.5554943
-31.262222,3.4384024,2.591186
-31.297592,3.437236,2.589665
-31.328379,3.4460979,2.6074224
-31.373526,3.4248178,2.5673342
-31.40833,3.425753,2.569923
-31.442232,3.42858,2.5761647
-31.47445,3.4346397,2.5886302
-31.50944,3.4353948,2.5909395
-31.548403,3.429076,2.5797048
-31.592638,3.4139252,2.5515623
-31.629028,3.4132092,2.5511303
-31.65939,3.4228513,2.5705795
-31.690351,3.431227,2.5876184
-31.73359,3.4196675,2.5664773
-31.765877,3.4259999,2.5796466
-31.818237,3.4013908,2.5335736
-31.851576,3.4066062,2.5446572
-31.878225,3.4216218,2.5745249
-31.9082,3.431397,2.5943732
-31.948883,3.4258366,2.584896
-32.005016,3.3993154,2.5353494
-32.029232,3.4172792,2.5709357
-32.07575,3.4050856,2.5488687
-32.102875,3.4188125,2.5763903
-32.14231,3.4164646,2.5732045
-32.17944,3.4172778,2.5760884
-32.239506,3.38998,2.5253062
-32.271713,3.3975592,2.5411787
-32.28341,3.4294224,2.6034274
-32.31613,3.4358108,2.6170545
-32.364502,3.4242065,2.596377
-32.42924,3.3947313,2.5416584
-32.463127,3.4006321,2.5544524
-32.50203,3.401064,2.5568452
-32.536213,3.4067254,2.5692325
-32.57032,3.4124756,2.581812
-32.63829,3.3830972,2.5275273
-32.689693,3.371759,2.5076509
-32.709965,3.392261,2.5484052
-32.74254,3.4001465,2.565166
-32.768948,3.4139924,2.5932803
-32.84835,3.376784,2.5243735
-32.885025,3.3812556,2.534741
-32.91943,3.3879116,2.5492835
-32.961895,3.3871787,2.5498233
-33.00905,3.3824346,2.542787
-33.05873,3.3757808,2.5321703
-33.10163,3.3754735,2.5336342
-33.128475,3.3892622,2.561849
-33.15697,3.4014642,2.5870724
-33.20903,3.393723,2.5745468
-33.272186,3.377211,2.5454688
-33.285732,3.4019105,2.5944276
-33.33033,3.4011157,2.595169
-33.380108,3.3964326,2.588601
-33.42242,3.397946,2.5937881
-33.493767,3.3771648,2.5569105
-33.521324,3.3905911,2.5846767
-33.554962,3.3992982,2.6035547
-33.6066,3.3946133,2.597207
-33.665997,3.3845775,2.5808263
-33.72195,3.377516,2.5701118
-33.756798,3.3859549,2.5886307
-33.80094,3.3878407,2.5948505
-33.85911,3.380133,2.5830684
-33.924355,3.3679826,2.5629992
-33.938824,3.3908665,2.6088052
-33.987816,3.3902504,2.610495
-34.056618,3.3767595,2.5880804
-34.1142,3.3711772,2.5805721
-34.152615,3.3783638,2.5970502
-34.173733,3.396653,2.6343503
-34.242992,3.384386,2.6144772
-34.304836,3.3772774,2.604331
-34.345688,3.3835049,2.6191788
-34.388336,3.3887382,2.6322055
-34.426647,3.396703,2.650371
-34.47982,3.395907,2.6522312
-34.54444,3.3886745,2.6421528
-34.57395,3.4022088,2.6708255
-34.629364,3.4008527,2.6718073
-34.722813,3.3782704,2.633378
-34.771706,3.381389,2.642829
-34.813488,3.388631,2.659988
-34.893917,3.3748715,2.6382232
-34.95171,3.3739169,2.6402993
-34.98572,3.3859448,2.6664896
-35.052372,3.3807626,2.6608572
-35.16514,3.3519487,2.611607
-35.197342,3.3655791,2.640936
-35.24436,3.3716366,2.65631
-35.300312,3.3733509,2.6637254
-35.37574,3.3656278,2.6538162
-35.418774,3.3743048,2.6741986
-35.49047,3.3691483,2.6691818
-35.56456,3.3632596,2.662912
-35.62121,3.3660924,2.6727533
-35.66295,3.3761728,2.695953
-35.772804,3.3547075,2.6614022
-35.826294,3.3599162,2.6758337
-35.889977,3.3606982,2.6822362
-35.98522,3.3476264,2.6634197
-36.04127,3.3525608,2.6775908
-36.102528,3.3554287,2.688068
-36.206238,3.3401647,2.665618
-36.25445,3.3493664,2.6878104
-36.318375,3.352046,2.6982145
-36.444336,3.329027,2.6620874
-36.45031,3.3565643,2.71776
-36.526752,3.3549871,2.7207274
-36.614143,3.349371,2.716507
-36.68874,3.349365,2.7225447
-36.782887,3.3419945,2.7154174
-36.875835,3.3356323,2.7102523
-36.96756,3.3302693,2.707028
-37.061954,3.324392,2.7030249
-37.133762,3.3275707,2.7154088
-37.237434,3.319176,2.70718
-37.315975,3.3206508,2.7167659
-37.410694,3.3165975,2.7166057
-37.489605,3.3187523,2.7276645
-37.553288,3.326704,2.7491632
-37.67382,3.3148687,2.7356052
-37.725494,3.3277135,2.7660317
-37.87537,3.3069057,2.7369413
-37.95684,3.310291,2.7508926
-38.062386,3.305957,2.7513566
-38.12261,3.317238,2.7795148
-38.251904,3.3060486,2.7682524
-38.337345,3.3098195,2.7834878
-38.469925,3.2988727,2.7730885
-38.55156,3.3048108,2.7924623
-38.68319,3.29546,2.7852988
-38.750694,3.3066623,2.8141818
-38.92815,3.2845302,2.7852454
-38.98224,3.3006747,2.8230505
-39.134098,3.287823,2.8107615
-39.27097,3.2802377,2.807876
-39.377956,3.2820802,2.821507
-39.45039,3.2943645,2.8532963
-39.643,3.2728293,2.8272238
-39.73843,3.279633,2.8500443
-39.88042,3.273983,2.8518
-40.06239,3.2581618,2.836547
-40.10279,3.2815335,2.8882294
-40.233234,3.2809713,2.8994484
-52.183475,1.4485009,0.29557753
-52.242928,1.5034888,0.4158082
-52.225624,1.5737627,0.5601063
-52.24666,1.6360817,0.69186354
-52.247902,1.7020164,0.82921886
-52.32363,1.7534859,0.9441738
-52.281334,1.827157,1.0933714
-52.254898,1.8973491,1.2370443
-52.25679,1.9619541,1.372076
-52.285275,2.0215344,1.499464
-52.291885,2.0848255,1.632431
-52.28129,2.150838,1.7693944
-52.430466,2.189433,1.8657379
-52.331795,2.269908,2.0239725
-52.419113,2.3190973,2.1362262
-52.27924,2.530488,2.565199
-52.394142,2.5753162,2.6715837
-52.37867,2.6400607,2.8061328
-52.48929,2.685978,2.9145427
-52.651752,2.7248204,3.0136638
-53.0239,2.73473,3.074257
-53.40882,2.7447147,3.1364708
-53.840675,2.7502394,3.1943936
-54.48764,2.7293248,3.219643
-54.704895,2.7677052,3.3241496
16.905352,0.6749501,0.65725327
16.707617,0.57083654,0.41702747
-6.847748,2.7089994,2.7334003
-7.532461,2.7417748,2.7388673
-8.1850605,2.7734742,2.7451358
-8.835588,2.8082943,2.758266
-9.378788,2.8303413,2.7544723
-9.85462,2.8448663,2.741125
-10.393202,2.8716896,2.747981
-11.015274,2.9146633,2.781239
-11.458693,2.931964,2.7769446
-11.919506,2.9544568,2.7820482
-12.317368,2.968798,2.7758408
-12.6783085,2.9789033,2.7641697
-12.83605,2.955548,2.7008042
-12.971064,2.8784864,2.526966
-12.9972725,2.832658,2.4285808
-12.81642,2.696748,2.1603384
-12.804817,2.6427143,2.0483742
-12.81658,2.5929012,1.9432092
-12.876017,2.4998994,1.7437196
-12.953312,2.462954,1.6597972
-13.027369,2.4255335,1.5752363
-13.019489,2.3710904,1.462481
-13.017122,2.317483,1.351049
-13.02669,2.2661438,1.2433586
-13.134489,2.2360973,1.1714578
-13.018036,2.1565561,1.0162296
-12.998154,2.0977447,0.8957648
-13.215387,2.0927193,0.86656094
-13.021404,1.9933839,0.67712927
-13.037016,1.9417531,0.56870985
-13.052549,1.8898644,0.45982838
-23.893387,3.3462222,2.5828166
-24.286268,3.4534078,2.7723322
-24.366064,3.4588377,2.7778392
-24.426487,3.4562337,2.7684731
-24.417551,3.4231331,2.7022858
-23.971584,3.128643,2.1383824
-23.986492,3.1025577,2.0848598
-21.936115,2.105492,0.2118659
-22.032917,2.1065216,0.20763731
-24.7221,3.3246028,2.483858
-24.77527,3.3198738,2.4709601
-24.820862,3.3115716,2.4513936
-24.878092,3.3092513,2.443132
-24.954851,3.3171434,2.454174
-25.032593,3.3260343,2.4671845
-25.085907,3.322687,2.4571862
-25.158388,3.329682,2.466772
-25.200901,3.3211224,2.4470382
-25.29907,3.3427517,2.484438
-25.377045,3.3541355,2.5025606
-25.424927,3.3494108,2.4902601
-25.495182,3.3573954,2.50209
-25.506018,3.3321471,2.4509702
-25.591137,3.3492086,2.4801292
-25.640629,3.3462615,2.4713907
-25.699997,3.349322,2.4741096
-25.76469,3.3558986,2.4835715
-25.851692,3.3763447,2.5194826
-25.91195,3.3812456,2.525899
-25.959917,3.37894,2.5186481
-25.688663,3.177277,2.1315346
-25.620214,3.0992064,1.979691
-25.624683,3.066184,1.9136729
-25.635704,3.0368629,1.8547006
-25.642172,3.0040898,1.7891264
-25.643656,2.967447,1.7161403
-25.65447,2.9364407,1.6539063
-25.660915,2.901939,1.5849738
-25.694294,2.8854525,1.5505018
-25.687721,2.8408406,1.4621954
-25.67728,2.792603,1.3669081
-25.632267,2.718531,1.2220702
-25.660902,2.6964364,1.1768084
-26.783936,3.4818156,2.6805096
-26.820087,3.475566,2.6663723
-26.836008,3.4540339,2.6229172
-26.891031,3.4621837,2.636476
-26.93044,3.458617,2.6275682
-26.997093,3.4766822,2.6602745
-27.036703,3.4738183,2.652793
-27.069378,3.4654596,2.6347666
-27.096315,3.4523563,2.6076293
-27.138487,3.4518144,2.6046934
-27.192526,3.4615223,2.621531
-27.23393,3.4608657,2.618444
-27.267319,3.453415,2.6022887
-27.295738,3.4415581,2.5776577
-27.33214,3.4367237,2.5665889
-27.382557,3.4447212,2.5803065
-27.451372,3.4701889,2.62779
-27.494795,3.4727955,2.6311898
-27.519827,3.4581466,2.6012888
-27.55803,3.455998,2.5955534
-27.586897,3.4448006,2.572353
-27.622248,3.4399269,2.5613933
-27.658886,3.4364033,2.5530686
-27.727242,3.4657042,2.6082754
-27.765074,3.4641469,2.6038227
-27.796156,3.4555311,2.58573
-27.821548,3.4406512,2.5555234
-27.858017,3.4376762,2.5483875
-27.91,3.452208,2.5751958
-27.954445,3.4588344,2.5867248
-27.992405,3.458353,2.5845056
-28.025614,3.4524243,2.5717492
-28.057493,3.4448667,2.555852
-28.096151,3.4455419,2.5559454
-28.140575,3.453641,2.5704703
-28.190128,3.4687777,2.5986872
-28.218603,3.457306,2.5752835
-28.246996,3.445462,2.5511713
-28.284632,3.445818,2.550768
-28.338263,3.4684322,2.5936313
-28.38257,3.4790502,2.6132255
-28.414707,3.472807,2.6000814
-28.443981,3.4622762,2.5786195
-28.47815,3.4588103,2.570909
-28.510069,3.451928,2.5565734
-28.560316,3.4736547,2.5979052
-28.59568,3.4726896,2.5951276
-28.629143,3.468738,2.5865607
-28.65873,3.4582574,2.5653052
-28.69291,3.4553518,2.5588098
-28.727367,3.4529781,2.5533686
-28.769176,3.4639838,2.574
-28.810408,3.474674,2.5940456
-28.840845,3.4654999,2.5754266
-28.868315,3.450169,2.5448298
-28.902773,3.4482546,2.5403852
-28.94239,3.457133,2.556993
-28.981524,3.4656818,2.5729818
-29.018362,3.4698741,2.5805054
-29.054657,3.4732742,2.5865073
-29.079582,3.4503417,2.541191
-29.113949,3.4489799,2.5379448
-29.153671,3.4611769,2.5611587
-29.192001,3.470794,2.5793672
-29.22488,3.4665756,2.5706124
-29.258965,3.4655929,2.5681868
-29.28857,3.4516282,2.5404553
-29.322378,3.449458,2.53575
-29.35707,3.4500833,2.536518
-29.39635,3.4661605,2.5674605
-29.42984,3.463815,2.5624728
-29.46188,3.4561255,2.5470738
-29.49269,3.4430811,2.5212383
-29.526623,3.4414358,2.517671
-29.562483,3.4480374,2.530223
-29.598944,3.4583652,2.5500689
-29.632862,3.4579,2.5488648
-29.66529,3.4498036,2.5327787
-29.69727,3.4381518,2.5097675
-29.730675,3.433396,2.5002394
-29.765575,3.4378185,2.5086536
-29.801538,3.4509757,2.5341444
-29.835772,3.453308,2.5385175
-29.869122,3.4484477,2.52886
-29.902233,3.4400299,2.5122733
-29.93614,3.4385262,2.5092082
-29.970274,3.4398415,2.5116696
-30.004837,3.4494462,2.5303392
-30.038916,3.4541285,2.5394144
-30.072668,3.4525194,2.5362191
-30.106224,3.4373262,2.5065093
-30.140224,3.4317892,2.4956784
-30.174393,3.424061,2.4805875
-30.207901,3.4537866,2.538673
-30.241613,3.4562569,2.5435405
-30.275421,3.4556246,2.542365
-30.309538,3.4505239,2.5324807
-30.344112,3.441413,2.514783
-30.378317,3.4392238,2.5106235
-30.411167,3.4507797,2.5333285
-30.44521,3.4496741,2.5313225
-30.479172,3.449566,2.5312843
-30.514526,3.439995,2.5127854
-30.549644,3.4337018,2.5007067
-30.584166,3.4320462,2.497704
-30.616894,3.440473,2.514409
-30.649319,3.449434,2.532174
-30.68325,3.4503071,2.5341644
-30.718708,3.444465,2.5230641
-30.757378,3.4260283,2.4873977
-30.791979,3.425821,2.48734
-30.822502,3.4410937,2.5175166
-30.859604,3.4315574,2.499288
-30.892336,3.437945,2.5121574
-30.922836,3.4511871,2.538422
-30.968367,3.4166634,2.471499
-31.002014,3.4206145,2.4796734
-31.035267,3.4255507,2.4897885
-31.06091,3.4512744,2.5404706
-31.098915,3.4424167,2.523714
-31.143143,3.418395,2.4774075
-31.178984,3.4169526,2.4751606
-31.212835,3.4205375,2.4827375
-31.244884,3.4282386,2.4983573
-31.277754,3.4337795,2.5097842
-31.309895,3.4407425,2.5239997
-31.353292,3.4236858,2.4914246
-31.38958,3.4223652,2.4895396
-31.423485,3.4260397,2.4974089
-31.455038,3.4342458,2.5141244
-31.483353,3.448298,2.5422416
-31.525076,3.4371383,2.521276
-31.568377,3.4238925,2.4962783
-31.609545,3.415204,2.4801807
-31.647882,3.4119363,2.4746618
-31.666489,3.4418328,2.5337062
-31.713312,3.4246511,2.5011535
-31.750406,3.4238799,2.5005574
-31.793505,3.4140007,2.4822707
-31.828552,3.4169545,2.4889688
-31.860334,3.4248087,2.5052156
-31.89706,3.4253204,2.507206
-31.94056,3.4163506,2.4907918
-31.97562,3.4196916,2.4983296
-32.03098,3.3953493,2.4521108
-32.057285,3.4110565,2.4837198
-32.089485,3.4185956,2.4994788
-32.124897,3.421898,2.50703
-32.163685,3.4209883,2.5064282
-32.216766,3.4025722,2.4718838
-32.252792,3.4057832,2.4793348
-32.274113,3.426636,2.5210223
-32.31713,3.4214637,2.5122561
-32.359615,3.4172776,2.5054317
-32.416534,3.3970687,2.467589
-32.444736,3.4097238,2.4934597
-32.48929,3.4042397,2.4842134
-32.518375,3.4157836,2.5079684
-32.55359,3.4206498,2.5188136
-32.639168,3.3730996,2.428248
-32.66965,3.383731,2.4503198
-32.706146,3.388161,2.460414
-32.733356,3.4018614,2.4884543
-32.787525,3.389,2.4651704
-32.842545,3.3759155,2.4415007
-32.888824,3.3717122,2.4350295
-32.905228,3.3957062,2.4830399
-32.942566,3.3999517,2.492929
-32.999363,3.3866627,2.4690127
-33.03917,3.389121,2.4755173
-33.09246,3.37987,2.4594722
-33.11838,3.3947942,2.4900694
-33.160618,3.3955748,2.4934258
-33.2231,3.3795087,2.4643683
-33.260357,3.3850324,2.4769325
-33.301,3.387848,2.4843092
-33.344143,3.3887823,2.4880967
-33.37582,3.3990302,2.5098267
-33.439766,3.3838913,2.4827795
-33.48014,3.3876312,2.4920635
-33.520515,3.3914907,2.501606
-33.56559,3.3919249,2.5046034
-33.620262,3.3854382,2.4943576
-33.6912,3.3674104,2.4620256
-33.72558,3.3765552,2.481852
-33.753304,3.3904483,2.5108008
-33.79832,3.3920124,2.5161495
-33.863895,3.3794541,2.494502
-33.942204,3.3586957,2.4572277
-33.97212,3.3715465,2.4843087
-34.010338,3.3787441,2.500599
-34.065132,3.3750367,2.4960852
-34.13403,3.3624442,2.4746566
-34.156082,3.3806396,2.5120516
-34.19014,3.390978,2.5344672
-34.251953,3.3838375,2.5235863
-34.320667,3.3728325,2.505404
-34.363834,3.3780344,2.5181508
-34.390556,3.3933365,2.5501537
-34.423138,3.4050124,2.5752735
-34.50747,3.3860266,2.5421371
-34.54134,3.397268,2.5665112
-34.59388,3.397713,2.5704122
-34.658554,3.3914795,2.5616941
-34.737545,3.377583,2.538515
-34.78686,3.3808262,2.5478969
-34.84593,3.3788931,2.5475235
-34.91104,3.3739858,2.5415826
-34.971836,3.3717961,2.5408497
-35.022255,3.3754513,2.5512218
-35.10066,3.3646,2.534254
-35.173462,3.3571954,2.523878
-35.208843,3.3694565,2.5506582
-35.23998,3.3838778,2.5815349
-35.362446,3.3524694,2.5261626
-35.40404,3.3621597,2.5482502
-35.453148,3.3682466,2.563602
-35.525936,3.3630335,2.5577807
-35.592705,3.3611267,2.5582476
-35.63358,3.3718207,2.5824127
-35.714787,3.363724,2.5714183
-35.810642,3.3493593,2.5487914
-35.840954,3.3655906,2.5834932
-35.946144,3.3479555,2.5549502
-36.03161,3.3398597,2.5443482
-36.08164,3.3479218,2.563982
-36.16985,3.3394787,2.5529203
-36.237007,3.340647,2.5598598
-36.278297,3.3531644,2.5879784
-36.38446,3.3384058,2.5654755
-36.414528,3.3560355,2.6032104
-36.492672,3.353823,2.604189
-36.594593,3.3423424,2.588108
-36.655766,3.3478878,2.6036572
-36.732323,3.3475573,2.6084223
-36.84532,3.3332813,2.5875535
-36.916237,3.3360696,2.5982985
-37.04648,3.316392,2.5677743
-37.102257,3.3258352,2.5909896
-37.21305,3.3148105,2.5766811
-37.28322,3.319517,2.5913892
-37.323284,3.3355622,2.6269612
-37.46048,3.3164518,2.5982537
-37.523014,3.324947,2.6201978
-37.64673,3.312016,2.6031256
-37.706272,3.3222704,2.6284924
-37.81369,3.3161738,2.6241832
-37.919838,3.3111007,2.6218977
-38.035336,3.303445,2.6150885
-38.10927,3.3102994,2.6347466
-38.194813,3.3136325,2.6481419
-38.31617,3.3056967,2.6413136
-38.427948,3.3015177,2.6414561
-38.528336,3.3015516,2.6493611
-38.66422,3.2909334,2.6382833
-38.727234,3.303697,2.6693835
-38.8892,3.2863324,2.6466155
-38.969395,3.2946792,2.6700969
-39.101646,3.2877867,2.66651
-39.197487,3.292367,2.6835876
-39.382812,3.2712743,2.6551838
-39.417984,3.2945466,2.7058392
-39.634563,3.2661831,2.6650968
-39.71573,3.2771735,2.6943111
-39.870075,3.2681785,2.6884165
-40.0074,3.2646844,2.692491
-40.090656,3.2765284,2.7237515
-40.20997,3.2790754,2.7388687
-52.26316,1.5587673,0.20865059
-52.26479,1.6253967,0.3479252
-52.34603,1.6763108,0.4615469
-52.294014,1.7527328,0.61667013
-52.292534,1.8190541,0.7552757
-52.28623,1.8859377,0.8947115
-52.273186,1.9536953,1.0354543
-52.277077,2.0180507,1.1706781
-52.366425,2.0671349,1.2817035
-52.314217,2.1408763,1.4317002
-52.2856,2.2100286,1.5742903
-52.341885,2.264577,1.6940289
-52.302605,2.3348408,1.8381495
-52.420452,2.3793092,1.9424949
-52.433968,2.4406955,2.0729485
-53.378273,2.3573093,1.9842796
-53.7386,2.368086,2.0402465
-52.23428,2.6597757,2.5162306
-52.414917,2.695262,2.6078558
-53.69391,2.6389046,2.607749
-53.26351,2.763932,2.8319345
-53.828346,2.7512407,2.8578725
-54.472744,2.7308686,2.8750877
-54.71392,2.7663443,2.9728584
16.766088,1.0723212,0.8247757
16.765917,0.94645095,0.55613756
16.826769,0.81355524,0.2776289
-6.6758633,2.8143997,2.6368213
-7.190296,2.8197656,2.6070848
-7.8977966,2.8547587,2.6248364
-8.603062,2.893157,2.650056
-9.153517,2.912774,2.6478686
-9.835081,2.9546952,2.6825676
-10.194887,2.9516442,2.6476464
-10.848171,2.9955688,2.688952
-11.202841,2.9961886,2.6623235
-11.935963,3.0590084,2.7373939
-12.888987,3.0115843,2.5628853
-12.921268,2.9667764,2.4659848
-12.9570465,2.9225469,2.370088
-12.993473,2.8784108,2.2743936
-12.92886,2.8157701,2.1476216
-12.826355,2.6936398,1.898818
-12.931477,2.6097164,1.7145958
-12.883936,2.5480168,1.5887771
-13.024105,2.523482,1.5267038
-13.055136,2.4772573,1.427486
-13.019423,2.417113,1.3042006
-13.02438,2.3650079,1.194746
-13.080732,2.3236048,1.103888
-13.086327,2.2712622,0.9940014
-13.000429,2.1985493,0.8484063
-13.012547,2.1468167,0.7394228
-13.030041,2.0960548,0.63212585
-13.0438175,2.0442224,0.5229268
-13.01865,1.9830894,0.39724827
-24.039948,3.4799023,2.73463
-23.913002,3.3985121,2.5759988
-23.755655,3.240177,2.2621799
-23.838596,3.2440286,2.265172
-23.94796,3.1961098,2.161192
-23.941652,3.1607985,2.0896554
-24.705177,3.327061,2.3849874
-24.772493,3.3289196,2.3850803
-24.813702,3.3181875,2.3610582
-24.858412,3.3092763,2.3405647
-24.954967,3.3268015,2.3709416
-25.016836,3.3272262,2.3685122
-25.070574,3.3237383,2.3586054
-25.137419,3.3273697,2.3624597
-25.197468,3.32777,2.360145
-25.30151,3.3521898,2.4042134
-25.348658,3.3464565,2.390192
-25.416927,3.3525357,2.3990178
-25.502039,3.3684592,2.4269276
-25.513435,3.3433654,2.375618
-25.60483,3.3637342,2.4122434
-25.658897,3.3632524,2.4086037
-25.698666,3.354647,2.3892746
-25.77398,3.367209,2.410984
-25.85367,3.382984,2.4389896
-25.943027,3.4053018,2.4797583
-25.963036,3.3857117,2.439293
-25.747936,3.2192116,2.1136332
-25.614037,3.1000805,1.8797064
-25.629227,3.0735862,1.8256125
-25.63922,3.0433357,1.7642102
-25.643593,3.0089104,1.6946797
-25.652151,2.9766681,1.6293783
-25.6502,2.9368067,1.5492334
-25.672554,2.9127722,1.4998851
-25.745049,2.9230304,1.5173535
-25.76522,2.8972347,1.4646063
-25.659304,2.7816477,1.2367725
-25.694662,2.7647712,1.201354
-25.688925,2.7178214,1.1072636
-26.79609,3.4909983,2.6142278
-26.825268,3.4793088,2.589552
-26.839201,3.4559686,2.5421286
-26.890882,3.4612174,2.550579
-26.933235,3.459569,2.5455804
-26.995003,3.4734328,2.5709505
-27.032581,3.468534,2.5596585
-27.068235,3.4621537,2.5454903
-27.104448,3.4562688,2.5323114
-27.149324,3.4576726,2.5334296
-27.198792,3.4632268,2.5427089
-27.235867,3.458499,2.5318713
-27.272053,3.4530692,2.5196795
-27.311943,3.450972,2.5140438
-27.35315,3.4502091,2.5110502
-27.39785,3.4528227,2.5147061
-27.456026,3.4682167,2.5434785
-27.507181,3.47769,2.5606685
-27.541273,3.4713516,2.5468411
-27.576298,3.4659238,2.534822
-27.598856,3.4482267,2.498712
-27.637884,3.4466724,2.494338
-27.671587,3.4398468,2.4796214
-27.731451,3.4600976,2.5181704
-27.766972,3.4555917,2.5080647
-27.806046,3.4549358,2.5055542
-27.83738,3.4460278,2.486827
-27.877203,3.4464176,2.4864159
-27.930357,3.4620528,2.5160441
-27.973839,3.4673426,2.5253367
-28.012774,3.467703,2.5249457
-28.042742,3.4576015,2.503964
-28.07921,3.455197,2.4981656
-28.129436,3.4698868,2.5260787
-28.174461,3.4787862,2.5426106
-28.205881,3.4707668,2.5258093
-28.233536,3.4576933,2.499055
-28.269184,3.4549532,2.4926949
-28.30705,3.4553123,2.4924688
-28.356287,3.4716835,2.5238614
-28.395615,3.47487,2.5292616
-28.428253,3.468679,2.5161738
-28.457794,3.4578154,2.4938755
-28.493006,3.4552417,2.4879608
-28.539429,3.470108,2.516509
-28.580189,3.4768722,2.5290809
-28.61535,3.475057,2.5247264
-28.646053,3.4659274,2.505937
-28.674902,3.453378,2.4804025
-28.712809,3.4561868,2.4852366
-28.7589,3.4739847,2.519722
-28.795877,3.4761515,2.5233312
-28.829031,3.4713984,2.513277
-28.860003,3.4623337,2.494711
-28.889637,3.4502606,2.47021
-28.925135,3.4497097,2.4685125
-28.973124,3.4757242,2.5193896
-29.009829,3.4789276,2.5251627
-29.04346,3.4755986,2.5180292
-29.073147,3.4630585,2.4926825
-29.107565,3.4612212,2.488531
-29.143248,3.462579,2.4907222
-29.184034,3.4773567,2.5194964
-29.219395,3.4789193,2.5221295
-29.253397,3.477016,2.51792
-29.282791,3.4618392,2.487443
-29.31583,3.456534,2.4765253
-29.353252,3.4646957,2.4922962
-29.393013,3.4814453,2.525095
-29.425528,3.4750745,2.5121198
-29.458439,3.4696794,2.501091
-29.488174,3.4518359,2.4654188
-29.522957,3.4524179,2.4662623
-29.55791,3.4539874,2.469078
-29.595095,3.4659595,2.4925237
-29.629875,3.4681659,2.4966373
-29.66283,3.461487,2.4831614
-29.695057,3.4499514,2.4600763
-29.728033,3.4411893,2.4425025
-29.762821,3.4428458,2.4455905
-29.798996,3.454933,2.46937
-29.833637,3.457672,2.474639
-29.867432,3.453754,2.46673
-29.90101,3.4467719,2.452764
-29.934502,3.4367244,2.4327369
-29.968872,3.4353142,2.4298482
-30.0044,3.4533541,2.465527
-30.038889,3.4593284,2.4773088
-30.072834,3.4532316,2.465179
-30.106842,3.4413674,2.4416318
-30.141184,3.4336433,2.426309
-30.1756,3.4395204,2.4379625
-30.209433,3.463501,2.485518
-30.243582,3.4614458,2.4814806
-30.277859,3.4581275,2.474957
-30.312084,3.457149,2.4730864
-30.347078,3.446806,2.45267
-30.381947,3.4410558,2.4413748
-30.415176,3.4524946,2.464167
-30.44944,3.45277,2.4648476
-30.482811,3.4598792,2.4790888
-30.520075,3.439202,2.4382772
-30.556187,3.4294133,2.4190636
-30.589926,3.434993,2.4303236
-30.621674,3.450533,2.4613376
-30.65509,3.455828,2.472063
-30.688665,3.45986,2.4803042
-30.729418,3.4321551,2.4256778
-30.766386,3.4233856,2.4085908
-30.798681,3.433967,2.4298582
-30.831312,3.4423885,2.4468613
-30.866526,3.4410546,2.4445548
-30.902328,3.4380264,2.438911
-30.941153,3.4257212,2.4149098
-30.978163,3.4202166,2.4043994
-31.010662,3.4286277,2.421464
-31.042961,3.4371166,2.4386964
-31.077341,3.4394557,2.443768
-31.112024,3.4409945,2.4472713
-31.149675,3.4350762,2.4360309
-31.187338,3.4297068,2.4258966
-31.224615,3.4257717,2.4186215
-31.248692,3.4524732,2.4719925
-31.282843,3.4553404,2.478209
-31.324345,3.4424026,2.4531722
-31.37659,3.407984,2.3856654
-31.406336,3.4213104,2.412633
-31.43978,3.4267826,2.424078
-31.467838,3.4424398,2.4556813
-31.500454,3.448941,2.469191
-31.53945,3.4436944,2.4594913
-31.591238,3.4162536,2.4059405
-31.626858,3.4182549,2.410614
-31.657545,3.4286363,2.4318666
-31.692768,3.4312482,2.4377809
-31.726343,3.4365613,2.4490495
-31.77726,3.4146142,2.4064884
-31.825432,3.398041,2.3745751
-31.8591,3.4041216,2.387424
-31.88883,3.4158998,2.4115376
-31.903584,3.4488633,2.477481
-31.964943,3.4151177,2.4117665
-32.017918,3.3944855,2.3719745
-32.052124,3.400188,2.384171
-32.06812,3.4299371,2.4438152
-32.110043,3.4250891,2.4352293
-32.15149,3.4212203,2.4286008
-32.202312,3.4059935,2.3996062
-32.24251,3.404522,2.3977547
-32.290222,3.394273,2.378633
-32.295296,3.4348946,2.4597554
-32.33864,3.4299095,2.4510412
-32.398815,3.4061265,2.4053373
-32.431183,3.4144688,2.4229217
-32.474064,3.4111614,2.4175935
-32.511307,3.4142537,2.4248848
-32.545403,3.4207826,2.4389567
-32.605656,3.3999555,2.3992424
-32.65969,3.3864012,2.3738742
-32.689213,3.3982737,2.398528
-32.724712,3.4040184,2.411151
-32.765606,3.4045053,2.4134626
-32.832962,3.3796616,2.3660455
-32.86614,3.3882391,2.3843079
-32.897415,3.3985302,2.4059515
-32.92762,3.4097068,2.4293466
-32.973732,3.4063325,2.4242082
-33.04405,3.381649,2.3773046
-33.089428,3.3798459,2.3753223
-33.121483,3.3898594,2.396531
-33.148197,3.4043627,2.4265518
-33.205017,3.3933072,2.4065185
-33.260788,3.3836524,2.3892703
-33.314,3.3765814,2.3771214
-33.336555,3.394667,2.4142394
-33.372627,3.4017148,2.429772
-33.423664,3.3970444,2.42241
-33.496227,3.3760626,2.3831978
-33.526413,3.3882277,2.4088202
-33.55017,3.4051366,2.4437232
-33.61122,3.394102,2.4240704
-33.698555,3.3643215,2.3678741
-33.700935,3.397021,2.4336653
-33.746166,3.398502,2.43855
-33.796906,3.3962958,2.4362788
-33.89281,3.362965,2.3733916
-33.922707,3.3760505,2.4010096
-33.96243,3.3823812,2.4154897
-33.99251,3.3952417,2.4427028
-34.081554,3.3690722,2.394003
-34.135246,3.3668633,2.3919764
-34.160744,3.3831172,2.4258776
-34.202286,3.3890107,2.4396615
-34.266174,3.3809698,2.426415
-34.339317,3.3676436,2.4029646
-34.357243,3.3887274,2.446333
-34.403114,3.3926418,2.456411
-34.459362,3.3905182,2.454822
-34.53175,3.3791776,2.4354258
-34.54644,3.4020238,2.4822793
-34.61114,3.3957715,2.472827
-34.661697,3.3979862,2.479806
-34.75789,3.3747523,2.4376388
-34.78854,3.3887634,2.467514
-34.83437,3.3943818,2.4812036
-34.948116,3.3633025,2.424119
-34.987255,3.3732328,2.4462357
-35.002,3.3961346,2.493379
