x,y,z
-29.007566,3.2920837,4.0470963
-29.034143,3.2909784,4.043085
-29.069511,3.3115296,4.066665
-29.097322,3.3141882,4.0675883
-29.119728,3.3031042,4.0510864
-29.146637,3.3034966,4.0492477
-29.173525,3.3039618,4.0475664
-29.200392,3.3044982,4.04604
-29.22849,3.3087256,4.0492883
-29.256496,3.3130307,4.052706
-29.283617,3.3149967,4.0532036
-29.31337,3.3255017,4.064683
-29.337524,3.3185432,4.0538993
-29.363602,3.3176997,4.0509944
-29.389858,3.3175302,4.0490136
-29.41661,3.3192487,4.049512
-29.442837,3.3192177,4.0478315
-29.46999,3.3229,4.0509734
-29.495708,3.3211858,4.0472565
-29.522896,3.3256183,4.051488
-29.548191,3.3222146,4.045722
-29.574337,3.3225274,4.0447865
-29.600218,3.3216903,4.0424333
-29.627192,3.3264055,4.0472784
-29.653494,3.328144,4.048357
-29.680191,3.3323917,4.052726
-29.706284,3.3336587,4.0533214
-29.731571,3.3301091,4.047777
-29.757103,3.3278456,4.0439444
-29.782759,3.3262577,4.0410395
-29.80939,3.3320708,4.047727
-29.835096,3.3312287,4.0459013
-29.860481,3.3273942,4.040277
-29.88667,3.330966,4.0442553
-29.913172,3.33889,4.0539055
-29.938972,3.3401508,4.0550246
-29.964012,3.33107,4.0428677
-29.989523,3.326951,4.0371647
-30.015266,3.3259597,4.035553
-30.041206,3.3293214,4.039614
-30.067118,3.3339753,4.0454016
-30.092802,3.33257,4.0434303
-30.118593,3.3379698,4.050296
-30.144266,3.3379223,4.050193
-30.169949,3.3367152,4.0486517
-30.195684,3.3337362,4.0448833
-30.221447,3.3320491,4.0428386
-30.247355,3.3273654,4.036987
-30.272984,3.330711,4.0415516
-30.298616,3.3328972,4.0446773
-30.324371,3.3326998,4.0447874
-30.349806,3.3368545,4.050567
-30.375685,3.3349524,4.0485954
-30.402828,3.320268,4.030205
-30.428974,3.317892,4.027744
-30.454678,3.3198657,4.030946
-30.480497,3.320682,4.032716
-30.505238,3.3295095,4.0448627
-30.531397,3.3274007,4.04298
-30.55581,3.336964,4.056185
-30.584146,3.3215568,4.037303
-30.610878,3.317214,4.032728
-30.637589,3.3135521,4.0290914
-30.663786,3.3130093,4.0295286
-30.689753,3.3137531,4.03168
-30.715061,3.31761,4.0378895
-30.74003,3.3227472,4.0458
-30.765188,3.3267293,4.0522833
-30.79072,3.3289514,4.0565634
-30.821583,3.3099747,4.033707
-30.84677,3.3141623,4.0406346
-30.874855,3.3074913,4.033703
-30.900856,3.3087811,4.037037
-30.92737,3.3083205,4.03819
-30.952805,3.3115625,4.0441427
-30.977432,3.317288,4.0533295
-31.004292,3.3158212,4.053376
-31.036,3.299932,4.0350637
-31.062456,3.3004317,4.0377617
-31.091457,3.2937675,4.0313807
-31.118639,3.292606,4.03209
-31.145182,3.2933235,4.0352592
-31.168737,3.3019257,4.0485306
-31.196377,3.2997727,4.048166
-31.223585,3.298895,4.049491
-31.25601,3.2855055,4.034984
-31.286936,3.276408,4.026017
-31.315464,3.2733827,4.0248375
-31.338251,3.2835793,4.04049
-31.368685,3.2765229,4.034335
-31.393753,3.281476,4.043461
-31.421555,3.280539,4.0451946
-31.453411,3.2713552,4.0365787
-31.485163,3.2628624,4.028924
-31.511122,3.2663271,4.036436
-31.544636,3.255053,4.0254393
-31.571253,3.2574873,4.0317936
-31.597208,3.2611728,4.0397844
-31.62311,3.2649255,4.0479207
-31.657454,3.2534313,4.0369844
-31.689373,3.2467518,4.0321856
-31.722452,3.2384086,4.0253925
-31.747458,3.244242,4.0364265
-31.779356,3.2384274,4.0329638
-31.805351,3.2426476,4.0421143
-31.834166,3.2422652,4.0455885
-31.867764,3.2343895,4.0398083
-31.907475,3.2173102,4.022681
-31.944134,3.205597,4.0123463
-31.961143,3.2241578,4.0396795
-31.996445,3.2149525,4.032631
-32.022892,3.2191534,4.042277
-32.058853,3.2095785,4.034965
-32.092587,3.2035775,4.032174
-32.127686,3.195958,4.0274878
-32.15589,3.1982055,4.03505
-32.194588,3.1862147,4.0251894
-32.22416,3.1869297,4.0310445
-32.249855,3.1928642,4.043373
-32.29468,3.173813,4.025197
-32.32618,3.1725395,4.0288916
-32.36757,3.1588855,4.017576
-32.402443,3.1538663,4.0169134
-32.42461,3.164771,4.0357156
-32.457714,3.1621966,4.0382037
-32.48714,3.1642244,4.0463657
-32.544506,3.133229,4.0146646
-32.572777,3.1371768,4.0253754
-32.61019,3.130587,4.02346
-32.640415,3.1324837,4.0318756
-32.678047,3.1261258,4.030463
-32.722313,3.1126804,4.0206766
-32.764328,3.1021633,4.0145493
-32.799423,3.099527,4.0179768
-32.84026,3.090942,4.0144253
-32.877636,3.086347,4.0157595
-32.92142,3.0752969,4.009552
-32.955364,3.0747955,4.015996
-32.99523,3.0684,4.0155764
-33.0374,3.0599637,4.012886
-33.076473,3.054934,4.0143514
-33.10852,3.0570743,4.024372
-33.156643,3.0436525,4.0162506
-33.2,3.035257,4.0141854
-33.22942,3.0404434,4.02812
-33.26902,3.0360718,4.0310135
-33.3116,3.0291648,4.0310993
-33.389668,2.9899144,3.993873
-33.417656,2.9972115,4.0107713
-33.46026,2.9913425,4.0125685
-33.505962,2.9829817,4.0116553
-33.568596,2.9600425,3.9941947
-33.605137,2.9604611,4.003708
-33.651417,2.9526212,4.0039244
-33.70154,2.9418192,4.000944
-33.745716,2.93641,4.0042777
-33.80058,2.9223397,3.9979773
-33.851963,2.9115849,3.9956374
-33.91807,2.8891673,3.9803839
-33.956017,2.8901482,3.9916558
-33.993973,2.8912544,4.0031986
-34.033222,2.8914652,4.0138755
-19.362066,1.4431975,4.0208473
-19.01878,1.2571495,3.839684
-18.774874,1.1105952,3.6864986
-19.402485,1.3373282,3.8232741
-20.627026,1.8280654,4.172918
-20.720604,1.8319366,4.142528
-20.933247,1.8889259,4.155504
-21.022026,1.8919796,4.1259613
-21.30687,1.9837666,4.169835
-21.383741,1.9829977,4.1388183
-21.544735,2.0211267,4.1407766
-21.670107,2.0437794,4.130667
-21.792587,2.0658078,4.120777
-21.927486,2.0943952,4.117245
-22.145775,2.1634383,4.1495442
-22.25336,2.1809351,4.138213
-22.369085,2.2029788,4.131501
-22.556498,2.2607093,4.1570888
-22.587824,2.242875,4.116325
-22.772371,2.3011556,4.1441555
-22.84753,2.3059049,4.1245794
-22.981176,2.3406067,4.132732
-23.053463,2.344876,4.1136866
-23.201794,2.3886588,4.131572
-23.263008,2.3882132,4.109117
-23.410282,2.4331508,4.1295047
-23.473545,2.4346948,4.1097937
-23.613262,2.4773445,4.129413
-23.672903,2.4778643,4.1095757
-23.823538,2.52811,4.137806
-23.865232,2.5197382,4.110221
-23.98698,2.5557706,4.125975
-24.051392,2.5606594,4.1119423
-24.13845,2.578634,4.111082
-24.254087,2.6134236,4.127288
-24.296848,2.6072326,4.1033826
-24.36444,2.6155362,4.094133
-24.470371,2.646629,4.108089
-24.54435,2.6596544,4.1043596
-24.64325,2.6879778,4.116503
-24.693092,2.6875458,4.099842
-24.761034,2.6982937,4.0948453
-24.887365,2.7452035,4.127372
-24.90601,2.726632,4.0928707
-24.976238,2.7400959,4.091663
-25.062485,2.7640967,4.1017723
-25.116663,2.768361,4.0916266
-25.181717,2.7798772,4.089343
-25.270563,2.8072162,4.1040688
-25.32562,2.81317,4.0965366
-25.384144,2.8217134,4.092
-25.453943,2.8381195,4.096126
-25.534107,2.8619986,4.108591
-25.569256,2.8559384,4.0891623
-25.631908,2.8688068,4.090334
-25.720182,2.8998463,4.111511
-25.752283,2.892385,4.0911407
-25.813498,2.90551,4.0933924
-25.882692,2.9247558,4.102626
-25.941284,2.936918,4.1043625
-25.975224,2.9315605,4.086982
-26.01529,2.9307632,4.0747714
-26.098846,2.9623814,4.0987754
-26.160536,2.978414,4.1057596
-26.192842,2.9726958,4.088644
-26.250813,2.9866416,4.093724
-26.309155,3.0013204,4.099869
-26.37109,3.0192614,4.1099415
-26.395391,3.0080638,4.0872355
-26.445393,3.0172572,4.087777
-26.498367,3.02919,4.0916376
-26.549839,3.040304,4.0947695
-26.593586,3.0454555,4.0912642
-26.628527,3.0435572,4.079811
-26.675165,3.0515828,4.079916
-26.73262,3.0691037,4.0911746
-26.781847,3.0800972,4.0950956
-26.804989,3.06887,4.073373
-26.850975,3.0775542,4.0749063
-26.894405,3.084311,4.074356
-26.954706,3.1064672,4.091996
-26.993029,3.1093597,4.0872626
-27.022608,3.1044526,4.073478
-27.06026,3.1070523,4.068632
-27.101814,3.1134992,4.068459
-27.155037,3.1312861,4.0818677
-27.19563,3.1375203,4.0817566
-27.229992,3.1380002,4.074936
-27.271992,3.1461127,4.077327
-27.304035,3.1446762,4.068447
-27.34684,3.1541405,4.0727196
-27.392109,3.1664648,4.0805726
-27.422857,3.1642966,4.0711555
-27.454142,3.162764,4.062591
-27.486982,3.1629615,4.0562067
-27.534153,3.1785743,4.0685687
-27.581512,3.1949098,4.081974
-27.622507,3.2048273,4.0877542
-27.64836,3.1983654,4.073744
-27.674799,3.192522,4.06055
-27.713505,3.2005808,4.064396
-27.74962,3.2059984,4.065136
-27.795622,3.2232065,4.080434
-27.830427,3.2277725,4.0803757
-27.859056,3.225194,4.071641
-27.88817,3.2232556,4.0637693
-27.918207,3.2225223,4.057461
-27.95364,3.2286167,4.059669
-27.992939,3.2398925,4.068394
-28.039917,3.2614565,4.089991
-28.063866,3.253806,4.0755005
-28.090082,3.2490447,4.0646524
-28.12145,3.2511604,4.0624256
-28.151918,3.2522335,4.0589876
-28.185234,3.257383,4.060719
-28.2278,3.2757607,4.079076
-28.256323,3.2748554,4.0734453
-28.28603,3.2757483,4.07014
-28.312569,3.2721386,4.061265
-28.341469,3.272047,4.0568743
-28.371109,3.2731888,4.0541086
-28.404827,3.2807593,4.0595164
-28.442808,3.2953668,4.0738926
-28.471762,3.2962196,4.0710235
-28.49531,3.2884626,4.057351
-28.523214,3.2877264,4.0526085
-28.553543,3.2911348,4.0531864
-28.58242,3.2923045,4.051005
-28.611591,3.294139,4.0497417
-28.647306,3.3077345,4.063495
-28.680796,3.3179379,4.07304
-28.702915,3.3077548,4.0567265
-28.73022,3.3070006,4.0524707
-28.755987,3.303385,4.044632
-28.785727,3.3074787,4.046694
-28.815666,3.3122478,4.049696
-28.844625,3.3153353,4.050625
-28.875216,3.3220463,4.056267
-28.9012,3.3193944,4.0499926
-28.93104,3.325092,4.0544844
-28.957813,3.3243618,4.050805
-28.984848,3.324296,4.048042
-29.010845,3.3219287,4.042384
-29.038874,3.3243828,4.0429883
-29.068306,3.3304844,4.048356
-29.09689,3.3348842,4.051606
-29.124907,3.3381727,4.0534945
-29.151033,3.3367643,4.049394
-29.177616,3.3366199,4.046983
-29.20419,3.3365455,4.0447254
-29.231169,3.3377385,4.0441675
-29.25913,3.3419983,4.047639
-29.286404,3.3445377,4.048952
-29.313808,3.3477511,4.051202
-29.340954,3.3504386,4.0528364
-29.366594,3.3483925,4.0484
-29.392265,3.3464122,4.044107
-29.419645,3.3505166,4.047764
-29.446123,3.3516836,4.0476737
-29.473352,3.3559346,4.051649
-29.500338,3.3596556,4.055001
-29.52435,3.3513815,4.0428257
-29.549625,3.3479955,4.037057
-29.577877,3.357964,4.0487123
-29.603138,3.354713,4.043236
-29.630749,3.3630176,4.0528555
-29.655891,3.3592954,4.0468826
-29.681646,3.358664,4.0449896
-29.707716,3.359916,4.0456076
-29.733753,3.3612356,4.0463724
-29.759123,3.358381,4.041755
-29.784712,3.356803,4.038858
-29.811197,3.3619633,4.0448046
-29.83699,3.3623393,4.044571
-29.862503,3.360354,4.041315
-29.88854,3.3632908,4.0445385
-29.91435,3.3644738,4.0455303
-29.939985,3.3639011,4.0442886
-29.965109,3.3561034,4.0336723
-29.990942,3.3574848,4.0350943
-30.016558,3.3552856,4.031899
-30.042292,3.3549757,4.031227
-30.06826,3.3620267,4.040224
-30.09398,3.364281,4.0430164
-30.119642,3.3653858,4.044364
-30.145285,3.3689885,4.04903
-30.17094,3.361714,4.039547
-30.196642,3.3599772,4.0373535
-30.222345,3.359522,4.036891
-30.248035,3.359741,4.037366
-30.273664,3.3612418,4.039571
-30.299162,3.3646305,4.044298
-30.324675,3.3668694,4.0475807
-30.350143,3.3691735,4.051004
-30.376043,3.366077,4.0474343
-30.40259,3.356976,4.036087
-30.428802,3.352801,4.031229
-30.45496,3.3499095,4.0281043
-30.48026,3.3543665,4.034623
-30.505972,3.3552485,4.0365353
-30.532288,3.351952,4.033057
-30.558107,3.3523617,4.034469
-30.584324,3.3504148,4.0328684
-30.61037,3.3497477,4.032994
-30.63666,3.3479376,4.0316906
-30.662874,3.3468015,4.031323
-30.689116,3.3457344,4.031105
-30.714733,3.347757,4.0349674
-30.74127,3.3456178,4.033473
-30.766865,3.3477738,4.0376244
-30.793013,3.3475823,4.0387816
-30.820248,3.3432393,4.0346065
-30.847576,3.3389707,4.030592
-30.874004,3.3383884,4.0314264
-30.901138,3.3354692,4.0292892
-30.927805,3.334427,4.0296507
-30.951756,3.3424659,4.0418386
-30.975748,3.3499608,4.0533724
-31.005253,3.3401222,4.0425224
-31.03456,3.3315673,4.033408
-31.063217,3.3254921,4.0275745
-31.089668,3.326078,4.0304165
-31.116991,3.3243427,4.030323
-31.14436,3.322682,4.0303907
-31.164875,3.3389883,4.053691
-31.193571,3.3338835,4.049436
-31.22431,3.324099,4.0392275
-31.253027,3.319758,4.036104
-31.280577,3.3184676,4.036977
-31.309975,3.3131003,4.0326767
-31.33817,3.3107808,4.032365
-31.366423,3.3085403,4.0322237
-31.391418,3.3134732,4.0413465
-31.41887,3.3131537,4.0437984
-31.449797,3.3058317,4.0373564
-31.479706,3.3009584,4.0341287
-31.508528,3.2985263,4.0340967
-31.538937,3.2932384,4.030493
-31.568533,3.2898002,4.0293283
-31.594734,3.2928934,4.0365577
-31.622824,3.2925434,4.039469
-31.653883,3.287014,4.035865
-31.686731,3.2786608,4.02876
-31.717049,3.2750707,4.027788
-31.745388,3.2750587,4.031433
-31.775494,3.2722232,4.0315742
-31.803541,3.2729545,4.036304
-31.833036,3.2714481,4.0382786
-31.863314,3.2688706,4.0389795
-31.893288,3.2669587,4.0406
-31.931246,3.2530375,4.0271873
-31.962978,3.2490218,4.026342
-31.992863,3.2479734,4.0293093
-32.018063,3.2538888,4.041087
-32.043167,3.259867,4.0530005
-32.089237,3.2362123,4.0279183
-32.12388,3.2292588,4.0238495
-32.15202,3.2315202,4.031373
-32.186882,3.2247734,4.02775
-32.219757,3.2209728,4.0278955
-32.24798,3.2234964,4.035989
-32.27748,3.2244048,4.0421505
-32.32736,3.1994803,4.016412
-32.360256,3.1966753,4.018191
-32.38643,3.2023888,4.0305786
-32.423527,3.1947308,4.026554
-32.449654,3.200607,4.0392947
-32.47851,3.2032046,4.048071
-32.523003,3.1875238,4.0345125
-32.563496,3.177002,4.0274224
-32.606148,3.1644053,4.01793
-32.640244,3.1619084,4.0209036
-32.673912,3.1600711,4.0247808
-32.713646,3.1517382,4.0208654
-32.75609,3.1407986,4.013917
-32.79825,3.1305575,4.0079594
-32.833923,3.1275654,4.010906
-32.87697,3.1170611,4.004904
-32.911823,3.1154072,4.0097027
-32.95098,3.1095273,4.0095325
-32.990276,3.1037812,4.0096517
-33.03241,3.0954716,4.0068345
-33.07199,3.090001,4.007552
-33.105644,3.0905685,4.0155964
-33.15043,3.0805378,4.0111437
-33.175804,3.0893497,4.0292006
-33.20783,3.091837,4.0398335
-33.260944,3.07478,4.0274854
-33.300014,3.0711627,4.0311728
-33.34846,3.0592332,4.025223
-33.41821,3.0285351,3.9974494
-33.451397,3.0311947,4.0089808
-33.494667,3.0250597,4.0103536
-33.56504,2.9955971,3.9847336
-33.599743,2.9976444,3.995986
-33.644783,2.990983,3.997266
-33.692425,2.9824162,3.996511
-33.735924,2.977634,4.0002937
-33.77892,2.9735212,4.005003
-33.822643,2.969048,4.0094547
-33.886055,2.9488976,3.9961638
-33.923138,2.9503877,4.00778
-33.95638,2.955044,4.023117
-34.00699,2.946145,4.023215
-19.168976,1.4356389,3.9280682
-18.77976,1.2322016,3.7294846
-18.678907,1.1467144,3.621572
-19.402493,1.4098635,3.7921982
-20.645296,1.9004986,4.151904
-20.762474,1.9142092,4.130176
-20.964779,1.965635,4.140293
-21.106464,1.991688,4.1305504
-21.34985,2.0636969,4.160332
-21.411976,2.056178,4.1241603
-21.564451,2.0896826,4.1234417
-21.734417,2.1320982,4.131344
-21.91484,2.180418,4.145427
-22.040094,2.2043154,4.139162
-22.145483,2.2196496,4.1260476
-22.312298,2.2646005,4.1399584
-22.393404,2.2697878,4.1191087
-22.563318,2.3181036,4.137767
-22.673153,2.33841,4.1318665
-22.777668,2.35676,4.124784
-22.896807,2.3829572,4.1255417
-23.00148,2.4026866,4.1209383
-23.093483,2.4166672,4.111514
-23.218033,2.4477057,4.1186943
-23.322483,2.4692678,4.1175556
-23.412746,2.484145,4.1105833
-23.533524,2.5154772,4.1199284
-23.627167,2.53334,4.116883
-23.714077,2.5481992,4.1113997
-23.82471,2.5763006,4.119345
-23.921333,2.5975738,4.1211443
-24.005695,2.6127775,4.1174273
-24.055857,2.6096385,4.095847
-24.16574,2.639902,4.1079717
-24.25868,2.66144,4.111874
-24.323217,2.667506,4.1005726
-24.426361,2.6959872,4.112397
-24.483515,2.69867,4.098345
-24.563614,2.7149875,4.098572
-24.668612,2.7464635,4.1148515
-24.715302,2.7441366,4.0965605
-24.799805,2.7646248,4.1022635
-24.88318,2.7850227,4.10828
-24.925018,2.7806578,4.088627
-24.992958,2.7924924,4.0862665
-25.098436,2.8280969,4.10946
-25.139183,2.8239365,4.09076
-25.198286,2.8315265,4.0848002
-25.295126,2.8635964,4.1054254
-25.333397,2.8586445,4.0865364
-25.412085,2.8801394,4.0964603
-25.471733,2.8897023,4.0937586
-25.534035,2.9013968,4.093642
-25.593264,2.9114416,4.0919847
-25.653694,2.922676,4.0918903
-25.7286,2.9442139,4.1034346
-25.77108,2.9439466,4.0911374
-25.831516,2.956379,4.093129
-25.899261,2.9743824,4.101597
-25.947527,2.9790518,4.095418
-25.996355,2.984389,4.0901775
-26.046404,2.9908886,4.086438
-26.11038,3.0078979,4.094787
-26.176018,3.0266466,4.1053796
-26.213503,3.0248804,4.0928893
-26.261501,3.0311842,4.089745
-26.325668,3.0501227,4.1012583
-26.376497,3.0593252,4.1018515
-26.407175,3.0531723,4.0849447
-26.461578,3.0657291,4.089754
-26.517628,3.0800123,4.096778
-26.571493,3.0929961,4.1025133
-26.613207,3.0965362,4.097451
-26.646133,3.0930872,4.0843687
-26.687098,3.0963874,4.079297
-26.744482,3.1136777,4.090803
-26.788774,3.1203923,4.0900774
-26.822073,3.1179795,4.0787334
-26.86076,3.120329,4.073128
-26.902334,3.125405,4.0708885
-26.967297,3.1514502,4.093734
-27.010176,3.1584444,4.094125
-27.037281,3.1514556,4.077953
-27.071363,3.1508408,4.069487
-27.111113,3.155599,4.0675764
-27.167088,3.175805,4.084386
-27.209246,3.1835256,4.086351
-27.240707,3.1813102,4.0764523
-27.28645,3.193028,4.0835185
-27.317259,3.1905055,4.0734644
-27.35509,3.19503,4.0720663
-27.393873,3.2007551,4.0722523
-27.430405,3.2044616,4.070099
-27.4616,3.2028975,4.0616126
-27.502132,3.211156,4.0652533
-27.529636,3.2060103,4.0525684
-27.58518,3.230811,4.076792
-27.621098,3.2351418,4.0759916
-27.650425,3.2324958,4.0666895
-27.681747,3.2321224,4.0602756
-27.714025,3.2329397,4.055425
-27.75157,3.239901,4.058291
-27.795639,3.2546988,4.0710154
-27.832317,3.2613757,4.0737753
-27.8623,3.2604313,4.067142
-27.890892,3.2579117,4.0586224
-27.923157,3.2599165,4.0558367
-27.958063,3.2653613,4.057452
-27.99596,3.2748232,4.0642123
-28.02572,3.274352,4.058605
-28.059381,3.279008,4.0595303
-28.09207,3.282648,4.059271
-28.120419,3.2807665,4.0521355
-28.15171,3.2829087,4.0501566
-28.18666,3.2902248,4.0548115
-28.22838,3.307268,4.0718946
-28.257269,3.3068953,4.067011
-28.286934,3.3077402,4.0637484
-28.311861,3.3018484,4.0519924
-28.341898,3.3034234,4.0498037
-28.374548,3.3090806,4.0528994
-28.40594,3.3131247,4.054025
-28.435753,3.3149734,4.05243
-28.465145,3.3163357,4.050289
-28.494846,3.3183575,4.0490685
-28.523077,3.318164,4.045083
-28.55511,3.3243885,4.0494075
-28.585978,3.3289793,4.051719
-28.614382,3.3296165,4.0490255
-28.642094,3.3291762,4.0450144
-28.673693,3.3357682,4.0501366
-28.701952,3.3366513,4.0479755
-28.72892,3.335288,4.042982
-28.755283,3.3328338,4.0366416
-28.784996,3.3368602,4.038748
-28.816689,3.3450582,4.046334
-28.846748,3.350431,4.0503416
-28.875261,3.3529668,4.050744
-28.903429,3.3549964,4.05056
-28.93154,3.3571053,4.0505466
-28.957184,3.3540068,4.043829
-28.982088,3.3492107,4.034959
-29.01168,3.3550715,4.0400243
-29.039639,3.357483,4.040667
-29.067291,3.3593814,4.0407085
-29.096085,3.3643093,4.0447693
-29.123371,3.3657718,4.0443745
-29.149477,3.3643498,4.040272
-29.176262,3.3647733,4.038643
-29.204748,3.3700109,4.043376
-29.23228,3.3729558,4.0451756
-29.257908,3.37063,4.0401335
-29.284758,3.3719373,4.039911
-29.312527,3.3762913,4.043747
-29.336664,3.3694086,4.0328994
-29.362368,3.3673513,4.028439
-29.388102,3.3653605,4.0241227
-29.415379,3.3688066,4.027009
-29.443388,3.3753133,4.0339847
-29.470165,3.3777137,4.035623
-29.49598,3.3765976,4.032694
-29.522242,3.3773437,4.0322733
-29.548063,3.3763623,4.029636
-29.573896,3.3754473,4.027143
-29.599485,3.3734007,4.023215
-29.627403,3.382815,4.0344563
-29.653864,3.3857055,4.0371575
-29.679277,3.3832626,4.03288
-29.704424,3.3790827,4.0263643
-29.729742,3.3755674,4.02078
-29.754671,3.36911,4.011364
-29.780998,3.3717356,4.0140004
-29.80798,3.3798442,4.023939
-29.833918,3.3808036,4.024491
-29.860638,3.3890538,4.034737
-29.88627,3.388343,4.0331955
-29.911913,3.3876982,4.0317974
-29.936924,3.3792877,4.020186
-29.962576,3.3775687,4.017477
-29.988443,3.378928,4.0188956
-30.014315,3.3809566,4.0212564
-30.04009,3.3818464,4.022167
-30.065866,3.3834057,4.0240192
-30.09165,3.3868399,4.028408
-30.117327,3.3873258,4.0289526
-30.142979,3.3818483,4.0216618
-30.168774,3.3722167,4.0089297
-30.19449,3.3777244,4.016286
-30.220333,3.3748574,4.0126176
-30.245983,3.3786879,4.0178666
-30.271671,3.3801737,4.020068
-30.297056,3.3865457,4.02879
-30.32276,3.3863544,4.0288835
-30.348797,3.3820114,4.0235434
-30.374395,3.38376,4.0263157
-30.400665,3.3783474,4.019676
-30.426464,3.3784227,4.0203476
-30.45156,3.384583,4.029119
-30.477682,3.3817809,4.0261
-30.5037,3.3802505,4.0248203
-30.52931,3.3817935,4.027656
-30.556217,3.374988,4.0195236
-30.58286,3.3706584,4.014721
-30.608107,3.374806,4.0211673
-30.63395,3.3754165,4.023
-30.66038,3.3730936,4.0210204
-30.686487,3.3726394,4.021564
-30.71209,3.37465,4.0254145
-30.73766,3.3767269,4.029407
-30.765467,3.3692913,4.0209274
-30.792246,3.3667185,4.0189157
-30.818007,3.368402,4.0225654
-30.844862,3.3659701,4.020859
-30.872103,3.3624158,4.0177374
-30.898739,3.3613214,4.017913
-30.925583,3.359702,4.017458
-30.952467,3.3581543,4.0171595
-30.97996,3.3548932,4.014674
-31.007332,3.3523016,4.0131307
-31.034565,3.350379,4.0125284
-31.0604,3.3526855,4.017529
-31.08705,3.352686,4.019567
-31.113056,3.3545344,4.024085
-31.139936,3.3540826,4.0256524
-31.167757,3.351337,4.0242844
-31.194702,3.3510315,4.02617
-31.223598,3.346077,4.0220504
-31.253845,3.3382573,4.0142655
-31.281471,3.3370042,4.0151157
-31.309395,3.3352394,4.015364
-31.334452,3.3400147,4.02419
-31.360783,3.341918,4.029336
-31.38737,3.343304,4.033869
-31.414225,3.3441744,4.037795
-31.445688,3.3357623,4.029744
-31.477625,3.3268611,4.021144
-31.505558,3.3262234,4.023328
-31.535353,3.322168,4.021158
-31.561203,3.3257618,4.0289493
-31.590479,3.323032,4.028635
-31.619183,3.3215463,4.0299993
-31.6499,3.316667,4.0270615
-31.683733,3.3066745,4.0176234
-31.715065,3.3014097,4.0143595
-31.744793,3.2991223,4.015004
-31.771784,3.3015268,4.0217457
-31.796253,3.3080268,4.033802
-31.82604,3.305978,4.0349627
-31.86029,3.2971406,4.027519
-31.894733,3.2884128,4.020314
-31.927853,3.2820802,4.016264
-31.957277,3.2815518,4.019703
-31.985565,3.2828155,4.0254993
-32.01306,3.2852936,4.0329103
-32.044132,3.2827432,4.0340037
-32.071625,3.28538,4.0417585
-32.11553,3.2654936,4.021058
-32.152344,3.255917,4.0135403
-32.179237,3.2599711,4.023348
-32.212914,3.2551084,4.021975
-32.24108,3.25764,4.030011
-32.27623,3.2512977,4.0269594
-32.315075,3.2406025,4.018545
-32.35145,3.2333837,4.0146117
-32.377098,3.2396312,4.027647
-32.416428,3.2292962,4.0200133
-32.448082,3.22851,4.024422
-32.482124,3.2250564,4.0255957
-32.51293,3.2255707,4.0318046
-32.557686,3.2102244,4.0184
-32.58673,3.2131524,4.0278053
-32.63047,3.199736,4.0170565
-32.661102,3.2012277,4.024876
-32.69724,3.196814,4.0254955
-32.740578,3.1849072,4.017002
-32.783653,3.173699,4.009513
-32.82077,3.1691382,4.0103226
-32.85331,3.1695585,4.0173473
-32.897976,3.1576948,4.0094566
-32.939175,3.1497536,4.0065036
-32.97518,3.147313,4.0103817
-33.010178,3.146059,4.0158134
-33.051243,3.1390543,4.014383
-33.09081,3.1337888,4.015193
-33.133286,3.126009,4.0130987
-33.168636,3.1252513,4.019608
-33.195534,3.1325154,4.0358667
-33.24232,3.1214504,4.030216
-33.27782,3.1210432,4.037485
-33.330784,3.1050687,4.026285
-33.390514,3.0835657,4.0087023
-33.431183,3.079454,4.012014
-33.48684,3.0625277,4.000279
-33.525433,3.060804,4.00673
-33.571346,3.053028,4.006174
-33.62536,3.0387444,3.9981294
-33.67106,3.0318375,3.9989483
-33.717537,3.0245876,3.9995313
-33.76418,3.0175078,4.0004835
-33.81663,3.0060344,3.9964957
-33.857937,3.003863,4.0035057
-33.910778,2.992764,4.000329
-33.952946,2.9904075,4.0074463
-33.985493,2.995709,4.023526
-34.04075,2.983644,4.019784
-19.305801,1.5922151,4.0154133
-18.973436,1.416568,3.8379512
-18.72142,1.2711425,3.6822581
-19.34576,1.4870095,3.817144
-20.600359,1.9711181,4.1756115
-20.672874,1.965138,4.137783
-20.878376,2.0161123,4.1478615
-21.01951,2.0406942,4.1370153
-21.193304,2.0802615,4.1397653
-21.389898,2.130893,4.153077
-21.49855,2.1439116,4.1350617
-21.6027,2.1554966,4.116423
-21.768415,2.195342,4.1232557
-21.939505,2.2386827,4.1341863
-22.088634,2.2730672,4.1381297
-22.21177,2.296365,4.1329527
-22.352295,2.3285148,4.136526
-22.46366,2.3478155,4.1291475
-22.578907,2.3696127,4.124695
-22.721409,2.4051738,4.133675
-22.802494,2.4119415,4.1165247
-22.94988,2.4515028,4.1306987
-23.003159,2.4456754,4.102649
-23.169382,2.4962015,4.128662
-23.227276,2.4935408,4.1044946
-23.379187,2.5387259,4.126884
-23.443245,2.5400891,4.1074634
-23.561577,2.5697346,4.116049
-23.63823,2.5784798,4.1046777
-23.778223,2.6209183,4.127079
-23.841454,2.62368,4.110691
-23.929317,2.6399188,4.10811
-24.047045,2.6728246,4.1227703
-24.089148,2.6653576,4.097132
-24.182465,2.686158,4.1004634
-24.263664,2.700848,4.098004
-24.34459,2.7158847,4.0962977
-24.458586,2.7501297,4.114855
-24.502499,2.7452326,4.0932975
-24.58795,2.7643933,4.0970516
-24.690628,2.794149,4.112339
-24.749409,2.7989087,4.101775
-24.818672,2.8101802,4.0983686
-24.899763,2.8289456,4.1032553
-24.948277,2.828607,4.0880995
-25.028074,2.847529,4.0938215
-25.103804,2.8645096,4.097821
-25.155603,2.8671515,4.086643
-25.2308,2.8847106,4.0918965
-25.305656,2.9025872,4.0978384
-25.352594,2.9031575,4.0851507
-25.415363,2.914143,4.084108
-25.50589,2.943613,4.103751
-25.544495,2.939691,4.086793
-25.62357,2.9627523,4.0999985
-25.68034,2.9714906,4.097563
-25.745333,2.986149,4.1019964
-25.791216,2.9882066,4.092536
-25.834257,2.988519,4.0812798
-25.917873,3.0173106,4.102433
-25.964682,3.0209246,4.095352
-26.01003,3.0237443,4.087542
-26.0607,3.030612,4.084532
-26.123959,3.0469265,4.092557
-26.169556,3.0507894,4.0865126
-26.209085,3.0504045,4.075733
-26.27359,3.068859,4.0869055
-26.329882,3.0816503,4.0917664
-26.383312,3.092681,4.094798
-26.420393,3.0914874,4.083758
-26.472181,3.1018922,4.0864267
-26.528828,3.1164994,4.09423
-26.576342,3.1243,4.094238
-26.612404,3.12321,4.0839186
-26.647831,3.121733,4.0732574
-26.701145,3.1350727,4.0803022
-26.751728,3.146585,4.0853724
-26.799635,3.1562495,4.0884256
-26.832256,3.1533012,4.0765634
-26.871479,3.1560986,4.0716906
-26.915956,3.1636639,4.0726786
-26.966736,3.1770692,4.0808597
-27.009642,3.1839368,4.0813303
-27.040806,3.180574,4.069563
-27.078318,3.1830313,4.064947
-27.126566,3.195537,4.07267
-27.174547,3.208224,4.080784
-27.213867,3.2132134,4.0796676
-27.23365,3.1999092,4.0562916
-27.27069,3.2030075,4.0530643
-27.308186,3.206758,4.0507545
-27.367163,3.2318645,4.074858
-27.401577,3.2332604,4.069929
-27.431168,3.229965,4.0593038
-27.466034,3.2321045,4.055488
-27.505505,3.2391815,4.057905
-27.542755,3.2442443,4.0579424
-27.593117,3.263442,4.0756993
-27.623425,3.261766,4.0675898
-27.653234,3.2596374,4.0589967
-27.685526,3.26031,4.0539904
-27.717773,3.2610812,4.049199
-27.749496,3.2614071,4.0439377
-27.804613,3.2886055,4.072577
-27.835533,3.2886353,4.067173
-27.869232,3.2920518,4.066127
-27.893127,3.2840233,4.050709
-27.928577,3.2898333,4.052864
-27.963886,3.2957585,4.0552692
-27.995483,3.2973704,4.0523
-28.035404,3.309618,4.062943
-28.06112,3.3042173,4.051233
-28.093367,3.3072367,4.050321
-28.124254,3.3086812,4.0474863
-28.158865,3.3152506,4.0512877
-28.191668,3.3196907,4.0524616
-28.226402,3.3270392,4.057456
-28.257742,3.3300014,4.056916
-28.28781,3.331369,4.054411
-28.316647,3.331131,4.0499177
-28.349722,3.337195,4.0536175
-28.379604,3.3388307,4.0516953
-28.410183,3.3416893,4.051429
-28.439201,3.3423657,4.048421
-28.468187,3.3431258,4.0455923
-28.499647,3.3479595,4.0481167
-28.529577,3.350604,4.047884
-28.557,3.3493323,4.0426416
-28.58511,3.3492818,4.03905
-28.613537,3.3498836,4.036377
-28.641602,3.3499901,4.033128
-28.672571,3.3553536,4.0368013
-28.700857,3.3562,4.0346584
-28.728481,3.3559718,4.031179
-28.75732,3.3581305,4.0308876
-28.787312,3.3626857,4.033803
-28.81927,3.3713846,4.042222
-28.846672,3.3714795,4.039444
-28.8732,3.369906,4.03454
-28.901138,3.3713105,4.0336084
-28.928757,3.3722107,4.0320797
-28.957684,3.376102,4.0345497
-28.98704,3.3812435,4.0387344
-29.01012,3.372444,4.024628
-29.037874,3.3742275,4.024519
-29.064598,3.373746,4.0214853
-29.094662,3.3815432,4.0294404
-29.121525,3.3817987,4.0275087
-29.14723,3.3791888,4.0218496
-29.170315,3.369588,4.007
-29.199402,3.3759332,4.013299
-29.22604,3.3758802,4.011195
-29.252869,3.3764877,4.010026
-29.280466,3.3795278,4.012142
-29.305876,3.376145,4.0058017
-29.332645,3.3769646,4.0050936
-29.357222,3.3707557,3.9951122
-29.383307,3.3693438,3.9915535
-29.408903,3.3662217,3.9857783
-29.438618,3.3779902,3.9998589
-29.464796,3.3773818,3.9975457
-29.492332,3.382187,4.0024934
-29.518026,3.3799357,3.9981098
-29.54264,3.3729937,3.9875333
-29.568317,3.3702765,3.982636
-29.593786,3.366434,3.9762938
-29.619202,3.36206,3.9692962
-29.6485,3.3774142,3.988665
-29.67508,3.3797362,3.990715
-29.701708,3.3827243,3.9937131
-29.726616,3.375638,3.9833217
-29.752388,3.3733892,3.9794407
-29.778116,3.3706093,3.974905
-29.803179,3.3625185,3.9633296
-29.83126,3.3777957,3.9830275
-29.857143,3.376412,3.980525
-29.884893,3.3930326,4.002142
-29.910088,3.385806,3.9919422
-29.935867,3.3840265,3.989078
-29.96081,3.370346,3.9703555
-29.986622,3.3663025,3.9645724
-30.012922,3.3701057,3.969338
-30.039194,3.375174,3.9758523
-30.065578,3.3868961,3.9913228
-30.091616,3.393897,4.000535
-30.117355,3.3883915,3.9930727
-30.14317,3.369181,3.9673328
-30.169157,3.3781781,3.9793818
-30.19512,3.3782606,3.9795604
-30.221197,3.3742192,3.9742785
-30.246996,3.3798234,3.9819548
-30.272398,3.3914783,3.997777
-30.29805,3.3948188,4.002534
-30.324121,3.3910437,3.9978287
-30.350319,3.3867378,3.9924712
-30.376814,3.380108,3.9840634
-30.402918,3.378931,3.9830022
-30.429243,3.3760266,3.9796891
-30.454782,3.380364,3.986109
-30.479397,3.3913379,4.00145
-30.504786,3.3952038,4.007345
-30.53072,3.394955,4.0078
-30.557325,3.3905945,4.002822
-30.583921,3.3869016,3.998793
-30.609426,3.3898387,4.0036697
-30.635778,3.3880725,4.002326
-30.661934,3.3875666,4.0027213
-30.687859,3.3883204,4.0048523
-30.713644,3.3897357,4.007921
-30.739273,3.3918118,4.0119257
-30.76643,3.3874154,4.007365
-30.793535,3.3836863,4.003755
-30.819645,3.384186,4.005833
-30.846231,3.3829737,4.0056915
-30.871195,3.3877602,4.013582
-30.896585,3.3908312,4.019247
-30.92175,3.394559,4.025837
-30.950884,3.3853374,4.0152907
-30.979074,3.3797455,4.009631
-31.006021,3.3783665,4.0096235
-31.034416,3.372929,4.004299
-31.060652,3.3740563,4.0077376
-31.085386,3.3793745,4.016782
-31.111996,3.3794575,4.0189514
-31.139963,3.3760853,4.016611
-31.166397,3.3769004,4.0198708
-31.191883,3.3801322,4.0263805
-31.218771,3.3799124,4.028391
-31.247412,3.3756673,4.025154
-31.277418,3.3685803,4.0182405
-31.304466,3.36859,4.0207486
-31.331263,3.3692567,4.0241823
-31.359417,3.3670812,4.02394
-31.386522,3.3673124,4.0269275
-31.413921,3.367035,4.02931
-31.4448,3.3598666,4.0227175
-31.47466,3.3551102,4.0193653
-31.504332,3.3510194,4.016961
-31.53349,3.3481717,4.0162573
-31.558989,3.3523378,4.024792
-31.587906,3.3502254,4.0251846
-31.616884,3.348195,4.025755
-31.648546,3.341648,4.0205097
-31.679352,3.3369198,4.0177164
-31.709251,3.334004,4.0173607
-31.737848,3.3334646,4.02017
-31.768229,3.3301485,4.0194445
-31.797268,3.3292048,4.0218735
-31.821281,3.33632,4.034813
-31.858768,3.3224478,4.020648
-31.889462,3.3194904,4.0207014
-31.922882,3.3126569,4.01583
-31.954538,3.3087592,4.0148363
-31.981617,3.3117352,4.0227804
-32.00945,3.313656,4.0294323
-32.039673,3.3122764,4.0319104
-32.074,3.3053682,4.0273743
-32.114246,3.29072,4.0130177
-32.149384,3.2834883,4.008277
-32.17835,3.284749,4.014492
-32.209023,3.2838628,4.0180397
-32.23627,3.287518,4.0274568
-32.263916,3.2906919,4.036327
-32.303947,3.2784247,4.0256405
-32.343796,3.2668505,4.0159597
-32.378433,3.2620366,4.014971
-32.41503,3.2551312,4.0114355
-32.439228,3.263183,4.0269046
-32.472706,3.2603273,4.0286684
-32.513397,3.249371,4.0203266
-32.55288,3.2401943,4.0143538
-32.59354,3.2300656,4.007309
-32.62312,3.232575,4.016231
-32.652184,3.2357116,4.0260158
-32.693256,3.2259517,4.0197716
-32.73758,3.2130997,4.0098066
-32.77296,3.210096,4.012244
-32.80481,3.2109647,4.019598
-32.8492,3.1990771,4.011227
-32.89437,3.1868174,4.0025463
-32.928097,3.1864443,4.0086985
-32.96508,3.1829886,4.0111513
-33.00758,3.1743553,4.007349
-33.050274,3.165873,4.003875
-33.089844,3.1607063,4.004607
-33.126194,3.1588302,4.00949
-33.160366,3.159171,4.01719
-33.19683,3.1575284,4.022579
-33.23793,3.1518342,4.023161
-33.283775,3.1421237,4.0190125
-33.322277,3.139322,4.023381
-33.39135,3.109768,3.9955997
-33.427307,3.1098833,4.003807
-33.48117,3.0946975,3.9937549
-33.51553,3.0966306,4.00441
-33.572884,3.079259,3.9921045
-33.61046,3.0789213,4.000324
-33.657295,3.071093,3.999759
-33.704308,3.0634375,3.9995687
-33.753986,3.0539374,3.9973686
-33.807644,3.0416062,3.9920142
-33.85333,3.0360007,3.9947772
-33.906166,3.0250647,3.9914527
-33.94703,3.0237947,3.9996383
-33.97566,3.0320976,4.0191326
-34.02827,3.0221736,4.0175056
-19.136936,1.5901811,3.9273286
-18.77001,1.402236,3.7363825
-18.680378,1.3235304,3.6324406
-19.3338,1.5475123,3.7787433
-20.641808,2.0461135,4.15939
-20.723051,2.0436463,4.1250377
-20.923368,2.0915399,4.134138
-21.051422,2.110047,4.1191607
-21.320116,2.189444,4.157895
-21.407267,2.1922536,4.131117
-21.551407,2.2203012,4.1271577
-21.69167,2.247501,4.123293
-21.859837,2.2879257,4.132151
-21.976038,2.3061414,4.121858
-22.1414,2.3472424,4.1331496
-22.250881,2.3639188,4.1229024
-22.351618,2.3771863,4.1100993
-22.553371,2.4379485,4.142267
-22.646555,2.4492128,4.128986
-22.775555,2.477929,4.13276
-22.873203,2.4924905,4.123729
-22.981407,2.5126917,4.120642
-23.076014,2.526933,4.1123657
-23.204184,2.5581918,4.1211686
-23.28171,2.5652075,4.106894
-23.416376,2.6011922,4.121594
-23.475454,2.5999622,4.1000743
-23.624613,2.644847,4.1248865
-23.697033,2.6513767,4.111975
-23.836924,2.6932793,4.1351557
-23.87592,2.6833835,4.1064487
-23.972496,2.7039762,4.109044
-24.047253,2.7135558,4.100812
-24.137632,2.7319636,4.1020536
-24.249718,2.7627435,4.1165833
-24.29934,2.7600777,4.0967865
-24.382515,2.7761638,4.096862
-24.483246,2.8025842,4.108225
-24.53249,2.800693,4.090106
-24.626337,2.8243737,4.099398
-24.69755,2.835716,4.095954
-24.774628,2.8508887,4.0969477
-24.874899,2.88014,4.113483
-24.905266,2.868846,4.086579
-24.9883,2.8889642,4.0939455
-25.073187,2.9107883,4.1035604
-25.103468,2.9000325,4.0778227
-25.204788,2.9328742,4.1002097
-25.267303,2.942501,4.097396
-25.327423,2.9510102,4.09361
-25.389536,2.9611354,4.091879
-25.461548,2.977963,4.09791
-25.536095,2.9969416,4.106674
-25.572416,2.9916203,4.0883703
-25.627968,2.9990075,4.0845675
-25.714413,3.0272076,4.104624
-25.753296,3.0243008,4.0896196
-25.810333,3.03379,4.0889263
-25.876173,3.0496597,4.095782
-25.938936,3.0638986,4.101036
-25.971958,3.057881,4.0831547
-26.024105,3.065371,4.081026
-26.086895,3.0807498,4.0882683
-26.151388,3.0978303,4.0977488
-26.18216,3.0909753,4.079503
-26.237553,3.1021826,4.082533
-26.290726,3.112144,4.0843134
-26.346298,3.1242678,4.0888476
-26.391865,3.1292486,4.085146
-26.43537,3.132919,4.0800533
-26.488377,3.1441567,4.084117
-26.54623,3.1595654,4.093356
-26.59429,3.1677437,4.0941706
-26.626492,3.163629,4.0804152
-26.66931,3.1681223,4.0771065
-26.724361,3.1828113,4.0862365
-26.776037,3.1951976,4.09279
-26.80008,3.1850443,4.0722265
-26.844189,3.1916742,4.0720997
-26.88335,3.194397,4.067369
-26.943214,3.215101,4.084707
-26.983212,3.2191682,4.081924
-27.011993,3.2136283,4.0674953
-27.051859,3.2179437,4.0652514
-27.091606,3.2223978,4.0633073
-27.144342,3.2388895,4.0763454
-27.187693,3.247283,4.0795593
-27.22357,3.249069,4.074732
-27.25605,3.2478423,4.066272
-27.27972,3.238346,4.0476155
-27.330791,3.2551332,4.061778
-27.37395,3.2647521,4.0671654
-27.41047,3.2681985,4.064969
-27.44053,3.265421,4.0550804
-27.482689,3.274923,4.0606985
-27.516834,3.2766047,4.05661
-27.55915,3.2869186,4.063504
-27.60073,3.2968488,4.0700507
-27.629978,3.2940784,4.0606604
-27.664242,3.2967584,4.0582533
-27.698917,3.3000858,4.0567675
-27.734966,3.3051434,4.057582
-27.769436,3.3086977,4.056588
-27.806679,3.3156133,4.059981
-27.842812,3.321568,4.0622582
-27.875053,3.3232896,4.059223
-27.908623,3.3267465,4.058501
-27.942097,3.3303099,4.058009
-27.972761,3.3306932,4.053523
-28.006071,3.3344607,4.0534744
-28.040161,3.3394332,4.0550714
-28.07151,3.3412082,4.052636
-28.105383,3.3463912,4.0546904
-28.136152,3.347809,4.051964
-28.168964,3.3520918,4.053032
-28.200008,3.3542542,4.0514374
-28.231804,3.3576236,4.0514917
-28.262297,3.3594177,4.0495815
-28.29034,3.3579507,4.043501
-28.31996,3.3588014,4.04051
-28.349537,3.359737,4.037706
-28.37831,3.3596358,4.0336194
-28.414577,3.3708677,4.044437
-28.443935,3.3720756,4.0422235
-28.47069,3.3694181,4.035011
-28.502146,3.3741815,4.0376053
-28.527119,3.3688474,4.027006
-28.558788,3.3743525,4.030725
-28.58382,3.3691602,4.0204334
-28.614998,3.374272,4.0237827
-28.647375,3.381757,4.0303445
-28.670145,3.3727927,4.015258
-28.692432,3.3627362,3.9987707
-28.717413,3.3573065,3.988449
-28.744024,3.354805,3.9820585
-28.773691,3.3581123,3.983428
-28.806837,3.3684006,3.9941347
-28.839176,3.3776412,4.003536
-28.864746,3.3737297,3.9955387
-28.892054,3.3733447,3.9922867
-28.916338,3.3666797,3.9807363
-28.94047,3.3594947,3.9685411
-28.968664,3.3610516,3.9680505
-29.000147,3.3702226,3.9777827
-29.030676,3.377746,3.9853945
-29.058344,3.3789697,3.9846637
-29.08597,3.380268,3.9840963
-29.107256,3.3659241,3.962663
-29.134047,3.365026,3.9592657
-29.160618,3.363616,3.9552407
-29.185047,3.3564348,3.9435394
-29.223461,3.387887,3.9836967
-29.250006,3.3872943,3.980962
-29.275358,3.3832583,3.9736605
-29.301357,3.381044,3.96886
-29.325897,3.3742046,3.9578981
-29.351826,3.3715334,3.95259
-29.378496,3.3712783,3.950586
-29.405495,3.3722682,3.9503167
-29.433441,3.3768597,3.9549544
-29.461596,3.382705,3.9613435
-29.487812,3.381559,3.9583747
-29.514042,3.3804798,3.9555523
-29.538338,3.371211,3.94174
-29.565207,3.372624,3.9423862
-29.59064,3.3676116,3.9344184
-29.61895,3.376252,3.9449348
-29.647308,3.3861523,3.957217
-29.672949,3.3825288,3.9512935
-29.699066,3.3813362,3.9487078
-29.72559,3.3825784,3.9494681
-29.748705,3.361979,3.9207566
-29.77496,3.3603892,3.917793
-29.80148,3.3606443,3.9173794
-29.829086,3.3698611,3.9291449
-29.857376,3.3868604,3.9515011
-29.88403,3.3914802,3.957168
-29.910034,3.3902369,3.9549556
-29.935268,3.3795652,3.9400344
-29.960629,3.3677688,3.923642
-29.98697,3.36791,3.9234643
-30.012869,3.3598056,3.9121766
-30.04032,3.3844285,3.945262
-30.066652,3.390119,3.9527664
-30.092749,3.3905325,3.9531791
-30.11882,3.3898249,3.952129
-30.144888,3.3808684,3.9399598
-30.171103,3.3761373,3.9335692
-30.197273,3.3791952,3.9377818
-30.223465,3.3793502,3.9381185
-30.249449,3.3849173,3.9458382
-30.27535,3.389957,3.9528983
-30.30136,3.3915002,3.9552772
-30.32738,3.3925161,3.956997
-30.353662,3.3900375,3.9540403
-30.38063,3.3805068,3.9415932
-30.40703,3.3787603,3.9397404
-30.43353,3.3764894,3.9372327
-30.458242,3.3897023,3.95573
-30.483843,3.3940845,3.9623306
-30.510103,3.3931985,3.9618597
-30.537006,3.3882341,3.9559302
-30.56373,3.385118,3.9525573
-30.590925,3.379705,3.9461377
-30.618237,3.3743646,3.939876
-30.643408,3.380923,3.949745
-30.665842,3.4005442,3.977303
-30.692497,3.3983593,3.9754658
-30.71777,3.4027386,3.9825437
-30.744734,3.3995106,3.979413
-30.772482,3.3934069,3.9724634
-30.801847,3.3814878,3.957738
-30.827602,3.3843741,3.9630287
-30.854269,3.3837953,3.9637067
-30.87647,3.3991632,3.98591
-30.901127,3.4051766,3.9955642
-30.925491,3.411837,4.006139
-30.954147,3.4044762,3.9979126
-30.98562,3.38899,3.9788368
-31.014479,3.3823848,3.9717665
-31.041063,3.382884,3.9742997
-31.065989,3.3881307,3.983258
-31.08549,3.408042,4.0119276
-31.113369,3.4046435,4.0093923
-31.139978,3.4048204,4.0117097
-31.167522,3.4027376,4.0110617
-31.194885,3.4013128,4.0113564
-31.219864,3.4057746,4.01958
-31.247995,3.4027514,4.017858
-31.275187,3.4021266,4.0194035
-31.302666,3.4009962,4.0203366
-31.330446,3.3993628,4.0206614
-31.358276,3.3978062,4.0211535
-31.38726,3.3940177,4.0187407
-31.41549,3.3920417,4.018807
-31.44493,3.3878427,4.015986
-31.472406,3.387753,4.0186925
-31.502605,3.3825712,4.014708
-31.532314,3.3786259,4.0124364
-31.558065,3.3822112,4.0202103
-31.586622,3.3807158,4.0213194
-31.613934,3.3815856,4.0256224
-31.643877,3.3779683,4.024063
-31.67525,3.3721619,4.0196905
-31.705395,3.3687243,4.0185223
-31.73563,3.365376,4.0175457
-31.766653,3.3609838,4.015272
-31.797783,3.3566852,4.0132027
-31.824669,3.359258,4.0202317
-31.855207,3.3562636,4.0200233
-31.886574,3.3522344,4.018538
-31.91766,3.3488626,4.017994
-31.946913,3.3483891,4.021318
-31.975418,3.3491197,4.026286
-32.001953,3.352726,4.035072
-32.031246,3.3524961,4.0389237
-32.071957,3.3367567,4.0226827
-32.10764,3.3283873,4.016138
-32.140587,3.3240194,4.014884
-32.171955,3.3219693,4.0167236
-32.201244,3.3227777,4.0223427
-32.22707,3.328082,4.033844
-32.259407,3.3251967,4.0348387
-32.303387,3.3081298,4.017652
-32.334675,3.3071194,4.021262
-32.372837,3.2979984,4.014537
-32.407978,3.2928278,4.012995
-32.437195,3.2948515,4.0207663
-32.461685,3.302393,4.0356665
-32.504635,3.288848,4.0236998
-32.54354,3.2803266,4.0182753
-32.578743,3.276256,4.018634
-32.617004,3.2690694,4.0151367
-32.646484,3.2716827,4.0241857
-32.67795,3.2722366,4.0307035
-32.722633,3.258986,4.0198593
-32.765034,3.248565,4.0127335
-32.80145,3.24468,4.0139756
-32.84006,3.238792,4.012811
-32.87776,3.2340941,4.01326
-32.91185,3.2332187,4.0186124
-32.952442,3.2261333,4.0163016
-32.991028,3.2212899,4.016918
-33.033024,3.2134361,4.013906
-33.068565,3.211999,4.0190077
-33.127037,3.1893198,3.9978714
-33.161774,3.1892118,4.0048885
-33.186317,3.1985397,4.023662
-33.22046,3.1991444,4.03174
-33.261547,3.193677,4.0324526
-33.303352,3.1878395,4.0328484
-33.384056,3.148353,3.9921887
-33.42291,3.1459765,3.9971864
-33.467808,3.1386409,3.9962664
-33.508064,3.1355286,4.000636
-33.55569,3.1264844,3.9979444
-33.59863,3.1216521,4.000518
-33.645382,3.1139557,3.9997826
-33.689835,3.1084375,4.001836
-33.738796,3.099582,4.0000362
-33.78292,3.0948944,4.003408
-33.832237,3.0863943,4.0023804
-33.88175,3.078081,4.0017557
-33.933372,3.0684738,3.9997783
-33.96513,3.074299,4.0162754
-34.013123,3.0679748,4.0185146
-34.090816,3.0398657,3.9952724
-19.31268,1.7656572,4.0213675
-18.937822,1.5793581,3.830587
-18.703514,1.4455225,3.6807852
-19.36245,1.6658349,3.8270006
-20.614178,2.1293483,4.1840816
-20.668837,2.115625,4.1402426
-20.846762,2.1525767,4.140547
-20.968044,2.167154,4.122388
-21.170345,2.2162242,4.1353517
-21.405865,2.2805815,4.163151
-21.458096,2.2684906,4.1237907
-21.597893,2.2941368,4.1188316
-21.767464,2.3335142,4.1272125
-21.938993,2.3748186,4.1383634
-22.081596,2.4044476,4.1396914
-22.162249,2.4073405,4.116855
-22.357685,2.4622416,4.143401
-22.449661,2.471503,4.1278005
-22.564278,2.4916172,4.123054
-22.714737,2.5289857,4.135529
-22.784918,2.5298738,4.1135116
-22.921886,2.5625353,4.1228247
-23.005041,2.5705059,4.1086497
-23.161821,2.6142387,4.1302295
-23.211336,2.6071134,4.102105
-23.353882,2.645605,4.119833
-23.419579,2.6471715,4.101163
-23.578232,2.6953194,4.1299686
-23.62636,2.689083,4.1042404
-23.764381,2.7285838,4.1255646
-23.838055,2.736135,4.114706
-23.90515,2.7406783,4.101082
-24.024858,2.7729955,4.1166897
-24.076382,2.7702687,4.096224
-24.192848,2.8022375,4.112487
-24.253557,2.8051414,4.0985947
-24.351845,2.8286786,4.106903
-24.456724,2.856492,4.120259
-24.487236,2.8440394,4.090912
-24.573635,2.8626924,4.0952034
-24.683542,2.8951356,4.1148424
-24.723888,2.888947,4.092974
-24.80929,2.9086647,4.099573
-24.893553,2.9283123,4.106492
-24.940445,2.926735,4.090395
-25.00535,2.9359508,4.0864334
-25.09994,2.9632115,4.1028147
-25.149418,2.9641054,4.0901985
-25.221758,2.9790826,4.093564
-25.314383,3.0069685,4.1117716
-25.334805,2.990959,4.080816
-25.40929,3.0085788,4.0880327
-25.479807,3.024234,4.093337
-25.5349,3.0305727,4.088301
-25.596275,3.0412626,4.088473
-25.655289,3.050815,4.087589
-25.747307,3.0823722,4.1123466
-25.767048,3.0669067,4.08304
-25.83173,3.0813494,4.088533
-25.894028,3.0946507,4.092959
-25.945692,3.1011493,4.089679
-25.985546,3.099821,4.0774074
-26.032877,3.1038425,4.071573
-26.109205,3.1284904,4.090272
-26.1689,3.1420069,4.096103
-26.20024,3.135642,4.0785475
-26.246925,3.1404293,4.0743732
-26.314585,3.1608286,4.0890236
-26.375278,3.1766663,4.0984797
-26.399866,3.166027,4.0763516
-26.453033,3.1768987,4.080205
-26.507881,3.189444,4.0862775
-26.558002,3.198768,4.088653
-26.594,3.1974492,4.0782824
-26.636889,3.2016833,4.074787
-26.6834,3.209046,4.0752554
-26.739006,3.2240384,4.085227
-26.785704,3.2322664,4.087104
-26.819422,3.2301593,4.076432
-26.857372,3.2316728,4.0703235
-26.897654,3.2353287,4.066983
-26.95329,3.2522564,4.0802107
-26.995594,3.2582583,4.080078
-27.026628,3.2547584,4.0682635
-27.064657,3.2574656,4.064275
-27.106627,3.2638798,4.065036
-27.152431,3.2740307,4.070612
-27.204227,3.2900043,4.0836496
-27.22765,3.2804053,4.0647154
-27.273449,3.2915359,4.0719466
-27.297522,3.2826219,4.0540285
-27.34629,3.297152,4.065814
-27.383928,3.3014443,4.0647907
-27.418238,3.3027291,4.0600643
-27.464693,3.3161721,4.070902
-27.494036,3.3129807,4.0606956
-27.528612,3.3151398,4.057396
-27.566208,3.3205774,4.0583878
-27.609276,3.3319638,4.067112
-27.642494,3.3334253,4.063238
-27.669653,3.3286095,4.0513887
-27.710728,3.3387938,4.058916
-27.743248,3.3400393,4.055043
-27.777168,3.342992,4.053465
-27.812437,3.3476644,4.054205
-27.848057,3.3529892,4.055891
-27.881199,3.3557348,4.0543323
-27.916574,3.361287,4.056511
-27.94998,3.3647888,4.0561213
-27.981928,3.3667674,4.0538387
-28.016493,3.372108,4.056029
-28.046505,3.3721094,4.0513363
-28.078236,3.374384,4.049696
-28.10903,3.3756614,4.046831
-28.136366,3.3726435,4.038409
-28.161211,3.3664026,4.025817
-28.195698,3.3728876,4.030019
-28.230436,3.3800354,4.035188
-28.25612,3.3751354,4.024564
-28.28068,3.3686404,4.0118895
-28.307308,3.3649793,4.0030127
-28.33631,3.3647232,3.998702
-28.368343,3.3690042,4.000472
-28.400269,3.3733826,4.002453
-28.433565,3.3800933,4.007613
-28.46159,3.3790736,4.0025854
-28.486376,3.373086,3.9910116
-28.508778,3.3632293,3.9743354
-28.533098,3.3562331,3.961514
-28.56062,3.3543644,3.9555848
-28.602652,3.3768291,3.9822264
-28.630621,3.3762765,3.9782102
-28.657602,3.3741026,3.972089
-28.683004,3.3691678,3.9623284
-28.7088,3.3648639,3.9534657
-28.73497,3.361194,3.9455087
-28.762405,3.359867,3.9407551
-28.79698,3.3722913,3.954547
-28.832453,3.3871078,3.9716475
-28.85989,3.386612,3.9682255
-28.884798,3.381042,3.9580262
-28.908703,3.373242,3.9448698
-28.934896,3.3700857,3.9380267
-28.961658,3.3681445,3.9328804
-28.988958,3.367424,3.9294395
-29.025042,3.3869188,3.953397
-29.050903,3.3834856,3.946422
-29.076578,3.3795412,3.9388092
-29.103954,3.379703,3.9368126
-29.130398,3.3776267,3.931841
-29.155094,3.3709898,3.9207387
-29.18099,3.3673089,3.9136968
-29.2122,3.3781848,3.9264789
-29.247667,3.4019165,3.9568074
-29.27272,3.396728,3.9479039
-29.29806,3.392182,3.9399264
-29.322544,3.3847911,3.928126
-29.346443,3.3751304,3.9132838
-29.37507,3.3806734,3.9191983
-29.403234,3.3851295,3.9236956
-29.43146,3.390246,3.9291546
-29.45894,3.393104,3.9315963
-29.486052,3.394868,3.932603
-29.51007,3.3844252,3.9170043
-29.535543,3.379304,3.9087179
-29.560577,3.371905,3.89737
-29.586643,3.3686676,3.8917582
-29.614464,3.3736997,3.8975058
-29.644249,3.389362,3.9178486
-29.671957,3.3957224,3.9255357
-29.697254,3.3892455,3.9157174
-29.722483,3.3816562,3.9044282
-29.747585,3.3723679,3.8908625
-29.774832,3.3766568,3.8959353
-29.80032,3.3686726,3.8842583
-29.82743,3.3725119,3.888827
-29.85695,3.3981876,3.9233682
-29.883917,3.4045286,3.931484
-29.909864,3.4015245,3.9268484
-29.935078,3.3891678,3.9094458
-29.960325,3.373929,3.8881433
-29.986885,3.3746533,3.8887749
-30.01346,3.3760352,3.8903627
-30.040535,3.3898559,3.9090602
-30.067076,3.3960886,3.9174094
-30.093512,3.4035683,3.9275234
-30.11965,3.3993328,3.921626
-30.14587,3.3939855,3.9142578
-30.172209,3.3875277,3.9054208
-30.198626,3.3840835,3.90077
-30.224977,3.3854206,3.9027302
-30.251188,3.3897707,3.9088757
-30.277168,3.3971329,3.9192042
-30.303102,3.4027941,3.9272528
-30.32929,3.4032211,3.928179
-30.35655,3.3901744,3.9106903
-30.383707,3.3813217,3.8990076
-30.410637,3.3766599,3.8931253
-30.436302,3.3844233,3.9043245
-30.46167,3.393427,3.917272
-30.48678,3.4030805,3.93116
-30.513025,3.4033918,3.932305
-30.539803,3.4002457,3.92877
-30.566269,3.3995197,3.928604
-30.594772,3.3871212,3.912521
-30.621399,3.386538,3.9126642
-30.647478,3.3889563,3.9169683
-30.672802,3.3949575,3.9262247
-30.697638,3.402779,3.9380198
-30.725065,3.398365,3.9331431
-30.751635,3.3981206,3.9340224
-30.780783,3.3874192,3.9206789
-30.808376,3.3838139,3.917087
-30.834969,3.3843713,3.919234
-30.860277,3.3896675,3.9279
-30.883156,3.403191,3.9478323
