x,y,z
-35.256313,3.2517142,1.988934
-35.363476,3.2282043,1.9437652
-35.423878,3.2298212,1.9491525
-35.48244,3.2326612,1.9570308
-35.564888,3.2236607,1.9411707
-35.63179,3.2229776,1.9420543
-35.705585,3.2192292,1.936831
-35.768196,3.2213655,1.9434509
-35.841797,3.2184834,1.9400506
-35.93412,3.207082,1.919631
-36.01937,3.1996257,1.9071732
-36.111248,3.189609,1.8896484
-36.197315,3.182854,1.8787103
-36.264828,3.185052,1.8857346
-36.33883,3.1846464,1.8875966
-36.40168,3.1895676,1.9001474
-36.463173,3.1953402,1.9144378
-36.518238,3.204136,1.9347987
-36.59351,3.2044463,1.9382663
-37.143776,3.0040383,1.5416427
-37.209743,3.0113547,1.5593877
-37.23897,3.0341098,1.6079192
-37.249313,3.0644655,1.6715851
-37.273933,3.0887659,1.723197
-37.36393,3.0868354,1.7226672
-37.469997,3.0790436,1.710557
-37.501675,3.1008496,1.7572994
-37.651535,3.0770826,1.7136154
-37.70756,3.0900183,1.7428446
-37.816456,3.0832262,1.7330098
-37.91343,3.0814812,1.7332578
-37.94244,3.1051824,1.7839475
-38.033417,3.1063204,1.7900162
-38.206852,3.07836,1.7386384
-38.27819,3.0876918,1.7610755
-38.37484,3.088439,1.7666192
-38.454247,3.0956233,1.7849374
-38.570442,3.0905805,1.7792182
-38.65175,3.0979354,1.7980137
-38.755684,3.0980942,1.8027124
-38.839653,3.1053455,1.821445
-38.96027,3.1010394,1.8175373
-39.048626,3.10774,1.8353443
-39.169872,3.1043944,1.833519
-39.26679,3.1093113,1.8479962
-39.409332,3.1005588,1.8357921
-39.48514,3.1129882,1.8651595
-39.623436,3.1068437,1.8582878
-39.69438,3.1215122,1.8921885
-39.83751,3.1151853,1.885189
-39.965065,3.1141522,1.888648
-40.11328,3.1078491,1.881969
-40.23561,3.109671,1.8912416
-40.356495,3.1125023,1.9025936
-40.52644,3.1023858,1.888938
-40.676334,3.0986652,1.8878589
-40.742085,3.118344,1.9322462
-40.96091,3.0976093,1.8985238
-41.09197,3.1011026,1.9118495
-41.244194,3.099767,1.9159951
-41.371414,3.105583,1.9340882
-41.560272,3.096505,1.9236507
-41.752354,3.0876453,1.9138489
-41.851334,3.1025934,1.9499669
-41.988396,3.1087534,1.9693437
-42.19413,3.0992253,1.9588442
-42.385303,3.0942175,1.957233
-42.62172,3.0797439,1.9377837
-42.778084,3.084816,1.9558764
-42.99141,3.0778415,1.9512372
-43.180008,3.0774705,1.9594092
-43.377148,3.0761924,1.9660978
-43.61103,3.0680115,1.9599719
-43.762634,3.078512,1.9894581
-43.98194,3.0755768,1.9937897
-44.229195,3.0680194,1.9897141
-44.379715,3.0813615,2.0252538
-44.594738,3.0825207,2.0381413
-44.87106,3.0727205,2.0308151
-45.012024,3.0905547,2.0755033
-45.30972,3.0791736,2.0659313
-45.602547,3.0702734,2.0614161
-45.865276,3.0684536,2.070479
-46.06308,3.0797484,2.1042132
-46.33689,3.0784364,2.1149688
-46.687214,3.065106,2.1040177
-46.941425,3.0701866,2.127452
-47.239334,3.0691307,2.1400514
-47.61804,3.056138,2.1313396
-47.923687,3.0570812,2.1486511
-48.282917,3.0509632,2.1536622
-48.652283,3.0450978,2.1597586
-48.90607,3.059043,2.2022495
-49.358513,3.0440102,2.1930933
-49.78697,3.0349207,2.1954236
-50.239143,3.0245755,2.1963215
-50.543327,3.037814,2.2400212
-50.839058,3.0537398,2.289065
5.398123,2.0094333,0.29706144
3.6589565,2.1106758,0.4486127
3.6133137,2.0234022,0.25954437
1.5782204,2.1738458,0.5056286
0.7183151,2.1915195,0.5111613
-1.7456856,2.3353899,0.7271676
-2.8110676,2.395413,0.8159437
-3.8798199,2.4615571,0.91775656
-3.9891014,2.4027421,0.78764963
-4.0425625,2.336506,0.6437645
-5.8871727,2.386362,0.68209743
-5.8764534,2.3153393,0.530498
-5.890621,2.2477813,0.3854308
-5.807255,2.1647782,0.2109499
-16.529678,2.923781,1.4458151
-23.652246,3.1508207,1.7002301
-23.69728,3.1366572,1.6692071
-23.761494,3.131057,1.6556935
-23.831238,3.1281977,1.64781
-23.887638,3.1195924,1.6282129
-23.96547,3.1210237,1.6291614
-24.002562,3.1039038,1.5921998
-24.018105,3.0765932,1.5343957
-24.036232,3.0502288,1.4785261
-24.042107,3.0176857,1.4100032
-24.055365,2.9883325,1.3480053
-24.0626,2.9556603,1.2792039
-24.076473,2.9258883,1.2163367
-24.062834,2.8818233,1.124166
-24.067764,2.8465774,1.0500569
-24.052187,2.8001955,0.95309687
-24.071,2.7711215,0.89162636
-24.049738,2.720389,0.7857022
-24.082684,2.6979747,0.73788834
-24.071598,2.6513743,0.64041567
-24.088947,2.6196923,0.573565
-24.049644,2.5559344,0.44080973
-33.981686,2.584959,0.4553237
-33.979965,2.637686,0.5653362
-34.00592,2.665441,0.62371254
-33.951366,2.7605348,0.8212743
-33.983437,2.7811623,0.86490154
-34.02305,2.7953017,0.8951268
-34.007267,2.8539946,1.0174093
-34.03611,2.8758085,1.0634909
-34.056206,2.9041321,1.1230216
-34.020123,2.9753423,1.2711105
-34.035316,3.0057716,1.3349714
-34.047783,3.037679,1.4018807
-34.06354,3.066536,1.4624891
-34.081192,3.0934956,1.5191793
-34.103912,3.1163363,1.5673695
-34.11933,3.1440225,1.6255574
-34.1452,3.163905,1.6676474
-34.17225,3.1827111,1.707521
-34.20376,3.198245,1.7406535
-34.241493,3.2094457,1.7648592
-34.276855,3.222199,1.7922759
-34.329185,3.2237668,1.7966547
-34.377693,3.2280395,1.806623
-34.43074,3.2295773,1.810977
-34.475918,3.236318,1.8260612
-34.5291,3.2381842,1.8311262
-34.580055,3.2416508,1.8395038
-34.63574,3.2424436,1.8423977
-34.688606,3.2451901,1.8493323
-34.744522,3.2463527,1.8530278
-34.50756,3.418921,2.2092066
-34.530514,3.4374857,2.2486362
-34.55188,3.45677,2.2895455
-34.569786,3.4778004,2.3340464
-34.59097,3.4967687,2.3743114
-34.61364,3.514729,2.412508
-34.64036,3.530332,2.4458675
-34.68199,3.5378466,2.4626307
-34.759277,3.526592,2.4408932
-35.366413,3.2389708,1.85222
-35.482147,3.212331,1.7991614
-35.541443,3.2154446,1.8071656
-35.61199,3.2131417,1.8040915
-35.67882,3.2130773,1.8056364
-35.76248,3.2050736,1.7909465
-35.836502,3.2022865,1.7869802
-35.90944,3.2004294,1.7849507
-35.985336,3.1975598,1.7808838
-36.056725,3.1972244,1.7820363
-36.169617,3.1780367,1.7446647
-36.230595,3.1834154,1.7575803
-36.283268,3.192789,1.7786884
-36.350613,3.1957548,1.7867231
-36.41526,3.2002132,1.7978396
-36.485676,3.2024276,1.8044028
-36.550526,3.207368,1.8165636
-36.585266,3.2253957,1.8554554
-37.23137,2.9861825,1.3697424
-37.21675,3.0277104,1.4567666
-37.2217,3.060644,1.5262532
-37.251717,3.0830488,1.5742812
-37.295403,3.0998673,1.6109428
-37.397625,3.0935228,1.6004767
-37.478577,3.0960944,1.6082063
-37.567215,3.0960708,1.610702
-37.662907,3.0938,1.6086774
-37.74067,3.0988078,1.6214938
-37.888832,3.0778887,1.5816989
-37.93262,3.096412,1.6220574
-38.02401,3.0976293,1.6273208
-38.137344,3.0913994,1.6175351
-38.240204,3.0895305,1.6166549
-38.348076,3.086438,1.6133571
-38.42954,3.093083,1.6298413
-38.507137,3.1014004,1.649755
-38.623722,3.096832,1.64365
-38.689613,3.109849,1.6731648
-38.818787,3.102174,1.6609116
-38.894478,3.1126738,1.6854391
-39.04543,3.099209,1.6616507
-39.119812,3.1109953,1.6888905
-39.259487,3.1025348,1.6753645
-39.38739,3.0985096,1.6708679
-39.476173,3.107156,1.6919637
-39.61712,3.1003904,1.6821132
-39.6996,3.1118672,1.7090335
-39.85462,3.102265,1.6936588
-39.94073,3.1135986,1.720427
-40.0798,3.1100483,1.7173896
-40.22435,3.1056752,1.7128048
-40.299877,3.1214085,1.748601
-40.47905,3.108738,1.727593
-40.606827,3.1111016,1.7367907
-40.735733,3.1137915,1.7467351
-40.931118,3.0994432,1.7227545
-41.07114,3.1007133,1.7300925
-41.18636,3.1091044,1.7517328
-41.361675,3.102675,1.7439423
-41.503506,3.1056151,1.7549376
-41.713,3.0924416,1.734015
-41.809067,3.10822,1.770771
-41.972916,3.1079967,1.7758498
-42.167194,3.1013548,1.768342
-42.392178,3.0885267,1.748755
-42.58854,3.0835578,1.7449145
-42.775604,3.0817416,1.7474785
-42.97833,3.0773609,1.7451487
-43.16182,3.0783052,1.7535028
-43.37901,3.0728083,1.7493396
-43.578697,3.0722198,1.7550368
-43.76432,3.075634,1.768785
-43.982975,3.073066,1.7709723
-44.185726,3.074899,1.7819972
-44.380642,3.0793417,1.7983284
-44.597855,3.0802982,1.8080406
-44.842117,3.077037,1.8097434
-45.030746,3.0858014,1.8351307
-45.298058,3.080493,1.8333349
-45.594658,3.071084,1.823864
-45.855793,3.0697727,1.8304224
-46.07093,3.0781386,1.8560028
-46.388878,3.0692225,1.848422
-46.658947,3.070364,1.8606119
-46.956642,3.0681133,1.8665814
-47.22767,3.0719078,1.8845229
-47.59601,3.0608635,1.8743262
-47.929314,3.0574758,1.8792415
-48.248116,3.058133,1.8922997
-48.592995,3.056298,1.9010129
-48.983047,3.049234,1.900228
-49.317734,3.0526013,1.9197502
-49.765293,3.0408316,1.9110756
-50.192722,3.034337,1.9129748
-50.585503,3.0350165,1.9289808
-1.6014328,2.3234355,0.2785778
-5.7775555,2.443539,0.43925905
-5.8736076,2.3879676,0.31754255
-22.461323,3.1375651,1.5625167
-22.615168,3.1258287,1.5346842
-22.750832,3.1428642,1.5684981
-22.84097,3.1432054,1.5675902
-22.906345,3.134335,1.5475211
-23.011566,3.1414618,1.5608106
-23.054684,3.124344,1.5235977
-23.15568,3.1307056,1.5353503
-23.24681,3.1336133,1.5399337
-23.412298,3.1338925,1.5376372
-23.503935,3.138454,1.5457568
-23.57395,3.1342337,1.5355749
-23.665674,3.1397798,1.5458045
-23.74861,3.1419902,1.5490971
-23.819433,3.139247,1.5420675
-23.895632,3.1392617,1.5408206
-23.951702,3.1304603,1.5211725
-23.998936,3.1177404,1.4933476
-24.00228,3.0845275,1.422689
-24.02519,3.0601645,1.3705292
-24.044567,3.0338895,1.3143721
-24.039919,2.9956725,1.233232
-24.04603,2.962189,1.1619864
-24.056149,2.9302597,1.0939865
-24.060463,2.8949962,1.0190053
-24.061697,2.857669,0.9396968
-24.06698,2.8218915,0.8636241
-24.054628,2.7763824,0.76716566
-24.083746,2.7520866,0.71512794
-24.063238,2.700957,0.6068754
-24.082504,2.6705272,0.54198027
-34.098534,2.5309536,0.21868229
-33.98046,2.684311,0.542016
-34.00235,2.7152584,0.6077633
-34.051025,2.7233105,0.62534475
-33.978416,2.83074,0.8519759
-34.04146,2.825853,0.84233904
-34.00642,2.8993883,0.9976454
-34.043907,2.9142506,1.0295501
-34.069447,2.9382021,1.0805712
-34.01043,3.0261455,1.2661338
-34.03695,3.0476785,1.3120589
-34.06098,3.0707257,1.3611679
-34.08044,3.0967503,1.4165368
-34.09878,3.1231377,1.4726672
-34.119617,3.1473072,1.524137
-34.145134,3.1678164,1.5679159
-34.17549,3.1847034,1.6040874
-34.208176,3.199826,1.6365557
-34.245422,3.2117538,1.6623197
-34.285736,3.2216077,1.683733
-34.33689,3.2243793,1.6902833
-34.37814,3.2337565,1.7107139
-34.424305,3.240037,1.7246509
-34.47608,3.2429035,1.7314305
-34.532486,3.2431073,1.7326355
-34.582718,3.247376,1.742382
-34.6382,3.248646,1.7458491
-34.697308,3.2480078,1.7453251
-34.74893,3.2520938,1.754725
-34.79763,3.2580764,1.768115
-34.869087,3.2511141,1.7543712
-34.54285,3.4705257,2.2152429
-34.566147,3.4886913,2.2541375
-34.590305,3.5062048,2.2916675
-34.61289,3.5244284,2.3306875
-34.64072,3.5396469,2.3634133
-34.685867,3.5455334,2.376594
-35.28991,3.257024,1.7731848
-35.39789,3.234102,1.7261643
-35.47522,3.2278204,1.7140212
-35.552917,3.2218375,1.7025242
-35.623154,3.220078,1.6998892
-35.69363,3.21858,1.6978211
-35.77822,3.2105484,1.6821032
-35.84127,3.2134743,1.689333
-35.919853,3.2092605,1.6816468
-35.995377,3.2069426,1.6779494
-36.11329,3.185277,1.6338272
-36.176632,3.1896296,1.6441231
-36.237312,3.1954587,1.6575251
-36.311203,3.1955822,1.6590214
-36.379723,3.1984613,1.666297
-36.444168,3.2034395,1.6779752
-36.514343,3.2061996,1.6850419
-36.637207,3.1867092,1.6456847
-37.45598,2.8735435,0.9935107
-37.523457,2.8824575,1.0136485
-37.218613,3.045425,1.3551397
-37.248287,3.0683925,1.4045434
-37.270245,3.0943546,1.4601955
-37.83749,2.9028773,1.0626435
-37.942177,2.898522,1.0552411
-38.003372,2.9116604,1.0843177
-38.054745,2.9287374,1.1216135
-38.030716,2.9745078,1.2186632
-37.919483,3.0523593,1.3824682
-37.92793,3.0844836,1.4510617
-37.954075,3.109836,1.5055628
-38.10571,3.0896912,1.4654512
-38.35312,3.0363226,1.356327
-38.44407,3.0399437,1.3657522
-38.527405,3.0466433,1.3816056
-38.62337,3.0493505,1.3891969
-38.687283,3.0634184,1.4204106
-38.77324,3.0702722,1.4366727
-38.856117,3.0785174,1.4558525
-38.981377,3.0732245,1.4469829
-39.113506,3.066396,1.4349809
-39.24774,3.0596282,1.4231586
-39.332302,3.0692747,1.4454012
-39.43804,3.072667,1.4547234
-39.533386,3.0797627,1.4717565
-39.659195,3.0780315,1.4705591
-39.717846,3.0970886,1.5124197
-39.8317,3.0999427,1.5207958
-39.912586,3.1129847,1.5502777
-40.01095,3.1212888,1.570003
-40.181416,3.1094954,1.5482693
-40.308,3.1109965,1.5540547
-40.454296,3.1076622,1.5499239
-40.609505,3.102659,1.5424194
-40.739693,3.105242,1.5506268
-40.89151,3.102704,1.5483451
-41.071175,3.0936346,1.5326886
-41.204166,3.097657,1.544065
-41.37884,3.0916574,1.5348916
-41.499496,3.1002297,1.5557647
-41.70808,3.0874586,1.5328445
-41.820595,3.099434,1.5608506
-41.997055,3.0964127,1.5581346
-42.20209,3.0874853,1.5434008
-42.391037,3.083452,1.5388103
-42.548687,3.087673,1.5512323
-42.76782,3.0786014,1.53653
-42.957375,3.0773754,1.5380025
-43.12954,3.0809882,1.5494738
-43.332474,3.078718,1.549027
-43.532314,3.0781627,1.5521994
-43.74522,3.0758536,1.5519137
-43.961346,3.0739686,1.5526214
-44.16077,3.0766413,1.5627422
-44.376934,3.0769167,1.5681095
-44.58809,3.0792935,1.5778847
-44.842583,3.074205,1.5726299
-45.063812,3.076887,1.5833135
-45.313004,3.0753527,1.5855923
-45.588512,3.070162,1.5806322
-45.83143,3.0724175,1.5909314
-46.12292,3.0670867,1.5860605
-46.37982,3.069444,1.5969248
-46.66694,3.0677984,1.5998969
-46.950905,3.0681703,1.6071453
-47.260635,3.0656242,1.6087298
-47.57848,3.0633209,1.6110382
-47.913837,3.0597858,1.6111178
-48.235744,3.0601404,1.6192632
-48.52993,3.066511,1.6397133
-48.94548,3.0555646,1.6257648
-49.359077,3.0470855,1.6170921
-49.797234,3.037095,1.6057577
-50.178276,3.037735,1.6159725
-50.592323,3.0355902,1.6209831
-50.87056,3.0546484,1.6684518
3.5713787,2.4971085,0.3015151
-5.868023,2.5218492,0.25669956
-16.59515,3.1022353,1.4019365
-17.013746,3.14835,1.4973483
-17.25849,3.1590676,1.518105
-17.434917,3.1560206,1.5098405
-17.77393,3.190311,1.5805354
-18.490086,3.1557698,1.4992857
-18.614855,3.1464293,1.477983
-18.883915,3.173415,1.5336313
-19.027664,3.1704977,1.5260048
-19.146187,3.1618712,1.5063171
-19.293636,3.1612623,1.5036421
-19.466274,3.1680007,1.5165725
-19.564442,3.155919,1.4896402
-19.716705,3.1587973,1.494451
-19.852488,3.1579895,1.4914742
-19.981197,3.1559205,1.4858513
-20.102066,3.1523025,1.4769664
-20.23349,3.1522708,1.4757161
-20.37947,3.1570976,1.4848065
-20.482838,3.1503103,1.4692674
-20.595085,3.1466174,1.4603167
-20.766851,3.1612523,1.4903145
-20.849806,3.1500206,1.4653983
-20.958712,3.147072,1.4580951
-21.074635,3.1468358,1.4565759
-21.194246,3.1483552,1.4588084
-21.289461,3.142734,1.4458838
-21.405231,3.1441803,1.4480009
-21.51746,3.1450803,1.448977
-21.620659,3.143579,1.4448667
-21.72594,3.143292,1.4433556
-21.832481,3.1439714,1.4439187
-21.93013,3.1421542,1.439187
-22.032948,3.142617,1.4393244
-22.128517,3.1410635,1.4351864
-22.236862,3.144538,1.4417663
-22.331085,3.1435125,1.4387846
-22.41822,3.1403723,1.431315
-22.496107,3.1342268,1.4174595
-22.606907,3.1407375,1.4305682
-22.690367,3.1375284,1.4229927
-22.775124,3.1352127,1.4173326
-22.8582,3.132654,1.4111667
-22.959427,3.1376302,1.4210682
-23.039806,3.1348886,1.4145389
-23.130886,3.1368392,1.4180207
-23.203613,3.1317976,1.4066124
-23.281965,3.1293926,1.4008341
-23.367256,3.130263,1.40205
-23.465023,3.1368606,1.4154878
-23.551085,3.13903,1.4194984
-23.627737,3.1375933,1.4158306
-23.717402,3.142242,1.4251509
-23.797709,3.1432562,1.4267325
-23.879808,3.1455035,1.4309545
-23.943874,3.139996,1.4186463
-23.976028,3.120042,1.3755231
-23.980938,3.0872786,1.3050714
-24.02133,3.0708477,1.2694683
-24.038734,3.0434103,1.2103801
-24.049458,3.0124469,1.143765
-24.06347,2.9827127,1.0797739
-24.032623,2.9303741,0.9675298
-24.054049,2.9033682,0.90935516
-24.05425,2.8652856,0.82753277
-24.05406,2.826436,0.74407053
-24.083174,2.8022752,0.6919675
-24.103367,2.7731893,0.6293483
-24.077562,2.7191753,0.5134926
-33.974518,2.7336838,0.53157854
-34.00768,2.7548952,0.5772424
-34.019257,2.7934635,0.6600423
-34.034504,2.8282204,0.7346854
-34.058754,2.8550851,0.7924452
-33.99115,2.9535065,1.0032716
-34.042404,2.9574904,1.0120835
-34.081047,2.971251,1.0418105
-34.018253,3.061097,1.2342715
-34.044365,3.0828567,1.2811041
-34.05995,3.11197,1.3436632
-34.097664,3.1246264,1.3710284
-34.119267,3.1486473,1.422698
-34.14653,3.1683235,1.4650779
-34.171803,3.1891184,1.5098491
-34.201374,3.2067,1.5477538
-34.234848,3.2214637,1.5796337
-34.278816,3.2291558,1.5963979
-34.33522,3.2287924,1.5959463
-34.376965,3.2381816,1.6163473
-34.42413,3.244156,1.6294527
-34.474632,3.2481632,1.6383562
-34.528557,3.250229,1.6431174
-34.582584,3.252471,1.6482611
-34.634983,3.2559316,1.656012
-34.688602,3.2588692,1.662653
-34.75457,3.2547576,1.6542363
-34.81375,3.254995,1.6551204
-34.89805,3.2411146,1.6258488
-34.958954,3.241146,1.6263065
-35.02366,3.2393622,1.6228943
-34.573513,3.5223734,2.2277994
-34.608784,3.5337865,2.2525449
-34.64636,3.5439572,2.2746396
-34.688168,3.5519094,2.2920008
-35.355515,3.2313008,1.6077781
-35.422188,3.2306087,1.6067419
-35.503094,3.222969,1.5908828
-35.572857,3.2214963,1.5881987
-35.642853,3.2202814,1.5860734
-35.71504,3.218359,1.5824466
-35.788136,3.2163858,1.578722
-35.88463,3.2035427,1.5518074
-35.962395,3.2002788,1.5453486
-36.053196,3.1913276,1.5267644
-36.118156,3.194959,1.5350385
-36.190697,3.1953945,1.5365024
-36.257294,3.1988883,1.5445004
-36.32194,3.2035463,1.5549898
-36.39083,3.2065966,1.5620584
-36.4515,3.2135522,1.5774646
-36.547256,3.2055848,1.5610566
-36.58067,3.2247834,1.6025848
-37.332333,2.941439,0.9991126
-37.435898,2.9349887,0.9860368
-37.503258,2.9440212,1.0059795
-37.552547,2.9606261,1.0420685
-37.28315,3.1051087,1.3506722
-37.838444,2.9197898,0.95648575
-37.885963,2.9381647,0.99637985
-37.933968,2.956385,1.0359497
-37.98917,2.9718993,1.0697598
-38.03299,2.9918175,1.112958
-38.09532,3.0048447,1.1414843
-37.933807,3.1004574,1.3458633
-38.006165,3.109183,1.3652267
-38.37037,3.0133586,1.1620455
-38.48883,3.0075681,1.1505637
-38.671043,2.980102,1.0929737
-38.90864,2.934673,0.99719524
-38.948296,2.9585693,1.0489526
-39.059654,2.9582283,1.0491548
-39.02178,3.008211,1.1564097
-39.227184,2.977421,1.0918856
-39.295525,2.9925356,1.1250019
-39.375732,3.004046,1.1504679
-39.456745,3.0156047,1.1760492
-39.557095,3.0214183,1.1894336
-39.67299,3.0228858,1.1936026
-39.846085,3.0074787,1.161941
-40.966446,2.9129896,0.96839523
-41.030273,2.9352455,1.0169091
-41.01484,2.9794347,1.1119604
-41.008663,3.0206852,1.2007709
-41.17195,3.0162263,1.1926522
-41.37913,3.0010483,1.1618457
-41.436913,3.0259578,1.2160492
-41.560356,3.0341048,1.2347426
-41.653873,3.0504062,1.2707367
-41.831905,3.0459404,1.2627654
-42.020004,3.039934,1.251574
-42.18088,3.041549,1.2565603
-42.397083,3.0307152,1.2352366
-42.620148,3.0194387,1.2130303
-42.789536,3.0218828,1.2199006
-42.938152,3.029944,1.2386899
-43.116158,3.032062,1.2449498
-43.391212,3.0134351,1.2074142
-43.56763,3.0180054,1.2189584
-43.76938,3.017966,1.2208133
-43.985027,3.015994,1.2186389
-44.198524,3.0155885,1.2198296
-44.383713,3.0221322,1.2357402
-44.64869,3.0133355,1.2193437
-44.8963,3.0094266,1.2133269
-45.147266,3.0061438,1.2087026
-45.39065,3.0056372,1.2099986
-45.639145,3.0054004,1.2119341
-45.942223,2.996173,1.195013
-46.182747,3.0001159,1.205903
-46.474358,2.9959753,1.1998625
-46.745415,2.9970238,1.2048221
-47.06422,2.991057,1.1951251
-47.206573,3.0172558,1.253099
-47.594307,3.0023649,1.2248435
-47.89637,3.0038326,1.2310486
-48.076576,3.0268166,1.282485
-48.449703,3.0195525,1.2705708
-48.99077,2.9876862,1.2072434
-49.135384,3.0202465,1.2790203
-49.61165,3.0029068,1.2464194
-49.883064,3.018678,1.2832465
-50.24183,3.022976,1.2961955
-50.65715,3.0209723,1.2961197
-14.950703,3.0426323,1.0323958
-16.275116,3.2539797,1.4971237
-16.27761,3.2108524,1.4034233
-16.501804,3.1687956,1.312962
-16.638168,3.1534963,1.2802753
-16.771784,3.1382256,1.2476387
-17.062551,3.1572745,1.2902231
-17.752296,3.1832242,1.3494205
-17.895348,3.1745822,1.3312144
-18.02769,3.1641455,1.3090625
-18.219955,3.1683712,1.3190179
-18.399475,3.1705868,1.3245506
-18.539558,3.164229,1.3112884
-18.690575,3.1612256,1.3053589
-18.860119,3.1635783,1.3111429
-19.020596,3.1645427,1.31387
-19.149933,3.1583948,1.3010125
-19.315525,3.1622498,1.31004
-19.449291,3.1586401,1.3027139
-19.581059,3.1551628,1.2956648
-19.72678,3.1561003,1.2982655
-19.859533,3.154254,1.2947621
-19.98861,3.1520607,1.2904887
-20.128956,3.1536798,1.2945447
-20.244926,3.1491055,1.285039
-20.394346,3.15473,1.2978349
-20.509663,3.1512177,1.2906313
-20.595373,3.1395137,1.2655025
-20.753262,3.1497812,1.2884197
-20.853943,3.143587,1.2753248
-20.985802,3.1474464,1.2842064
-21.082775,3.1411543,1.2708797
-21.21304,3.1458116,1.2814865
-21.320614,3.1439342,1.2777958
-21.434216,3.1445456,1.2795386
-21.532537,3.1407404,1.2716184
-21.64236,3.1412258,1.2730703
-21.737837,3.1374607,1.2652225
-21.84161,3.1369765,1.2645402
-21.945847,3.1371837,1.2653599
-22.034435,3.1324697,1.2554183
-22.140377,3.1342995,1.2597713
-22.233822,3.1322234,1.2555823
-22.340595,3.1354399,1.26295
-22.427467,3.1319396,1.2556357
-22.510414,3.1273925,1.2460294
-22.625101,3.1351647,1.26333
-22.706802,3.1310544,1.2546649
-22.785404,3.1261244,1.2442045
-22.89304,3.132881,1.2592669
-22.96321,3.125464,1.2433643
-23.051344,3.1255121,1.243763
-23.146368,3.1288087,1.2512484
-23.230335,3.1281023,1.2499876
-23.309101,3.1256616,1.2449346
-23.394005,3.12618,1.2463374
-23.480032,3.1276214,1.2497525
-23.565758,3.129397,1.2538905
-23.64634,3.1293967,1.2541466
-23.735592,3.133641,1.2636657
-23.816286,3.1345797,1.2659616
-23.883167,3.1296952,1.2555413
-23.96004,3.1296704,1.2557259
-23.982561,3.1048295,1.2017336
-24.00359,3.0790625,1.1457195
-24.041615,3.0611289,1.1068034
-24.02498,3.0168202,1.0103178
-24.05554,2.9948022,0.9624872
-24.029121,2.9444964,0.8529167
-24.05645,2.9201844,0.8000798
-24.070917,2.8891437,0.7325587
-24.084806,2.8574164,0.6635394
-24.083126,2.8171978,0.57598925
-24.078056,2.7745686,0.483181
-33.992367,2.7710242,0.48100471
-34.005272,2.808818,0.5632925
-34.03053,2.835818,0.62204313
-34.033764,2.879806,0.71783924
-34.075817,2.8924205,0.74522066
-34.115746,2.9066,0.77601624
-34.036602,3.011135,1.0038481
-34.084393,3.0179014,1.018477
-34.12033,3.0335116,1.0523925
-34.09532,3.0933201,1.1826954
-34.08779,3.1391923,1.282608
-34.125263,3.152238,1.3109288
-34.144543,3.1778917,1.3667483
-34.18032,3.1917741,1.3968935
-34.227882,3.1975675,1.4093947
-34.268024,3.2084527,1.4330006
-34.318146,3.2127447,1.4422231
-34.367214,3.217892,1.45331
-34.4201,3.2207394,1.4593782
-34.46922,3.226193,1.4711294
-34.522774,3.229021,1.4771514
-34.581448,3.228912,1.4767647
-34.635204,3.2320976,1.483561
-34.68847,3.2357986,1.4914804
-34.742367,3.2393293,1.4990249
-34.799812,3.240997,1.5025024
-34.853874,3.2448852,1.5108223
-34.897972,3.2546687,1.5320034
-34.9711,3.2481616,1.5176377
-35.029606,3.250265,1.5220566
-35.090652,3.2512386,1.5240073
-35.162212,3.2468083,1.514163
-35.23532,3.241986,1.5034599
-35.311234,3.2361283,1.4904928
-35.43305,3.2067893,1.426281
-35.554665,3.1786222,1.3646193
-35.639305,3.1703205,1.3463025
-35.725674,3.1617074,1.3273034
-35.81893,3.150242,1.302073
-35.88878,3.1508965,1.3032899
-35.98817,3.1375945,1.2740397
-36.073063,3.1319213,1.2614379
-36.223156,3.0959644,1.1827245
-36.28596,3.101994,1.1956563
-36.337418,3.1134913,1.22052
-36.401592,3.1193068,1.2329774
-36.449524,3.1326768,1.2619252
-36.497295,3.1461852,1.2911725
-36.543533,3.160436,1.3220387
-37.23086,3.0082488,0.9886689
-37.29562,3.0177119,1.0090485
-37.41469,3.005267,0.98158073
-37.497005,3.0083692,0.9880581
-37.56215,3.018681,1.0102797
-37.682556,3.0075114,0.9855757
-37.697475,3.0379899,1.0518374
-37.828053,3.0239017,1.0207462
-37.900867,3.0324914,1.0391855
-37.96777,3.043568,1.063055
-38.02192,3.0595715,1.0976853
-38.093197,3.0694363,1.1189003
-38.160698,3.0809197,1.1436467
-38.23501,3.090208,1.1635919
-38.349854,3.0855463,1.1530495
-38.42981,3.0936205,1.1703315
-38.582413,3.0771437,1.1339507
-38.94146,2.9918056,0.9470525
-39.102127,2.9753923,0.9107795
-39.146843,2.9981964,0.960217
-39.18177,3.024193,1.0166326
-39.22973,3.0459325,1.0637403
-39.286934,3.0647798,1.1045218
-39.373478,3.0745502,1.125454
-39.478535,3.078947,1.1346302
-39.613636,3.0746684,1.1248245
-39.732216,3.0761006,1.1274996
-39.908035,3.0610948,1.0942135
-41.09576,3.0358996,1.0349135
-41.522877,2.9627047,0.8741288
-41.65767,2.9683797,0.8859434
-41.761246,2.9827175,0.91670895
-43.08123,2.9564352,0.8543515
-43.146458,2.9849064,0.91597176
-43.4441,2.961008,0.86283064
-43.683895,2.951673,0.8415737
-43.91916,2.9446213,0.8252945
-43.979515,2.9766135,0.8945761
-44.62674,2.8838181,0.6902714
-44.459587,2.965604,0.8686881
-44.72841,2.956054,0.8468318
-44.76994,2.9941225,0.92938423
-44.84514,3.0254438,0.9971342
-44.938934,3.0533042,1.0572839
-45.280724,3.0334423,1.0127072
-45.725414,2.995831,0.92913294
-46.16176,2.9622767,0.8544054
-46.214127,3.0019648,0.9404149
-46.364876,3.0238626,0.98735666
-47.16961,2.929799,0.77961016
-47.23173,2.9705267,0.86782885
-47.37548,2.9973018,0.9253864
-47.629242,3.0060563,0.9433265
-47.729362,3.0416188,1.0201526
-48.53051,2.963036,0.846035
-50.05079,2.7736278,0.42810965
-50.078087,2.82792,0.5459204
-49.993065,2.8994527,0.7016568
-49.891666,2.9727042,0.8611946
-49.96014,3.019857,0.96330976
-50.16002,3.0480003,1.0235691
-16.483524,3.3813775,1.5543456
-16.432135,3.3287954,1.4384022
-16.42677,3.2846336,1.3416743
-16.635622,3.2827084,1.3410845
-16.348583,3.1376789,1.018681
-16.534964,3.1320348,1.0095301
-16.73512,3.1302319,1.0090137
-17.074253,3.1592774,1.0784116
-17.814564,3.1959298,1.1712594
-17.918715,3.1783743,1.1345572
-18.081047,3.1746922,1.129219
-18.232616,3.1692998,1.1199427
-18.386444,3.1651912,1.1135087
-18.567389,3.1683993,1.1235495
-18.731503,3.1684449,1.1263704
-18.900257,3.1704943,1.1336513
-19.040466,3.1662414,1.1266341
-19.185423,3.1638958,1.1238685
-19.338425,3.164368,1.1274028
-19.481739,3.1630914,1.126936
-19.620472,3.1613288,1.125318
-19.754665,3.159045,1.1224761
-19.886017,3.156661,1.1193571
-20.027752,3.1578193,1.1241684
-20.157528,3.156359,1.123035
-20.279572,3.1533577,1.1183867
-20.412716,3.154168,1.1222706
-20.540567,3.154128,1.124197
-20.642174,3.146971,1.1100783
-20.785435,3.1527877,1.1250873
-20.89611,3.1494856,1.119556
-21.026434,3.1527839,1.1288166
-21.13328,3.1494582,1.123158
-21.239864,3.1465716,1.1184521
-21.338314,3.1416056,1.109046
-21.46236,3.1454105,1.1192899
-21.578934,3.14744,1.1255112
-21.664131,3.139647,1.1096692
-21.791588,3.1464703,1.1265721
-21.88861,3.1436298,1.1217742
-21.993008,3.1438155,1.1237292
-22.091759,3.1425674,1.1224418
-22.187962,3.1409147,1.1202188
-22.28689,3.1407242,1.1212435
-22.379536,3.1387608,1.1182709
-22.464506,3.1344295,1.109973
-22.558893,3.1340039,1.1103916
-22.650051,3.132845,1.1091437
-22.754805,3.1373458,1.120532
-22.838083,3.134128,1.1146288
-22.924051,3.1323595,1.1119447
-23.01408,3.1326308,1.1137977
-23.0974,3.1306763,1.1106534
-23.19254,3.1339414,1.1191502
-23.268993,3.130042,1.1116166
-23.34459,3.1261334,1.104043
-23.445057,3.1330776,1.1206899
-23.52294,3.130972,1.1171017
-23.613659,3.134804,1.1267524
-23.702639,3.1383953,1.1358418
-23.770927,3.13331,1.125545
-23.83844,3.128164,1.1150975
-23.93994,3.138771,1.139781
-23.943293,3.1048164,1.065031
-23.972471,3.082461,1.0161581
-24.017786,3.0675695,0.9839282
-24.029507,3.0366275,0.91590166
-24.013527,2.991878,0.81709385
-24.050533,2.9723935,0.7746186
-24.061176,2.939715,0.70273066
-24.049212,2.895226,0.604527
-24.083435,2.8735425,0.55714846
-23.92292,2.7511852,0.28547382
-34.01083,2.800323,0.4188285
-34.009075,2.8498318,0.5282426
-34.031235,2.8791442,0.59281254
-34.04292,2.916086,0.6743274
-34.061634,2.9468067,0.7420287
-34.109524,2.9547498,0.75913525
-34.10399,3.0027816,0.86528873
-34.082596,3.0614302,0.9950366
-34.108734,3.084104,1.044869
-34.190464,3.0665474,1.0053082
-34.152912,3.1341314,1.1549273
-34.14039,3.1826656,1.2622285
-34.18448,3.1912122,1.280663
-34.22744,3.2005801,1.3009167
-34.261383,3.2160072,1.3346338
-34.28605,3.2374234,1.3816619
-34.37051,3.2196543,1.3415632
-34.421196,3.2243328,1.3513618
-34.469185,3.230887,1.365324
-34.513855,3.2396395,1.3841667
-34.5684,3.2423725,1.3896122
-34.621918,3.2459605,1.3969512
-34.68058,3.2466729,1.3978829
-34.73598,3.2496054,1.4037428
-34.796066,3.2500339,1.4040184
-34.858635,3.2493303,1.4017649
-34.923157,3.2478468,1.3977623
-35.099274,3.1840165,1.2549591
-35.167564,3.1819584,1.2496347
-35.224724,3.186378,1.2587175
-35.287987,3.1877186,1.2609348
-35.348366,3.1909034,1.2672453
-35.41008,3.1936452,1.2725577
-35.49356,3.1853356,1.2532382
-35.555683,3.1885555,1.2595863
-35.626083,3.1878467,1.2571678
-35.691017,3.190246,1.2616601
-35.780968,3.1805754,1.2392354
-35.912533,3.151186,1.172831
-36.015434,3.13672,1.1396646
-36.096184,3.1335373,1.1316328
-36.31707,3.0649173,0.9776392
-36.378952,3.0722265,0.99294996
-36.454174,3.073637,0.9950876
-36.524906,3.077448,1.002564
-36.577557,3.0896604,1.0287747
-36.56149,3.1323404,1.1229801
-36.651054,3.128287,1.1128688
-36.864864,3.0712037,0.98432875
-36.92965,3.0793772,1.0014563
-37.0063,3.0827906,1.0079379
-37.132217,3.0661037,0.9694953
-37.209503,3.0702112,0.97748137
-37.300426,3.069141,0.973876
-37.40738,3.0621402,0.95699215
-37.490387,3.0652316,0.9626398
-37.567802,3.0708945,0.9740162
-37.6417,3.0782444,0.98914814
-37.742004,3.075844,0.9824476
-37.838993,3.0752301,0.97971725
-37.91115,3.0843384,0.99871826
-37.957306,3.1032481,1.0396414
-38.009186,3.1201184,1.0759883
-38.07064,3.1336505,1.1048489
-38.16375,3.1361804,1.1090508
-38.251015,3.1411998,1.1188025
-38.401855,3.1247344,1.08038
-38.52049,3.1201587,1.0685616
-38.61257,3.1251483,1.0781536
-38.88867,3.0695906,0.9519253
-39.054523,3.0520668,0.91092014
-39.13194,3.0641272,0.93624496
-39.1755,3.087265,0.98641205
-39.273293,3.0933368,0.9982543
-39.84489,2.952636,0.68044233
-39.87657,2.9817712,0.7439389
-39.89493,3.0148377,0.8162651
-39.998894,3.0221221,0.83063984
-40.196907,3.002141,0.7836752
-40.169914,3.0488372,0.88660765
-41.535446,2.949296,0.6463628
-41.54725,2.9873962,0.7297387
-41.608143,3.012612,0.7840462
-41.731415,3.0220966,0.8028269
-41.871864,3.0278382,0.8131108
-42.021137,3.0320802,0.8199496
-42.236717,3.020907,0.79188967
-42.372284,3.030137,0.8098717
-42.57709,3.0236106,0.79215527
-42.73841,3.0283272,0.79979324
-42.96093,3.0197728,0.77731514
-43.137108,3.0229175,0.7812395
-43.33821,3.021385,0.7744856
-43.561832,3.0159452,0.75878096
-43.788788,3.0109696,0.7440243
-43.99434,3.0117602,0.74225044
-44.218143,3.0097675,0.73405695
-44.47548,3.002004,0.71264267
-44.66133,3.0101657,0.72731066
-44.71683,3.0453625,0.8033929
-45.20729,2.9948332,0.68431044
-45.48285,2.9888394,0.6664052
-45.659843,3.0031188,0.6945677
-45.78902,3.0272107,0.7450199
-46.11611,3.015265,0.7131591
-46.459686,3.002075,0.6782727
-46.964157,2.961988,0.5817151
-47.152687,2.980173,0.6181531
-47.29359,3.007449,0.6752982
-47.49144,3.0256562,0.7115917
-48.00699,2.991892,0.62861013
-48.38082,2.9841201,0.60495377
-48.541306,3.0125604,0.6642394
-50.035355,2.8315485,0.24190903
-50.0953,2.8808384,0.3485279
-50.036797,2.9481745,0.49669123
-50.142326,3.0485678,0.71407413
0.011789322,3.3056524,0.6323776
-16.316963,3.1277132,0.7668853
-16.725399,3.167989,0.86811733
-16.81084,3.1422968,0.81399775
-17.133263,3.1678045,0.8800025
-17.308365,3.1630106,0.8746729
-17.839571,3.1967618,0.965065
-17.964317,3.1837354,0.93999434
-18.121693,3.1788223,0.93379784
-18.27698,3.1742022,0.9281683
-18.422485,3.1680236,0.9187875
-18.63415,3.178563,0.9482899
-18.754992,3.1679883,0.9284334
-18.91796,3.168451,0.9341955
-19.066101,3.166021,0.9331126
-19.251606,3.173911,0.9559231
-19.365353,3.1641912,0.93768454
-19.508904,3.1628354,0.9387946
-19.647068,3.1607769,0.9381795
-19.807133,3.1653483,0.9528508
-19.92633,3.159577,0.9434428
-20.058367,3.1579485,0.94355774
-20.176983,3.1532104,0.93638945
-20.331024,3.1591704,0.9539027
-20.449722,3.1557508,0.94962645
-20.593044,3.160144,0.9633384
-20.701395,3.1549246,0.9547553
-20.82943,3.156153,0.9609966
-20.927685,3.1489666,0.9477453
-21.06445,3.1541395,0.9629426
-21.173172,3.1512835,0.95955276
-21.289421,3.1513577,0.9628515
-21.395954,3.1489134,0.9602866
-21.508389,3.1489224,0.9633107
-21.611214,3.1463463,0.9603238
-21.713757,3.1441865,0.95824003
-21.841167,3.150961,0.9766407
-21.918728,3.1413696,0.95736456
-22.01434,3.138355,0.95315695
-22.13221,3.143639,0.96795607
-22.223463,3.1401093,0.9624629
-22.325623,3.1409545,0.9669609
-22.423,3.1405928,0.96864223
-22.527401,3.1433365,0.9773922
-22.605133,3.1366587,0.964499
-22.699438,3.1366014,0.9667382
-22.78622,3.1341448,0.9634361
-22.890692,3.1389992,0.97683096
-22.974758,3.1364114,0.97314405
-23.064268,3.1364064,0.9753275
-23.141516,3.131912,0.96720266
-23.226303,3.1308527,0.9668975
-23.318483,3.1332865,0.9745374
-23.401321,3.132313,0.97435
-23.488714,3.1336946,0.9795065
-23.57306,3.1342397,0.9827137
-23.664562,3.138354,0.99403
-23.728083,3.1306508,0.97834206
-23.814295,3.1333184,0.9862852
-23.907463,3.1396208,1.0024819
-23.951405,3.123936,0.96850824
-23.953026,3.0886214,0.88978004
-23.985369,3.0672553,0.8428464
-24.019402,3.0465562,0.7974267
-24.020512,3.0098631,0.7155752
-24.039658,2.981443,0.6525717
-24.055635,2.9511337,0.58526945
-24.06916,2.9192224,0.5143242
-34.00761,2.899196,0.51154137
-34.026524,2.9307234,0.581923
-34.047882,2.9597208,0.64658403
-34.05302,3.0004854,0.73787117
-34.102695,3.007017,0.75169516
-34.15761,3.0097897,0.75699854
-34.06829,3.11762,1.0001087
-34.12324,3.1192987,1.0029387
-34.170353,3.1267595,1.0188451
-34.20234,3.1448324,1.0587726
-34.224304,3.1695719,1.1137962
-34.27438,3.1748953,1.1248322
-34.3431,3.1679318,1.1080122
-34.434685,3.1464179,1.0581927
-34.514416,3.1334922,1.0278058
-34.553104,3.147494,1.0584335
-34.599083,3.1568244,1.0784616
-34.64224,3.1679738,1.102602
-34.69841,3.1711426,1.1086283
-34.75245,3.1758347,1.1180921
-34.793114,3.1887197,1.1461306
-34.85219,3.1907182,1.1494517
-34.93814,3.177334,1.1178341
-34.981052,3.1893635,1.1438813
-35.02263,3.202161,1.1716628
-35.062843,3.2157185,1.2011576
-35.108147,3.2264442,1.2242112
-35.161644,3.23276,1.2372289
-35.218143,3.2376313,1.2469473
-35.280132,3.239798,1.2504978
-35.343483,3.2415385,1.2530565
-35.407597,3.2431805,1.2553678
-35.47311,3.2444139,1.2567248
-35.54815,3.2411587,1.2478452
-35.61785,3.2409997,1.2459817
-35.68398,3.2429612,1.248918
-35.770035,3.2355554,1.2304978
-35.933628,3.191515,1.1285968
-36.166733,3.1160355,0.95498705
-36.268112,3.1044297,0.9268193
-36.341866,3.1062665,0.92924976
-36.378796,3.1252487,0.9707432
-36.44735,3.1299236,0.9795966
-36.51467,3.1354349,0.99033165
-36.58343,3.1405895,1.0002251
-36.661125,3.1421585,1.0019054
-36.745865,3.1410887,0.9975271
-36.87082,3.1234677,0.9553051
-36.936325,3.1315396,0.9717264
-37.013706,3.1349516,0.97746944
-37.129837,3.12294,0.94791603
-37.20215,3.1292963,0.9603138
-37.243313,3.148321,1.0016637
-37.33276,3.1483939,0.99962854
-37.42753,3.1468682,0.9938898
-37.49733,3.155396,1.0111303
-37.583897,3.1578562,1.0144386
-37.685314,3.1551962,1.0059714
-37.787117,3.152947,0.9983945
-37.870808,3.1578357,1.0071378
-37.971024,3.1571693,1.0030932
-38.077557,3.1547866,0.99505854
-38.240883,3.1331015,0.9426408
-38.381004,3.1205065,0.9110117
-38.491447,3.1188946,0.90454626
-38.637417,3.1058996,0.87184906
-38.914665,3.050126,0.7406616
-38.909958,3.0889263,0.8269472
-39.05568,3.0785573,0.8000431
-39.110092,3.0982575,0.84231806
-39.324074,3.0676496,0.76862955
-39.78889,2.9602349,0.5177126
-39.877743,2.9719226,0.5412302
-39.909424,3.001325,0.605587
-39.92463,3.0355566,0.68109035
-40.21269,2.9888506,0.56959534
-40.178696,3.0380511,0.67961264
-41.572285,3.0158334,0.5910368
-41.741394,3.013785,0.5816345
-41.866325,3.023718,0.599998
-42.06344,3.0163538,0.5779886
-42.188988,3.0275235,0.59903336
-42.382973,3.0227969,0.5829115
-42.54677,3.026263,0.5857692
-42.756546,3.0198069,0.5653243
-42.930798,3.0226576,0.56647587
-43.130608,3.0205898,0.5559845
-43.343193,3.016713,0.5410981
-43.558186,3.013428,0.5274272
-43.758087,3.0145464,0.52391195
-43.9752,3.0130136,0.51400614
-44.17356,3.0165539,0.51584244
-44.38919,3.01752,0.51145554
-44.86519,2.9665322,0.3845353
-44.712708,3.0443733,0.5608692
-45.23748,2.9872751,0.4189453
-45.313538,3.0203707,0.48958778
-45.527466,3.0273218,0.49834728
-45.78235,3.0276406,0.4912076
-46.191406,3.0007782,0.41939545
-46.46612,3.0005887,0.4104786
-46.845985,2.9830344,0.36003113
-47.03309,3.0013752,0.39459896
-47.26966,3.0120487,0.4107194
-47.711784,2.9890513,0.3462758
-48.047005,2.9862456,0.32959366
-48.301136,2.9984381,0.34843397
-48.56766,3.00989,0.36523104
-0.83756065,3.4582784,0.57597256
-2.055046,3.486402,0.6944289
-2.683773,3.4673734,0.6818633
-3.0113373,3.4233396,0.6003094
-16.018532,3.0578716,0.37980652
-16.490866,3.1104636,0.5168743
-16.749397,3.120483,0.5501418
-17.153275,3.1632414,0.66237354
-17.33302,3.1593366,0.66127014
-17.653248,3.1875584,0.7375655
-17.864288,3.1930127,0.7585602
-17.957836,3.172702,0.7172303
-18.16952,3.1801884,0.74272585
-18.302872,3.1703584,0.7263522
-18.487785,3.1734905,0.7409816
-18.656,3.1735559,0.7480593
-18.795053,3.1673152,0.7398486
-18.977423,3.1725764,0.75904655
-19.128199,3.1708214,0.7612748
-19.284359,3.171224,0.7685132
-19.42593,3.1686409,0.7684703
-19.581131,3.1703796,0.77860546
-19.711967,3.166411,0.7749882
-19.831001,3.159886,0.7651639
-19.976679,3.1612675,0.77405024
-20.106441,3.1589768,0.77407074
-20.269754,3.1668432,0.79811
-20.36805,3.156972,0.7798891
-20.496637,3.1563394,0.7835059
-20.64155,3.1611853,0.7999983
-20.759716,3.1588418,0.7993355
-20.89096,3.1610541,0.8093567
-21.006016,3.1590056,0.80919075
-21.143398,3.1644814,0.82671595
-21.257654,3.1634436,0.82874155
-21.373873,3.1636193,0.8335409
-21.447342,3.150585,0.8070836
-21.585968,3.1591454,0.83148813
-21.669067,3.150093,0.81428385
-21.783928,3.1520596,0.8229642
-21.887045,3.1506484,0.82361126
-21.97334,3.1439612,0.81177187
-22.102016,3.1524618,0.8355713
-22.19149,3.1478546,0.8284793
-22.28888,3.1465025,0.8289676
-22.391838,3.1476681,0.8352952
-22.485666,3.1460295,0.8349724
-22.577763,3.144219,0.83418226
-22.67824,3.1460311,0.8418164
-22.767582,3.1441383,0.8407059
-22.859514,3.1436934,0.8429241
-22.934147,3.1369476,0.8303399
-23.022757,3.1360574,0.83140326
-23.126476,3.1416936,0.84766006
-23.194958,3.1336029,0.8317809
-23.273752,3.1300204,0.82638884
-23.365402,3.1321723,0.834332
-23.46828,3.1395805,0.8544798
-23.546936,3.1372538,0.8518586
-23.63345,3.1387186,0.85802746
-23.714962,3.1384606,0.8601279
-23.793552,3.1373267,0.86013985
-23.869267,3.1352966,0.85801697
-23.93496,3.1290636,0.8460717
-23.959646,3.104143,0.79061365
-23.990007,3.081651,0.7408023
-24.013762,3.0558627,0.6833215
-24.025982,3.0242841,0.61238337
-24.044601,2.9954133,0.5477443
-23.948029,2.9094696,0.3505721
-34.013718,2.9398847,0.4824505
-34.032684,2.971111,0.55300474
-34.04621,3.0058427,0.63163424
-34.060238,3.0394688,0.70772505
-34.093826,3.057984,0.74900866
-34.128445,3.0755084,0.788002
-34.164146,3.0920517,0.8247261
-34.117466,3.1665516,0.9950423
-34.172447,3.1685138,0.9981575
-34.22,3.1758091,1.0135474
-34.272064,3.1801538,1.0221119
-34.323647,3.1849966,1.0318046
-34.49692,3.1100593,0.8573561
-34.555008,3.1121385,0.86058235
-34.61427,3.113729,0.8626523
-34.666195,3.1202161,0.87600565
-34.73157,3.1184897,0.8703613
-34.791206,3.1206532,0.87367535
-34.824074,3.1392756,0.9150009
-34.850464,3.1615887,0.9648533
-34.87524,3.1845837,1.0162778
-34.909096,3.2020242,1.054851
-34.94489,3.2182229,1.0905433
-34.979805,3.2348206,1.1271477
-35.02078,3.2479334,1.155673
-35.06389,3.2598605,1.1814389
-35.107418,3.271582,1.2067103
-35.168026,3.2741761,1.210815
-35.222767,3.2801476,1.2227163
-35.286594,3.281559,1.224019
-35.35059,3.283192,1.2258015
-35.412296,3.2862973,1.2309675
-35.50134,3.2759335,1.2048392
-35.56973,3.2764385,1.2038908
-35.641464,3.2756493,1.1999002
-35.708393,3.2775714,1.202167
-35.806095,3.2651167,1.1709828
-36.012333,3.2021854,1.0223761
-36.11917,3.1874912,0.9858141
-36.191517,3.189409,0.98783445
-36.279152,3.1847398,0.9744797
-36.33546,3.1946235,0.99495983
-36.44363,3.1817222,0.96233225
-36.510918,3.1874144,0.97296333
-36.573566,3.1953783,0.988853
-36.653896,3.1960337,0.98766136
-36.72422,3.2013035,0.9971876
-36.823555,3.1948254,0.97924566
-36.897057,3.199537,0.98737144
-36.972084,3.2039526,0.99475956
-37.057777,3.2044373,0.99291325
-37.15151,3.202189,0.9846182
-37.244183,3.2008662,0.97842455
-37.36577,3.188913,0.94728327
-37.447784,3.1927671,0.9530735
-37.546608,3.190694,0.94492054
-37.645084,3.1892877,0.93826103
-37.788525,3.1719613,0.8941865
-37.914436,3.1619015,0.8670554
-38.087585,3.1357656,0.80207443
-38.582424,2.9975808,0.47367907
-38.600323,3.0291848,0.5440073
-38.600304,3.0666943,0.62823105
-38.614586,3.0989642,0.70014715
-38.655582,3.122045,0.75042677
-38.909332,3.0748856,0.6351614
-38.97528,3.0907001,0.6681676
-39.051907,3.103264,0.69346
-39.357323,3.0434875,0.5478935
-39.652527,2.9890754,0.41471767
-39.782204,2.987887,0.40710497
-39.833614,3.0112593,0.4574952
-39.906853,3.0281086,0.4924121
-40.245377,2.9663675,0.34106493
-40.2821,2.9954133,0.40465927
-40.23414,3.0488837,0.5261984
-45.07811,3.0118408,0.2433734
-45.196705,3.0364125,0.2928486
-3.2299557,3.6145346,0.57258224
-3.3046799,3.5481026,0.43052197
-4.778391,3.6116443,0.66289854
-5.238617,3.5862217,0.6353831
-5.6820087,3.561449,0.60819197
-16.614246,3.1426458,0.3358202
-16.635345,3.102408,0.246665
-17.102327,3.1579523,0.39801502
-17.32908,3.1638207,0.4240632
-17.560163,3.1718767,0.45523548
-17.774977,3.177531,0.48005486
-17.953226,3.1759877,0.48658943
-18.143667,3.1781955,0.50221443
-18.31909,3.1778765,0.51127625
-18.461115,3.1704872,0.50252247
-18.652311,3.1757164,0.524889
-18.819395,3.1760502,0.53485775
-18.946823,3.1673572,0.5222573
-19.141953,3.1764162,0.5533743
-19.24632,3.1632435,0.52933884
-19.429487,3.1710505,0.5569134
-19.56771,3.1680014,0.55750513
-19.70961,3.1666355,0.56206656
-19.819427,3.157282,0.546823
-19.98721,3.1643999,0.5718818
-20.106049,3.1587832,0.565505
-20.235004,3.1566067,0.56741667
-20.38667,3.1616087,0.5867405
-20.501247,3.156655,0.58154774
-20.622643,3.154269,0.5824938
-20.746025,3.1530926,0.58625555
-20.911991,3.1654603,0.6228876
-20.83685,3.1047556,0.48138762
-20.865387,3.075342,0.41614866
-21.06612,3.100109,0.48259735
-21.097902,3.072173,0.42081642
-21.312279,3.1032608,0.5022445
-21.589664,3.1564689,0.63705444
-21.683235,3.1505713,0.6283474
-21.81785,3.1589308,0.654058
-21.89215,3.1475027,0.6317663
-21.984985,3.1427515,0.6255441
-22.09604,3.144819,0.6357007
-22.208864,3.1481202,0.6487241
-22.297882,3.1434968,0.6425247
-22.393219,3.14159,0.64278984
-22.481056,3.137399,0.63746405
-22.586594,3.1402338,0.64896536
-22.66748,3.1343312,0.6393547
-22.760256,3.13334,0.64147663
-22.848507,3.1310704,0.64044476
-22.95608,3.1368353,0.65861845
-23.04021,3.1339042,0.65583277
-23.12688,3.1324024,0.6564026
-23.210537,3.1301086,0.65499973
-23.281008,3.1227696,0.64144516
-23.373745,3.1250415,0.6508336
-23.476866,3.132241,0.671927
-23.550735,3.127502,0.66439295
-23.635075,3.1276498,0.6684747
-23.726366,3.131312,0.6808777
-23.800243,3.1277254,0.6759062
-23.8785,3.1264608,0.67641497
-23.942333,3.1189768,0.6620383
-23.955559,3.0882154,0.592154
-23.990456,3.0672727,0.5456624
-23.97971,3.0244484,0.44707537
-34.042538,3.0153139,0.5101452
-34.072433,3.0375037,0.56048775
-34.078312,3.0769923,0.65152454
-34.08597,3.1143277,0.7375107
-34.13541,3.1210716,0.7514949
-34.20376,3.1146317,0.73440886
-34.22482,3.141444,0.79560137
-34.197033,3.2011395,0.9342756
-34.226284,3.2210536,0.9792385
-34.273857,3.2285562,0.9949312
-34.318295,3.238203,1.015656
-34.47705,3.1741834,0.8625703
-34.565807,3.1567616,0.8193135
-34.62096,3.1612115,0.8276229
-34.67563,3.1661618,0.83708096
-34.729256,3.171936,0.8484535
-34.7916,3.172641,0.8478141
-34.82337,3.1917894,0.8907342
-34.857517,3.2093673,0.9299288
-34.87901,3.2341096,0.9860616
-34.91629,3.249531,1.0201349
-34.951015,3.2663128,1.0574136
-34.99001,3.2806158,1.0888076
-35.035137,3.2915235,1.1121383
-35.082466,3.3012924,1.1327453
-35.144432,3.3033483,1.1350346
-35.291523,3.260939,1.0317998
-35.395226,3.242496,0.9853101
-35.44839,3.250772,1.0021701
-35.530144,3.2447448,0.9850216
-35.585308,3.252502,1.0005655
-35.699852,3.2311878,0.94695807
-35.965546,3.1373234,0.720685
-36.072994,3.1221838,0.68148375
-36.054585,3.1674423,0.78598785
-35.91129,3.270335,1.0278196
-36.060505,3.2359724,0.9427328
-36.136646,3.2361789,0.93992853
-36.20391,3.2407703,0.947526
-36.27458,3.2441397,0.9521527
-36.3454,3.2477617,0.9573283
-36.455647,3.234638,0.9224353
-36.523018,3.240588,0.93304014
-36.61747,3.2353857,0.9169154
-36.700134,3.235651,0.91379404
-36.81658,3.2224529,0.87835646
-36.91171,3.2186844,0.8654046
-37.027336,3.2072415,0.8339634
-37.128292,3.2023504,0.8181319
-37.234615,3.195948,0.79857683
-37.311806,3.2014148,0.80743265
-37.41612,3.196889,0.79220104
-37.515892,3.1946669,0.7824111
-37.634026,3.186176,0.7574339
-37.752754,3.1781795,0.73353004
-37.87207,3.17068,0.7107034
-38.405167,3.0161157,0.3329954
-38.525036,3.0117204,0.3171544
-38.57663,3.0317593,0.360219
-38.622746,3.0537302,0.40791893
-38.63488,3.0872278,0.48348093
-38.729786,3.0927348,0.49127722
-38.868736,3.0841284,0.4647751
-38.957428,3.092719,0.47983122
-39.01339,3.1122165,0.5212765
-39.129776,3.1126196,0.5162854
-39.4009,3.0651324,0.3947096
-39.55683,3.0551448,0.36406422
-39.732986,3.0398917,0.3204112
-39.813713,3.0544372,0.34920692
-40.28608,3.0332015,0.2764516
-3.2493553,3.6923578,0.35602045
-3.2903938,3.6228666,0.20496416
-5.6630783,3.696124,0.5479331
-17.755148,3.166061,0.24617624
-17.980225,3.1749709,0.2817688
-18.199333,3.1837382,0.31658745
-18.28837,3.1629946,0.27548647
-18.508684,3.1740344,0.3154645
-18.614883,3.1585512,0.28739738
-18.79644,3.16211,0.30766726
-18.959986,3.1621382,0.3186555
-19.140232,3.1672697,0.34233713
-19.257578,3.1571763,0.327116
-19.439901,3.164606,0.35609055
-19.603605,3.1681185,0.374866
-19.721453,3.1601887,0.36449242
-19.877644,3.1632683,0.3817091
-19.99162,3.1555214,0.37142134
-20.176249,3.168119,0.41214323
-20.270386,3.1560729,0.3906746
-20.433887,3.1644058,0.42021132
-20.522034,3.1516588,0.39668083
-20.666409,3.1559117,0.41558886
-20.826515,3.165689,0.44810343
-20.81407,3.1238925,0.3515911
-20.76946,3.0717025,0.22921228
-21.024092,3.1123054,0.33817053
-21.096344,3.0968804,0.3072834
-21.096664,3.0585864,0.21945143
-21.241083,3.0667799,0.24713564
-21.534801,3.125038,0.39886856
-21.731455,3.1530373,0.47515297
-21.83554,3.1510453,0.47687864
-21.92971,3.1461804,0.4713683
-22.028786,3.1434643,0.47105837
-22.130484,3.1421652,0.47413158
-22.231846,3.14127,0.4780798
-22.325657,3.138171,0.4764762
-22.417051,3.1346483,0.47372103
-22.524582,3.1375513,0.4866805
-22.634493,3.1419525,0.50319624
-22.71576,3.1360872,0.49435472
-22.80806,3.1348343,0.49675226
-22.89589,3.1323085,0.49592686
-22.99244,3.1336663,0.50452757
-23.087238,3.1348512,0.51259947
-23.168037,3.130871,0.5079217
-23.239841,3.1235678,0.4950323
-23.349224,3.1322048,0.5210433
-23.426617,3.1280358,0.515646
-23.518427,3.130385,0.5260868
-23.603266,3.1302345,0.53033304
-23.687807,3.130401,0.5352669
-23.761002,3.1259768,0.5289297
-23.83727,3.1232624,0.5266862
-23.883247,3.1070988,0.49164104
-34.056377,3.0477703,0.4614272
-34.08462,3.0711782,0.5152011
-34.102898,3.1014123,0.5853257
-34.155533,3.1065464,0.59529495
-34.138058,3.1611269,0.7237873
-34.18993,3.166387,0.73403025
-34.230022,3.1798422,0.76390076
-34.27136,3.1923876,0.7915659
-34.267323,3.2349625,0.89131546
-34.315346,3.2426176,0.9072161
-34.415047,3.2170813,0.8433237
-34.473824,3.2185674,0.84429836
-34.533264,3.2199156,0.8448973
-34.600246,3.2168941,0.83493567
-34.659523,3.218974,0.8371973
-34.719467,3.220922,0.83909607
-34.779552,3.2230663,0.8414211
-34.833187,3.2292523,0.8534374
-34.862465,3.2496376,0.89965105
-34.892418,3.2694252,0.9444151
-34.924206,3.2879908,0.9862175
-34.979504,3.293392,0.99622345
-35.046326,3.2927027,0.9914746
-35.186913,3.2526581,0.8915534
-35.222717,3.2696905,0.92949057
-35.31062,3.259319,0.90111256
-35.355133,3.2720222,0.9285002
-35.4324,3.2680306,0.91542864
-35.487694,3.275578,0.9302435
-35.59106,3.2593954,0.887485
-35.670033,3.255976,0.87557507
-35.74998,3.2525513,0.8635783
-36.003498,3.1666307,0.65117073
-36.073555,3.1698823,0.65512085
-36.01155,3.23495,0.8092952
-36.070732,3.2430384,0.8249726
-36.194126,3.222186,0.77015114
-36.25701,3.2293746,0.7834902
-36.342743,3.2266934,0.772717
-36.41768,3.2292073,0.7745247
-36.47498,3.2396784,0.7956786
-36.59476,3.223736,0.7522769
-36.664433,3.2296686,0.7621956
-36.749718,3.229418,0.7569256
-36.86993,3.2153282,0.7176957
-36.95878,3.2147145,0.711328
-37.086468,3.1990874,0.66806793
-37.1949,3.1919038,0.6453643
-37.31503,3.1808338,0.6129918
-37.41901,3.176719,0.5975609
-37.523453,3.1730235,0.58303785
