x,y,z
-29.921684,3.4125435,3.0045033
-29.95315,3.4139898,3.006783
-29.983704,3.4020636,2.9858456
-30.015667,3.4116437,3.002339
-40.05735,1.4039512,0.33749628
-40.113846,1.4270382,0.38904953
-40.12928,1.4686487,0.46942902
-40.062065,1.5467291,0.6062064
-40.132313,1.5630155,0.6472945
-40.104843,1.6221058,0.7544484
-40.051945,1.6914222,0.8771434
-40.124557,1.7061608,0.9159446
-40.10441,1.7602859,1.0151148
-40.095985,1.8088667,1.1056857
-40.125824,1.8410933,1.1712804
-40.08853,1.9006078,1.2782855
-40.17427,1.9095652,1.3086152
-40.091564,1.9862826,1.441369
-40.168404,1.9986804,1.4770193
-40.085056,2.074085,1.6073542
-40.09131,2.1136596,1.6837463
-40.090286,2.1556828,1.7637362
-40.10591,2.191005,1.8336892
-40.169117,2.2082305,1.8768134
-40.222958,2.2290797,1.9254398
-40.166843,2.2903528,2.033691
-40.358395,2.26092,2.008594
-40.407303,2.2838724,2.0607114
-40.456738,2.306673,2.1127138
-41.10614,2.1188185,1.8590016
-41.16487,2.140802,1.9111567
-40.018154,2.5769339,2.5602865
-40.083126,2.5924118,2.6011171
-40.147934,2.608131,2.6424723
-40.254128,2.6102884,2.664691
-40.295284,2.634302,2.718254
-40.200104,2.702601,2.834466
-40.301346,2.7068458,2.8601398
-40.390366,2.7154243,2.8922157
-40.505783,2.7160828,2.913537
-40.56746,2.7339678,2.9591599
-40.643982,2.747463,2.9989014
-40.753277,2.7512934,3.0256028
-40.860863,2.756136,3.054071
-40.956875,2.7648916,3.088242
-41.06363,2.770906,3.1190367
-41.188404,2.7721784,3.1438293
-41.306084,2.776075,3.1725984
-41.441933,2.77538,3.1956902
-41.539837,2.7859428,3.234208
-41.68954,2.782618,3.254809
-41.813,2.7871957,3.2863379
-41.97036,2.7832117,3.3072205
-42.120605,2.781909,3.3322034
-42.19746,2.8006291,3.3834887
-42.29806,2.8134446,3.4275308
-42.37453,2.8328571,3.4803166
-42.44984,2.85282,3.5340796
-42.51748,2.8749485,3.5908303
-42.652782,2.8805778,3.6274204
-43.663246,2.6735735,3.403633
-43.664055,2.7155385,3.4877748
-43.65953,2.7585402,3.5730958
-43.659977,2.8001196,3.6566157
-43.662613,2.8409715,3.7392006
-43.662746,2.8821921,3.822157
-43.81159,2.8897061,3.8658295
-44.100582,2.8667698,3.8751373
-44.21643,2.883312,3.9308972
-44.47757,2.868927,3.952332
-44.723824,2.859066,3.9801493
-44.816692,2.8827076,4.0461683
-45.08613,2.8700876,4.0731397
-45.53115,2.8229632,4.0644436
-45.95787,2.7819238,4.0646644
-46.47666,2.724883,4.050513
-47.015736,2.6666746,4.038107
-47.577057,2.6070793,4.0274005
-48.15487,2.5473664,4.0198617
-48.842033,2.4702933,3.99864
-49.495613,2.4031055,3.9911523
-50.21917,2.326716,3.9789
-51.039158,2.2369776,3.9586697
-51.883904,2.1472814,3.9436622
-52.847893,2.0414748,3.919609
-53.73838,1.9533265,3.9173708
-1.2790356,1.1708157,2.974782
-1.3129196,1.0960128,2.8133974
-3.390541,1.2967982,2.8367014
-3.6925278,1.2748575,2.7346725
-3.6557903,1.1933072,2.5734744
-3.6183453,1.1111159,2.4112854
-3.5869598,1.0295289,2.2494068
-3.5943966,0.95477104,2.0945263
-3.624115,0.88400054,1.9438882
-3.6817818,0.8185067,1.7990818
-3.781643,0.7613373,1.6637173
-3.7702808,0.6821263,1.5039868
-3.7801857,0.6068194,1.3485165
-3.7578335,0.52455854,1.184977
-15.305124,2.8615944,3.8345299
-16.654543,3.1037054,4.081175
-16.734966,3.0806885,4.0198584
-17.438957,3.1170557,3.966569
-17.480015,3.087631,3.8997684
-17.811554,3.1251438,3.9162347
-17.919304,3.1122682,3.8711
-18.158928,3.1310353,3.8663416
-18.377525,3.1460478,3.8578482
-18.536148,3.147663,3.8331218
-18.611065,3.129489,3.7835064
-18.77414,3.1335306,3.7630386
-18.979465,3.1490526,3.7582526
-19.183403,3.1653223,3.7552867
-19.371248,3.1785269,3.7490811
-19.419373,3.1561434,3.6961446
-19.59576,3.1678667,3.6891284
-19.78999,3.185317,3.690526
-19.85098,3.1676235,3.6449556
-20.035473,3.1840863,3.6462145
-20.150768,3.1822944,3.6231089
-20.235298,3.1723845,3.5892086
-20.436722,3.1961594,3.6023169
-20.528168,3.18934,3.573516
-20.659807,3.1946592,3.5620255
-20.831264,3.2124264,3.5685134
-20.839695,3.1824088,3.5080352
-21.048656,3.212884,3.5334678
-21.085642,3.1919632,3.4863057
-21.267157,3.215821,3.503398
-21.301617,3.194679,3.456356
-21.487522,3.2215323,3.4787421
-21.548187,3.2093563,3.4451337
-21.68706,3.2227347,3.4489145
-21.734697,3.2069786,3.4105482
-21.900572,3.2305412,3.4300027
-21.927555,3.2085156,3.3828478
-22.103718,3.2370434,3.4104652
-22.156378,3.224298,3.3774252
-22.30597,3.2453263,3.3947883
-22.31453,3.2177885,3.3400865
-22.44995,3.2350538,3.3524952
-22.526085,3.231863,3.3345652
-22.590439,3.224741,3.310915
-22.737246,3.2481039,3.33354
-22.755672,3.2247877,3.2857895
-22.921488,3.2566028,3.3219361
-22.952385,3.238377,3.282219
-23.135891,3.2786098,3.3320107
-23.149538,3.2543042,3.2833157
-23.269152,3.271338,3.2982244
-23.337313,3.2687397,3.2831817
-23.367565,3.2512712,3.245307
-23.489416,3.2708464,3.2649255
-23.570011,3.2743266,3.2598577
-23.597198,3.2561421,3.221232
-23.718697,3.277338,3.2441635
-23.768013,3.2688274,3.2209067
-23.814259,3.259155,3.1959305
-23.947048,3.2869873,3.2300472
-23.98219,3.2731166,3.1987724
-24.074585,3.2845397,3.2075233
-24.175032,3.3001256,3.2230964
-24.196362,3.280677,3.183332
-24.306868,3.3017814,3.208068
-24.384275,3.3083982,3.210001
-24.396778,3.285215,3.1645408
-24.483688,3.2968802,3.1748176
-24.545675,3.2972286,3.1671638
-24.603832,3.2960367,3.1571712
-24.637634,3.2832546,3.1286578
-24.727901,3.2982678,3.1449914
-24.812613,3.3111327,3.1580691
-24.822468,3.286915,3.1113672
-24.909645,3.30176,3.1279368
-24.983501,3.3103628,3.1345763
-25.025093,3.3026602,3.114873
-25.056164,3.28953,3.0864038
-25.170183,3.3204496,3.129818
-25.229,3.3226688,3.1266217
-25.230864,3.2942615,3.0734391
-25.31242,3.309253,3.0913277
-25.404451,3.3306582,3.1199188
-25.433378,3.3173585,3.0916839
-25.45711,3.301062,3.0585518
-25.539433,3.3182998,3.0807104
-25.593945,3.3200252,3.0774436
-25.632442,3.3126287,3.0592055
-25.651968,3.2940383,3.0225015
-25.73181,3.3115096,3.0455675
-25.771646,3.3053107,3.0295243
-25.851374,3.3237312,3.0544462
-25.872505,3.306377,3.0200229
-25.938276,3.3169367,3.0321069
-25.992382,3.320553,3.03274
-26.056908,3.3311934,3.0451999
-26.074657,3.3118448,3.0076528
-26.130852,3.317604,3.0121307
-26.2185,3.3447003,3.0524616
-26.25946,3.3411634,3.0415888
-26.272228,3.3185122,2.9986844
-26.330053,3.3266716,3.0075655
-26.38582,3.333809,3.0148315
-26.446589,3.3448768,3.0288186
-26.481483,3.3378932,3.012476
-26.501509,3.3201659,2.978045
-26.554928,3.3267329,2.9846745
-26.610361,3.3351722,2.9945636
-26.649828,3.3320153,2.9849167
-26.68984,3.3294039,2.9762506
-26.723232,3.3218253,2.959218
-26.764894,3.320721,2.9532204
-26.830235,3.338539,2.9794397
-26.868347,3.3351893,2.9697738
-26.9054,3.3310945,2.9588943
-26.946663,3.3305576,2.9541264
-26.990974,3.3327453,2.9540653
-27.039774,3.3389838,2.9609833
-27.079195,3.337558,2.9548893
-27.11103,3.3297076,2.9378686
-27.152933,3.330693,2.9359999
-27.198185,3.334884,2.9396815
-27.24862,3.3440678,2.9519858
-27.288157,3.3437161,2.9480205
-27.311436,3.328434,2.9184895
-27.368456,3.344708,2.943163
-27.407782,3.3447227,2.9399924
-27.457623,3.3551233,2.9547334
-27.495317,3.3540626,2.9498305
-27.523535,3.3436916,2.928947
-27.557264,3.3387825,2.9175024
-27.59105,3.3339646,2.9062548
-27.65259,3.3581686,2.9451199
-27.68997,3.3576827,2.941463
-27.728144,3.3582153,2.9396152
-27.750008,3.341105,2.9073215
-27.789068,3.3427374,2.9074569
-27.83613,3.353636,2.9236798
-27.878471,3.359651,2.9315157
-27.919424,3.3644228,2.9372573
-27.948942,3.3559682,2.9201279
-27.977844,3.3466616,2.9015503
-28.016724,3.3494449,2.9039817
-28.06959,3.3699553,2.9372396
-28.106905,3.3716154,2.9378362
-28.140528,3.3687322,2.930584
-28.164248,3.352886,2.9008317
-28.203295,3.357167,2.9061089
-28.23533,3.3522053,2.895351
-28.277885,3.3618615,2.9100814
-28.320818,3.3725932,2.926742
-28.352371,3.367463,2.9158192
-28.376966,3.352042,2.8869877
-28.404722,3.3409157,2.8656669
-28.45736,3.3676918,2.910509
-28.493872,3.37049,2.9135733
-28.530867,3.3743434,2.9185233
-28.561619,3.3683221,2.90627
-28.587067,3.353331,2.8783717
-28.623442,3.3565085,2.882257
-28.663248,3.365997,2.897224
-28.703852,3.37752,2.9158015
-28.740473,3.3824644,2.9229178
-28.771572,3.3774445,2.9126344
-28.796274,3.3600173,2.8806558
-28.830137,3.359946,2.879099
-28.86753,3.367187,2.8903947
-28.908417,3.3822505,2.9154468
-28.939644,3.377653,2.9060788
-28.970734,3.3726506,2.8960347
-28.996784,3.356116,2.86579
-29.032564,3.3614273,2.8739018
-29.066568,3.3629606,2.8754244
-29.111668,3.3922503,2.925716
-29.144814,3.393024,2.925992
-29.17773,3.3933995,2.9256048
-29.210968,3.3948357,2.9271178
-29.243114,3.3934383,2.9236865
-29.271124,3.3799322,2.8990078
-29.298647,3.3640485,2.870175
-29.33238,3.3667867,2.8741107
-29.365877,3.3691266,2.8773818
-29.405241,3.3921049,2.9169912
-29.437374,3.391211,2.9146533
-29.468214,3.385501,2.9038744
-29.500904,3.3867316,2.9053411
-29.530378,3.374802,2.8836813
-29.563025,3.3757057,2.8846383
-29.59763,3.3860261,2.9022107
-29.63236,3.398407,2.923449
-29.664446,3.3985927,2.9232507
-29.69599,3.39591,2.918035
-29.72589,3.382974,2.8947916
-29.756546,3.3730636,2.8769078
-29.790321,3.3839138,2.8956275
-29.824568,3.4007666,2.9249601
-29.856693,3.4029279,2.9284444
-29.888908,3.4066513,2.9347162
-29.921022,3.4104586,2.9411693
-29.953379,3.4187882,2.955626
-29.983921,3.402539,2.9268007
-30.015743,3.4031398,2.927703
-40.019737,1.4914842,0.33733654
-40.08826,1.5090165,0.37995434
-40.10966,1.5475936,0.45598793
-40.076263,1.6099067,0.56947184
-40.115482,1.6398659,0.631824
-40.0941,1.6957242,0.73491716
-40.074795,1.7500124,0.8354049
-40.10887,1.7812116,0.89964676
-40.1971,1.7897396,0.9285474
-40.068077,1.8879514,1.0972409
-40.16491,1.8926821,1.1203117
-40.07631,1.9724495,1.2598257
-40.18539,1.9723268,1.2755761
-40.051575,2.068362,1.4397511
-40.161602,2.0678732,1.4551082
-40.066673,2.1468678,1.5925465
-40.08429,2.1817887,1.6622553
-40.0972,2.2182443,1.7342901
-40.098736,2.258669,1.8123264
-40.107048,2.296237,1.8859725
-40.226547,2.2929738,1.8979173
-40.182087,2.349432,2.0001073
-40.259384,2.3617663,2.0358596
-40.415966,2.3464062,2.030386
-40.431515,2.381115,2.1000347
-40.45841,2.411695,2.1635337
-41.180794,2.204963,1.8756723
-41.127007,2.2651558,1.9841571
-40.09236,2.6516545,2.5720906
-40.158924,2.667005,2.6125798
-40.332752,2.64759,2.6025186
-40.369812,2.6732433,2.6585402
-40.41871,2.695105,2.7091436
-40.431435,2.72843,2.7763925
-40.45855,2.7570827,2.8369155
-40.620026,2.7442997,2.8382301
-40.720955,2.7508137,2.8675694
-40.85826,2.7468288,2.8823538
-40.93623,2.761174,2.9234672
-41.01942,2.7742617,2.9630547
-41.13204,2.7791193,2.9914055
-41.240234,2.785758,3.0226169
-41.35296,2.7915933,3.0530877
-41.48288,2.7931204,3.078021
-41.601166,2.798489,3.1086817
-41.742203,2.7981782,3.1320329
-41.888866,2.7970352,3.1547804
-42.065845,2.7885292,3.168172
-42.162605,2.8020709,3.2117481
-42.252834,2.8176997,3.2584476
-42.379715,2.8242548,3.2934823
-42.438362,2.848702,3.3524928
-42.48652,2.8759184,3.415307
-42.573227,2.893673,3.4660149
-43.66233,2.6669545,3.2026901
-43.66439,2.7089052,3.2872396
-43.651802,2.754115,3.375853
-43.652534,2.795883,3.4600062
-43.650753,2.8380098,3.5445375
-43.65772,2.877901,3.6262221
-43.782745,2.890977,3.6749954
-44.011482,2.8815138,3.6969223
-44.213104,2.8791747,3.728489
-44.44996,2.8702064,3.7530904
-44.625397,2.875562,3.7957354
-44.81608,2.8785424,3.836433
-45.058308,2.8717453,3.8667426
-45.31701,2.8627996,3.8957973
-45.588417,2.8526044,3.9247475
-45.84575,2.8465917,3.9597607
-46.03801,2.854619,4.0116005
-46.32159,2.8459346,4.0462284
-46.829845,2.7959764,4.0380154
-47.30334,2.7552464,4.042403
-47.855877,2.7024527,4.0368514
-48.52163,2.6320543,4.0163536
-49.163414,2.5695121,4.007685
-49.913048,2.4914255,3.9873366
-50.64942,2.4196455,3.9776583
-51.483345,2.3351772,3.960291
-52.351776,2.2493773,3.9468417
-53.339638,2.1485279,3.9249907
-54.303658,2.0567966,3.9177027
-1.0990944,1.3931818,3.0387244
-1.3115749,1.346704,2.9046059
-1.2070255,1.2494588,2.720809
-3.6727371,1.5031738,2.8159156
-3.5746498,1.4119,2.6439533
-3.635891,1.3475373,2.500143
-3.6249638,1.194963,2.186935
-3.6284466,1.1198027,2.0313845
-3.6234226,1.0427666,1.87362
-3.7281837,0.98606825,1.7390175
-3.7876682,0.92098117,1.5951185
-3.7637978,0.83970714,1.4324265
-3.7650719,0.7629075,1.2748041
-3.7894592,0.69038916,1.1222024
-3.8073044,0.6163249,0.9677329
-16.824436,3.1008153,3.8439279
-17.008701,3.1007462,3.8130245
-17.243633,3.1127892,3.7983785
-17.405842,3.1097584,3.7653165
-17.63542,3.12282,3.7538052
-17.761715,3.1133037,3.7137198
-17.98972,3.128095,3.7061453
-18.168858,3.1325393,3.6857696
-18.371881,3.1436157,3.6749573
-18.54209,3.1477916,3.6556664
-18.730522,3.1573133,3.6442623
-18.860523,3.1532636,3.6151028
-18.995033,3.1509678,3.5888214
-19.206444,3.1689754,3.5909986
-19.399021,3.1832604,3.5888095
-19.46982,3.166666,3.5443077
-19.608105,3.1682248,3.5254564
-19.830547,3.1930861,3.5399008
-19.979027,3.199084,3.5284514
-20.062271,3.1878862,3.4930573
-20.24271,3.2041173,3.4971251
-20.29531,3.185273,3.4514503
-20.431278,3.190367,3.4404502
-20.637375,3.2164338,3.4602861
-20.672157,3.1935847,3.4096346
-20.865803,3.217767,3.4277935
-20.910437,3.1984415,3.3827424
-21.077642,3.216341,3.3926525
-21.14781,3.205437,3.360488
-21.300222,3.2203107,3.3668017
-21.374605,3.2115529,3.3383641
-21.4959,3.2179878,3.3328633
-21.644577,3.2338607,3.3418994
-21.685833,3.2156835,3.3000793
-21.875088,3.2462049,3.331983
-21.899162,3.2229867,3.2829385
-22.06601,3.2477016,3.3068833
-22.11575,3.2336116,3.2720728
-22.193575,3.229306,3.2523627
-22.316027,3.2408664,3.257235
-22.375069,3.2308192,3.2291512
-22.506126,3.2465897,3.2411146
-22.53252,3.225487,3.1962857
-22.680391,3.2485163,3.220096
-22.737507,3.2390883,3.1937265
-22.83007,3.243039,3.188398
-22.933865,3.2517004,3.19069
-22.99406,3.244368,3.1681228
-23.148525,3.273508,3.203145
-23.205101,3.26562,3.1801128
-23.298756,3.2725067,3.180595
-23.367252,3.269916,3.1662712
-23.42369,3.2627878,3.144888
-23.49127,3.2603893,3.131165
-23.576155,3.2654037,3.1294394
-23.641893,3.2629302,3.1159253
-23.761585,3.2834046,3.1393828
-23.78558,3.2640493,3.0990844
-23.912254,3.288674,3.1296892
-23.97571,3.286747,3.1177301
-24.020647,3.2769828,3.0932245
-24.146645,3.3032804,3.1272702
-24.194382,3.2953885,3.1060839
-24.26409,3.2976007,3.1014323
-24.342636,3.3042264,3.104126
-24.404442,3.3035507,3.095066
-24.435633,3.288826,3.0631394
-24.533619,3.3057146,3.083085
-24.592825,3.3047082,3.0738626
-24.613888,3.285509,3.0348296
-24.711645,3.3037212,3.057458
-24.76835,3.3023124,3.0479188
-24.824963,3.3011138,3.0388365
-24.862898,3.290724,3.0146422
-24.949263,3.305161,3.0316792
-25.013273,3.3086376,3.0306954
-25.03006,3.2877696,2.9893403
-25.153927,3.323341,3.0420113
-25.212378,3.324997,3.0383763
-25.229353,3.3045278,2.9978862
-25.299381,3.3128767,3.0056143
-25.373173,3.3237596,3.017724
-25.430382,3.3258758,3.0152721
-25.451881,3.308097,2.9795032
-25.52099,3.3174067,2.989314
-25.580502,3.32163,2.9906902
-25.637173,3.3245394,2.9899583
-25.656475,3.3056448,2.9525118
-25.720821,3.3135316,2.9603496
-25.78101,3.3193293,2.9647684
-25.847334,3.329266,2.9763093
-25.872757,3.314322,2.9457598
-25.911015,3.307315,2.9287152
-26.00614,3.336463,2.9732022
-26.035418,3.3242645,2.9474945
-26.058743,3.3081422,2.9151325
-26.131748,3.324523,2.9382367
-26.182482,3.3267112,2.9372373
-26.266066,3.3512926,2.9746022
-26.27694,3.3271613,2.9287658
-26.32903,3.3310864,2.9309764
-26.389122,3.3409145,2.9433947
-26.432632,3.3394904,2.9366012
-26.484138,3.343968,2.9400105
-26.500652,3.3234394,2.9005027
-26.55149,3.3277771,2.9037948
-26.6111,3.338947,2.9189343
-26.652023,3.33657,2.9108167
-26.692366,3.3339024,2.9022546
-26.720695,3.3221173,2.8779988
-26.767582,3.3247266,2.878654
-26.822338,3.3338358,2.8906245
-26.869371,3.337205,2.8927407
-26.910995,3.3364763,2.887827
-26.954111,3.3371592,2.885418
-27.00381,3.3435485,2.892972
-27.04869,3.3462443,2.894185
-27.091413,3.3473642,2.8927226
-27.11809,3.3347917,2.8675013
-27.168158,3.3426454,2.87786
-27.211618,3.3450217,2.8787522
-27.266033,3.3575654,2.8974266
-27.304808,3.3563154,2.8921237
-27.331755,3.344223,2.8679423
-27.369177,3.3418577,2.8607764
-27.430994,3.3629632,2.89468
-27.475836,3.3683922,2.9012637
-27.51058,3.3642201,2.8911061
-27.534254,3.3490367,2.8617072
-27.567448,3.3432474,2.8487835
-27.609812,3.3469224,2.8524904
-27.667845,3.3672943,2.8855448
-27.70378,3.3649955,2.878893
-27.741787,3.3650477,2.8764129
-27.758354,3.341767,2.8329763
-27.807875,3.354643,2.8531132
-27.859013,3.369955,2.877604
-27.900642,3.3750043,2.8841062
-27.935867,3.3729048,2.8780718
-27.966492,3.3654323,2.8626108
-27.992714,3.3525512,2.8376474
-28.039642,3.3649073,2.857213
-28.088768,3.380633,2.8827868
-28.119432,3.373538,2.8681445
-28.155539,3.3734293,2.8658705
-28.182873,3.3618824,2.8434286
-28.22245,3.3665814,2.8497267
-28.26692,3.3783512,2.8685756
-28.307066,3.3846946,2.877884
-28.34114,3.3827908,2.872644
-28.367533,3.3697972,2.8478065
-28.392313,3.3540564,2.8181238
-28.426693,3.3523867,2.8133917
-28.481646,3.3826551,2.8653097
-28.519476,3.3873215,2.8719077
-28.550745,3.381763,2.8604116
-28.577263,3.368283,2.8348904
-28.611055,3.3666396,2.8304
-28.637192,3.3518698,2.802638
-28.692808,3.3886771,2.8665104
-28.728636,3.391601,2.870257
-28.758982,3.3846717,2.8565288
-28.789213,3.3773406,2.8421159
-28.821054,3.3729343,2.8329325
-28.854872,3.372417,2.8306985
-28.89864,3.3924813,2.8651242
-28.933962,3.3959866,2.870132
-28.963223,3.3866925,2.8523889
-28.993113,3.378423,2.8364973
-29.025257,3.3750129,2.8292885
-29.058466,3.3740816,2.826528
-29.096178,3.3842745,2.843626
-29.134176,3.396018,2.863531
-29.168724,3.3996997,2.8691049
-29.202618,3.4020329,2.8723097
-29.235739,3.4025297,2.8722758
-29.263842,3.388649,2.8466268
-29.294348,3.3811045,2.8323069
-29.327019,3.3799133,2.8293533
-29.361471,3.384607,2.836937
-29.395643,3.3889115,2.843861
-29.431585,3.4000854,2.8630867
-29.464504,3.4011874,2.8643637
-29.495522,3.3951042,2.8528419
-29.525969,3.386187,2.8362865
-29.558626,3.386081,2.8355017
-29.592535,3.3918877,2.845312
-29.629164,3.411878,2.8805037
-29.661825,3.4139838,2.8837729
-29.692678,3.4064472,2.8698401
-29.72249,3.3916874,2.8430257
-29.753935,3.3852754,2.83116
-29.788282,3.3984225,2.8542929
-29.822603,3.414098,2.8819828
-29.855162,3.4181716,2.8889623
-29.887255,3.4189172,2.8900228
-29.918833,3.4143822,2.881672
-29.950901,3.4148052,2.882218
-29.983177,3.4187248,2.889049
-30.015089,3.4178493,2.8873358
-40.06745,1.5918703,0.3595953
-40.062572,1.6416037,0.45408726
-40.137985,1.6561236,0.49168158
-40.07878,1.7283194,0.62227964
-40.062664,1.7812781,0.72172594
-40.113052,1.8058307,0.77551603
-40.089733,1.8608215,0.87807274
-40.13035,1.8890164,0.9377217
-40.063843,1.960417,1.0662246
-40.117493,1.9827554,1.1165104
-40.051926,2.0522668,1.2416582
-40.110893,2.0720897,1.2879715
-40.06585,2.1322315,1.3979907
-40.09293,2.1639981,1.4631615
-40.08351,2.2094028,1.5497503
-40.097908,2.2454307,1.6215658
-40.23457,2.2359602,1.6223378
-40.179527,2.29738,1.7338305
-40.104183,2.3653274,1.8552165
-40.18197,2.3775177,1.8899837
-40.204353,2.4095774,1.9556041
-40.22959,2.4404714,2.0194378
-40.37006,2.431355,2.021903
-40.379494,2.4678218,2.0944862
-41.155167,2.2868981,1.8537517
-41.194714,2.3155148,1.9156127
-40.099617,2.7149684,2.537342
-40.16363,2.7313738,2.5790253
-40.386074,2.6973526,2.5452776
-40.427673,2.7217815,2.5995398
-40.453217,2.7512345,2.6613612
-40.568497,2.7529044,2.6820264
-40.629456,2.7716866,2.7283072
-40.715755,2.7829897,2.7637439
-42.237095,2.367233,2.173915
-40.934288,2.7930865,2.8171291
-41.068577,2.791601,2.8348422
-41.212006,2.7881536,2.8501554
-41.33957,2.7899334,2.873465
-41.486137,2.7869923,2.8904314
-41.58522,2.7979476,2.9277077
-41.69599,2.8061118,2.961341
-41.83757,2.8064315,2.9842653
-41.964794,2.8112772,3.014038
-42.165867,2.7972302,3.0178537
-42.22403,2.8214886,3.0756378
-42.325825,2.8346543,3.1182628
-42.425697,2.8487263,3.1624827
-42.49508,2.8708482,3.218042
-42.551273,2.8964443,3.2785401
-43.613647,2.676228,3.007635
-43.639156,2.7126596,3.085143
-43.644604,2.7537856,3.168939
-43.642887,2.7963881,3.2546396
-43.64144,2.8386824,3.3398576
-43.65151,2.8781047,3.4212556
-43.707882,2.9069111,3.4888997
-43.996094,2.884222,3.4906511
-44.20293,2.880941,3.5183668
-44.420376,2.8763976,3.5453815
-44.546288,2.892497,3.5991836
-44.77539,2.8874075,3.6272383
-45.03989,2.8761249,3.6487193
-45.316174,2.8637912,3.6701436
-45.52894,2.8656876,3.710011
-45.758057,2.865377,3.7482414
-46.024647,2.8588626,3.7802458
-46.295326,2.8529058,3.8142009
-46.548004,2.8517358,3.8550134
-46.842194,2.8440526,3.8896723
-47.10967,2.8427815,3.9330444
-47.344467,2.8487656,3.9858499
-47.68658,2.8367324,4.0201526
-48.32528,2.774346,4.0019703
-48.87496,2.73076,4.0073223
-49.58181,2.6633513,3.9908485
-50.307373,2.5965805,3.979093
-51.126617,2.5182612,3.9598966
-51.93844,2.4455018,3.951089
-52.91355,2.3511012,3.9261107
-53.876526,2.2637777,3.913885
-1.2582855,1.5855613,2.9812331
-1.3174114,1.5148277,2.8239546
-3.161869,1.6496453,2.807003
-3.6581783,1.655025,2.7382865
-3.6775398,1.5839396,2.587397
-3.5855026,1.4939239,2.4152174
-1.1157799,0.99601626,1.777247
-3.5757084,1.3417873,2.101367
-3.643919,1.2781582,1.9588099
-3.619606,1.1979756,1.7968826
-3.758976,1.0711074,1.5129547
-3.777317,0.9981096,1.359621
-3.7718754,0.9203305,1.2003489
-3.7867165,0.8461127,1.045392
-3.7778873,0.7669625,0.8841686
-13.961479,2.7271883,3.3202734
-14.124115,2.7122366,3.2643538
-14.5294075,2.748026,3.2748547
-15.592871,2.9236076,3.4697514
-16.963116,3.0904775,3.5999513
-17.27063,3.118216,3.6095147
-17.338852,3.0939662,3.5497842
-17.590303,3.1115801,3.5474434
-17.687569,3.0950053,3.4990745
-17.948465,3.1170406,3.5044484
-18.1596,3.1287155,3.4963822
-18.36013,3.13896,3.4870882
-18.54089,3.145452,3.4732366
-18.720402,3.1525707,3.4609118
-18.839947,3.1456616,3.4292426
-19.00336,3.150387,3.4146256
-19.19568,3.1633487,3.412416
-19.403002,3.1812313,3.4179797
-19.48271,3.1667526,3.3772225
-19.632217,3.1711285,3.3642306
-19.815723,3.1854243,3.3662753
-20.012228,3.2042625,3.3756146
-20.09422,3.1926022,3.340456
-20.252293,3.2025177,3.3376026
-20.344883,3.1947665,3.308876
-20.437454,3.1874135,3.2810125
-20.646955,3.2143357,3.3049836
-20.66668,3.1868463,3.2474256
-20.861132,3.2110953,3.2683268
-20.89517,3.1883175,3.2182593
-21.065958,3.207085,3.2317023
-21.220457,3.221827,3.2394838
-21.25806,3.2010798,3.193139
-21.46473,3.2335665,3.2290044
-21.495409,3.211286,3.1806965
-21.65704,3.2311637,3.1979103
-21.69389,3.2113311,3.1537175
-21.869217,3.2371693,3.1809583
-21.900995,3.2162118,3.1353493
-22.109192,3.2547448,3.1833029
-22.104635,3.222034,3.119534
-22.256084,3.24286,3.140335
-22.317347,3.2331297,3.1131072
-22.37533,3.2224572,3.0845175
-22.50893,3.2389722,3.099378
-22.534512,3.2172863,3.0535526
-22.719318,3.2536733,3.10077
-22.730963,3.227352,3.0477877
-22.91529,3.2653317,3.09829
-22.938461,3.2437108,3.053115
-23.05099,3.256121,3.0629911
-23.144537,3.2618718,3.0623484
-23.211329,3.257688,3.045784
-23.308397,3.265745,3.0492883
-23.35347,3.2535973,3.0200548
-23.450083,3.2623546,3.0250778
-23.550274,3.273133,3.0336318
-23.580334,3.2555666,2.995885
-23.673025,3.2641017,3.0011077
-23.781658,3.2799056,3.0185137
-23.783243,3.2507367,2.9619122
-23.929758,3.2837827,3.0081873
-23.974483,3.2735045,2.9830074
-24.065676,3.2838242,2.9920998
-24.175385,3.3029604,3.0160494
-24.209278,3.2886646,2.984542
-24.333897,3.31573,3.0221086
-24.390018,3.3121428,3.0087104
-24.400208,3.2873793,2.959958
-24.486649,3.2983062,2.971047
-24.536835,3.2925098,2.9542222
-24.605213,3.2956529,2.9525223
-24.638662,3.2821496,2.922904
-24.722641,3.2935348,2.935327
-24.8441,3.3241413,2.9804006
-24.819021,3.2819118,2.9024634
-24.900774,3.2934365,2.9155297
-24.989136,3.3089132,2.935463
-25.010729,3.290241,2.897533
-25.072157,3.2924118,2.8950868
-25.146494,3.3017862,2.9050245
-25.226639,3.3147779,2.9212718
-25.264872,3.3055005,2.8996243
-25.33225,3.3123417,2.905601
-25.393974,3.316455,2.9070258
-25.436823,3.3102837,2.8909216
-25.47838,3.303496,2.8738203
-25.54627,3.312,2.8830624
-25.594913,3.3097284,2.8738794
-25.646736,3.3095355,2.868353
-25.67079,3.2930121,2.834741
-25.759626,3.315484,2.8684783
-25.806602,3.3131516,2.8595037
-25.845346,3.3059208,2.842124
-25.89477,3.3054457,2.8364944
-25.962685,3.3169055,2.851635
-26.025291,3.3254797,2.8618813
-26.063183,3.3184795,2.84517
-26.119293,3.323497,2.8494081
-26.167376,3.3235395,2.8450727
-26.234997,3.3369446,2.864089
-26.273258,3.33094,2.8493676
-26.30337,3.3194075,2.8250432
-26.355145,3.322912,2.827023
-26.414215,3.3318768,2.8386264
-26.462126,3.3333194,2.8371568
-26.49577,3.3247018,2.818131
-26.542978,3.3260226,2.8165665
-26.588396,3.3262665,2.8131785
-26.635363,3.3278992,2.8122907
-26.690374,3.3359087,2.8226748
-26.709457,3.316659,2.7851963
-26.735346,3.3024335,2.7565665
-26.833525,3.345209,2.8283644
-26.859756,3.3316865,2.8010888
-26.89039,3.321587,2.779873
-26.929926,3.3187492,2.7715054
-26.970463,3.3168778,2.7648935
-27.029087,3.3304448,2.785624
-27.075832,3.3344135,2.7894611
-27.103668,3.3222764,2.7648482
-27.149763,3.326079,2.768495
-27.19761,3.3317556,2.7755237
-27.24476,3.3371618,2.782136
-27.28557,3.3370972,2.7791014
-27.321642,3.332817,2.768629
-27.366037,3.336474,2.7723002
-27.403439,3.3337264,2.7646408
-27.460169,3.349906,2.7906947
-27.4951,3.3452299,2.7797046
-27.534903,3.345488,2.7775397
-27.560764,3.331753,2.7504845
-27.608286,3.3401752,2.7629552
-27.655949,3.3491998,2.7765613
-27.69957,3.354385,2.7833762
-27.733126,3.3490205,2.7714047
-27.758236,3.334369,2.7428737
-27.795647,3.3331876,2.7384386
-27.855888,3.358126,2.7807593
-27.892122,3.3563182,2.7753072
-27.93447,3.3618207,2.7829785
-27.965296,3.3539112,2.7666826
-27.999977,3.3506021,2.7586546
-28.044931,3.3600802,2.7735858
-28.088148,3.367888,2.7855754
-28.119057,3.3603554,2.7700953
-28.154633,3.358827,2.7654195
-28.18127,3.345515,2.739622
-28.222698,3.3519456,2.7493072
-28.266891,3.3626332,2.7666893
-28.30718,3.3684068,2.775291
-28.341513,3.3660154,2.7692547
-28.367058,3.350801,2.7401843
-28.401882,3.3490338,2.7353306
-28.437607,3.3487499,2.7331815
-28.48249,3.3629358,2.7571273
-28.52348,3.371695,2.7713504
-28.557077,3.3689523,2.764893
-28.581488,3.350926,2.7309184
-28.621338,3.358601,2.7433019
-28.662556,3.3691993,2.7610006
-28.703203,3.3794558,2.7781305
-28.735373,3.3748431,2.7684689
-28.766623,3.3684344,2.7555957
-28.795069,3.3564641,2.732708
-28.827585,3.3520832,2.7235503
-28.864578,3.3567357,2.7307425
-28.904354,3.367625,2.7492428
-28.9425,3.3758,2.7628803
-28.977196,3.376994,2.763937
-29.00164,3.3550885,2.7232542
-29.036097,3.3554971,2.7229476
-29.068554,3.351254,2.7142582
-29.114191,3.379859,2.7650394
-29.149143,3.3829434,2.7696843
-29.18559,3.3904054,2.7822866
-29.219242,3.3908265,2.782178
-29.252193,3.38943,2.7788095
-29.27876,3.3690338,2.7410588
-29.308897,3.3582423,2.720725
-29.342384,3.3575568,2.7187285
-29.377848,3.3636546,2.729055
-29.416119,3.3803797,2.758676
-29.450317,3.383805,2.7642288
-29.482557,3.3801315,2.7569451
-29.51311,3.3693457,2.7367954
-29.545141,3.3639119,2.7263765
-29.58087,3.3748846,2.74574
-29.616205,3.3854759,2.7644458
-29.649952,3.3894336,2.771154
-29.681759,3.3833814,2.7597342
-29.714434,3.3817387,2.7563434
-29.74482,3.3652592,2.7260618
-29.778769,3.3710012,2.736127
-29.814123,3.3888755,2.7682405
-29.847605,3.3948007,2.7787027
-29.880976,3.401295,2.7902298
-29.913643,3.402092,2.7914467
-29.945978,3.3991153,2.7858434
-29.97899,3.4053848,2.7970538
-30.011398,3.4035406,2.7935653
-30.018427,2.7804003,1.662344
-39.96735,1.70946,0.3977313
-40.10594,1.6967771,0.38981676
-40.10263,1.7450757,0.4827857
-40.063408,1.8079088,0.5996046
-40.15348,1.8162618,0.6267419
-40.089622,1.8881116,0.7581706
-40.046417,1.9505401,0.8739424
-40.115368,1.9671233,0.91466665
-40.179375,1.9858375,0.95898914
-40.07429,2.071033,1.1115217
-40.17488,2.0750647,1.1320128
-40.073696,2.1569865,1.2788086
-40.157406,2.1674595,1.3098621
-40.079773,2.2387948,1.4391546
-40.132454,2.2607236,1.4887438
-40.07637,2.3226206,1.6025119
-40.145336,2.3383017,1.6421299
-40.288723,2.3274689,1.6395893
-40.06483,2.4477468,1.8460484
-40.13412,2.4630208,1.8851252
-40.209145,2.4765112,1.9215274
-40.208286,2.5162728,1.9995627
-40.27013,2.5344336,2.0435362
-40.35637,2.5445635,2.075037
-40.38553,2.573946,2.13687
-41.23487,2.3345523,1.7794342
-41.240387,2.3744822,1.8590264
-40.38243,2.690504,2.3665972
-40.41118,2.7193072,2.4275146
-40.442085,2.7473502,2.4872952
-40.52652,2.7587843,2.5216227
-40.612648,2.7700272,2.5558767
-40.720627,2.7750106,2.5808148
-40.73841,2.8448563,2.7222056
-40.83537,2.853816,2.7537227
-40.913685,2.8685503,2.7941837
-41.073784,2.860313,2.8005066
-41.550407,2.764024,2.6762028
-41.595745,2.7903836,2.7353983
-41.670364,2.808762,2.7829084
-41.762814,2.8225577,2.8238897
-41.951862,2.810892,2.827888
-42.12323,2.8048978,2.840776
-42.250397,2.811307,2.8722124
-42.316566,2.834001,2.927548
-42.435455,2.8434794,2.9641056
-42.51128,2.8642883,3.0172276
-42.565742,2.8906357,3.0784407
-42.688923,2.900292,3.1162367
-43.658794,2.7061954,2.868423
-43.64521,2.7521958,2.959474
-43.639244,2.7960763,3.047462
-43.640945,2.8378994,3.132523
-43.650387,2.8777282,3.2147918
-43.718086,2.9042387,3.278912
-43.961525,2.8918273,3.2906585
-44.16597,2.889242,3.3165584
-44.401703,2.8809085,3.3356147
-44.54728,2.8930247,3.3826613
-44.770267,2.8895104,3.409781
-45.02096,2.88137,3.4318113
-45.276733,2.8734717,3.455217
-45.48627,2.876194,3.4933052
-45.77497,2.8642268,3.513679
-45.953392,2.875311,3.5642776
-46.21781,2.870665,3.596097
-46.501633,2.863669,3.6262283
-46.796303,2.8560867,3.6569595
-47.087433,2.8506517,3.6916661
-47.41732,2.8396683,3.7211556
-47.750458,2.829792,3.7535563
-48.028877,2.8312063,3.8007293
-48.346107,2.8273058,3.8431911
-48.66645,2.8244717,3.888475
-49.05877,2.811235,3.9238071
-49.410637,2.8066368,3.9707174
-50.024426,2.7615824,3.9757204
-50.763794,2.6998568,3.9663758
-51.506256,2.6415594,3.9648027
-52.411934,2.5622177,3.9458737
-53.35323,2.4823232,3.931706
-54.388924,2.393487,3.9143286
1.4006939,1.5285146,2.8636913
-1.2324867,1.7402413,2.9133034
-1.3423882,1.6768816,2.764184
-2.5201397,1.7758205,2.7956629
-3.600462,1.8659718,2.823432
-3.5954285,1.7912147,2.6680784
-3.530325,1.7065473,2.5011024
-3.5260391,1.5561366,2.1884518
-3.562334,1.4869552,2.039238
-3.584196,1.4152107,1.8869705
-3.663021,1.3532066,1.7467432
-3.7552357,1.2937129,1.6099205
-3.7512722,1.2171276,1.4518557
-3.7398376,1.13883,1.2914867
-3.744915,1.0632002,1.1343989
-3.7186604,0.9813502,0.9691472
-3.7547016,0.91093254,0.8186612
-3.7908382,0.8403888,0.6680589
-15.634973,2.9710736,3.358563
-15.65441,2.9314444,3.274519
-16.587261,3.085724,3.4588661
-16.75127,3.0798073,3.4236474
-17.00877,3.0951066,3.4187698
-17.3227,3.1242719,3.4344063
-17.404762,3.1030667,3.379662
-17.643196,3.1177707,3.3764687
-17.78746,3.1120005,3.3446984
-18.091633,3.14434,3.3684697
-18.201164,3.1322098,3.3287039
-18.340193,3.1276433,3.3003268
-18.560791,3.1436095,3.3025327
-18.77076,3.1581452,3.3033595
-18.950077,3.1661484,3.2951894
-19.113531,3.171074,3.283008
-19.175892,3.1509035,3.2337961
-19.396019,3.1719134,3.2466245
-19.57756,3.1839948,3.2466707
-19.618206,3.159504,3.1918483
-19.814453,3.1770477,3.2010756
-20.015474,3.196986,3.2145557
-20.166782,3.2043028,3.209281
-20.226131,3.1866581,3.1660147
-20.458542,3.2182612,3.1989923
-20.48061,3.1908586,3.1411448
-20.62201,3.1980417,3.1371465
-20.755146,3.2035465,3.130919
-20.819714,3.1893404,3.0941672
-20.990797,3.2074337,3.108345
-21.121296,3.2141383,3.1050305
-21.283491,3.2313166,3.1186337
-21.309616,3.2069552,3.0667539
-21.470253,3.2250159,3.082426
-21.504341,3.2035723,3.035462
-21.676165,3.2266579,3.0598378
-21.758827,3.2216132,3.0395055
-21.90411,3.237659,3.0533142
-21.996511,3.2368515,3.0402899
-22.096317,3.2390003,3.0322652
-22.152351,3.226663,3.0009766
-22.284386,3.240832,3.012908
-22.32454,3.223571,2.973917
-22.465015,3.2419214,2.9931917
-22.524153,3.2319613,2.9664297
-22.590733,3.2249007,2.9445448
-22.738167,3.247761,2.972033
-22.779976,3.2323756,2.9367957
-22.92724,3.2566159,2.9671192
-22.965742,3.240543,2.9310164
-23.117605,3.268004,2.9672275
-23.154417,3.251833,2.9312263
-23.280502,3.2707176,2.9536958
-23.348202,3.267239,2.9391074
-23.370134,3.2456915,2.894424
-23.51628,3.2744386,2.9340487
-23.56328,3.2635152,2.9073896
-23.626686,3.2595153,2.8924541
-23.76032,3.2852533,2.9277482
-23.780207,3.2636566,2.883428
-23.90215,3.2857144,2.9129329
-23.984613,3.2914822,2.9151044
-24.00928,3.2723596,2.8752093
-24.151672,3.3053741,2.9239297
-24.180824,3.2886567,2.8883104
-24.292877,3.3095005,2.916749
-24.345783,3.3040013,2.9004412
-24.394995,3.2969828,2.8816237
-24.4435,3.2897916,2.8625865
-24.530624,3.3010695,2.8752956
-24.607199,3.3078494,2.880445
-24.612225,3.280383,2.8268428
-24.690037,3.2883003,2.834145
-24.803066,3.314171,2.8725443
-24.808605,3.2869987,2.8195782
-24.88562,3.2957656,2.8287234
-24.964378,3.3059187,2.8404016
-25.017088,3.3030727,2.8296914
-25.05802,3.2942653,2.8087158
-25.146288,3.3106651,2.8315916
-25.219057,3.3193986,2.841289
-25.227274,3.293557,2.7908955
-25.322607,3.3152404,2.8233476
-25.398607,3.326956,2.8385715
-25.43446,3.3166482,2.8154397
-25.452686,3.2963471,2.7748685
-25.558147,3.326003,2.8217878
-25.60051,3.3199024,2.806212
-25.634533,3.309011,2.7822843
-25.658482,3.2921221,2.7478576
-25.74109,3.3104303,2.77534
-25.803612,3.3171802,2.7826157
-25.853977,3.3168437,2.7775025
-25.872616,3.2969449,2.7379603
-25.969154,3.3260188,2.7848701
-26.003817,3.3164873,2.7637339
-26.067673,3.3258522,2.7760525
-26.107761,3.320123,2.7617517
-26.174694,3.332281,2.7791882
-26.216991,3.3284485,2.7683735
-26.275099,3.3354905,2.7769089
-26.306202,3.3243766,2.753282
-26.357637,3.3273678,2.7547565
-26.414606,3.334561,2.7637763
-26.457712,3.3322718,2.7559938
-26.479462,3.314721,2.7210732
-26.536568,3.3228166,2.7318926
-26.58346,3.323775,2.7300563
-26.632412,3.3265269,2.7314816
-26.688227,3.3347864,2.7428136
-26.711622,3.318512,2.7103462
-26.737984,3.3043413,2.6816587
-26.83232,3.3437533,2.7489462
-26.859053,3.3302736,2.7215996
-26.89221,3.3218591,2.7033548
-26.946877,3.3311265,2.7168717
-26.990637,3.331763,2.714964
-27.041277,3.3384411,2.7239628
-27.080809,3.335991,2.7166157
-27.106167,3.3213608,2.6874003
-27.154495,3.3267667,2.6942673
-27.209284,3.3383071,2.7122426
-27.25615,3.3431985,2.718307
-27.29768,3.3435266,2.7161994
-27.32391,3.3297856,2.6887565
-27.364077,3.3290367,2.684783
-27.42309,3.346574,2.713883
-27.467798,3.3508847,2.7191572
-27.505297,3.3483822,2.7121658
-27.531942,3.3350892,2.6856937
-27.571268,3.334523,2.682273
-27.635471,3.3599224,2.7259135
-27.669348,3.3543813,2.7135863
-27.713995,3.3603768,2.7222009
-27.73366,3.3395953,2.6823106
-27.776602,3.3440452,2.688201
-27.814629,3.3433092,2.6847272
-27.870893,3.3635693,2.7194166
-27.91431,3.3697805,2.7286553
-27.929174,3.3426523,2.677352
-27.971457,3.3477235,2.6845899
-28.00622,3.343961,2.675805
-28.066988,3.372635,2.7260752
-28.105667,3.374526,2.7276702
-28.137606,3.3679614,2.7139077
-28.165188,3.3556018,2.6896143
-28.207891,3.3632221,2.7017527
-28.238392,3.3546448,2.6844082
-28.288958,3.3738637,2.7177796
-28.321997,3.3691237,2.707502
-28.35133,3.3589945,2.6874194
-28.38025,3.3480177,2.6658115
-28.420008,3.353125,2.6735973
-28.461662,3.3615606,2.6875024
-28.50218,3.368746,2.6991677
-28.537903,3.368694,2.6976457
-28.569944,3.3627505,2.6853862
-28.609207,3.3688848,2.695241
-28.64104,3.362657,2.6825213
-28.68713,3.3815,2.7157044
-28.722456,3.3819542,2.71528
-28.75423,3.3760076,2.7031693
-28.783432,3.3650272,2.6818666
-28.818352,3.3648157,2.6803122
-28.855095,3.368426,2.685792
-28.896688,3.3824048,2.7103062
-28.931278,3.3824966,2.7094092
-28.961971,3.374262,2.6932778
-28.9943,3.3693786,2.6833158
-29.025507,3.3617632,2.6683702
-29.057268,3.3551624,2.6553106
-29.105343,3.3885713,2.715691
-29.136868,3.3821666,2.7030568
-29.172625,3.3866665,2.7104654
-29.210306,3.39692,2.7284684
-29.241714,3.3903024,2.7155304
-29.269419,3.3724332,2.681953
-29.30064,3.3640714,2.6658583
-29.336788,3.370915,2.6777225
-29.371885,3.37502,2.6845865
-29.409437,3.3882172,2.7081895
-29.442991,3.3882523,2.7076397
-29.477762,3.393117,2.7159953
-29.50862,3.38289,2.69664
-29.54028,3.3751116,2.6818094
-29.571909,3.36646,2.665401
-29.612795,3.4011462,2.7287073
-29.646051,3.401711,2.7293048
-29.677969,3.3952234,2.7169614
-29.708092,3.3773897,2.6837754
-29.740084,3.3686764,2.6673884
-29.7747,3.3767188,2.6818504
-29.811361,3.402012,2.7280788
-29.84481,3.4059517,2.735055
-29.876629,3.3956714,2.7158966
-29.911463,3.4150472,2.7513309
-29.944218,3.4149532,2.75097
-29.97674,3.411603,2.7446465
-30.009764,3.415973,2.7525554
-30.015764,2.7797828,1.5817466
-40.108696,1.7614481,0.35305214
-40.091476,1.8152256,0.45602846
-40.155685,1.8347337,0.50130033
-40.089878,1.9074371,0.6359172
-40.072857,1.959372,0.73552513
-40.12983,1.9811513,0.7846246
-40.10482,2.0353565,0.8879018
-40.163223,2.0563316,0.9357281
-40.054863,2.1417735,1.0907617
-40.15138,2.147637,1.1134958
-40.043625,2.2310293,1.2647109
-40.113434,2.246819,1.3039575
-40.05517,2.3100753,1.4215355
-40.10531,2.332897,1.4724255
-40.118156,2.369211,1.5455241
-40.10974,2.4128423,1.6305737
-40.15274,2.4379063,1.6852293
-40.11882,2.4897804,1.7836094
-40.13405,2.524092,1.8533049
-40.167995,2.5518017,1.9122887
-40.241096,2.5662475,1.9498734
-40.25575,2.600396,2.0193725
-40.34536,2.6096528,2.0488372
-40.39494,2.6322997,2.0999742
-40.441647,2.6559265,2.1527672
-40.407368,2.7053382,2.246748
-40.448826,2.7303925,2.3018537
-40.50203,2.7518077,2.3512588
-40.440468,2.808533,2.4565558
-40.50665,2.8257859,2.4994445
-40.66261,2.8163354,2.5005612
-40.73574,2.832241,2.54178
-40.689148,2.883407,2.638155
-40.831223,2.9167829,2.723516
-40.980576,2.9117281,2.732911
-41.12669,2.9083474,2.7453094
-41.66256,2.7984672,2.595067
-41.702885,2.8266368,2.6570826
-41.792236,2.8416584,2.6992035
-42.01487,2.821698,2.6886497
-42.145954,2.826922,2.716731
-42.2998,2.8268764,2.7373
-42.418415,2.836578,2.7728958
-42.52154,2.8507037,2.8154225
-42.568825,2.879131,2.8794074
-42.65237,2.8987217,2.9304943
-43.634377,2.7010574,2.6636677
-43.647045,2.7410376,2.746595
-43.64247,2.7849128,2.8351479
-43.63534,2.8291063,2.924077
-43.6405,2.8701937,3.0084648
-43.707344,2.8971117,3.07262
-43.896015,2.8970122,3.0987096
-44.197067,2.8731024,3.0919638
-44.30302,2.8931725,3.1478481
-44.496098,2.8950117,3.1787672
-44.75804,2.883265,3.19166
-44.977993,2.8816128,3.2193918
-45.18685,2.8833349,3.2525625
-45.416714,2.881842,3.282207
-45.686665,2.8735187,3.303618
-45.881878,2.8812318,3.3474288
-46.17621,2.8707347,3.368042
-46.428955,2.8696604,3.402194
-46.727818,2.8612118,3.4278746
-47.000217,2.859167,3.4630547
-47.323708,2.8492153,3.4893904
-47.670654,2.836729,3.5139885
-47.936176,2.840334,3.5601654
-48.263542,2.8345559,3.5960202
-48.6337,2.8231578,3.6265788
-48.948128,2.822971,3.6723638
-49.341225,2.8114235,3.7061996
-49.679382,2.8107605,3.7547107
-50.10421,2.7980297,3.7909908
-50.515793,2.7895353,3.8342648
-50.90526,2.7865179,3.8858118
-51.36225,2.7753022,3.930389
-52.16645,2.7151446,3.9244342
-52.954185,2.6616025,3.9300075
-54.005444,2.5747197,3.9052525
1.2312756,1.7342744,2.8019056
0.39868355,1.7630901,2.7494001
-1.2362194,1.9087782,2.8340387
-2.30941,1.9828198,2.8443313
-3.248291,2.042931,2.8436775
-3.5758476,2.0171354,2.7454085
-3.6263084,1.9509532,2.5999322
-3.5150986,1.71054,2.1119518
-3.5649605,1.6435602,1.9654541
-3.5858574,1.5717809,1.8129392
-3.6251812,1.5029216,1.6642065
-3.7376995,1.4465077,1.5318379
-3.733755,1.3701639,1.3735337
-3.7127552,1.290463,1.21064
-3.7178764,1.2150118,1.0532789
-3.71459,1.1377211,0.8933468
-3.7315712,1.0638311,0.7379551
-3.6830196,0.9773407,0.5651555
-14.641834,2.8592024,3.034182
-14.708618,2.8262897,2.957724
-15.643864,2.97275,3.1394763
-16.52692,3.11371,3.316667
-16.59777,3.0872917,3.2532992
-16.822144,3.0941699,3.2388997
-17.01351,3.0949922,3.2163262
-17.298515,3.1175308,3.2265358
-17.469635,3.1160216,3.2018814
-17.652576,3.1180525,3.1830626
-17.860151,3.1267002,3.174765
-18.121605,3.1490526,3.187828
-18.30429,3.1541424,3.175499
-18.389559,3.1367388,3.1294103
-18.561743,3.140845,3.116506
-18.75819,3.1518292,3.1146913
-18.968695,3.167379,3.12051
-19.189484,3.1866848,3.132773
-19.26873,3.1708536,3.0909433
-19.400333,3.1689386,3.071073
-19.563179,3.1759,3.065493
-19.717583,3.181466,3.0581613
-19.854685,3.1831608,3.0451264
-20.02266,3.1940005,3.0469632
-20.214115,3.212258,3.0610595
-20.253763,3.1889973,3.0093517
-20.4356,3.206163,3.0224967
-20.571152,3.2110453,3.0163736
-20.641605,3.197683,2.981172
-20.844755,3.2236795,3.0097814
-20.86974,3.1977324,2.954657
-21.064056,3.2228367,2.9826074
-21.120316,3.2069144,2.9441204
-21.281685,3.2236502,2.959166
-21.376463,3.2204804,2.9419556
-21.47538,3.2190666,2.927845
-21.478853,3.187548,2.8643212
-21.739658,3.2392204,2.9382648
-21.852985,3.244235,2.935544
-21.891994,3.2251878,2.8931122
-22.058582,3.2490108,2.9221087
-22.100098,3.231376,2.882316
-22.206654,3.2361455,2.8800545
-22.313734,3.2416663,2.8792796
-22.335611,3.2178025,2.82938
-22.509686,3.2479737,2.870441
-22.531683,3.2245588,2.8215141
-22.688297,3.250034,2.8552246
-22.712086,3.2276206,2.8081856
-22.866867,3.253892,2.8437638
-22.922894,3.2439852,2.8181787
-23.024532,3.2516348,2.8225865
-23.144102,3.26677,2.8399663
-23.173668,3.2475739,2.798912
-23.319355,3.2740936,2.8361635
-23.342674,3.2528317,2.7917624
-23.438915,3.2608597,2.797699
-23.556536,3.2781608,2.819775
-23.564617,3.2510653,2.7655582
-23.687744,3.2716866,2.7937021
-23.80102,3.2889843,2.8163385
-23.817072,3.265573,2.768693
-23.931942,3.2845933,2.79464
-23.967875,3.2699695,2.7623658
-24.068417,3.2838504,2.7797184
-24.175903,3.3014843,2.803791
-24.224283,3.2931905,2.7828345
-24.320595,3.3069017,2.8003845
-24.401031,3.3139265,2.8064117
-24.397388,3.282206,2.7447162
-24.518927,3.3091452,2.7858496
-24.582779,3.3094869,2.7805014
-24.603539,3.2893515,2.739252
-24.67231,3.2924993,2.738996
-24.756416,3.3035932,2.7528539
-24.810587,3.3002992,2.7414646
-24.871681,3.3007243,2.736722
-24.954136,3.3123646,2.7519069
-25.001686,3.3065348,2.736292
-25.02869,3.2901251,2.7019887
-25.115183,3.3050635,2.723332
-25.208601,3.3243356,2.752514
-25.2235,3.3018737,2.7076364
-25.271513,3.297284,2.694569
-25.377808,3.325116,2.739338
-25.433933,3.3257847,2.7358322
-25.437653,3.2970588,2.6799216
-25.51007,3.3072908,2.6936102
-25.574377,3.3133292,2.6999044
-25.632654,3.3162367,2.7006865
-25.645046,3.2922428,2.6533365
-25.716492,3.303403,2.6690369
-25.798786,3.3216798,2.697619
-25.847626,3.3200767,2.6906028
-25.857613,3.294508,2.6405473
-25.950562,3.3208265,2.6838746
-26.002144,3.3216624,2.681439
-26.056591,3.3246157,2.6828866
-26.09357,3.3164752,2.6643858
-26.157238,3.3260238,2.677867
-26.22114,3.3362048,2.6925774
-26.274796,3.3399334,2.695706
-26.29944,3.3240886,2.6634755
-26.351223,3.326932,2.6651096
-26.41698,3.3399107,2.6851788
-26.462107,3.3387532,2.6796956
-26.4877,3.3237035,2.6490474
-26.540564,3.3284233,2.6543245
-26.593754,3.3337324,2.660737
-26.635895,3.3311212,2.65281
-26.681753,3.3314874,2.6503482
-26.713715,3.3213942,2.6288877
-26.751091,3.3154724,2.6150575
-26.82179,3.335946,2.6493945
-26.876434,3.3443322,2.6617713
-26.899193,3.3272812,2.6277742
-26.948,3.3314118,2.632482
-27.0021,3.3402827,2.6459107
-27.053413,3.347258,2.6559367
-27.08689,3.339343,2.6387763
-27.113722,3.325638,2.611043
-27.169939,3.3376665,2.6304684
-27.231428,3.3549638,2.659617
-27.26066,3.3436954,2.6364594
-27.29794,3.3397112,2.626687
-27.342987,3.34307,2.6304312
-27.382463,3.3414507,2.6250782
-27.43747,3.3549325,2.647512
-27.48063,3.3574488,2.6498518
-27.508467,3.3450365,2.624782
-27.544682,3.3408806,2.614921
-27.581776,3.3376894,2.6068687
-27.637232,3.3536835,2.6341848
-27.686855,3.3642242,2.651515
-27.71827,3.3557587,2.6338687
-27.743423,3.3403792,2.603497
-27.788647,3.3469357,2.613606
-27.828182,3.3474934,2.6126919
-27.88106,3.3635623,2.6404514
-27.917587,3.3613012,2.6344156
-27.945919,3.3494222,2.610643
-27.991718,3.3584116,2.6254606
-28.024235,3.3515778,2.6110678
-28.07604,3.3688323,2.6412563
-28.117208,3.3733466,2.6479292
-28.1503,3.367719,2.6358695
-28.18077,3.3585978,2.6173677
-28.21574,3.3553731,2.6098094
-28.262808,3.3688533,2.6332312
-28.302742,3.3730426,2.639482
-28.33842,3.3714929,2.6351304
-28.369764,3.3637204,2.6192698
-28.400953,3.3555713,2.6027336
-28.440622,3.360179,2.6098928
-28.485075,3.3726175,2.6316223
-28.520878,3.372018,2.629189
-28.558325,3.3742476,2.6320405
-28.583076,3.355611,2.5961647
-28.617104,3.3520842,2.588376
-28.6572,3.3591628,2.6003265
-28.699884,3.3713982,2.6218987
-28.741209,3.3819318,2.640347
-28.776848,3.3824878,2.6402779
-28.803617,3.3661256,2.6087675
-28.835882,3.3599465,2.596219
-28.882296,3.3824315,2.6370406
-28.917515,3.3829093,2.6369438
-28.94904,3.3756258,2.6224256
-28.986551,3.3813744,2.6321993
-29.014168,3.3649929,2.6007886
-29.04669,3.359335,2.5893698
-29.08161,3.3593283,2.5885067
-29.125345,3.3817225,2.6294146
-29.166151,3.3982065,2.659348
-29.198748,3.393858,2.6504865
-29.2296,3.3844647,2.6322446
-29.26291,3.3816762,2.62634
-29.290564,3.3616965,2.5884008
-29.323744,3.3576617,2.5802202
-29.358994,3.360259,2.5844345
-29.405298,3.4013288,2.6604548
-29.437397,3.395243,2.6485329
-29.46988,3.3901734,2.638533
-29.503767,3.3903446,2.6383376
-29.535286,3.3807485,2.6199389
-29.569145,3.3806205,2.6192365
-29.606174,3.3956158,2.646793
-29.638035,3.38674,2.6298132
-29.671854,3.387348,2.6305661
-29.705236,3.385692,2.6271172
-29.737074,3.3742354,2.6053925
-29.77071,3.3732178,2.6031857
-29.807379,3.3948994,2.6433983
-29.842508,3.4086707,2.6688676
-29.875904,3.4098086,2.6707678
-29.909485,3.4133902,2.67726
-29.94208,3.4062126,2.6636796
-29.975435,3.4076076,2.6661382
-30.008905,3.4119196,2.6740713
-30.018904,2.8656676,1.6535382
-40.008682,1.877542,0.39217043
-40.034294,1.9127874,0.46419907
-40.15892,1.9076359,0.46676493
-40.08603,1.9823451,0.606658
-40.09646,2.0228987,0.687788
-40.122738,2.0568798,0.75764084
-40.07782,2.1182444,0.8742647
-40.124138,2.143817,0.9297104
-40.14125,2.1804328,1.0040011
-40.10221,2.2378132,1.1135435
-40.101635,2.280208,1.1975336
-40.10028,2.3224847,1.2812667
-40.10386,2.3625731,1.3612466
-40.102623,2.4040334,1.4434929
-40.11379,2.4407203,1.5176554
-40.120186,2.4787989,1.5941277
-40.12674,2.5165153,1.6699553
-40.15095,2.5478976,1.7351665
-40.116135,2.5990684,1.8333683
-40.15671,2.6244507,1.8885436
-40.23736,2.6365898,1.9218011
-40.305256,2.653181,1.9625888
-40.33394,2.6826134,2.024704
-40.416706,2.694712,2.0582995
-40.33262,2.7596667,2.1788826
-40.46359,2.7567594,2.188015
-40.52334,2.776423,2.2343297
-40.568157,2.8007643,2.2883801
-40.59876,2.8294077,2.3494925
-40.505276,2.894791,2.4701562
-40.515358,2.9288733,2.5399456
-40.567833,2.95048,2.5896244
-40.605965,2.9762902,2.646152
-40.664017,2.996474,2.6937375
-41.404415,2.8264265,2.438045
-41.047615,2.963564,2.6727934
-41.681305,2.8284502,2.475143
-41.726677,2.8554873,2.5353227
-41.922264,2.8427083,2.5329618
-42.075214,2.8421507,2.550303
-42.259075,2.8343587,2.5567737
-42.359245,2.8488972,2.5984902
-42.43303,2.8704886,2.6513944
-42.53931,2.8842254,2.6923637
-42.620903,2.9044645,2.74361
-43.63041,2.7001534,2.4517193
-43.63795,2.7416372,2.537274
-43.631966,2.7861028,2.6273103
-43.640003,2.8270142,2.7119074
-43.64832,2.867664,2.7960782
-43.679157,2.9030254,2.872323
-43.873817,2.901757,2.8942108
-44.126457,2.888697,2.8993134
-44.248062,2.905413,2.949009
-44.47616,2.8998506,2.9665432
-44.721478,2.8918169,2.9812703
-44.93715,2.8912122,3.0075717
-45.14083,2.8941412,3.0396943
-45.38243,2.8904133,3.063048
-45.600708,2.8925474,3.0955706
-45.866547,2.8864388,3.1173015
-46.112816,2.8854623,3.1471872
-46.365993,2.8844054,3.1778884
-46.678513,2.8735123,3.196044
-46.94566,2.8725877,3.2290154
-47.26662,2.8632443,3.2516642
-47.609085,2.85171,3.272677
-47.906883,2.849776,3.307849
-48.1309,2.8620775,3.3629827
-48.552372,2.8419232,3.3767762
-48.868324,2.8415759,3.4179382
-49.235718,2.8343701,3.451734
-49.601532,2.829287,3.489851
-50.049076,2.8131042,3.5157938
-50.463158,2.8044348,3.5530734
-50.830933,2.8049526,3.6034737
-51.255367,2.79881,3.6476464
-51.751274,2.7842898,3.683992
-52.216393,2.77676,3.7309637
-52.702347,2.768637,3.7796216
-53.193512,2.762258,3.8327699
-53.6967,2.7567286,3.8894596
-54.69362,2.6877937,3.8799014
-0.5026684,2.0494287,2.8106842
-1.5489235,2.1094341,2.8092494
-3.371622,2.281734,2.9498324
-3.5413284,2.231862,2.824111
-3.5411148,2.1583679,2.6694803
-3.5351887,2.0837884,2.5133867
-3.513115,1.9322038,2.1977258
