x,y,z
-29.742836,2.7921395,4.1114173
-29.768839,2.7849374,4.102732
-29.794733,2.7757368,4.092022
-29.821835,2.776923,4.0922837
-29.849367,2.7829971,4.0977554
-29.8755,2.7739978,4.0874805
-29.904966,2.8063803,4.1207395
-29.931427,2.8030298,4.116554
-29.957695,2.7956138,4.1081734
-29.984262,2.7917094,4.1035566
-30.011135,2.793385,4.1048803
-30.038073,2.7978864,4.109251
-30.064934,2.802457,4.1137724
-30.091953,2.8201923,4.132209
-30.118462,2.815942,4.127612
-30.14504,2.8117592,4.123163
-30.171759,2.797996,4.108719
-30.198578,2.7925727,4.103119
-30.225407,2.7906647,4.1012917
-30.252356,2.786069,4.096716
-30.279158,2.7870555,4.0980854
-30.305569,2.7956896,4.1075673
-30.331875,2.8037014,4.1164703
-30.358685,2.802137,4.115388
-30.385881,2.795821,4.109392
-30.413357,2.787511,4.1013823
-30.440216,2.7875338,4.1022015
-30.466663,2.7917547,4.107505
-30.492668,2.799483,4.116562
-30.519028,2.803149,4.1214314
-30.545843,2.8027565,4.1221204
-30.572575,2.8031206,4.123678
-30.60067,2.7939343,4.115309
-30.629026,2.7841368,4.1063843
-30.656784,2.7792227,4.1026583
-30.683475,2.7812462,4.1062756
-30.710014,2.7840233,4.110758
-30.735243,2.7937248,4.122554
-30.760576,2.8021169,4.13305
-30.789501,2.7920747,4.124366
-30.819891,2.7759519,4.1094246
-30.848162,2.7708652,4.1060944
-30.875277,2.771326,4.108633
-30.903032,2.7691236,4.108477
-30.930162,2.7697272,4.1113253
-30.95487,2.7799578,4.1242685
-30.982082,2.7800136,4.1267004
-31.010954,2.7740064,4.1229134
-31.044857,2.7503672,4.1009145
-31.073694,2.745894,4.0989146
-31.101002,2.7469425,4.102726
-31.127468,2.7507796,4.1095076
-31.154514,2.752647,4.1143255
-31.18175,2.7539058,4.118595
-31.210981,2.7491336,4.1167154
-31.24007,2.74512,4.115712
-31.271341,2.735096,4.1086054
-31.30375,2.7224586,4.0989122
-31.333416,2.7180266,4.0977716
-31.35687,2.7305522,4.1141515
-31.38424,2.7323394,4.119566
-31.41658,2.7213988,4.112012
-31.447226,2.7152667,4.109495
-31.478802,2.707207,4.105107
-31.50884,2.7032695,4.105037
-31.540089,2.6967335,4.1024156
-31.571743,2.6896183,4.099306
-31.596708,2.6979923,4.1120734
-31.626368,2.6957278,4.1140914
-31.663445,2.6775198,4.100019
-31.69176,2.6787758,4.1058226
-31.724512,2.6707811,4.102345
-31.766464,2.644256,4.0802484
-31.790102,2.6557546,4.09671
-31.818577,2.6573496,4.103249
-31.85587,2.641789,4.0926056
-31.893766,2.625688,4.081561
-31.927376,2.6183057,4.0794134
-31.958263,2.6163073,4.082779
-31.985575,2.6209893,4.0929303
-32.014282,2.6231084,4.100604
-32.04855,2.615446,4.0986176
-32.093517,2.5895114,4.078571
-32.128574,2.5814342,4.0764546
-32.163383,2.574121,4.075225
-32.193596,2.5747566,4.0819936
-32.2246,2.574172,4.087655
-32.25684,2.571723,4.091583
-32.29526,2.559615,4.0861163
-32.33388,2.5476346,4.080927
-32.372704,2.5357819,4.076015
-32.4079,2.529882,4.077081
-32.431587,2.5415335,4.0954146
-32.463364,2.5409837,4.1019206
-32.50837,2.521215,4.089853
-32.542557,2.517672,4.0937195
-32.578163,2.5123098,4.095951
-32.617504,2.5019383,4.0934796
-32.649185,2.502563,4.101763
-32.685986,2.4962626,4.1034994
-32.72996,2.4805303,4.0963345
-32.76848,2.47258,4.0968037
-32.808086,2.463488,4.0963373
-32.839104,2.4659235,4.107006
-32.87254,2.4652882,4.114867
-32.906986,2.4634933,4.121754
-32.962,2.4360073,4.1045017
-32.997223,2.4338503,4.1113734
-33.040653,2.4217782,4.1090636
-33.08067,2.414235,4.1111865
-33.130177,2.395596,4.103107
-33.17998,2.3771405,4.0954266
-33.223183,2.366946,4.095649
-33.26281,2.3612423,4.1002183
-33.303604,2.354433,4.103932
-33.357033,2.3335686,4.0948772
-33.410786,2.3129077,4.086264
-33.45157,2.3071942,4.0915837
-33.48239,2.3126507,4.1072636
-33.554813,2.2729478,4.0819993
-33.608536,2.2542853,4.076179
-33.657967,2.2406945,4.075198
-33.701836,2.2333565,4.0800734
-33.744076,2.2279873,4.0869083
-33.83565,2.1720235,4.0487146
-33.878437,2.1670718,4.0564537
-33.911182,2.172483,4.073575
-33.964245,2.1576066,4.072886
-34.03264,2.127983,4.0594673
-34.08078,2.1189137,4.0644393
-34.12599,2.1129935,4.072388
-34.199085,2.0805366,4.057446
-34.24778,2.0720472,4.063676
-34.314137,2.0472143,4.056025
-34.36257,2.0397127,4.0636253
-34.426353,2.018303,4.0595484
-34.49045,1.9971478,4.056022
-34.545845,1.9844162,4.059983
-34.588467,1.9835321,4.074232
-34.682613,1.9369603,4.050243
-34.73937,1.92435,4.0552354
-34.788372,1.9188781,4.066467
-34.844765,1.9072573,4.0728354
-34.92473,1.8757846,4.0631056
-34.9762,1.8692279,4.074295
-35.05484,1.8400652,4.0672655
-35.1298,1.814641,4.0637217
-35.181137,1.809351,4.0768876
-35.275948,1.7686775,4.0618367
-35.35539,1.7413619,4.0580416
-35.43938,1.7110131,4.0522895
-35.51748,1.6860538,4.0512943
-35.608604,1.6513853,4.043105
-35.70232,1.6154423,4.034461
-35.773724,1.5976272,4.040487
-35.851803,1.5751343,4.0432982
-35.9165,1.5634186,4.0548506
-36.026215,1.5179634,4.0409803
-36.10961,1.4932137,4.043518
-36.215263,1.4524789,4.0344925
-36.29426,1.4322882,4.041527
-36.399353,1.3934982,4.035179
-36.46116,1.3869646,4.053347
-36.619232,1.3114014,4.0211587
-36.692863,1.2975686,4.0350494
-36.807304,1.2552464,4.0287423
-36.901855,1.2277758,4.033849
-37.018776,1.1853642,4.0288873
-37.076687,1.1846013,4.054179
-37.273346,1.0889764,4.013136
-37.38034,1.0560365,4.017163
-37.48308,1.026694,4.02437
-37.593155,0.9931245,4.029342
-37.739502,0.9362416,4.0191793
-37.83953,0.91095185,4.031324
-23.675821,1.3206394,3.967513
-23.759861,1.3421428,3.9602056
-23.505981,1.1173496,3.7667785
-23.46571,1.0462763,3.6886392
-23.60962,1.1110296,3.7143364
-23.88844,1.2781949,3.8200355
-23.699759,1.0950589,3.6554017
-23.703337,1.055515,3.6015673
-23.713194,1.0203013,3.551044
-23.739904,0.99773693,3.5104756
-23.780375,0.9857359,3.4783797
-25.003094,1.9071326,4.1931696
-25.031746,1.893943,4.1645722
-25.082838,1.8987081,4.150596
-25.149078,1.9159938,4.1470575
-25.229515,1.9453548,4.153748
-25.286982,1.9564394,4.145878
-25.350409,1.9728377,4.142692
-25.417652,1.992893,4.14288
-25.476557,2.0063882,4.1379576
-25.541271,2.0252514,4.1378374
-25.604383,2.0432274,4.1373134
-25.698196,2.0884535,4.160172
-25.769094,2.1144981,4.1672683
-25.81555,2.1194553,4.156747
-25.844486,2.1089315,4.133171
-25.915295,2.1362588,4.142287
-25.97932,2.1580484,4.1469927
-26.021494,2.1602237,4.1349993
-26.070549,2.1689894,4.1289377
-26.12759,2.185574,4.129954
-26.18562,2.2035568,4.1324835
-26.24276,2.2211742,4.1349807
-26.30391,2.2431588,4.141629
-26.365936,2.266574,4.1498585
-26.398094,2.261054,4.1325736
-26.44946,2.2747338,4.13261
-26.512478,2.300577,4.143827
-26.572153,2.3236713,4.15288
-26.607521,2.3223336,4.1401052
-26.651596,2.330153,4.135791
-26.707043,2.3502192,4.142838
-26.753052,2.3608012,4.141474
-26.796629,2.3691187,4.138238
-26.832779,2.3696709,4.1280417
-26.888937,2.392313,4.138395
-26.936466,2.4059944,4.1407127
-26.990883,2.427821,4.150817
-27.022728,2.424655,4.1378756
-27.063213,2.431439,4.1343536
-27.113699,2.4500904,4.1421304
-27.159666,2.4639802,4.1456594
-27.200178,2.4718332,4.1436987
-27.230719,2.4680166,4.130865
-27.263874,2.4674006,4.1211734
-27.29805,2.468132,4.112885
-27.368435,2.5139976,4.1477637
-27.40221,2.5150316,4.14013
-27.430536,2.509261,4.1261
-27.466757,2.5136333,4.121907
-27.503382,2.518752,4.1185737
-27.544222,2.5296738,4.1209846
-27.591978,2.5502284,4.132888
-27.630968,2.5595431,4.1340933
-27.65961,2.55501,4.1219873
-27.692898,2.55692,4.116254
-27.733845,2.5697718,4.1213303
-27.777714,2.5872347,4.131088
-27.811993,2.5914133,4.127994
-27.843132,2.59121,4.120716
-27.877293,2.5955927,4.1180654
-27.913937,2.6039402,4.1194534
-27.94875,2.609829,4.118549
-27.992626,2.6300273,4.1319585
-28.0267,2.6355097,4.1309323
-28.057018,2.6352692,4.1243334
-28.088135,2.6364117,4.1192155
-28.123972,2.645441,4.122082
-28.159653,2.654585,4.1251955
-28.199411,2.671011,4.1357427
-28.234716,2.6803913,4.1393714
-28.265362,2.6820402,4.135351
-28.29265,2.6778862,4.1255846
-28.322908,2.679048,4.1212654
-28.354216,2.6822648,4.119126
-28.386518,2.6875453,4.1191807
-28.42846,2.7113547,4.138141
-28.45905,2.7142162,4.135989
-28.485878,2.7099051,4.126642
-28.509789,2.6997147,4.1113844
-28.533207,2.6882553,4.094894
-28.566418,2.696724,4.098824
-28.598536,2.7033036,4.1009355
-28.638584,2.7272475,4.120947
-28.66637,2.7253933,4.114648
-28.695972,2.7276068,4.112611
-28.726994,2.7332358,4.1141815
-28.755327,2.7329502,4.109763
-28.785069,2.7360806,4.108955
-28.813366,2.735951,4.104877
-28.851135,2.759327,4.1251764
-28.87631,2.7520037,4.113854
-28.900043,2.7407155,4.0984955
-28.931068,2.7482808,4.102744
-28.959724,2.7498875,4.10091
-28.9915,2.7603173,4.1083336
-29.02215,2.7681484,4.113158
-29.053354,2.778089,4.120279
-29.081,2.7780032,4.1170554
-29.108639,2.777991,4.11399
-29.134342,2.7719707,4.104735
-29.162228,2.7727766,4.102684
-29.194157,2.7871904,4.114946
-29.22327,2.7928956,4.1182003
-29.248642,2.7858043,4.108142
-29.281752,2.8065815,4.127365
-29.308918,2.8064208,4.1247373
-29.333113,2.794785,4.1101446
-29.359524,2.7913613,4.104239
-29.385988,2.7880044,4.09848
-29.41282,2.7860756,4.0942984
-29.443472,2.8012364,4.1081796
-29.47357,2.8151226,4.120817
-29.501047,2.8175082,4.1214314
-29.526731,2.8111012,4.112857
-29.552004,2.8020287,4.101542
-29.57878,2.8005261,4.0982842
-29.605928,2.801142,4.09734
-29.632505,2.7984114,4.092939
-29.66039,2.8039508,4.0973535
-29.68878,2.813667,4.1062665
-29.717094,2.824144,4.1160693
-29.743023,2.8175917,4.1079407
-29.768482,2.8063135,4.0948806
-29.795662,2.8087907,4.096454
-29.82216,2.8051748,4.0916533
-29.849627,2.8112173,4.0971565
-29.876871,2.815961,4.101367
-29.905102,2.8344822,4.120255
-29.931253,2.8277178,4.112425
-29.957895,2.8271902,4.1112804
-29.984724,2.8301592,4.1139193
-30.011137,2.8249686,4.1079826
-30.03759,2.8184733,4.1007366
-30.064466,2.823706,4.1060047
-30.091228,2.8276358,4.109967
-30.11806,2.8453534,4.128633
-30.144552,2.8391318,4.12198
-30.171238,2.8199456,4.1016493
-30.198029,2.815233,4.0967493
-30.224785,2.8153908,4.0970917
-30.25147,2.8176746,4.099765
-30.277895,2.8255134,4.108405
-30.30405,2.8361616,4.1200976
-30.330263,2.842762,4.1275725
-30.35723,2.8364048,4.1213846
-30.38594,2.808186,4.092105
-30.412395,2.8129382,4.097851
-30.438519,2.8204973,4.1066437
-30.4652,2.8212729,4.108326
-30.492243,2.8186939,4.106532
-30.517244,2.833983,4.1237288
-30.543365,2.838382,4.129469
-30.57024,2.836691,4.1288404
-30.599878,2.8159223,4.108118
-30.625734,2.8225813,4.116479
-30.653336,2.817688,4.1127067
-30.681137,2.8121858,4.108372
-30.708069,2.8122196,4.1099644
-30.732597,2.8252885,4.125387
-30.758629,2.8295484,4.131584
-30.7868,2.822966,4.126428
-30.816378,2.810328,4.114979
-30.84393,2.807989,4.1144648
-30.872456,2.8016396,4.1098137
-30.900932,2.7960484,4.106046
-30.928839,2.7932544,4.1053057
-30.954384,2.8000455,4.1147127
-30.980173,2.805541,4.1228304
-31.007896,2.8036385,4.123262
-31.040016,2.7862172,4.107519
-31.067747,2.7851517,4.109006
-31.095701,2.783483,4.1099463
-31.124308,2.7798603,4.108927
-31.149584,2.787129,4.1193705
-31.17692,2.7877064,4.122901
-31.20582,2.7836328,4.121663
-31.234104,2.781661,4.1227055
-31.269709,2.7588859,4.10219
-31.298243,2.7570872,4.103607
-31.326319,2.756711,4.10659
-31.354156,2.7570813,4.110432
-31.381992,2.7575264,4.114435
-31.411932,2.7526824,4.113047
-31.446793,2.7358696,4.0993824
-31.478374,2.7278643,4.094938
-31.508698,2.7232933,4.094142
-31.53739,2.7228143,4.097661
-31.56697,2.7204127,4.0992913
-31.592152,2.7280853,4.111369
-31.622646,2.7238424,4.1112847
-31.659058,2.7070618,4.0984488
-31.683863,2.7156205,4.1116886
-31.724134,2.6917558,4.091848
-31.759302,2.679284,4.083798
-31.779205,2.6980014,4.107669
-31.80818,2.6982608,4.112789
-31.84396,2.6854095,4.104675
-31.887218,2.6588423,4.0827727
-31.918983,2.654791,4.0838647
-31.952606,2.6475492,4.0818357
-31.97948,2.6528726,4.092618
-32.007378,2.656299,4.101566
-32.04305,2.6460648,4.096847
-32.083427,2.6281078,4.0845
-32.123344,2.6115932,4.0737596
-32.1546,2.6101892,4.07831
-32.18431,2.611475,4.085656
-32.21281,2.614791,4.095125
-32.245712,2.6110544,4.0976586
-32.288105,2.5925374,4.0856147
-32.329975,2.57546,4.0751734
-32.36499,2.5694904,4.0759034
-32.394577,2.5719993,4.08514
-32.424564,2.573947,4.09392
-32.45453,2.5759776,4.1028824
-32.496807,2.5601609,4.0944147
-32.54292,2.5393775,4.081255
-32.578094,2.5347142,4.0840573
-32.608788,2.5365305,4.0933127
-32.637157,2.5416129,4.105851
-32.678043,2.5296366,4.1019125
-32.717712,2.5197005,4.1001186
-32.760883,2.5054727,4.0943384
-32.797066,2.5008607,4.0980115
-32.82749,2.5039206,4.109203
-32.864758,2.4982677,4.1121383
-32.904602,2.4896004,4.1123366
-32.953114,2.4704275,4.102669
-32.99434,2.460803,4.102309
-33.032146,2.4556823,4.1063986
-33.073654,2.446331,4.1066337
-33.113228,2.4396057,4.109522
-33.165535,2.418149,4.098702
-33.209164,2.4073966,4.0981765
-33.247612,2.4029627,4.1037555
-33.2964,2.386967,4.0986977
-33.3389,2.3785162,4.1008844
-33.40133,2.3481674,4.082937
-33.44538,2.3388414,4.0847435
-33.48511,2.3345459,4.091382
-33.53055,2.3243017,4.09272
-33.590363,2.2990546,4.0805154
-33.63968,2.2855406,4.0793204
-33.68516,2.276434,4.082364
-33.751175,2.2464128,4.066646
-33.812363,2.2220654,4.0563936
-33.851448,2.2207284,4.0671678
-33.897114,2.2129455,4.0723214
-33.95491,2.193402,4.0671678
-34.00756,2.179434,4.0672665
-34.064083,2.1621056,4.0646377
-34.11534,2.1503181,4.067185
-34.174816,2.131053,4.063395
-34.241432,2.1055498,4.054435
-34.297768,2.0902886,4.0547676
-34.349907,2.079339,4.0591326
-34.4073,2.0639162,4.0598745
-34.48284,2.0324259,4.047048
-34.521473,2.034896,4.0637975
-34.595097,2.0062542,4.05411
-34.652813,1.9923369,4.057357
-34.727818,1.9636894,4.0484157
-34.776787,1.9582891,4.059494
-34.841133,1.939917,4.0599194
-34.89503,1.9309206,4.0685186
-34.954445,1.9175813,4.0737777
-35.035057,1.8869102,4.065007
-35.120876,1.8526261,4.053719
-35.155052,1.8614969,4.0782704
-35.263603,1.809854,4.0536532
-35.339577,1.7855492,4.0518484
-35.40123,1.7732706,4.060167
-35.536026,1.7034218,4.022663
-35.569477,1.7145314,4.050548
-35.65598,1.6843166,4.0458055
-35.75216,1.6473153,4.036222
-35.81227,1.63871,4.049467
-35.899883,1.609561,4.0470347
-35.992233,1.5775161,4.042881
-36.069706,1.5572729,4.048363
-36.20016,1.4983888,4.0247574
-36.280624,1.4773071,4.030701
-36.376144,1.4458139,4.0292635
-36.446808,1.4329395,4.0423665
-36.572136,1.3814013,4.0270925
-36.64861,1.3655167,4.0389867
-36.77578,1.3144577,4.02551
-36.85892,1.2951114,4.0359755
-37.00392,1.2335241,4.016383
-37.07251,1.2255101,4.0362277
-37.250957,1.1431437,4.0034847
-37.348713,1.1167226,4.011525
-37.444454,1.0922778,4.02157
-37.556812,1.0574105,4.0249696
-37.654743,1.0328038,4.036185
-37.79766,0.97944283,4.0283513
-37.945946,0.9236772,4.019861
-38.093315,0.8696089,4.013532
-23.613564,1.3582957,3.9637017
-23.837317,1.4784262,4.031354
-23.482115,1.1853511,3.7845316
-23.384226,1.0736718,3.6746693
-23.503902,1.1190724,3.6856685
-23.860548,1.3399041,3.834145
-23.889042,1.3210821,3.7970738
-23.587875,1.0552182,3.5651565
-23.592731,1.0161045,3.510992
-23.641815,1.0102103,3.483265
-23.695978,1.0083106,3.458969
-23.73672,0.99616385,3.4266539
-25.003864,1.9435583,4.173677
-25.051441,1.945298,4.15727
-25.098995,1.9472084,4.1412354
-25.198463,1.991024,4.160006
-25.24911,1.9961997,4.1473136
-25.309265,2.009402,4.1415606
-25.361748,2.0166602,4.131141
-25.445913,2.0505981,4.1434426
-25.514124,2.0718951,4.145525
-25.584026,2.095169,4.149652
-25.663548,2.1272583,4.161683
-25.733358,2.151698,4.1675897
-25.789042,2.1644106,4.163764
-25.829554,2.1641405,4.148979
-25.87654,2.1697607,4.139492
-25.949148,2.1986315,4.1505227
-25.984932,2.1948164,4.1332836
-26.027107,2.1969166,4.121396
-26.111446,2.2381525,4.1442885
-26.141998,2.2301445,4.1239367
-26.214897,2.2620134,4.1392255
-26.270042,2.2777543,4.140473
-26.330456,2.2990022,4.1469316
-26.373524,2.3039699,4.13902
-26.429781,2.3220997,4.143204
-26.474379,2.3291798,4.1376286
-26.546194,2.363766,4.157315
-26.570892,2.35156,4.1345873
-26.620928,2.3651056,4.135558
-26.664944,2.3728466,4.1314163
-26.71459,2.3867474,4.1331563
-26.781147,2.418893,4.1520343
-26.809244,2.4108744,4.1339016
-26.85993,2.4271274,4.1385
-26.904226,2.4368994,4.1372676
-26.972113,2.472964,4.160906
-27.001093,2.4666603,4.1449957
-27.037222,2.468373,4.136752
-27.077618,2.475097,4.133395
-27.128565,2.4942265,4.1419883
-27.177616,2.5117018,4.149236
-27.211721,2.5121074,4.140401
-27.244255,2.5107665,4.13002
-27.288105,2.5231347,4.132921
-27.32666,2.5294569,4.1301885
-27.37468,2.5477138,4.139131
-27.413916,2.5555604,4.138208
-27.439678,2.5466924,4.121223
-27.474375,2.5491407,4.115321
-27.516283,2.5610938,4.1188173
-27.570923,2.5901394,4.139196
-27.611341,2.6011567,4.1421566
-27.640787,2.597818,4.1311817
-27.670277,2.594561,4.120384
-27.70348,2.5964472,4.114757
-27.744352,2.6092052,4.1199994
-27.794876,2.6360703,4.139386
-27.830324,2.642137,4.13834
-27.858652,2.638122,4.1273923
-27.888767,2.636736,4.1191564
-27.924885,2.6443863,4.120049
-27.955795,2.644467,4.1134977
-28.010487,2.6812038,4.1438255
-28.04066,2.680881,4.137147
-28.069206,2.6780696,4.1280622
-28.09658,2.6734018,4.1171937
-28.13195,2.6817193,4.1195345
-28.1703,2.695323,4.127356
-28.210732,2.7129402,4.1393967
-28.243254,2.7177217,4.138554
-28.271189,2.7148051,4.1299877
-28.298054,2.7100112,4.1195946
-28.331547,2.7170153,4.121328
-28.36563,2.7254272,4.1246195
-28.395678,2.7267566,4.1207767
-28.435787,2.7471466,4.136586
-28.465612,2.748673,4.133169
-28.492369,2.7443788,4.123859
-28.51952,2.7408104,4.1153746
-28.551289,2.7465217,4.116548
-28.582954,2.7523265,4.1179247
-28.617352,2.7641606,4.1256466
-28.65433,2.7820444,4.139759
-28.684004,2.7848454,4.138358
-28.707348,2.773832,4.1227007
-28.736145,2.774797,4.1195617
-28.76233,2.7698712,4.1103773
-28.791975,2.7729802,4.109644
-28.827091,2.7894678,4.1229715
-28.860294,2.8020735,4.132367
-28.887177,2.7994592,4.1259513
-28.915913,2.8015833,4.124578
-28.94054,2.793106,4.1121764
-28.971516,2.801391,4.1174345
-28.998943,2.8004026,4.1130495
-29.02567,2.7974794,4.1067114
-29.06008,2.8167338,4.1237965
-29.0919,2.82939,4.1340494
-29.114027,2.813282,4.114071
-29.140926,2.811326,4.109082
-29.169106,2.8134727,4.1085052
-29.198666,2.8204052,4.1130743
-29.228102,2.827421,4.1178217
-29.257412,2.8345194,4.12275
-29.286411,2.8410254,4.127141
-29.313671,2.8415391,4.125265
-29.339169,2.835373,4.1163793
-29.364933,2.829945,4.108347
-29.390787,2.8245811,4.1004543
-29.416725,2.8192818,4.092703
-29.446695,2.831647,4.103817
-29.476887,2.8461282,4.1172786
-29.505707,2.8552742,4.1251526
-29.531273,2.848907,4.116578
-29.556557,2.840568,4.105971
-29.582962,2.83772,4.1012907
-29.610115,2.839013,4.1011047
-29.637465,2.8417354,4.102523
-29.66392,2.8390932,4.0982895
-29.693209,2.8555532,4.114547
-29.720806,2.8618937,4.1200733
-29.746086,2.8513007,4.1075687
-29.772697,2.850297,4.1053925
-29.798939,2.8459582,4.099722
-29.826809,2.8566656,4.1102324
-29.85404,2.8626795,4.1157985
-29.88016,2.857185,4.1091156
-29.908024,2.8728786,4.125207
-29.93467,2.8750167,4.126853
-29.960316,2.861546,4.1118464
-29.98673,2.858366,4.1079407
-30.013376,2.859344,4.108567
-30.039932,2.8583455,4.107149
-30.066761,2.866962,4.1161156
-30.093378,2.872238,4.1215754
-30.119938,2.880992,4.1308413
-30.146336,2.8795846,4.1292844
-30.172888,2.8598313,4.1081285
-30.199423,2.8626523,4.1112556
-30.225992,2.8621316,4.110873
-30.252525,2.8630428,4.1121025
-30.2791,2.8626587,4.1120167
-30.305273,2.870524,4.120848
-30.331352,2.877773,4.1290927
-30.357443,2.8830438,4.1352897
-30.385817,2.8570359,4.1080456
-30.412111,2.8610826,4.1130834
-30.439222,2.85566,4.1080523
-30.46567,2.8577995,4.1111965
-30.491781,2.862729,4.117401
-30.517971,2.8663635,4.1222916
-30.54419,2.8693848,4.1265993
-30.57091,2.868391,4.126687
-30.599804,2.85251,4.110938
-30.626896,2.8503022,4.109887
-30.654139,2.8474853,4.1082644
-30.681545,2.844062,4.106073
-30.70744,2.8495345,4.113455
-30.73286,2.8571072,4.123147
-30.758423,2.863386,4.131529
-30.78402,2.86905,4.139325
-30.815437,2.847005,4.1176844
-30.844084,2.839271,4.111379
-30.872553,2.8329694,4.106684
-30.899355,2.8341842,4.110066
-30.92631,2.8347926,4.112879
-30.949799,2.848978,4.130183
-30.977339,2.8470175,4.130418
-31.007315,2.8363636,4.121517
-31.036903,2.827818,4.1149464
-31.06351,2.830131,4.1199617
-31.09109,2.8291485,4.1215672
-31.11786,2.8309288,4.1261744
-31.147589,2.823372,4.1210003
-31.174828,2.823956,4.124508
-31.204975,2.8158913,4.11898
-31.236183,2.8052335,4.1108184
-31.267344,2.7953374,4.1035614
-31.296503,2.7915533,4.102831
-31.324005,2.792529,4.107188
-31.352255,2.7915742,4.1096025
-31.378204,2.7966995,4.118471
-31.40882,2.7898946,4.1149282
-31.440363,2.7811813,4.1094894
-31.473982,2.7679074,4.0993915
-31.506428,2.758059,4.0929856
-31.535616,2.756271,4.0950875
-31.561924,2.7611923,4.104263
-31.586967,2.7688274,4.116332
-31.617338,2.764619,4.1161776
-31.656723,2.7413445,4.0963535
-31.682701,2.74723,4.1068735
-31.713377,2.743297,4.1073136
-31.750618,2.7262917,4.0943584
-31.778246,2.7291253,4.1019964
-31.806507,2.730719,4.1084414
-31.837816,2.726489,4.1089854
-31.873014,2.7151508,4.102338
-31.910168,2.7006564,4.0925837
-31.942211,2.696075,4.0931134
-31.972523,2.6948485,4.097181
-31.999184,2.7002182,4.108075
-32.030247,2.6978552,4.1111727
-32.07726,2.668324,4.086754
-32.11133,2.6616473,4.08573
-32.1459,2.654429,4.0842776
-32.179417,2.649257,4.085021
-32.209427,2.6499925,4.0918474
-32.239838,2.6501677,4.0982056
-32.28011,2.6349998,4.089234
-32.32313,2.6161184,4.0766945
-32.35889,2.6089225,4.0760393
-32.389233,2.610156,4.0839458
-32.41137,2.6236086,4.104145
-32.447266,2.6167057,4.104124
-32.48726,2.60419,4.098662
-32.522995,2.5981627,4.099792
-32.56607,2.5821037,4.0911307
-32.60027,2.5788548,4.095296
-32.62852,2.5839233,4.1077805
-32.66324,2.5802398,4.1117506
-32.708893,2.5621903,4.1017632
-32.750072,2.5505867,4.0982785
-32.788548,2.5428867,4.0987716
-32.82082,2.5434465,4.107459
-32.84964,2.5484722,4.120597
-32.88685,2.5429835,4.1236434
-32.94174,2.515854,4.105924
-32.984886,2.5038285,4.1030183
-33.02414,2.4969077,4.1052027
-33.055748,2.4993865,4.1165557
-33.098812,2.4883935,4.115141
-33.15049,2.4677086,4.1046705
-33.196648,2.4539716,4.1010423
-33.23874,2.4453013,4.1024218
-33.27664,2.441664,4.1087346
-33.329357,2.4216905,4.099806
-33.39341,2.3897524,4.079883
-33.432404,2.3859863,4.086665
-33.46362,2.3908253,4.10164
-33.523018,2.3655555,4.088702
-33.58111,2.342328,4.077949
-33.637264,2.3217316,4.069913
-33.673477,2.3223367,4.081686
-33.72078,2.3116915,4.0832686
-33.789425,2.2797432,4.0655656
-33.841965,2.2647367,4.063669
-33.87921,2.2653584,4.076227
-33.931496,2.2513003,4.0756407
-33.996128,2.2256312,4.064825
-34.040386,2.220242,4.0725718
-34.085346,2.2144198,4.0801263
-34.152084,2.1882584,4.069739
-34.220467,2.1611996,4.058899
-34.276062,2.1466506,4.05949
-34.31606,2.1468358,4.073344
-34.38855,2.1176133,4.06155
-34.457626,2.092156,4.0534368
-34.511585,2.080802,4.057966
-34.569614,2.066207,4.059951
-34.641598,2.0398118,4.0520463
-34.69619,2.0291271,4.0580263
-34.744312,2.024341,4.069322
-34.833183,1.9851118,4.0515275
-34.889744,1.973988,4.058049
-34.935665,1.9721053,4.0726504
-35.01285,1.9445183,4.0658975
-35.07472,1.9301467,4.0706096
-35.15191,1.9037255,4.0656366
-35.22049,1.8848677,4.0673485
-35.3088,1.8507414,4.0568805
-35.36403,1.8435593,4.06896
-35.455917,1.8079011,4.0581603
-35.563858,1.760545,4.0384374
-35.62838,1.7476437,4.0470853
-35.727386,1.7087822,4.035319
-35.78453,1.7024693,4.05003
-35.89087,1.6594856,4.036051
-35.99199,1.6212974,4.0264916
-36.028664,1.6315002,4.0553393
-36.17376,1.5623593,4.022762
-36.21583,1.5693185,4.0498075
-36.353374,1.5076504,4.0244637
-36.43664,1.4859188,4.030407
-36.515697,1.4677126,4.0395107
-36.631817,1.4239967,4.0299225
-36.7334,1.3913076,4.029297
-36.82705,1.3648205,4.0338964
-36.955334,1.3152695,4.0221205
-37.042133,1.2948732,4.0324535
-37.15764,1.2556949,4.0297155
-37.319214,1.1866126,4.006233
-37.411053,1.1650183,4.0177054
-37.51951,1.1330724,4.022427
-37.613476,1.1112864,4.0349765
-37.76506,1.0528512,4.022623
-37.91973,0.99359894,4.010738
-38.027576,0.965271,4.021063
-38.175518,0.9123435,4.015417
-38.340065,0.85010767,4.0045366
-38.369827,0.8726883,4.0512543
-23.61694,1.4115872,3.9423852
-23.785782,1.4915764,3.9808578
-23.295424,1.1053679,3.6576533
-23.381687,1.1253955,3.6490006
-23.57371,1.222311,3.7014341
-23.852295,1.3841279,3.8065681
-23.517136,1.0982273,3.556356
-23.477486,1.0264418,3.4755268
-23.541275,1.0308976,3.4558482
-23.600706,1.032347,3.4340525
-23.63586,1.0155611,3.3976579
-23.674809,1.0015891,3.3636966
-25.026062,2.0032878,4.168364
-25.058113,1.9928972,4.1421676
-25.14964,2.0293403,4.15517
-25.198307,2.0325255,4.1408067
-25.27591,2.0591338,4.146421
-25.33186,2.068854,4.138158
-25.399258,2.0882573,4.138419
-25.456207,2.0995522,4.1321034
-25.524437,2.120595,4.134453
-25.595705,2.1447253,4.13983
-25.683247,2.1832466,4.1580715
-25.751038,2.2057412,4.162835
-25.80141,2.2137613,4.155287
-25.838606,2.2105882,4.1381383
-25.885572,2.216094,4.128806
-25.962727,2.2486687,4.143689
-26.001633,2.2477016,4.129123
-26.050716,2.256073,4.1230683
-26.117973,2.281364,4.1324286
-26.170422,2.2936134,4.130384
-26.225792,2.3089638,4.1313915
-26.290188,2.3332567,4.140789
-26.352978,2.3566408,4.149682
-26.38069,2.346919,4.1286035
-26.433329,2.361326,4.1297684
-26.495337,2.385345,4.1400375
-26.554585,2.407251,4.1486597
-26.58985,2.4057345,4.135837
-26.630993,2.4102578,4.128774
-26.68718,2.4303756,4.136453
-26.745352,2.453094,4.1468363
-26.78599,2.4581196,4.140862
-26.820293,2.4566953,4.1289735
-26.870377,2.4721851,4.1332197
-26.933603,2.5023031,4.151577
-26.975311,2.5097544,4.1486626
-27.002075,2.5010266,4.1304727
-27.049095,2.514787,4.1339025
-27.084564,2.515964,4.1254525
-27.156342,2.558647,4.1571193
-27.187185,2.5552592,4.1446395
-27.216497,2.550126,4.130576
-27.253159,2.553653,4.12502
-27.296448,2.5652819,4.127496
-27.342087,2.5801396,4.1333065
-27.386469,2.5939288,4.138265
-27.417116,2.5911882,4.127188
-27.446806,2.5872967,4.115084
-27.485369,2.5946586,4.114176
-27.525743,2.6046357,4.116005
-27.576508,2.628458,4.131715
-27.616898,2.6393602,4.134816
-27.648642,2.6391406,4.127005
-27.680378,2.6390147,4.1193976
-27.715324,2.6433773,4.1163874
-27.757008,2.6572866,4.1230736
-27.80025,2.6738605,4.1326056
-27.835213,2.6792226,4.1310263
-27.863049,2.674573,4.119479
-27.900066,2.683305,4.121543
-27.93264,2.68581,4.1174383
-27.967703,2.6922274,4.1174173
-28.011852,2.712769,4.131881
-28.041195,2.711137,4.1239424
-28.069738,2.7083085,4.1148753
-28.09993,2.708118,4.108595
-28.137657,2.7201946,4.114977
-28.175177,2.7323964,4.121627
-28.216736,2.7517955,4.1358166
-28.249573,2.757168,4.135729
-28.276672,2.7529635,4.1258793
-28.305315,2.7514143,4.1188536
-28.33799,2.7570603,4.119359
-28.366962,2.7563262,4.113367
-28.407274,2.7764351,4.129094
-28.439217,2.7817373,4.129589
-28.468313,2.7819297,4.1248713
-28.495707,2.7789454,4.116935
-28.523472,2.776686,4.1098347
-28.553555,2.7790728,4.1076756
-28.586805,2.7880862,4.112549
-28.624636,2.807025,4.127939
-28.65717,2.8155973,4.1325903
-28.684973,2.814421,4.1271057
-28.710691,2.8087184,4.1169424
-28.737673,2.8057122,4.10969
-28.767292,2.8087049,4.108844
-28.797417,2.8130999,4.1095715
-28.83134,2.8268242,4.1202574
-28.865297,2.8413148,4.131873
-28.891283,2.8367243,4.1233873
-28.91838,2.8348484,4.117853
-28.944736,2.8310547,4.1103606
-28.97389,2.8346276,4.110773
-29.004194,2.841603,4.114894
-29.034372,2.8486657,4.119206
-29.063725,2.8538184,4.121576
-29.092756,2.8583877,4.123415
-29.119053,2.8550382,4.116886
-29.143892,2.8470855,4.1055107
-29.171795,2.8485405,4.1042643
-29.200684,2.8534117,4.106758
-29.229485,2.8583632,4.1094246
-29.264732,2.88615,4.1366663
-29.289982,2.87989,4.127494
-29.315693,2.875033,4.119897
-29.341833,2.8715813,4.113881
-29.367348,2.865512,4.1051216
-29.392633,2.858162,4.0950537
-29.418987,2.854906,4.089461
-29.450718,2.8752503,4.1093664
-29.479898,2.8855972,4.1185985
-29.506788,2.8859289,4.1171165
-29.535284,2.8944125,4.1245074
-29.5595,2.8814116,4.1087885
-29.5864,2.8819509,4.107757
-29.6127,2.8791876,4.103233
-29.639042,2.876491,4.098854
-29.666168,2.8785872,4.0997314
-29.695858,2.898313,4.119762
-29.721998,2.8951528,4.1151114
-29.747217,2.884626,4.102556
-29.773191,2.8788934,4.0952597
-29.80026,2.8820167,4.0976305
-29.827415,2.8865633,4.1016207
-29.854033,2.8864446,4.1006308
-29.881065,2.8911319,4.104926
-29.908764,2.9053662,4.1196527
-29.93531,2.9068117,4.1205854
-29.961199,2.8981683,4.1106462
-29.987345,2.8916216,4.103054
-30.013842,2.8905606,4.1014867
-30.040405,2.890922,4.101537
-30.06711,2.896772,4.1076193
-30.093777,2.9060776,4.117527
-30.120266,2.9140973,4.126113
-30.146599,2.9093115,4.120872
-30.173037,2.9012065,4.112101
-30.19972,2.886395,4.0961227
-30.226248,2.8885899,4.09868
-30.252558,2.8962708,4.107267
-30.27882,2.901987,4.1137934
-30.304985,2.9077702,4.1204643
-30.331009,2.914297,4.128013
-30.357517,2.9120882,4.1261578
-30.384525,2.9038546,4.1178427
-30.412367,2.8875718,4.1008744
-30.438719,2.8903098,4.104611
-30.464958,2.8937917,4.109226
-30.490988,2.8986926,4.1154523
-30.516533,2.9070406,4.1254826
-30.543232,2.905313,4.12467
-30.569687,2.9056811,4.1262026
-30.59849,2.889909,4.110342
-30.62653,2.880968,4.10196
-30.653189,2.8815525,4.1039586
-30.67984,2.8822045,4.106107
-30.706606,2.8822517,4.1076765
-30.73172,2.89113,4.118857
-30.756819,2.899395,4.129442
-30.78386,2.8976216,4.1292667
-30.813099,2.8858266,4.1183615
-30.843445,2.8700788,4.1032877
-30.870636,2.8692064,4.10433
-30.897682,2.869078,4.106251
-30.924736,2.869019,4.108325
-30.94989,2.876411,4.1184835
-30.9751,2.8831935,4.1280556
-31.0026,2.8813286,4.1284113
-31.033754,2.8668165,4.115285
-31.062218,2.862432,4.113113
-31.089956,2.8607998,4.113974
-31.117935,2.8585744,4.1142826
-31.14489,2.8597608,4.1183233
-31.172487,2.8590174,4.1203785
-31.201675,2.853684,4.117616
-31.233494,2.8411098,4.1072235
-31.265766,2.8279667,4.09633
-31.293678,2.827546,4.099085
-31.322348,2.8252087,4.099885
-31.35005,2.825603,4.103674
-31.376719,2.828721,4.1104345
-31.405981,2.8252892,4.110328
-31.436657,2.8186336,4.1069
-31.469381,2.8074436,4.098775
-31.501738,2.7976735,4.0922604
-31.531977,2.793273,4.0915213
-31.55967,2.7948842,4.0972147
-31.586151,2.7991986,4.105836
-31.614084,2.8002968,4.1111503
-31.64756,2.789662,4.1042285
-31.68028,2.7810965,4.099593
-31.714752,2.7693589,4.0917473
-31.748127,2.7603438,4.08687
-31.775711,2.76318,4.0944867
-31.802248,2.768044,4.104299
-31.833834,2.7632113,4.1040897
-31.871061,2.7480705,4.0932655
-31.906435,2.7369475,4.086753
-31.939499,2.7304754,4.0851884
-31.96723,2.733814,4.0938945
-31.994915,2.737226,4.1027594
-32.027786,2.7316747,4.102458
-32.070625,2.7094665,4.0851126
-32.109993,2.693845,4.0747137
-32.142998,2.6892786,4.0758166
-32.1749,2.6867375,4.0791087
-32.204453,2.6881337,4.0865355
-32.235207,2.6876936,4.092182
-32.271736,2.6784034,4.08891
-32.311344,2.664771,4.0813575
-32.351604,2.6506374,4.0734496
-32.38613,2.6455321,4.0748506
-32.409946,2.6563864,4.0925164
-32.438404,2.66033,4.1032677
-32.47389,2.6542413,4.1040015
-32.51933,2.6343913,4.0910354
-32.561028,2.620371,4.084109
-32.594723,2.6178055,4.0888143
-32.62708,2.6172247,4.0956235
-32.658985,2.6173658,4.103264
-32.69847,2.607605,4.1011705
-32.74243,2.5923662,4.093802
-32.78084,2.5847507,4.09416
-32.81597,2.5816104,4.0990868
-32.846718,2.5841584,4.1097455
-32.885906,2.5762794,4.110265
-32.934288,2.5574224,4.1001863
-32.98095,2.5412083,4.0929027
-33.020695,2.5337682,4.0943747
-33.05176,2.5368876,4.106272
-33.094814,2.526022,4.1047177
-33.14333,2.5092015,4.0975876
-33.188923,2.4962158,4.0943694
-33.23527,2.4827862,4.090923
-33.267193,2.485898,4.103539
-33.31987,2.4661112,4.0943775
-33.370655,2.4489398,4.087952
-33.418938,2.4349704,4.084801
-33.465763,2.4229794,4.083742
-33.51052,2.4135559,4.0853143
-33.56399,2.3953233,4.0787888
-33.621212,2.3737159,4.0693474
-33.66601,2.3654196,4.07263
-33.704517,2.3638096,4.082341
-33.774284,2.330954,4.063182
-33.826157,2.3166885,4.0615892
-33.879456,2.3014398,4.059333
-33.919727,2.2993135,4.069392
-33.980694,2.2774062,4.061501
-34.040775,2.2569084,4.055199
-34.084534,2.2523785,4.0637136
-34.13023,2.2462568,4.0709777
-34.20166,2.2165418,4.0571594
-34.2641,2.1957881,4.0517697
-34.304665,2.1954498,4.064972
-34.3695,2.1734128,4.0590014
-34.4231,2.16195,4.062752
-34.500164,2.1301236,4.0487576
-34.535378,2.1356435,4.068061
-34.62885,2.0907276,4.0432887
-34.68341,2.080192,4.049051
-34.742775,2.0659113,4.051828
-34.792328,2.0603046,4.062408
-34.8581,2.0414119,4.061786
-34.922794,2.0239024,4.0626974
-34.97414,2.017804,4.073679
-35.057056,1.986326,4.0633736
-35.143185,1.9529841,4.0519605
-35.178547,1.9608823,4.0756865
-35.27787,1.9182389,4.0573087
-35.352585,1.8957863,4.0563035
-35.42762,1.8736434,4.0559688
-35.51997,1.8387289,4.0455465
-35.58503,1.825402,4.0533247
-35.69539,1.7782228,4.0339146
-35.758175,1.7676897,4.0448174
-35.832676,1.7487991,4.049334
-35.94236,1.7044933,4.033953
-36.00804,1.69325,4.045516
-36.09886,1.6641757,4.043356
-36.207798,1.6227667,4.032055
-36.292057,1.5998049,4.035813
-36.38632,1.5703552,4.0350404
-36.472717,1.5470829,4.039592
-36.57825,1.5111136,4.0349503
-36.659286,1.49279,4.044365
-36.793007,1.4390163,4.027526
-36.86862,1.4256408,4.0418005
-37.02112,1.3611002,4.0184865
-37.0681,1.3680289,4.048912
-37.24424,1.2898178,4.0172286
-37.362305,1.2511029,4.0154376
-37.48319,1.211396,4.0136943
-37.58183,1.1868696,4.0235953
-37.690994,1.1562347,4.029787
-37.824245,1.1110587,4.026456
-37.992977,1.0445452,4.009133
-38.101948,1.0165651,4.019614
-38.233646,0.9752157,4.0216446
-38.34735,0.9457903,4.032659
-38.489613,0.8997016,4.0332174
-23.421955,1.3695037,3.87224
-23.820223,1.6049967,4.0323954
-23.181147,1.1230793,3.6308165
-23.266396,1.141289,3.620648
-23.28318,1.1115732,3.57277
-23.833824,1.4626164,3.8301878
-23.845108,1.431627,3.783146
-23.383581,1.0569086,3.4571252
-23.427267,1.0459526,3.4247355
-23.465332,1.030858,3.38913
-23.5144,1.0239086,3.3603907
-23.564291,1.0176587,3.3324485
-24.995392,2.0596159,4.1797824
-25.049187,2.0658994,4.167501
-25.097263,2.06804,4.151994
-25.162794,2.0839827,4.1484237
-25.24478,2.1133146,4.156613
-25.291767,2.11556,4.1420517
-25.359337,2.1344872,4.1420736
-25.42116,2.1492708,4.1388683
-25.480724,2.1626375,4.1347485
-25.553587,2.1873512,4.1408405
-25.617355,2.2051191,4.141227
-25.717524,2.2538962,4.1692696
-25.756666,2.2520757,4.1530895
-25.819529,2.2706373,4.155197
-25.857906,2.2685726,4.139207
-25.913853,2.2819128,4.1371894
-25.971527,2.297171,4.137172
-26.009727,2.295577,4.122202
-26.068325,2.3123755,4.1240845
-26.117168,2.3208148,4.118637
-26.194141,2.3552694,4.137213
-26.248123,2.3693204,4.137456
-26.311169,2.3922367,4.146127
-26.37631,2.4177217,4.157488
-26.412365,2.4161859,4.144084
-26.45934,2.4252424,4.1406937
-26.526606,2.4543114,4.156229
-26.568348,2.459079,4.149295
-26.601124,2.4551902,4.134387
-26.646288,2.4637513,4.1313624
-26.700634,2.4819088,4.1376305
-26.752373,2.4979093,4.142101
-26.8027,2.5129204,4.1458635
-26.828884,2.5031652,4.126151
-26.874962,2.51432,4.126591
-26.947706,2.5542986,4.1549864
-26.99262,2.5652556,4.155716
-27.02415,2.5619755,4.1428475
-27.054085,2.556984,4.128428
-27.088953,2.5575008,4.1194744
-27.162895,2.6022239,4.153838
-27.196304,2.6018476,4.1443872
-27.224453,2.5955055,4.129197
-27.265713,2.6044426,4.1291456
-27.306818,2.6135206,4.1294003
-27.34623,2.620908,4.128148
-27.395128,2.640058,4.138727
-27.423656,2.6348538,4.1252837
-27.456226,2.6346438,4.1169133
-27.494682,2.6419227,4.116145
-27.530579,2.646244,4.1125607
-27.591408,2.6828384,4.141535
-27.625444,2.6855931,4.136714
-27.655655,2.683486,4.127108
-27.692879,2.6907964,4.1271276
-27.717989,2.6820238,4.1109858
-27.76738,2.7064078,4.1285954
-27.8096,2.7215905,4.1370487
-27.842651,2.7243857,4.1330347
-27.869484,2.7184906,4.1202526
-27.90075,2.718955,4.114064
-27.938013,2.728333,4.1171274
-27.97511,2.737833,4.1204557
-28.01497,2.7518814,4.1286077
-28.04672,2.7540298,4.124631
-28.074745,2.7505627,4.114954
-28.106445,2.7528903,4.1113663
-28.145264,2.7667694,4.119871
-28.177946,2.771215,4.1187167
-28.21829,2.7885308,4.131076
-28.25222,2.7957528,4.133061
-28.280367,2.793472,4.1252384
-28.311512,2.796399,4.1229506
-28.34406,2.8019876,4.1235538
-28.37975,2.813465,4.1304493
-28.414879,2.8244128,4.136916
-28.445618,2.8277302,4.135474
-28.47319,2.8253226,4.128095
-28.497746,2.817166,4.1147275
-28.524096,2.8123064,4.1049104
-28.552155,2.810757,4.0986733
-28.589579,2.828119,4.112571
-28.62638,2.8449535,4.1260448
-28.657284,2.8501883,4.1273203
-28.68381,2.846386,4.1190767
-28.71249,2.8472219,4.11585
-28.741737,2.849443,4.11419
-28.77007,2.849783,4.110611
-28.79867,2.8508558,4.1078997
-28.837248,2.8756113,4.130633
-28.865318,2.8762102,4.1276126
-28.891237,2.8716285,4.1191187
-28.916443,2.865139,4.1086464
-28.94405,2.864637,4.104678
-28.974653,2.872117,4.109384
-29.004877,2.8790264,4.1135707
-29.032114,2.8780987,4.1094007
-29.065178,2.8937654,4.1232214
-29.092287,2.8929965,4.1193953
-29.118515,2.88965,4.112859
-29.143717,2.8830578,4.1028824
-29.170914,2.882495,4.0995045
-29.200565,2.8899693,4.1049166
-29.230478,2.8988562,4.111951
-29.260424,2.9084926,4.119893
-29.288887,2.913558,4.12296
-29.313267,2.9040558,4.1102734
-29.3371,2.8919468,4.0948124
-29.366064,2.8992248,4.100518
-29.394732,2.905916,4.1056714
-29.421696,2.9060116,4.1037197
-29.447277,2.9001665,4.0953646
-29.47839,2.9191108,4.114131
-29.50677,2.9267797,4.1206856
-29.532711,2.9231534,4.1149817
-29.558712,2.9195933,4.1094217
-29.584152,2.9127505,4.100341
-29.610413,2.9099903,4.0957956
-29.638062,2.9153407,4.1002
-29.666676,2.9274695,4.112107
-29.694876,2.9383354,4.122713
-29.720896,2.9351866,4.1180444
-29.745459,2.920692,4.1010094
-29.77176,2.9183433,4.097357
-29.79818,2.9167335,4.0945854
-29.82384,2.9078014,4.0838537
-29.850567,2.908341,4.0835853
-29.87907,2.9291172,4.105605
-29.906189,2.9371958,4.113766
-29.93235,2.9339132,4.1095276
-29.958271,2.925989,4.1002607
-29.984438,2.9201484,4.093354
-30.011038,2.921775,4.0947227
-30.037607,2.923471,4.096241
-30.064165,2.925908,4.0986466
-30.09072,2.9304318,4.1034184
-30.11734,2.9491577,4.123871
-30.143589,2.9417048,4.1156263
-30.169958,2.9356651,4.109007
-30.196472,2.9270008,4.099578
-30.223024,2.9231167,4.0954733
-30.24931,2.9293942,4.102608
-30.2754,2.9377577,4.112107
-30.301245,2.9482055,4.1239653
-30.327147,2.9546819,4.13153
-30.35385,2.9477723,4.124465
-30.382322,2.9194157,4.0939245
-30.408821,2.9200468,4.095293
-30.435692,2.916713,4.0923824
-30.462757,2.9121058,4.088149
-30.488708,2.9183178,4.0958614
-30.514795,2.9225802,4.101506
-30.5396,2.9363074,4.117597
-30.565922,2.9373424,4.119841
-30.59419,2.9250274,4.1075306
-30.621012,2.92352,4.1071415
-30.648632,2.9173908,4.1017666
-30.676476,2.9106655,4.09582
-30.702738,2.913392,4.100293
-30.729212,2.9148464,4.103446
-30.754068,2.9243982,4.1155214
-30.782234,2.9172907,4.1094646
-30.811102,2.9075863,4.100658
-30.83849,2.9053116,4.1000423
-30.867325,2.8971002,4.093033
-30.894363,2.896976,4.094923
-30.919397,2.904924,4.105679
-30.944126,2.9135993,4.1172924
-30.970678,2.915008,4.121066
-30.999432,2.9085002,4.116311
-31.027538,2.9047327,4.1146183
-31.054932,2.9036994,4.1159763
-31.084166,2.8967633,4.1110125
-31.113525,2.8899105,4.106227
-31.140232,2.8917575,4.110952
-31.166037,2.8963232,4.1186924
-31.192444,2.8989682,4.1244273
-31.225266,2.8831682,4.110319
-31.256477,2.8727546,4.102131
-31.285938,2.867713,4.0998344
-31.314997,2.8640733,4.0991383
-31.340326,2.8703942,4.1092467
-31.368662,2.8688812,4.111003
-31.39888,2.8628445,4.107988
-31.425697,2.8654313,4.114316
-31.461853,2.8457854,4.0969057
-31.494411,2.8354309,4.0895658
-31.526583,2.8264842,4.0838404
-31.555695,2.8248262,4.0860023
-31.58097,2.831738,4.09739
-31.607655,2.8354495,4.1054378
-31.639847,2.8275032,4.101162
-31.672812,2.8183537,4.0957146
-31.70466,2.8119044,4.0932446
-31.74379,2.791272,4.0758533
-31.767714,2.8012357,4.0909805
-31.793835,2.8067222,4.1014366
-31.823635,2.8051627,4.1045322
-31.859379,2.7927139,4.0962496
-31.894989,2.781025,4.0888963
-31.932596,2.7662325,4.07841
-31.963186,2.76442,4.0816755
-31.991968,2.765905,4.0884943
-32.022236,2.764905,4.092801
-32.05747,2.7556722,4.088615
-32.09749,2.7388844,4.0766816
-32.133503,2.7292514,4.0723453
-32.164143,2.728651,4.077519
-32.19119,2.733862,4.0888176
-32.22223,2.7327929,4.093697
-32.259884,2.721674,4.0882964
-32.300655,2.7062492,4.0785995
-32.3362,2.6991775,4.0776577
-32.369736,2.6953716,4.080201
-32.403347,2.691669,4.082965
-32.43133,2.6962376,4.0943108
-32.462353,2.6964896,4.101333
-32.503696,2.6824322,4.0938807
-32.543015,2.6716428,4.089916
-32.58252,2.6609857,4.0862384
-32.61247,2.6635365,4.0960855
-32.645668,2.6618214,4.1017227
-32.68033,2.6583476,4.1057024
-32.722725,2.6450787,4.0999618
-32.76825,2.628253,4.090823
-32.80232,2.6263862,4.09685
-32.829514,2.6332374,4.1117043
-32.86359,2.6315632,4.118149
-32.898212,2.6293824,4.1242137
-32.97412,2.5777936,4.0814395
-33.009743,2.5753262,4.0876026
-33.03971,2.579667,4.100613
-33.071712,2.5816624,4.111415
-33.112152,2.5740561,4.112913
-33.168198,2.5490546,4.097563
-33.214962,2.535129,4.093275
-33.26033,2.5231805,4.0911126
-33.29877,2.5191994,4.0968738
-33.34613,2.5057619,4.0936437
-33.39985,2.4859238,4.0844502
-33.4522,2.4680793,4.077423
-33.490673,2.465302,4.085073
-33.534912,2.456718,4.0873294
-33.60466,2.4222531,4.0651317
-33.644737,2.4187708,4.072693
-33.691914,2.4083574,4.0738606
-33.742798,2.3945923,4.072078
-33.809967,2.365201,4.0558457
-33.85183,2.361206,4.0637336
-33.8998,2.3515272,4.066494
-33.94732,2.3426037,4.0701733
-34.0054,2.3240008,4.065098
-34.06378,2.3056247,4.0605145
-34.1125,2.296698,4.0649066
-34.163868,2.2856512,4.0675797
-34.234962,2.2570286,4.054451
-34.28046,2.2521315,4.063262
-34.323483,2.2496753,4.0744863
-34.40453,2.2138414,4.055798
-34.45826,2.2027152,4.059738
-34.50302,2.1997006,4.071191
-34.57804,2.1709342,4.0599113
-34.648212,2.1469743,4.0532947
-34.71143,2.1294596,4.052738
-34.7468,2.1356378,4.0733294
-34.833935,2.0990815,4.056672
-34.898575,2.0817595,4.0572515
-34.95734,2.0696716,4.062704
-35.0204,2.0545053,4.0658
-35.0823,2.040688,4.070382
-35.165913,2.0101397,4.060994
-35.22485,1.9995967,4.069077
-35.33236,1.951746,4.0459213
-35.38269,1.9488351,4.061197
-35.46571,1.9212503,4.056076
-35.566956,1.8805535,4.040515
-35.63076,1.8687496,4.0494614
-35.74017,1.8235009,4.031228
-35.811066,1.807523,4.0376005
-35.88655,1.7886469,4.0420074
-35.986473,1.7526171,4.0329676
-36.04345,1.7481413,4.049888
-36.154507,1.7055213,4.0366344
-36.22375,1.6932406,4.048145
-36.346222,1.644202,4.031048
-36.43106,1.6222227,4.035923
-36.55995,1.5705712,4.018197
-36.640263,1.5530355,4.027669
-36.72003,1.5363498,4.038264
-36.842865,1.4913273,4.027716
-36.946304,1.4601188,4.0284095
-37.057865,1.4242842,4.0262694
-37.183075,1.3803437,4.018787
-37.3143,1.3334401,4.009917
-37.417183,1.3057067,4.015988
-37.52983,1.2724233,4.0186596
-37.61923,1.2545791,4.033219
-37.769035,1.1994238,4.0215693
-37.943394,1.1301432,4.0008802
-38.063515,1.095617,4.005894
-38.204094,1.0493832,4.003514
-38.30901,1.025739,4.0177307
-38.47641,0.9651575,4.0072694
-38.55774,0.9570985,4.0336895
-23.47783,1.4463136,3.8824644
-23.786707,1.6188276,3.9956508
-23.711489,1.5295882,3.902111
-23.180843,1.1221817,3.5525408
-23.824757,1.5320876,3.8593297
-23.839258,1.5038457,3.8143992
-23.281498,1.0667515,3.435193
-23.323145,1.0538862,3.40092
-23.510502,1.1468639,3.4543633
-23.553211,1.1356809,3.42232
-23.580248,1.1129177,3.380762
-23.59759,1.0827255,3.3330226
-25.016283,2.106834,4.1768985
-25.067884,2.1114254,4.163462
-25.111668,2.1102734,4.14537
-25.200293,2.1439261,4.157374
-25.25569,2.1524286,4.1481643
-25.313726,2.163323,4.141305
-25.381924,2.1826448,4.142086
-25.454618,2.206084,4.146831
-25.502472,2.2100134,4.1347933
-25.57122,2.2312288,4.1382627
-25.65174,2.262693,4.151193
-25.717754,2.282833,4.154456
-25.795403,2.31327,4.167286
-25.835005,2.3121755,4.152154
-25.87396,2.3106532,4.1368012
-25.942867,2.3351238,4.145202
-25.992645,2.3435218,4.13931
-26.035866,2.3464484,4.128643
-26.112196,2.3790226,4.145397
-26.155712,2.3829033,4.136091
-26.202305,2.3897896,4.1297565
-26.259401,2.4065697,4.132823
-26.33359,2.4396358,4.151353
-26.377087,2.4448211,4.144166
-26.413157,2.4432373,4.1308074
-26.46077,2.452758,4.1280584
-26.538328,2.4914527,4.153121
-26.578218,2.4944184,4.144666
-26.625761,2.5050993,4.1437235
-26.664299,2.5071845,4.134777
-26.706879,2.5135005,4.130041
-26.770771,2.5417056,4.146538
-26.807209,2.5424814,4.136879
-26.850458,2.5504613,4.1343317
-26.895264,2.560369,4.1338396
-26.96511,2.5971415,4.1596975
-27.00047,2.5979142,4.1507406
-27.034153,2.597011,4.1402755
-27.075481,2.6045787,4.138255
-27.11397,2.609294,4.1335917
-27.170605,2.6345534,4.149372
-27.207685,2.6383672,4.1441727
-27.241007,2.6380792,4.135042
-27.273275,2.6366835,4.124929
-27.316925,2.6487145,4.128331
-27.368042,2.6700082,4.1411843
-27.403086,2.67263,4.1355276
-27.435062,2.671704,4.1264305
-27.471516,2.676373,4.123086
-27.509846,2.683609,4.122472
-27.548044,2.6909723,4.122134
-27.60249,2.7193694,4.143298
-27.631187,2.715321,4.1316867
-27.662771,2.715056,4.1240234
-27.692945,2.7130284,4.114665
-27.736061,2.7284393,4.12327
-27.77982,2.7452445,4.1334786
-27.820581,2.7584724,4.140184
-27.847286,2.7525206,4.1272793
-27.87672,2.7503834,4.118393
-27.907486,2.7502053,4.111628
-27.94814,2.7645285,4.12
-27.989817,2.780874,4.1306314
-28.02449,2.7873042,4.1311035
-28.0578,2.7919538,4.1298447
-28.08611,2.7891355,4.1208982
-28.118492,2.7927134,4.1187325
-28.153994,2.8014529,4.1220856
-28.1972,2.8229868,4.1390047
-28.234215,2.8351476,4.146232
-28.260681,2.8302584,4.1356316
-28.286085,2.8235264,4.1231627
-28.317171,2.826426,4.120942
-28.348562,2.8300557,4.119598
-28.381687,2.8369777,4.121846
-28.419304,2.8523307,4.1331615
-28.449997,2.8556173,4.13178
-28.478556,2.8551378,4.1264887
-28.50711,2.8547373,4.1213665
-28.536663,2.856348,4.118479
-28.564865,2.8554616,4.1130133
-28.59662,2.8617582,4.115323
-28.633652,2.8791451,4.1296296
-28.666012,2.8875866,4.134465
-28.692707,2.8844557,4.1269665
-28.717941,2.8781476,4.116126
-28.745045,2.8758016,4.109621
-28.774784,2.8793826,4.1095886
-28.80786,2.8908665,4.118183
-28.839615,2.8998423,4.124177
-28.871479,2.909566,4.1310835
-28.900229,2.9121962,4.1304064
-28.925264,2.9057474,4.119968
-28.951172,2.9013238,4.1117954
-28.978146,2.8995886,4.106614
-29.00783,2.9051414,4.109439
-29.038366,2.913406,4.1153083
-29.072247,2.9316208,4.132118
-29.100346,2.9341493,4.1319294
-29.125069,2.926875,4.1211195
-29.149694,2.9190018,4.1097198
-29.178444,2.9237218,4.1121564
-29.205263,2.9225798,4.108263
-29.232693,2.9234896,4.106691
-29.265505,2.942988,4.1255746
-29.294413,2.9500127,4.1308823
-29.318832,2.9412255,4.118919
-29.34375,2.9338222,4.1085377
-29.370663,2.9337735,4.1063056
-29.398554,2.9377763,4.1086054
-29.423992,2.9318957,4.100108
-29.45075,2.9313927,4.097599
-29.48339,2.9575493,4.1245403
-29.50978,2.9565353,4.121632
-29.534422,2.9469378,4.109329
-29.560911,2.9460552,4.106708
-29.587658,2.9465737,4.1057053
-29.614275,2.9464955,4.1041183
-29.63999,2.9411523,4.0967855
-29.668665,2.9538834,4.109503
-29.696814,2.9646914,4.1201773
-29.723347,2.9655633,4.119941
-29.74773,2.9504774,4.1021175
-29.774366,2.9514813,4.102168
-29.799978,2.9438677,4.0927496
-29.826504,2.9436707,4.091613
-29.853817,2.9515648,4.099515
-29.880869,2.9581938,4.1060896
-29.90818,2.9695756,4.118009
-29.934425,2.968988,4.1167355
-29.960258,2.9617767,4.1081867
-29.986614,2.961992,4.1079454
-30.012844,2.959598,4.1048813
-30.038893,2.9512467,4.0952806
-30.065477,2.9570198,4.1014175
-30.091986,2.964201,4.1091905
-30.118326,2.9674335,4.1126547
-30.1446,2.9647079,4.109581
-30.170954,2.9573636,4.1014533
-30.197275,2.9601288,4.1046143
-30.223663,2.9582758,4.102723
-30.250175,2.9538128,4.098009
-30.276257,2.961467,4.106807
-30.30217,2.9698563,4.1164904
-30.327858,2.9796495,4.1278
-30.353924,2.9814782,4.1303477
-30.381662,2.9612992,4.1085696
-30.407915,2.9625974,4.110675
-30.434906,2.9559383,4.1040354
-30.462294,2.9466772,4.0945888
-30.488194,2.9521923,4.1015835
-30.513594,2.961112,4.1124167
-30.539448,2.9654198,4.1182127
-30.5656,2.9671218,4.121194
-30.593199,2.95888,4.113248
-30.621153,2.949379,4.1039886
-30.648724,2.9432874,4.0985804
-30.675596,2.9419372,4.098487
-30.701885,2.9439878,4.1022253
-30.728142,2.946106,4.1061077
-30.751036,2.9649315,4.128496
-30.778193,2.9618533,4.1267824
-30.807579,2.9488735,4.114235
-30.837196,2.935978,4.1018696
-30.864851,2.9324646,4.099923
