x,y,z
-29.988262,3.3716328,3.119587
-30.019608,3.3825712,3.1376305
-30.050493,3.3884478,3.1472774
-30.081097,3.3892603,3.1485233
-30.111515,3.379348,3.1319323
-30.142149,3.3638556,3.1060777
-30.173008,3.3649035,3.1078339
-30.203596,3.377863,3.129486
-30.233795,3.3934715,3.155592
-30.264378,3.392183,3.1535716
-30.295307,3.3853168,3.1422944
-30.325565,3.3908713,3.1517587
-30.3575,3.373883,3.123692
-30.387861,3.3785672,3.1317859
-30.417904,3.3853838,3.1434717
-30.447018,3.3989544,3.1664476
-30.477322,3.4007838,3.1698985
-30.508947,3.392937,3.157269
-30.540844,3.3846614,3.1439676
-30.57236,3.380063,3.1368341
-30.603004,3.3811877,3.1392722
-30.631142,3.395716,3.1640677
-30.660677,3.401602,3.174508
-30.69235,3.3968096,3.1672125
-30.724264,3.39159,3.1592484
-30.757874,3.379809,3.1404085
-30.790136,3.3747663,3.1328282
-30.821608,3.3733866,3.1313844
-30.845938,3.39863,3.174254
-30.877764,3.3953571,3.1697369
-30.90833,3.3967571,3.1730294
-30.94154,3.3895783,3.162106
-30.975584,3.380457,3.1480026
-31.006664,3.3810925,3.1501536
-31.035656,3.3879054,3.1626048
-31.063423,3.397833,3.180262
-31.093027,3.4022477,3.1888027
-31.12447,3.4016705,3.1890988
-31.157139,3.3981407,3.1845398
-31.19073,3.3926792,3.1768236
-31.223421,3.3898375,3.173499
-31.251446,3.3981845,3.1887598
-31.280632,3.4035733,3.1991544
-31.308348,3.4120543,3.2147064
-31.343613,3.4040098,3.2029371
-31.381973,3.3900435,3.1814237
-31.416264,3.3852246,3.1751013
-31.446163,3.3895195,3.183897
-31.472897,3.3998926,3.2027779
-31.501,3.407327,3.216834
-31.530302,3.412334,3.2269168
-31.568605,3.4009752,3.2100248
-31.60805,3.3882442,3.1909313
-31.638353,3.3920302,3.19914
-31.667429,3.3978777,3.2107868
-31.696102,3.4042919,3.2234044
-31.724659,3.4107761,3.2361746
-31.754652,3.4148614,3.2450314
-31.79849,3.3973384,3.2183852
-31.82958,3.400138,3.2252283
-31.863588,3.3985984,3.2249846
-31.88867,3.4103959,3.2466955
-31.92267,3.4090288,3.2468257
-31.953638,3.412157,3.2543821
-31.988077,3.4104903,3.2541208
-32.03471,3.3923736,3.2269602
-32.063705,3.398713,3.239932
-32.088924,3.4099731,3.2609944
-32.11653,3.4178987,3.2766294
-32.152336,3.4152622,3.2750401
-32.193245,3.4064674,3.2634497
-32.24103,3.3896294,3.2388034
-32.272243,3.3936012,3.2481894
-32.298588,3.4034047,3.2671232
-32.32272,3.415656,3.2900763
-32.3495,3.4246159,3.3076978
-32.3803,3.428879,3.3177142
-32.42248,3.4204059,3.3070784
-32.45762,3.4201262,3.309825
-32.511497,3.399631,3.279829
-32.545662,3.4010239,3.285427
-32.5794,3.4029863,3.2920027
-32.606827,3.411613,3.3094172
-32.633656,3.4207726,3.3277302
-32.67002,3.4201913,3.3303375
-32.707855,3.4183242,3.3309312
-32.755238,3.4072883,3.3168025
-32.79146,3.4075372,3.3209524
-32.82,3.415287,3.3372397
-32.851353,3.4203439,3.3492346
-32.88215,3.4259453,3.3621526
-32.94033,3.4064317,3.3348002
-32.978336,3.405873,3.3379736
-33.00826,3.412724,3.3530855
-33.03654,3.4210153,3.3705463
-33.066772,3.4275653,3.385264
-33.10742,3.4251637,3.3857303
-33.134926,3.4341516,3.4044437
-33.16764,3.4387178,3.4161491
-33.2041,3.4402456,3.4230714
-45.20451,0.67327404,0.45966673
-45.18044,0.73857594,0.5785594
-45.27797,0.7613983,0.6417084
-45.120304,0.87136984,0.8185148
-45.118355,0.9273069,0.92458296
-45.104958,0.9866183,1.0348706
-45.10558,1.0407948,1.138411
-45.10622,1.094562,1.2413201
-45.050106,1.1662204,1.366776
-45.08802,1.2071221,1.4531369
-45.0548,1.2703245,1.5674782
-45.068,1.3184505,1.6627979
-45.057106,1.3737228,1.7669086
-45.126385,1.40413,1.8403139
-45.136543,1.4524662,1.9358325
-45.1686,1.4940004,2.0230494
-45.2191,1.5299754,2.1036272
-45.24359,1.573525,2.1934085
-46.320526,1.367737,2.0280414
-46.40812,1.3964443,2.1031775
-47.029953,1.2769454,2.0067968
-45.04902,1.8758872,2.7399044
-45.115982,1.9059415,2.8135767
-45.135258,1.9489219,2.902124
-45.154823,1.9916623,2.9904084
-45.182125,2.032217,3.0762763
-45.205097,2.073788,3.1633139
-45.226517,2.1156268,3.2506762
-45.258564,2.1546502,3.3350277
-45.290035,2.193753,3.419551
-45.325645,2.231774,3.5030193
-45.43051,2.252926,3.568993
-45.614517,2.2554762,3.6162972
-45.75687,2.26877,3.6755486
-46.040485,2.2496336,3.7029076
-46.302605,2.236928,3.7382798
-46.66977,2.2016072,3.752983
-46.8629,2.2073863,3.809607
-47.14108,2.1951919,3.8502126
-48.6463,1.9156222,3.6414309
-48.653576,1.9683778,3.7493677
-48.659115,2.021295,3.8573966
-48.668686,2.0731487,3.9644089
-48.68617,2.1231751,4.0697794
-49.22715,2.0660143,4.0827727
-49.894653,1.98622,4.0802145
-50.619446,1.8986225,4.075695
-51.553932,1.7738359,4.045984
-52.548386,1.6425323,4.017613
-53.556263,1.5140471,3.9984488
-54.4967,1.4036229,4.0001364
-3.4031734,0.6917379,2.7405176
-4.3383408,0.8020978,2.754201
-6.5257435,1.1716633,3.0132718
-6.9009876,1.1805332,2.9470816
-6.894596,1.1116092,2.8088384
-7.5616055,1.1848843,2.8083086
-8.263731,1.269295,2.8226757
-8.967258,1.3578377,2.845271
-9.284702,1.3651006,2.7897134
-9.267622,1.2991829,2.6609077
-9.271492,1.2376022,2.5363946
-9.449633,0.96359015,1.9498339
-9.407093,0.88930106,1.8111515
-9.396631,0.8223479,1.6803441
-9.367586,0.6850953,1.4143939
-18.65781,3.0096397,4.0380626
-18.039162,2.8120353,3.778759
-17.796461,2.7093801,3.6274905
-19.72107,3.1832857,4.156106
-19.858305,3.1866488,4.13395
-20.053314,3.2064872,4.132185
-20.19831,3.2135599,4.1158824
-20.414434,3.2412858,4.125379
-20.544147,3.2457628,4.1073413
-20.743748,3.27092,4.115405
-20.801172,3.2559896,4.0745153
-20.952,3.26863,4.068338
-21.027563,3.2597532,4.0357065
-21.160786,3.2684839,4.0256767
-21.266804,3.26966,4.006567
-21.371796,3.271039,3.9881408
-21.474863,3.2723358,3.9700232
-21.572458,3.2724187,3.9507341
-21.660187,3.269838,3.928347
-21.78585,3.2798448,3.922787
-21.816065,3.2595296,3.8777657
-21.997597,3.2888997,3.8986146
-22.035774,3.2717621,3.8582928
-22.19019,3.2937026,3.870334
-22.206696,3.2697408,3.8213005
-22.414165,3.3112082,3.8605895
-22.420391,3.284174,3.8078146
-22.542328,3.29754,3.8100247
-22.625301,3.2977827,3.7947335
-22.675703,3.2867475,3.764236
-22.797695,3.301804,3.769868
-22.8294,3.284498,3.7311282
-22.973673,3.308877,3.750402
-23.038242,3.3043253,3.7298255
-23.080166,3.2914748,3.697826
-23.24328,3.3250523,3.7312036
-23.256762,3.301876,3.6850896
-23.312016,3.2948718,3.6618729
-23.443169,3.318035,3.681674
-23.471071,3.3008351,3.644382
-23.559738,3.3081138,3.6421547
-23.654654,3.318431,3.6445684
-23.676273,3.2991028,3.604609
-23.787788,3.3171194,3.6186051
-23.859432,3.3190656,3.6096835
-23.883728,3.3012352,3.5722408
-23.995092,3.3207636,3.5892725
-24.066298,3.3235755,3.5822272
-24.084473,3.3034751,3.5418105
-24.154797,3.306388,3.5352268
-24.261677,3.326055,3.5535326
-24.294147,3.3127213,3.5234065
-24.374779,3.3214526,3.526032
-24.453571,3.3298109,3.5283356
-24.506796,3.3266754,3.5137496
-24.538643,3.313651,3.484538
-24.615404,3.3220897,3.4875016
-24.691124,3.3304832,3.4906116
-24.699028,3.3062403,3.4448633
-24.7902,3.3228178,3.4606066
-24.860119,3.3294284,3.461555
-24.913553,3.328143,3.4507375
-24.925072,3.3057537,3.4080338
-25.014357,3.3231654,3.4258304
-25.109688,3.344358,3.4496336
-25.12724,3.3253732,3.412364
-25.18457,3.3273702,3.4072032
-25.248177,3.3330336,3.4078016
-25.32786,3.3478007,3.4225397
-25.337368,3.3246188,3.3790917
-25.392113,3.3262744,3.373921
-25.472473,3.3425767,3.3915014
-25.516413,3.3388276,3.3782616
-25.537668,3.3222322,3.3452
-25.585829,3.3210986,3.3361712
-25.643417,3.325699,3.3361683
-25.718998,3.3412936,3.3534322
-25.751974,3.3319492,3.3319545
-25.77776,3.3182697,3.3037558
-25.83677,3.324859,3.307334
-25.900787,3.3349204,3.3164945
-25.959278,3.3419733,3.3210788
-25.970337,3.319374,3.2791362
-26.053694,3.342778,3.309681
-26.105852,3.3467293,3.3097296
-26.151512,3.3467295,3.303647
-26.166334,3.326513,3.265654
-26.240705,3.3459516,3.2905216
-26.298477,3.3547993,3.2987542
-26.358418,3.365549,3.3101373
-26.371784,3.3444452,3.2709503
-26.439278,3.3610456,3.2918549
-26.486551,3.3638806,3.290944
-26.523582,3.3596263,3.2788
-26.570057,3.3623385,3.277866
-26.585436,3.3424313,3.240788
-26.642313,3.353151,3.2528353
-26.692549,3.3593233,3.257701
-26.722647,3.3504767,3.2385206
-26.778824,3.3617518,3.2517715
-26.793293,3.3408864,3.2133455
-26.851383,3.3542292,3.2301073
-26.900309,3.3607523,3.2359757
-26.943573,3.3630338,3.2350821
-26.992098,3.3698883,3.2416697
-27.004112,3.3467093,3.199688
-27.055168,3.356041,3.2104287
-27.10803,3.3673441,3.224471
-27.149681,3.369427,3.2236328
-27.19378,3.3738937,3.2267475
-27.211315,3.3550637,3.1920042
-27.257353,3.3615685,3.198564
-27.318577,3.3822885,3.2284002
-27.36352,3.388693,3.2349858
-27.399494,3.3870435,3.228488
-27.422935,3.3736122,3.2027745
-27.461853,3.3748956,3.2011757
-27.507263,3.382736,3.2103882
-27.552893,3.3911924,3.2206926
-27.587234,3.3887157,3.2131324
-27.616127,3.3807793,3.1966538
-27.642006,3.3696625,3.1749854
-27.6805,3.3716364,3.1748838
-27.72808,3.3835304,3.1911812
-27.769276,3.38904,3.1970434
-27.801323,3.384837,3.186956
-27.831306,3.3783703,3.1731791
-27.856401,3.3663263,3.15023
-27.895262,3.3699143,3.1531425
-27.940054,3.380721,3.1680546
-27.977755,3.383617,3.1699524
-28.014156,3.3852017,3.1697388
-28.039614,3.3735611,3.147664
-28.071026,3.3691318,3.1375732
-28.110403,3.3748267,3.1443238
-28.155901,3.388791,3.164867
-28.193352,3.3928277,3.168995
-28.227066,3.392168,3.1653743
-28.246597,3.3723252,3.1298957
-28.277346,3.3674734,3.1193757
-28.303713,3.3564122,3.098556
-28.367329,3.3987145,3.1666694
-28.400448,3.398056,3.1632953
-28.437119,3.4028392,3.1690416
-28.45607,3.3809392,3.13032
-28.488045,3.3785775,3.1242256
-28.521265,3.378256,3.1215825
-28.567438,3.3990762,3.1543126
-28.59916,3.39701,3.1488585
-28.630602,3.3945367,3.1427665
-28.659792,3.3882127,3.1302714
-28.691046,3.385408,3.1237025
-28.725605,3.388603,3.127224
-28.760586,3.3928845,3.1326137
-28.799086,3.4041917,3.149828
-28.829376,3.4002635,3.1415553
-28.856735,3.3904624,3.123468
-28.885273,3.3827095,3.1088486
-28.91325,3.373533,3.0918727
-28.949055,3.3808477,3.1026216
-28.98736,3.3942463,3.1236415
-29.021364,3.3987825,3.1298256
-29.051176,3.393923,3.1202636
-29.078377,3.382639,3.099934
-29.108242,3.3774216,3.0898395
-29.14114,3.3797946,3.0925508
-29.180593,3.3998117,3.1249995
-29.212383,3.4003718,3.1247544
-29.242004,3.3949869,3.1145387
-29.271559,3.3891726,3.1036353
-29.301727,3.3849416,3.0954356
-29.334051,3.3873355,3.0984359
-29.365685,3.3877988,3.0982237
-29.404072,3.4115567,3.1373239
-29.43607,3.4147284,3.1417665
-29.465265,3.40788,3.1293526
-29.49422,3.3995864,3.1145334
-29.52459,3.3964229,3.1084037
-29.554434,3.3908048,3.0981698
-29.586843,3.3964057,3.1069078
-29.620262,3.40767,3.1252456
-29.650522,3.4043193,3.1189547
-29.681036,3.4020605,3.114544
-29.710028,3.3907428,3.094872
-29.739845,3.3830504,3.081357
-29.77006,3.376956,3.0705771
-29.803707,3.395331,3.1011696
-29.835966,3.406173,3.119079
-29.86643,3.4033718,3.1139789
-29.89605,3.3914914,3.0935755
-29.92612,3.381721,3.0767713
-29.957033,3.3801672,3.0738902
-29.988266,3.3832743,3.0789223
-30.020199,3.4017334,3.109941
-30.051147,3.4065301,3.117907
-30.081785,3.404279,3.1139994
-30.112244,3.386831,3.0844436
-30.14316,3.3827002,3.0774345
-30.174154,3.3806858,3.0740395
-30.205103,3.3833337,3.0785646
-30.23532,3.4064262,3.1176815
-30.26601,3.4066846,3.1182413
-30.297045,3.400914,3.1086507
-30.32857,3.3901348,3.0906339
-30.35978,3.3865628,3.0848355
-30.39056,3.3886678,3.0886693
-30.421509,3.3888173,3.0892363
-30.45038,3.4068415,3.1200423
-30.48138,3.4051118,3.1175084
-30.512213,3.4049869,3.1177244
-30.544922,3.3927507,3.0975218
-30.57651,3.389236,3.0920916
-30.60738,3.3903716,3.094554
-30.635548,3.4057899,3.121169
-30.663765,3.4192445,3.1445007
-30.694914,3.4175642,3.1423163
-30.73011,3.398239,3.1103954
-30.762537,3.3926837,3.1017575
-30.794098,3.3912625,3.1001358
-30.826504,3.3868914,3.0935788
-30.853079,3.4043288,3.1238427
-30.881851,3.4127376,3.1389098
-30.912848,3.4131439,3.140521
-30.94698,3.4035518,3.125321
-30.980547,3.3965745,3.1145735
-31.012783,3.3942194,3.111658
-31.042826,3.3984876,3.119938
-31.069899,3.4108667,3.141911
-31.099867,3.4147756,3.1496558
-31.131498,3.4142475,3.149971
-31.16753,3.4027865,3.1319356
-31.201405,3.397436,3.1242285
-31.230381,3.4041755,3.1368942
-31.256622,3.4169755,3.159779
-31.286589,3.4208555,3.1677055
-31.318998,3.4193327,3.166594
-31.357327,3.4054618,3.1447935
-31.38977,3.4046285,3.1449342
-31.422014,3.4043798,3.146099
-31.452278,3.4081838,3.1541028
-31.48145,3.4140446,3.1655931
-31.508928,3.4229422,3.1822076
-31.545395,3.4151208,3.1708465
-31.586489,3.399523,3.1465187
-31.621796,3.3948865,3.1406035
-31.649776,3.403131,3.156289
-31.673786,3.4178197,3.1827826
-31.704058,3.4217746,3.1913576
-31.73549,3.4238508,3.1968317
-31.774673,3.4138012,3.1821003
-31.812233,3.4068007,3.1725202
-31.850962,3.3984566,3.1607552
-31.87091,3.4184158,3.1962433
-31.8991,3.4257877,3.2107658
-31.933264,3.4245105,3.210918
-31.97164,3.4175327,3.2016292
-32.01408,3.4053674,3.1837711
-32.04794,3.4053822,3.1862354
-32.073868,3.4160657,3.2064786
-32.100327,3.425845,3.2252488
-32.12921,3.4323313,3.2385821
-32.170883,3.4226463,3.2251282
-32.21321,3.4126225,3.2111812
-32.2527,3.406545,3.2038455
-32.28248,3.412462,3.216432
-32.305737,3.4260345,3.2417212
-32.33809,3.4287765,3.2491274
-32.37249,3.4292498,3.2528305
-32.405678,3.4312353,3.2590828
-32.44353,3.4281507,3.2570171
-32.495674,3.4097269,3.2297273
-32.533085,3.4078503,3.229795
-32.56883,3.407953,3.2331815
-32.591694,3.4216475,3.2589803
-32.6161,3.433527,3.281816
-32.650784,3.434813,3.287281
-32.69751,3.424202,3.2732797
-32.74127,3.4169774,3.264916
-32.783363,3.4117386,3.2598844
-32.80172,3.4295335,3.2926264
-32.832294,3.4354727,3.3059907
-32.870613,3.4342065,3.3076258
-32.925335,3.4180756,3.2850623
-32.9645,3.4166415,3.2865767
-32.998215,3.4202998,3.2964563
-33.018127,3.4362125,3.3263335
-33.050106,3.441376,3.338746
-33.086708,3.4426,3.3448067
-33.119667,3.4470606,3.3561811
-33.16214,3.4436073,3.3547778
-33.21441,3.4323134,3.340755
-45.12334,0.74243593,0.34623623
-45.11464,0.8021753,0.4584837
-45.11883,0.8569939,0.5639539
-45.06077,0.98758864,0.8025713
-45.114677,1.0245237,0.8838692
-45.130238,1.0739598,0.9818082
-45.117664,1.1321852,1.091259
-45.06254,1.2035105,1.2176747
-45.090553,1.247783,1.3085546
-45.080486,1.3037632,1.414598
-45.048073,1.3661935,1.5287838
-45.07287,1.4105558,1.6196146
-45.04307,1.4712074,1.7311621
-45.064552,1.5159907,1.8224196
-45.143192,1.5437069,1.8922472
-45.169807,1.5867853,1.9815111
-45.21486,1.6243889,2.0640163
-45.254807,1.6634154,2.1483893
-46.45131,1.4840174,2.044887
-46.506424,1.5222092,2.131343
-46.64038,1.5392599,2.1928911
-45.096535,2.001988,2.779531
-45.137077,2.0392292,2.8614917
-45.148254,2.0840478,2.952341
-45.16062,2.1283562,3.0425663
-45.197533,2.1662667,3.1254945
-45.213303,2.2094169,3.2144275
-45.195587,2.260651,3.3123703
-45.275806,2.2876925,3.383412
-45.3142,2.3250206,3.4660482
-45.396427,2.3519406,3.537558
-45.548286,2.362816,3.592288
-45.72944,2.3676028,3.6413608
-45.944782,2.3654456,3.6841393
-46.161186,2.3641038,3.728929
-46.4692,2.3434753,3.7552643
-46.79577,2.3203788,3.7808733
-47.04815,2.3150144,3.8259444
-48.65767,2.021556,3.590981
-48.643814,2.0786452,3.7033224
-48.65316,2.130597,3.8106089
-48.66366,2.1821241,3.9174604
-48.674362,2.2334328,4.024083
-48.921967,2.2375004,4.0881453
-49.577812,2.1628118,4.084149
-50.24446,2.089554,4.0856876
-51.145042,1.9753733,4.0569077
-52.00061,1.8744867,4.0452695
-53.05509,1.741488,4.0134087
-54.05294,1.6244559,4.0015645
-3.1077538,0.8691101,2.7689886
-5.650978,1.2787895,3.066059
-6.2162437,1.3185046,3.027214
-6.886879,1.3819396,3.0146723
-6.914156,1.3202789,2.883265
-6.8990803,1.2498875,2.743208
-8.14613,1.4388561,2.8653283
-8.519026,1.4523504,2.8146334
-9.240667,1.5415545,2.8447132
-9.282841,1.4888933,2.729393
-9.304815,1.4317923,2.6094704
-7.543251,0.98113704,2.0647984
-7.5807705,0.92182374,1.9375668
-9.199949,1.0936627,1.9508181
-9.254786,1.0425444,1.8372421
-9.287895,0.9217708,1.5890913
-9.419025,0.88907385,1.4974103
-9.383455,0.8154783,1.357945
-9.367668,0.7462616,1.2234044
-18.595774,3.0281076,3.914145
-17.906649,2.8138855,3.6262536
-19.760805,3.2582364,4.1389837
-19.827892,3.2425287,4.094648
-20.017548,3.2598035,4.091441
-20.061739,3.2387629,4.041252
-20.183111,3.238934,4.017866
-20.289753,3.2356138,3.9905653
-20.501963,3.262389,4.0020175
-20.540085,3.2409778,3.9526258
-20.743317,3.2670088,3.9645205
-20.855612,3.267786,3.944505
-20.95066,3.2640448,3.9190323
-21.01424,3.2513819,3.8822112
-21.133442,3.2556686,3.867977
-21.27921,3.2686439,3.8657274
-21.364979,3.2639532,3.8404808
-21.519901,3.2811685,3.844912
-21.5877,3.2718298,3.814157
-21.688171,3.2731535,3.798067
-21.788494,3.2749238,3.7829447
-21.858006,3.2671583,3.7551427
-21.994747,3.2818086,3.7583537
-22.038,3.2661,3.720182
-22.201933,3.2911117,3.7385483
-22.201107,3.2610173,3.6808362
-22.415096,3.3046274,3.726049
-22.439377,3.2835913,3.681353
-22.573347,3.3011005,3.69099
-22.617434,3.2874207,3.65699
-22.736324,3.3007436,3.6614337
-22.81087,3.2986271,3.6442814
-22.834835,3.2782557,3.6012545
-22.991581,3.3071666,3.6289878
-23.029835,3.2925718,3.594603
-23.095728,3.288525,3.5755496
-23.244425,3.3165455,3.6031795
-23.256273,3.2924328,3.5554676
-23.363821,3.3056905,3.5622826
-23.45869,3.3145607,3.5630126
-23.448977,3.2820582,3.5032773
-23.588276,3.309558,3.5318346
-23.665485,3.3125696,3.5246582
-23.709549,3.3022637,3.4979734
-23.80894,3.315209,3.5059385
-23.87049,3.3127599,3.491263
-23.893908,3.2942877,3.4528103
-24.012331,3.3167684,3.4757395
-24.072796,3.314749,3.462225
-24.096447,3.2967544,3.424808
-24.21763,3.3221736,3.4529657
-24.28704,3.3251097,3.4474535
-24.316214,3.31008,3.414867
-24.417654,3.3282971,3.4328918
-24.491127,3.3341851,3.4324074
-24.505186,3.312544,3.3900552
-24.556593,3.308479,3.3746176
-24.633501,3.3168662,3.3784108
-24.698166,3.3197699,3.3739696
-24.747805,3.3156393,3.3588471
-24.81958,3.322681,3.3610935
-24.887419,3.3281727,3.3611221
-24.912674,3.312466,3.3284373
-24.96867,3.3124394,3.320157
-25.033224,3.3171113,3.3193216
-25.107613,3.3272984,3.3272457
-25.131016,3.3109798,3.293921
-25.213541,3.3261995,3.3100152
-25.27377,3.3299463,3.3083158
-25.352724,3.3442683,3.3233776
-25.370686,3.3254354,3.2864294
-25.42979,3.3294315,3.2854977
-25.468771,3.322389,3.2672596
-25.547422,3.3381004,3.2851062
-25.555733,3.3137696,3.2396622
-25.624489,3.3244407,3.2497783
-25.670809,3.3223388,3.239739
-25.733704,3.3303254,3.245862
-25.763962,3.319015,3.2213392
-25.806187,3.3149917,3.2085037
-25.874462,3.3271945,3.221712
-25.929428,3.331592,3.222567
-25.955957,3.318352,3.19523
-26.009464,3.3222704,3.1955023
-26.076704,3.3353782,3.2106733
-26.131622,3.3409553,3.2138562
-26.165138,3.3327277,3.1948752
-26.216068,3.336175,3.1948118
-26.28401,3.351431,3.2139544
-26.32777,3.350703,3.2073517
-26.362404,3.343848,3.1908894
-26.396515,3.336673,3.1739616
-26.452095,3.344765,3.1819124
-26.503279,3.3501031,3.185491
-26.536728,3.3428926,3.1687155
-26.58011,3.3430164,3.1639585
-26.611923,3.3347363,3.1455493
-26.661499,3.3398364,3.1490684
-26.712566,3.3464024,3.1550808
-26.754454,3.3462439,3.1501684
-26.78075,3.3340914,3.125648
-26.833061,3.3424225,3.1348019
-26.879662,3.3465824,3.1371965
-26.926086,3.3509028,3.1399388
-26.976606,3.3588924,3.14881
-26.997793,3.3428538,3.1181488
-27.03865,3.3431816,3.1145182
-27.087715,3.3507252,3.122878
-27.138071,3.3597732,3.1338162
-27.176973,3.3592007,3.1289191
-27.209288,3.35294,3.1146607
-27.255104,3.3588645,3.1206522
-27.293825,3.358654,3.116541
-27.350487,3.3752348,3.1403847
-27.377335,3.3644655,3.1188612
-27.409134,3.3582857,3.1050062
-27.462181,3.3726327,3.1253767
-27.491573,3.3643982,3.1082087
-27.545,3.3799832,3.1308055
-27.586637,3.3843164,3.1347184
-27.615993,3.3763914,3.1182213
-27.634838,3.3574953,3.0834188
-27.676403,3.3621423,3.0880117
-27.725147,3.374784,3.1060543
-27.759874,3.3727632,3.0996184
-27.79796,3.3745592,3.099628
-27.824722,3.3638978,3.0787969
-27.854143,3.3560948,3.0627928
-27.896238,3.3628647,3.0713034
-27.93732,3.368833,3.0785327
-27.976238,3.3725836,3.0820956
-28.00842,3.3684492,3.0724473
-28.045618,3.3705351,3.0733137
-28.075184,3.363276,3.0584888
-28.11192,3.3650904,3.0589957
-28.158787,3.3803048,3.082162
-28.193737,3.3804593,3.0799832
-28.22085,3.37023,3.0603175
-28.253733,3.3676994,3.0536885
-28.286972,3.3657365,3.0480623
-28.322231,3.3667393,3.0474954
-28.363047,3.3760045,3.0609593
-28.399044,3.3786662,3.063304
-28.43621,3.3833594,3.0691385
-28.463503,3.3732045,3.0498624
-28.497152,3.3727772,3.0471087
-28.53228,3.3748634,3.0486627
-28.571167,3.3833542,3.0611315
-28.610392,3.392935,3.075509
-28.638538,3.384154,3.058755
-28.66463,3.371542,3.035521
-28.695898,3.367765,3.0273323
-28.732824,3.3743274,3.0367632
-28.768774,3.379531,3.0439339
-28.804308,3.3843489,3.050497
-28.835705,3.3814218,3.0439215
-28.86398,3.37219,3.026647
-28.893631,3.3654833,3.0137048
-28.921099,3.3539248,2.992527
-28.955126,3.3562298,2.9950118
-28.997185,3.3768885,3.0288386
-29.030605,3.3789067,3.0309305
-29.060421,3.3726082,3.0188727
-29.088345,3.3614306,2.9985223
-29.120228,3.3597343,2.9943871
-29.155348,3.3665552,3.0048356
-29.195417,3.387381,3.0392532
-29.228567,3.3904362,3.043364
-29.261791,3.3940785,3.0485206
-29.286297,3.371917,3.0096078
-29.318174,3.3712332,3.0074396
-29.349741,3.3696346,3.003745
-29.385305,3.3815951,3.023282
-29.418299,3.3856652,3.0293646
-29.45009,3.3858247,3.0287962
-29.481344,3.3840663,3.024984
-29.511145,3.3763807,3.0110626
-29.54252,3.3747792,3.0075903
-29.57392,3.3732588,3.0042934
-29.608175,3.3853576,3.0243583
-29.641926,3.3965483,3.0429106
-29.670563,3.3817298,3.0169492
-29.700066,3.3699923,2.9962974
-29.730165,3.3603356,2.9792423
-29.762278,3.3628151,2.9830208
-29.79432,3.3653789,2.98698
-29.827911,3.3811028,3.0135336
-29.859312,3.3808186,3.012689
-29.890108,3.3745763,3.0016675
-29.921093,3.3689153,2.9916778
-29.952057,3.3613183,2.9784045
-29.98393,3.3653827,2.9851604
-30.01653,3.3856452,3.0197277
-30.047882,3.386854,3.0216627
-30.079012,3.3810902,3.0116792
-30.110249,3.3733914,2.998414
-30.141682,3.3693,2.9913692
-30.173191,3.367304,2.987956
-30.204914,3.3578324,2.9717607
-30.23539,3.392267,3.0308862
-30.266739,3.3895042,3.026267
-30.298187,3.3863194,3.0209608
-30.330208,3.376167,3.0037456
-30.36223,3.3691192,2.9918919
-30.393572,3.371215,2.9957495
-30.42471,3.3749,3.0023694
-30.454628,3.3882222,3.0255437
-30.485085,3.3950796,3.0376697
-30.517899,3.384419,3.0198092
-30.550823,3.3748522,3.0038643
-30.582308,3.3754199,3.0053244
-30.613878,3.3755674,3.0061007
-30.640934,3.399382,3.0474548
-30.673458,3.3936615,3.038251
-30.7044,3.3960493,3.0429707
-30.737698,3.387995,3.0298467
-30.771326,3.3795311,3.0160656
-30.8053,3.3706598,3.0016274
-30.833006,3.3863854,3.0293283
-30.861732,3.397176,3.0486107
-30.892387,3.400543,3.0552263
-30.926142,3.3935096,3.0440874
-30.961025,3.3835783,3.028038
-30.995192,3.3767354,3.017314
-31.028023,3.3744683,3.0144534
-31.049915,3.4036188,3.0653214
-31.079803,3.4089522,3.0755153
-31.113697,3.4034393,3.0672174
-31.147745,3.3980217,3.0591254
-31.183142,3.3897276,3.0461679
-31.220196,3.3780715,3.0275207
-31.249758,3.384817,3.040318
-31.274412,3.402496,3.0717964
-31.306686,3.4024658,3.073102
-31.340816,3.3985817,3.0678778
-31.376945,3.3908572,3.0561547
-31.411125,3.3876617,3.0521965
-31.444178,3.3870163,3.0526242
-31.471977,3.3967538,3.0707674
-31.497766,3.409981,3.0948772
-31.530928,3.4090843,3.0949898
-31.569275,3.3990052,3.0795321
-31.611486,3.382707,3.0535607
-31.641724,3.3879628,3.064271
-31.67072,3.3952382,3.0784464
-31.701044,3.4001563,3.088653
-31.72919,3.4085424,3.1047788
-31.762667,3.4082866,3.1062813
-31.80458,3.3950858,3.0858827
-31.837982,3.3955202,3.0886521
-31.873348,3.39316,3.0867324
-31.899618,3.4043543,3.1078067
-31.935015,3.402176,3.1062808
-31.967447,3.4044092,3.112265
-32.00609,3.3981283,3.1039014
-32.04492,3.3919683,3.0957985
-32.072884,3.4006858,3.1128721
-32.10213,3.4075668,3.1268783
-32.134205,3.4107265,3.1346421
-32.171112,3.4078195,3.1322231
-32.21801,3.392746,3.109363
-32.256065,3.3891454,3.1058974
-32.289173,3.3917756,3.1129704
-32.31434,3.403882,3.1360211
-32.343285,3.4113562,3.1513133
-32.379444,3.4104915,3.152635
-32.40658,3.4199886,3.1714
-32.44402,3.4179206,3.1707993
-32.485374,3.4117908,3.1634483
-32.5394,3.3923724,3.1339097
-32.574345,3.393934,3.1395798
-32.600494,3.40481,3.1608768
-32.634026,3.4079301,3.1692405
-32.669804,3.4088526,3.1739812
-32.707443,3.4080517,3.1759
-32.749325,3.4032626,3.171227
-32.786232,3.403614,3.175187
-32.81514,3.411788,3.192225
-32.851097,3.4132476,3.1981306
-32.8866,3.415265,3.2050176
-32.941204,3.3998413,3.1829982
-32.9804,3.398978,3.185238
-33.008682,3.40808,3.2040591
-33.035297,3.4185877,3.2252421
-33.07041,3.4215937,3.2340436
-33.10913,3.4215984,3.237938
-33.14531,3.4239361,3.2457476
-33.182556,3.4255016,3.2523394
-33.213455,3.432454,3.2678714
-45.088486,0.8545542,0.31831312
-45.101242,0.9064834,0.42039585
-45.08884,0.96647954,0.5335746
-45.10158,1.0176258,0.6344161
-45.092514,1.0755723,0.74452114
-45.104416,1.1262436,0.8445635
-45.14367,1.1678357,0.93222857
-45.069283,1.2452629,1.0683522
-45.09364,1.29087,1.1612964
-45.137722,1.330157,1.2457933
-45.05734,1.407434,1.3809047
-45.163353,1.4274242,1.4397812
-45.052185,1.5126872,1.584898
-45.063633,1.5606036,1.6805658
-45.05268,1.6147842,1.7843332
-45.131306,1.6426959,1.8539867
-45.216526,1.7193973,2.0207458
-45.251,1.7599468,2.1070642
-46.317707,1.6222274,2.0439796
-46.525444,1.6195593,2.0795412
-46.728783,1.6190646,2.1186724
-45.067345,2.102538,2.747067
-45.121735,2.1361709,2.8245564
-45.15053,2.1763365,2.9100437
-45.173134,2.2179546,2.9973102
-45.19699,2.259139,3.0840912
-45.221165,2.3001294,3.170681
-45.267265,2.3357458,3.251102
-45.26393,2.3831117,3.3451185
-45.307014,2.4193459,3.426422
-45.353355,2.454846,3.5070477
-45.45882,2.4769108,3.5729332
-45.61428,2.4881308,3.6274137
-45.814316,2.4901605,3.6727042
-46.085823,2.4775083,3.7032938
-46.360497,2.4655573,3.7360897
-46.70044,2.4411023,3.7573075
-46.895355,2.448884,3.8136992
-47.146797,2.4458735,3.8601675
-48.664444,2.1855476,3.649807
-48.66513,2.23917,3.7589889
-48.666954,2.2923346,3.8676338
-48.659306,2.347129,3.9777584
-48.684677,2.3952906,4.081495
-49.21666,2.3472161,4.0962744
-49.88805,2.275884,4.0932927
-50.66054,2.1895185,4.0812464
-51.620026,2.0733836,4.0482855
-52.465355,1.9827902,4.0435185
-53.545937,1.8553629,4.0137134
-54.579502,1.7418568,4.00267
-3.0742989,1.0983934,2.8560648
-3.2069206,1.0460367,2.721797
-5.711876,1.4341393,3.0184393
-6.552807,1.522831,3.0327644
-6.895174,1.5207257,2.9603906
-6.919504,1.4585814,2.8284311
-8.434467,1.6268914,2.8729181
-8.864576,1.650836,2.8371315
-9.252979,1.6684308,2.796774
-9.252102,1.6068039,2.6717134
-9.26932,1.5487094,2.5504613
-7.0611496,1.012944,1.8938723
-9.141272,1.3336108,2.1399202
-9.145287,1.2712142,2.0131893
-9.409132,1.0769858,1.5719628
-9.398638,1.0103264,1.4402676
-9.398518,0.9457569,1.3109651
-9.373297,0.8746724,1.1735258
-18.635967,3.0722394,3.824792
-17.793,2.8209958,3.4813428
-18.786215,3.0374765,3.7276015
-19.75113,3.2527304,3.9767616
-19.822632,3.2379334,3.934197
-19.987728,3.2484312,3.9246576
-20.143349,3.257234,3.9135828
-20.197514,3.2390456,3.8677297
-20.439106,3.272997,3.8908594
-20.51767,3.262578,3.8560767
-20.56739,3.2442784,3.8110514
-20.730877,3.2588067,3.8102508
-20.881357,3.270445,3.806179
-20.965172,3.2632732,3.777153
-21.109726,3.2745485,3.7735777
-21.146177,3.2540345,3.7269607
-21.356888,3.2866673,3.7536478
-21.387165,3.2649243,3.7058635
-21.525362,3.2768292,3.704937
-21.563828,3.2580297,3.6616092
-21.768164,3.2922056,3.6927118
-21.78475,3.2670372,3.640923
-21.964493,3.2950115,3.6643562
-21.979568,3.269717,3.6127224
-22.158413,3.298968,3.6389236
-22.196964,3.2819567,3.5994725
-22.335297,3.2990594,3.6091728
-22.39959,3.2914112,3.5836072
-22.511623,3.3006754,3.5827298
-22.602104,3.302952,3.57205
-22.62137,3.2802722,3.52523
-22.785034,3.3095903,3.5545707
-22.824589,3.2946792,3.5194597
-22.915314,3.2987006,3.51235
-23.024134,3.3099427,3.5161886
-23.049671,3.2904172,3.4747105
-23.22825,3.3291583,3.5199895
-23.241407,3.305389,3.472518
-23.340927,3.315095,3.4751663
-23.412384,3.3143241,3.4623718
-23.452072,3.3012466,3.4312367
-23.563847,3.3172362,3.4440856
-23.644567,3.32129,3.4391847
-23.680218,3.307244,3.4070187
-23.757515,3.310535,3.4013205
-23.86398,3.3264828,3.4151478
-23.86095,3.2966146,3.3591585
-23.959883,3.3101845,3.3697572
-24.051348,3.3211317,3.376593
-24.072367,3.3017411,3.3369045
-24.155684,3.309859,3.3397455
-24.249489,3.3231642,3.3508387
-24.278442,3.3076913,3.3175054
-24.357227,3.3150012,3.3196645
-24.433453,3.3215847,3.320889
-24.48071,3.315058,3.301818
-24.503956,3.2973301,3.2653065
-24.663483,3.3446455,3.3308873
-24.699938,3.3338156,3.3054814
-24.70105,3.3057706,3.253018
-24.793823,3.3226495,3.271432
-24.85394,3.323878,3.265325
-24.908829,3.3227715,3.2556524
-24.95207,3.315974,3.2370644
-25.028397,3.326356,3.245884
-25.102947,3.3363075,3.254198
-25.119669,3.3162706,3.2148185
-25.190357,3.3248036,3.2211275
-25.271257,3.339286,3.2371259
-25.312,3.332479,3.2191577
-25.350716,3.3246593,3.199637
-25.417028,3.3322802,3.2050362
-25.468704,3.3320832,3.197978
-25.526392,3.3355517,3.1969428
-25.54207,3.3151674,3.1574526
-25.606367,3.3228636,3.163443
-25.655075,3.321802,3.155365
-25.728165,3.3354664,3.1713018
-25.746351,3.3166358,3.1345387
-25.817677,3.3299575,3.1501594
-25.878883,3.3375897,3.1566534
-25.917969,3.3318543,3.141437
-25.95518,3.325035,3.1245131
-25.997519,3.3215554,3.1131182
-26.078804,3.3433223,3.1432
-26.118324,3.3385913,3.1299477
-26.14858,3.3278625,3.1068993
-26.204174,3.3340096,3.111671
-26.269886,3.3473558,3.128415
-26.31948,3.350224,3.1280022
-26.357527,3.3453932,3.1149611
-26.399761,3.3435903,3.106988
-26.453156,3.3498578,3.1124482
-26.499882,3.35171,3.1106896
-26.535461,3.3457341,3.0960212
-26.573397,3.3415494,3.0843797
-26.612488,3.338326,3.0743976
-26.663431,3.344148,3.0795326
-26.709118,3.346313,3.0786662
-26.759663,3.3524835,3.0845575
-26.781399,3.3365145,3.0535693
-26.837738,3.347706,3.0679955
-26.880789,3.3487384,3.0655289
-26.92053,3.3473117,3.0590124
-26.980333,3.3625295,3.0804558
-26.99202,3.3382876,3.0358105
-27.053488,3.355585,3.0609064
-27.104198,3.364341,3.0717626
-27.137854,3.3587542,3.05858
-27.178108,3.3589985,3.0552592
-27.197878,3.3412201,3.0216322
-27.259857,3.361199,3.0516872
-27.310083,3.3711748,3.0649743
-27.350847,3.372846,3.0643187
-27.387217,3.3706164,3.0571332
-27.421215,3.3662503,3.046383
-27.460375,3.3669298,3.044219
-27.507736,3.3758533,3.0560799
-27.556635,3.3867493,3.071362
-27.588583,3.381032,3.0585384
-27.613949,3.3685775,3.0343156
-27.644373,3.3611887,3.0187225
-27.679245,3.3584461,3.011065
-27.73506,3.378251,3.0418124
-27.768824,3.3748403,3.0331345
-27.805109,3.374285,3.0293636
-27.836008,3.367838,3.0155983
-27.868628,3.363319,3.0051594
-27.902498,3.360277,2.9972806
-27.947418,3.370334,3.0118127
-27.985435,3.3726273,3.0131478
-28.020664,3.3717697,3.00915
-28.04832,3.3616636,2.989377
-28.082481,3.3595817,2.983366
-28.122494,3.3651042,2.9904199
-28.16484,3.3740427,3.0033832
-28.201605,3.3760495,3.0045257
-28.228859,3.3654177,2.9840412
-28.268665,3.3718734,2.9929032
-28.303211,3.3713436,2.98983
-28.350647,3.3894253,3.0187664
-28.383596,3.3872194,3.0129132
-28.421032,3.3917713,3.0187192
-28.44104,3.370189,2.9796262
-28.472937,3.3663163,2.9710145
-28.505487,3.3634832,2.9642305
-28.560604,3.3971834,3.0204
-28.58695,3.3849738,2.9975634
-28.6221,3.3872514,2.999721
-28.653248,3.3828835,2.9904642
-28.679823,3.3703926,2.9672322
-28.709335,3.3627894,2.9524589
-28.758598,3.3915474,3.0004787
-28.788986,3.386074,2.9894667
-28.82222,3.386013,2.9878373
-28.850058,3.375354,2.967935
-28.878122,3.3647578,2.9481697
-28.909891,3.36153,2.9411712
-28.945545,3.3666732,2.948687
-28.98544,3.381682,2.9733138
-29.021513,3.388994,2.9846754
-29.051971,3.3836877,2.9742403
-29.077484,3.3662121,2.9427662
-29.10908,3.363006,2.93603
-29.143764,3.3677344,2.9430733
-29.180147,3.3774724,2.9588385
-29.21431,3.3819056,2.965456
-29.252464,3.3982463,2.9927564
-29.276756,3.3747957,2.95111
-29.307835,3.3706205,2.9429126
-29.341763,3.375405,2.950292
-29.374222,3.3758383,2.9501615
-29.40906,3.3847587,2.964797
-29.444744,3.397733,2.9865098
-29.474648,3.390022,2.9723577
-29.501137,3.3680212,2.9334269
-29.532967,3.3663948,2.9299002
-29.569056,3.383693,2.9592776
-29.60228,3.3896828,2.9690557
-29.635046,3.3942728,2.9764404
-29.666939,3.3949766,2.9771104
-29.696798,3.3843348,2.9581022
-29.726337,3.370286,2.9332037
-29.75816,3.369238,2.9309316
-29.791235,3.377227,2.9444032
-29.823727,3.3823178,2.9528728
-29.85756,3.4004369,2.9840293
-29.887703,3.3867793,2.959979
-29.917595,3.3667207,2.9248319
-29.949278,3.3636737,2.9192944
-29.98122,3.363697,2.9191313
-30.014751,3.394202,2.9720078
-30.04573,3.3799396,2.947074
-30.077402,3.378217,2.9439812
-30.109276,3.3870437,2.9592686
-30.140846,3.37053,2.930523
-30.1727,3.3675559,2.9253588
-30.204533,3.3691509,2.9281745
-30.235592,3.3927581,2.9693055
-30.26678,3.4009924,2.9837365
-30.299097,3.3863835,2.9584794
-30.331146,3.3808289,2.9490023
-30.36358,3.3723686,2.9345093
-30.39448,3.3824203,2.95224
-30.424925,3.394541,2.9736
-30.456089,3.3982744,2.980411
-30.48848,3.3921351,2.9700947
-30.520311,3.3910563,2.9686103
-30.55342,3.3821042,2.9534793
-30.586926,3.372247,2.9368134
-30.617088,3.382353,2.9548745
-30.645575,3.3999798,2.986034
-30.675783,3.4072495,2.999228
-30.709068,3.3997128,2.9867373
-30.74278,3.3912752,2.972721
-30.779,3.373517,2.9425616
-30.810108,3.3776495,2.9504519
-30.837425,3.3957148,2.982561
-30.870546,3.3915887,2.976182
-30.89974,3.4013855,2.9940019
-30.932627,3.3984156,2.9897003
-30.968735,3.3856685,2.96848
-31.001272,3.3848555,2.968001
-31.03503,3.3806815,2.961732
-31.060179,3.4012017,2.9983087
-31.08792,3.413412,3.0205045
-31.12453,3.4016209,3.001143
-31.160877,3.3914099,2.9845643
-31.195906,3.3852265,2.9750075
-31.22886,3.3845272,2.97499
-31.251118,3.4088585,3.0183325
-31.286018,3.403424,3.0101857
-31.315516,3.4102871,3.0233545
-31.347387,3.4118605,3.0274072
-31.391674,3.3877187,2.9870434
-31.42432,3.3885193,2.9898481
-31.4523,3.3986316,3.0087786
-31.480064,3.4088073,3.0278468
-31.511742,3.4112968,3.0336723
-31.546297,3.40855,3.0304976
-31.589859,3.3899653,3.0000439
-31.621773,3.3927417,3.0064907
-31.654501,3.394157,3.0106292
-31.682343,3.403832,3.0290394
-31.714094,3.40685,3.0360107
-31.746408,3.4089932,3.0415125
-31.781149,3.4073944,3.0406122
-31.829643,3.384877,3.0037704
-31.862577,3.3868494,3.0091171
-31.884865,3.4046195,3.041656
-31.908077,3.4205222,3.071002
-31.944637,3.4170167,3.0670366
-31.98812,3.4041495,3.0470538
-32.032993,3.3900094,3.0249515
-32.063507,3.3958318,3.037148
-32.09036,3.4064386,3.0575786
-32.116997,3.417103,3.078135
-32.154842,3.4132884,3.073927
-32.19769,3.4035048,3.0595603
-32.24348,3.390594,3.0399094
-32.28077,3.3885577,3.0389166
-32.29979,3.4084892,3.0755005
-32.323933,3.4219415,3.1010318
-32.357452,3.4243267,3.1077003
-32.38974,3.4281907,3.1169338
-32.42654,3.4270728,3.1177182
-32.4764,3.4118109,3.0944676
-32.524986,3.3985615,3.0747256
-32.56277,3.3973827,3.0755916
-32.5915,3.4059052,3.093001
-32.619637,3.4149513,3.111331
-32.652527,3.4190664,3.1213222
-32.694866,3.4137557,3.1153698
-32.74105,3.4049692,3.103592
-32.784267,3.3994966,3.0975018
-32.819252,3.40226,3.1054177
-32.83861,3.419919,3.1385732
-32.869583,3.4264207,3.152883
-32.923214,3.4120457,3.1319842
-32.966484,3.407651,3.128017
-33.00003,3.4122682,3.1393108
-33.024536,3.4249365,3.1642108
-33.061943,3.4261909,3.1699262
-33.09479,3.4315162,3.182541
-33.13274,3.4325497,3.1879916
-33.175423,3.4297693,3.187096
-33.19561,3.4458575,3.217914
-45.06804,0.9554546,0.27911758
-45.08853,1.0044997,0.3775406
-45.101288,1.0557959,0.4791336
-45.10624,1.1092892,0.5837784
-45.095444,1.1674497,0.69490623
-45.058228,1.2335029,0.8169446
-45.122894,1.2669034,0.8932123
-45.05548,1.3413486,1.0266008
-45.140068,1.368298,1.0940151
-45.06877,1.4427276,1.2269421
-45.118332,1.4800565,1.3087335
-45.102062,1.5368624,1.4171386
-45.03732,1.6073875,1.543951
-45.082924,1.6451812,1.6263227
-45.084667,1.6954813,1.7255411
-45.07747,1.7479796,1.8276014
-45.18194,1.7689114,1.8877463
-45.223408,1.8075943,1.9716177
-45.254272,1.8491192,2.0592966
-46.47313,1.7298038,2.0468116
-46.55907,1.7601957,2.123188
-46.682602,1.7813096,2.188218
-45.118584,2.2247422,2.7802334
-45.151123,2.2639434,2.8645859
-45.170013,2.3064036,2.9530115
-45.193886,2.347521,3.0398078
-45.2162,2.3888953,3.1269474
-45.24542,2.4285362,3.212039
-45.23546,2.4771676,3.3078556
-45.303978,2.5075798,3.3821354
-45.348457,2.5435824,3.463191
-45.443558,2.5683699,3.5314813
-45.59907,2.580255,3.5854855
-45.822952,2.5780606,3.6243658
-46.039368,2.5785656,3.6673875
-46.317917,2.5670636,3.6982799
-46.62067,2.5519629,3.726716
-46.857697,2.5518494,3.7728896
-47.107292,2.5503676,3.8188748
-48.59487,2.30432,3.610117
-48.66381,2.3442254,3.7051964
-48.676254,2.395187,3.8118396
-48.687946,2.4461348,3.9184523
-48.673737,2.501771,4.029669
-48.98223,2.4976676,4.0828066
-49.628414,2.4338565,4.080928
-50.280487,2.37243,4.0852885
-51.195206,2.2683043,4.054611
-52.09886,2.1710005,4.035947
-53.049828,2.0704727,4.0203433
-54.108715,1.9569485,3.999879
-2.9738808,1.2240896,2.764946
-5.543972,1.6031637,3.0642948
-6.1427155,1.6413424,3.0307508
-6.8547897,1.7033858,3.0253248
-6.885021,1.6424906,2.8944945
-6.913252,1.5811131,2.7632194
-8.616299,1.7782393,2.8516665
-9.276501,1.8460138,2.8684754
-9.247877,1.7793765,2.7376099
-9.332092,1.7352281,2.6320772
-9.186056,1.6438141,2.4725165
-7.334181,1.194468,1.8958755
-9.309572,1.2312083,1.6135545
-9.41095,1.1906796,1.5136681
-9.396721,1.1234534,1.380724
-9.394751,1.0586898,1.2507162
-9.418961,0.9998288,1.1280999
-16.811497,2.7290823,3.2967567
-17.24316,2.7931821,3.3494453
-17.516933,2.8204556,3.356124
-18.747665,3.09059,3.6817489
-18.808483,3.06956,3.6291442
-18.788706,3.0278554,3.549333
-19.768543,3.2475872,3.818131
-19.88551,3.2446957,3.7922397
-19.99783,3.2411103,3.7658477
-20.1828,3.2577958,3.7673879
-20.201376,3.2297235,3.7085238
-20.450901,3.265861,3.7378259
-20.535473,3.2569752,3.7059464
-20.650639,3.2571685,3.6869445
-20.745934,3.2521913,3.6611376
-20.915337,3.2692897,3.6665764
-20.939934,3.2445412,3.613719
-21.133617,3.2702973,3.6323223
-21.18586,3.2543933,3.5924344
-21.35388,3.2740655,3.603454
-21.398203,3.2563992,3.5615468
-21.566355,3.277606,3.5756931
-21.594986,3.255584,3.527946
-21.780674,3.2838714,3.5532398
-21.799,3.2590246,3.5017705
-21.999302,3.2937434,3.537404
-22.041885,3.2774062,3.4987798
-22.189423,3.2963474,3.512218
-22.204662,3.2712843,3.4610806
-22.391613,3.3049917,3.4971251
-22.416353,3.2836185,3.451785
-22.581837,3.311556,3.480125
-22.606682,3.2906501,3.4357977
-22.71998,3.301409,3.439104
-22.8028,3.3017585,3.4270482
-22.834675,3.2838311,3.387578
-22.980425,3.3081198,3.4122105
-23.017298,3.2925193,3.376584
-23.165417,3.3191185,3.4054255
-23.237452,3.3175275,3.3915648
-23.28492,3.306752,3.3637977
-23.37309,3.312047,3.3608627
-23.456156,3.3157978,3.355781
-23.49715,3.3031452,3.3255448
-23.59518,3.3136487,3.3313007
-23.653759,3.3085897,3.3131242
-23.718666,3.306382,3.2995276
-23.838808,3.3275585,3.322618
-23.849806,3.3033996,3.2750435
-23.933228,3.30999,3.2757173
-24.017149,3.3172672,3.2776814
-24.061245,3.3076375,3.2531986
-24.109291,3.299859,3.231729
-24.231045,3.3251207,3.2626762
-24.271175,3.3144257,3.236884
-24.3456,3.3194444,3.2361536
-24.429605,3.3292947,3.2432952
-24.470425,3.319536,3.2193341
-24.538254,3.3225868,3.2159371
-24.573925,3.3106825,3.1887264
-24.668894,3.327361,3.2074695
-24.701597,3.3143883,3.1787415
-24.782001,3.3248882,3.1878934
-24.84823,3.3288517,3.1866765
-24.910637,3.331259,3.1830869
-24.926888,3.3105276,3.1421423
-25.009928,3.323948,3.1566238
-25.098927,3.341036,3.1772566
-25.11191,3.3188245,3.1341033
-25.167377,3.318959,3.1273875
-25.251305,3.33465,3.1461926
-25.319513,3.342416,3.1522188
-25.322742,3.3149228,3.100617
-25.408554,3.3329365,3.1236582
-25.457151,3.330711,3.1136265
-25.525938,3.3401518,3.1228843
-25.538092,3.3175294,3.0794406
-25.597273,3.3219583,3.080634
-25.655582,3.3262222,3.0816708
-25.715656,3.3318758,3.0851192
-25.743546,3.3185616,3.057253
-25.78524,3.3135731,3.0432334
-25.866156,3.3328178,3.0695434
-25.919716,3.3357348,3.068861
-25.949041,3.3237085,3.0433865
-26.012497,3.3333526,3.0540857
-26.074375,3.3424385,3.0639749
-26.12356,3.3436968,3.0608978
-26.157263,3.335009,3.0412598
-26.210577,3.3394175,3.04361
-26.260065,3.341571,3.042274
-26.319603,3.3508596,3.0530019
-26.359196,3.3468099,3.041419
-26.398207,3.3424711,3.02941
-26.447758,3.3457046,3.0302134
-26.511642,3.3595004,3.0489125
-26.54808,3.3539433,3.0350623
-26.575447,3.341798,3.010131
-26.617706,3.3406312,3.003797
-26.671665,3.3484492,3.0127392
-26.715363,3.348853,3.0092106
-26.765562,3.3544908,3.014627
-26.786678,3.3377466,2.9821262
-26.840485,3.3466525,2.993227
-26.887049,3.3501835,2.9952774
-26.928684,3.3500047,2.991085
-26.973387,3.3525453,2.991588
-26.989937,3.3318806,2.9525905
-27.054153,3.35113,2.9817128
-27.109694,3.3636646,2.9994802
-27.145235,3.3593836,2.9885964
-27.180807,3.3552036,2.9779325
-27.209019,3.3445413,2.9562163
-27.260796,3.3550732,2.9708424
-27.319471,3.3724117,2.997223
-27.35955,3.3731465,2.995213
-27.399073,3.3735628,2.9927115
-27.435253,3.3709855,2.9851203
-27.469128,3.366281,2.9739199
-27.536247,3.394336,3.0191326
-27.568468,3.3885567,3.0062003
-27.598545,3.3806138,2.9895792
-27.619982,3.363726,2.9575686
-27.659082,3.3649497,2.9568186
-27.707493,3.3762622,2.973538
-27.746704,3.378202,2.9741406
-27.786224,3.3807182,2.9757915
-27.808372,3.3641875,2.9445548
-27.838966,3.3568382,2.9292212
-27.87967,3.3610265,2.933897
-27.92612,3.372234,2.95079
-27.965641,3.3757699,2.954451
-28.0142,3.3905025,2.9775848
-28.025017,3.3596191,2.9216366
-28.05622,3.3532722,2.9082756
-28.099226,3.3618636,2.920897
-28.145206,3.3747814,2.9410963
-28.184443,3.3794606,2.9470377
-28.222466,3.3828588,2.9508014
-28.244587,3.364842,2.9173436
-28.272156,3.3538907,2.896202
-28.313198,3.3617892,2.9079218
-28.36181,3.38111,2.939602
-28.402868,3.3902266,2.9535618
-28.433607,3.3843608,2.9414449
-28.462597,3.3757334,2.924541
-28.495686,3.373333,2.9185357
-28.53383,3.379089,2.9268112
-28.577896,3.3949413,2.9527721
-28.610704,3.3928456,2.9474282
-28.641016,3.3865469,2.9347725
-28.668163,3.374592,2.9122567
-28.699041,3.3689125,2.9007416
-28.734203,3.3709714,2.9028044
-28.776169,3.3860765,2.9277463
-28.81224,3.39075,2.9344754
-28.844019,3.3873532,2.9271107
-28.869669,3.37152,2.8979874
-28.903088,3.3711634,2.8960133
-28.935131,3.368,2.889154
-28.974909,3.381832,2.9121366
-29.009611,3.3851423,2.9167109
-29.0415,3.3822522,2.9104457
-29.069798,3.370718,2.8890405
-29.099525,3.362159,2.8728857
-29.133425,3.3638732,2.8748007
-29.172031,3.3783236,2.8991237
-29.207945,3.386561,2.912579
-29.240536,3.3861296,2.9108434
-29.27212,3.3828583,2.904151
-29.301842,3.3738103,2.8873363
-29.331919,3.3653214,2.8715334
-29.37016,3.3833044,2.9023147
-29.405382,3.3925939,2.917852
-29.438322,3.3946383,2.9206824
-29.470156,3.3928504,2.9168057
-29.49856,3.3774166,2.8889484
-29.53026,3.374312,2.8828182
-29.564915,3.3840504,2.8993278
-29.600155,3.397814,2.9229631
-29.632063,3.3969328,2.9208531
-29.66305,3.3912177,2.910263
-29.693815,3.3836126,2.896377
-29.723867,3.3706713,2.8731227
-29.756247,3.3710942,2.8734388
-29.78888,3.3735714,2.877408
-29.823254,3.3904204,2.906733
-29.85534,3.3911,2.9076061
-29.887247,3.3903837,2.9060526
-29.918015,3.3769298,2.8820872
-29.949757,3.371936,2.8730621
-29.982,3.3729422,2.8746433
-30.015017,3.389326,2.9033585
-30.04703,3.3909936,2.9061737
-30.078722,3.3828752,2.8917737
-30.110607,3.3743439,2.8766804
-30.142704,3.3668818,2.8635044
-30.174887,3.3698654,2.868772
-30.206984,3.3734252,2.8750892
-30.23825,3.3987768,2.9198456
-30.270569,3.3881905,2.901297
-30.302511,3.3885415,2.9020581
-30.335188,3.3786168,2.8847437
-30.3677,3.3737092,2.876306
-30.399914,3.373324,2.8758712
-30.428606,3.4055521,2.9329333
-30.461876,3.3934977,2.912003
-30.494333,3.389907,2.9060197
-30.527103,3.3849242,2.8976183
-30.560863,3.374613,2.8798676
-30.59161,3.383582,2.8961105
-30.624218,3.3813162,2.892599
-30.65266,3.4007626,2.9273543
-30.684624,3.4011126,2.9285135
-30.71659,3.4015453,2.9298515
-30.751535,3.389302,2.9089117
-30.786076,3.3800998,2.8933644
-30.818073,3.3817754,2.8969975
-30.844873,3.4026341,2.9344153
-30.877832,3.400056,2.9306269
-30.907831,3.4078355,2.9450927
-30.944595,3.393209,2.920186
-30.982368,3.3767366,2.8920794
-31.015192,3.376478,2.8925195
-31.044329,3.3870287,2.911992
-31.073051,3.3981347,2.9324665
-31.104961,3.4000604,2.9368434
-31.137968,3.3991528,2.936277
-31.177197,3.3827944,2.9086175
-31.208698,3.3864455,2.916133
-31.23829,3.3945372,2.9314747
-31.266233,3.4060876,2.9529142
-31.296522,3.4118977,2.9643092
-31.331821,3.4066746,2.9563894
-31.368196,3.3996234,2.9453053
-31.406181,3.3897877,2.9293861
-31.437943,3.3930566,2.9364734
-31.467436,3.4007313,2.951312
-31.497025,3.4079967,2.9654632
-31.529827,3.409103,2.968862
-31.569248,3.3983335,2.951518
-31.608427,3.3886416,2.9361105
-31.640701,3.3914757,2.9426565
-31.666176,3.4058292,2.9693713
-31.69594,3.41262,2.982894
-31.729689,3.4128335,2.9849586
-31.761374,3.416459,2.9930196
-31.81011,3.3936565,2.9549918
-31.840778,3.3993814,2.966803
-31.87293,3.402823,2.9746666
-31.903429,3.408704,2.9868164
-31.93744,3.4094894,2.990121
-31.967798,3.415531,3.0026193
-32.009617,3.4057214,2.987557
-32.05034,3.3979166,2.9760408
-32.080048,3.4051735,2.9907746
-32.10713,3.4157631,3.0113316
-32.141617,3.4166496,3.0150547
-32.18056,3.4120662,3.0093222
-32.23239,3.3918638,2.976532
-32.269188,3.3907883,2.977003
-32.29912,3.398119,2.9920955
-32.31915,3.4170208,3.0272732
-32.350277,3.422635,3.0394459
-32.38696,3.4219189,3.0406952
-32.426975,3.4176557,3.0358558
-32.465496,3.415342,3.0344434
-32.518803,3.39723,3.005785
-32.556892,3.3960986,3.006536
-32.586895,3.403682,3.022377
-32.61285,3.4154027,3.0453863
-32.64476,3.4208705,3.0576425
-32.691784,3.4111507,3.043775
-32.744083,3.3966644,3.0217762
-32.77437,3.4042645,3.0378537
-32.80361,3.4128315,3.0556278
-32.836456,3.4179125,3.0674453
-32.870193,3.4221964,3.0779352
-32.91491,3.4164069,3.0711884
-32.970497,3.4010699,3.0481462
-32.99909,3.4105558,3.0677123
-33.028015,3.4196703,3.0866733
-33.055786,3.429728,3.1072793
-33.090977,3.4333131,3.1168542
-33.129726,3.4339597,3.1214595
-33.165432,3.4373252,3.1307583
-33.20009,3.4416597,3.1417575
-45.081814,1.0995638,0.34368372
-45.09971,1.1489284,0.44290733
-45.109825,1.200475,0.5452595
-45.141857,1.2447731,0.6371012
-45.093296,1.3139861,0.7647438
-45.10607,1.3635685,0.8640375
-45.138382,1.4069057,0.9543958
-45.080475,1.4772112,1.0830054
-45.037346,1.5423381,1.20399
-45.153694,1.5599539,1.2580013
-45.06319,1.638051,1.3968968
-45.191208,1.6524904,1.4468241
-45.0797,1.7353392,1.5918174
-45.066032,1.7896893,1.6970439
-45.070488,1.8385966,1.7946754
-45.151344,1.8663225,1.863399
-45.189056,1.9059103,1.948431
-45.22162,1.9468019,2.0352888
-46.49414,1.8195763,2.0014963
-46.52465,1.8641787,2.0960002
-46.79458,1.8494449,2.1137066
-45.071896,2.322726,2.7600627
-45.148064,2.3512397,2.8306937
-45.168785,2.3931584,2.9185781
-45.197292,2.4331167,3.004012
-45.209267,2.4768271,3.0941806
-45.22246,2.5200827,3.1837611
-45.26043,2.5575829,3.2662697
-45.3139,2.5916238,3.3446808
-45.35459,2.6285563,3.4267583
-45.44024,2.655768,3.4973698
-45.61573,2.6640763,3.5460167
-45.779793,2.6756134,3.5992613
-46.03242,2.6695142,3.632887
-46.28911,2.6638565,3.6682687
-46.6015,2.64825,3.693694
-46.86829,2.6433191,3.732654
-47.06616,2.6532238,3.7893672
-47.28705,2.6596174,3.8432708
-48.673405,2.44552,3.6613674
-48.70801,2.4922574,3.7637033
-48.682026,2.5501404,3.8777905
-48.654213,2.607989,3.9916048
-48.731163,2.6467457,4.085847
-49.269558,2.6045847,4.0999446
-50.01377,2.5296357,4.0851984
-50.83028,2.4463496,4.06699
-51.72123,2.3549538,4.0462146
-52.589226,2.2720852,4.0389223
-53.54254,2.1800058,4.028878
-54.731045,2.0555556,3.9964972
-2.921568,1.3765631,2.6846056
-5.5144253,1.744307,2.99434
-6.57666,1.8597801,3.0485177
-6.881117,1.8468583,2.968999
-6.8803787,1.7805042,2.8321724
-7.7274284,1.8687868,2.8679686
-9.072981,1.9934325,2.8931255
-9.268253,1.9697998,2.8111324
-9.244389,1.9044588,2.6811337
-9.27029,1.8485196,2.5620708
-9.265379,1.475555,1.8015862
-9.390572,1.3767614,1.5799747
-9.418533,1.3196819,1.4595504
