x,y,z
-31.561733,2.9373422,4.0171323
-31.589195,2.9397397,4.0236454
-31.620909,2.9333663,4.020344
-31.6515,2.9296103,4.020088
-31.682486,2.9253123,4.019315
-31.702583,2.9424994,4.042775
-31.734537,2.936469,4.0402174
-31.764273,2.9349272,4.0427904
-31.793028,2.9353497,4.0476513
-31.827652,2.9252126,4.0407906
-31.878939,2.8858137,4.00138
-31.909927,2.8834274,4.003437
-31.9435,2.876769,4.0008326
-31.974636,2.8745694,4.0032935
-32.00992,2.8656268,3.9983659
-32.041588,2.8629985,4.000555
-32.07447,2.858605,4.0008893
-32.106667,2.8555484,4.002807
-32.141685,2.8482656,4.000164
-32.175644,2.8429432,3.9997973
-32.207687,2.8408008,4.0030417
-32.241425,2.836297,4.003793
-32.274834,2.83251,4.0054426
-32.31211,2.8233168,4.0012856
-32.34658,2.818522,4.002064
-32.381577,2.8132246,4.00241
-32.42017,2.8031669,3.9976954
-32.454536,2.7993145,3.9998593
-32.484512,2.801633,4.0088305
-32.512653,2.806457,4.0206037
-32.543472,2.8077307,4.028624
-19.566368,0.81289124,4.15204
-19.811367,0.890471,4.1608562
-19.999527,0.94152045,4.154095
-20.141636,0.970747,4.1342196
-20.328754,1.0234475,4.131039
-20.49906,1.0688038,4.124195
-20.70197,1.1319213,4.130693
-20.877857,1.1824458,4.129893
-21.084368,1.250052,4.142251
-21.258911,1.3023009,4.145189
-21.348133,1.3105516,4.117907
-21.518316,1.3624318,4.1226263
-21.684513,1.4133146,4.1277647
-21.784534,1.4294109,4.1084585
-21.92321,1.4672,4.105858
-22.13633,1.546973,4.1355624
-22.197453,1.5437646,4.1040845
-22.367329,1.6017892,4.1195445
-22.508753,1.6449442,4.124706
-22.592834,1.656353,4.1062074
-22.73897,1.7039123,4.1164002
-22.848255,1.731133,4.111534
-22.98041,1.77244,4.1184964
-23.029808,1.7658298,4.088031
-23.197704,1.8298908,4.1146445
-23.287952,1.8486489,4.1056266
-23.418907,1.8926082,4.117694
-23.499819,1.9069747,4.1062536
-23.61177,1.9409305,4.1114726
-23.66803,1.941078,4.0892067
-23.78157,1.977345,4.0975027
-23.853745,1.9882991,4.085116
-23.952602,2.0166702,4.0879073
-24.068605,2.0567703,4.101286
-24.184013,2.097391,4.115794
-24.271599,2.1207094,4.116018
-24.371628,2.1528518,4.124406
-24.480907,2.1919208,4.1394205
-24.51286,2.1798923,4.110115
-24.617632,2.2172236,4.12459
-24.706348,2.2444227,4.1306467
-24.741089,2.2350285,4.10447
-24.838001,2.2689543,4.1173697
-24.911156,2.2869768,4.116436
-24.967422,2.293523,4.105464
-25.046558,2.3167338,4.109972
-25.128181,2.3423424,4.1170974
-25.177443,2.3450022,4.1035056
-25.234419,2.3535583,4.095599
-25.337597,2.3967392,4.1201763
-25.379353,2.3948698,4.103216
-25.427372,2.3978677,4.091002
-25.525007,2.4389591,4.1149197
-25.566433,2.4376774,4.0992355
-25.623545,2.448732,4.0954547
-25.69334,2.4701147,4.1018076
-25.754028,2.4848466,4.1021295
-25.809788,2.4960713,4.0993633
-25.843414,2.489787,4.079931
-25.92138,2.5197046,4.095754
-25.978508,2.533195,4.0959663
-26.017155,2.5317278,4.0818133
-26.06293,2.5363703,4.073811
-26.146559,2.573361,4.0978727
-26.186779,2.574051,4.0864625
-26.225704,2.5737796,4.074258
-26.272175,2.5802422,4.068912
-26.332905,2.59957,4.076616
-26.386475,2.613048,4.078736
-26.421318,2.610074,4.0645447
-26.47638,2.6255832,4.0691323
-26.54392,2.6530294,4.08605
-26.592915,2.6639545,4.086506
-26.63274,2.6666384,4.078775
-26.679031,2.6756506,4.077665
-26.741049,2.7000713,4.0925403
-26.793299,2.7156842,4.098644
-26.820944,2.7076604,4.0806017
-26.87341,2.7241755,4.0880156
-26.920452,2.7357562,4.090539
-26.969543,2.749796,4.095813
-27.0167,2.762298,4.0996895
-27.045301,2.7560055,4.084109
-27.091059,2.767653,4.0874233
-27.13551,2.7783108,4.089881
-27.18409,2.7937593,4.0975637
-27.22703,2.8035836,4.0995064
-27.252262,2.7943614,4.081446
-27.28658,2.7951133,4.0740423
-27.330763,2.8070774,4.0786877
-27.377308,2.8221278,4.086798
-27.418978,2.832064,4.0896273
-27.447807,2.8274336,4.0770063
-27.479202,2.8258317,4.0677257
-27.5116,2.8255036,4.0599165
-27.554296,2.8377113,4.065735
-27.609398,2.8655005,4.088559
-27.640446,2.8643587,4.0802765
-27.669117,2.860328,4.0689554
-27.693136,2.8504038,4.0513096
-27.729874,2.8566918,4.051392
-27.771547,2.8696952,4.058935
-27.814342,2.8846445,4.0687637
-27.850565,2.8913178,4.0696807
-27.879986,2.889062,4.060917
-27.90987,2.8874922,4.052997
-27.942802,2.890245,4.0499306
-27.975672,2.8930976,4.047083
-28.022446,2.9161005,4.0666265
-28.053751,2.9173625,4.062265
-28.082127,2.9144487,4.0533657
-28.11217,2.9140549,4.0473504
-28.145016,2.9180295,4.046288
-28.181347,2.92762,4.051594
-28.217104,2.9367132,4.0564685
-28.257702,2.953915,4.0705338
-28.285805,2.9515493,4.0628233
-28.31281,2.9474096,4.0532026
-28.341352,2.9458117,4.0465107
-28.371729,2.9473848,4.0434694
-28.403498,2.9515243,4.0434103
-28.444714,2.9725127,4.0624585
-28.476503,2.977486,4.0635624
-28.505112,2.9769535,4.058536
-28.528332,2.9665284,4.042386
-28.558674,2.9692602,4.04121
-28.590258,2.9745786,4.0430617
-28.617573,2.9718559,4.035868
-28.663157,3.0055451,4.0701947
-28.6896,3.001758,4.061983
-28.719435,3.004949,4.0618024
-28.742353,2.9937596,4.045286
-28.772469,2.9977324,4.046156
-28.8025,3.0017912,4.047213
-28.833569,3.0084608,4.0513487
-28.866707,3.020276,4.0614796
-28.895582,3.022705,4.0609384
-28.920446,3.015716,4.049657
-28.94852,3.016394,4.0472546
-28.976572,3.0171478,4.0450172
-29.004107,3.0167072,4.0414805
-29.033806,3.0220623,4.044703
-29.072334,3.0516865,4.076022
-29.097702,3.046403,4.067148
-29.122707,3.0399067,4.0569344
-29.14782,3.0334716,4.046854
-29.175585,3.0347624,4.045781
-29.203526,3.0367675,4.0456104
-29.230818,3.0369282,4.0433793
-29.257124,3.03396,4.0375876
-29.293495,3.065021,4.0713778
-29.318668,3.0590062,4.0622087
-29.343231,3.050486,4.0501885
-29.368113,3.042667,4.0390434
-29.395617,3.0445476,4.0392494
-29.424198,3.0510025,4.044856
-29.451115,3.0511017,4.043134
-29.477873,3.0506272,4.0408154
-29.508055,3.0656834,4.056682
-29.534403,3.0640678,4.053179
-29.559465,3.0560703,4.0422926
-29.58467,3.0481343,4.031539
-29.611677,3.049298,4.0314803
-29.638885,3.0518236,4.033085
-29.666365,3.0563593,4.0371113
-29.69467,3.0667863,4.0481024
-29.722492,3.0753498,4.05699
-29.74908,3.0762258,4.0569534
-29.774305,3.0668166,4.044942
-29.800165,3.0613537,4.037615
-29.827274,3.0663164,4.0425673
-29.853891,3.0674639,4.0431194
-29.879822,3.0615542,4.035468
-29.90776,3.0783901,4.0545483
-29.934372,3.0816905,4.057832
-29.96041,3.0772803,4.052142
-29.986267,3.068398,4.0412726
-30.01247,3.0634723,4.0351095
-30.03886,3.0612078,4.032135
-30.065365,3.061604,4.0323505
-30.091862,3.0620694,4.032713
-30.118507,3.076873,4.0499682
-30.144869,3.0852585,4.05976
-30.171202,3.0761979,4.0491495
-30.197807,3.0607193,4.031076
-30.224495,3.053093,4.022285
-30.251368,3.044239,4.012122
-30.277807,3.0490732,4.018086
-30.303818,3.0604582,4.0318017
-30.32954,3.073205,4.0471783
-30.355862,3.0743487,4.0490117
-30.382318,3.0736153,4.0487127
-30.410175,3.0574005,4.0303335
-30.437822,3.0464435,4.0181923
-30.464487,3.0465696,4.0191107
-30.490622,3.0512962,4.025488
-30.51635,3.0586782,4.0350394
-30.542206,3.0641825,4.0424566
-30.56806,3.069105,4.0492573
-30.595114,3.0656874,4.0463657
-30.62433,3.049416,4.02851
-30.652628,3.0403342,4.019142
-30.680395,3.035203,4.01447
-30.707157,3.0359545,4.0167456
-30.734295,3.0348408,4.0169115
-30.757164,3.054428,4.0413127
-30.783743,3.0553784,4.044018
-30.812353,3.047381,4.0363574
-30.841415,3.0381756,4.027369
-30.869707,3.032911,4.023053
-30.898914,3.0245104,4.015163
-30.924221,3.0316079,4.02539
-30.951504,3.031064,4.0267916
-30.975187,3.0434215,4.04326
-31.002573,3.0423713,4.044209
-31.034603,3.026021,4.027473
-31.06297,3.0225682,4.025795
-31.091816,3.017914,4.0228024
-31.119703,3.0165348,4.0236835
-31.147194,3.0165076,4.0262055
-31.172037,3.024207,4.0377374
-31.195162,3.036427,4.054552
-31.229479,3.0174994,4.0354543
-31.262712,3.002497,4.020995
-31.289389,3.0053911,4.02727
-31.31952,2.9994657,4.0234556
-31.35028,2.9923584,4.0183716
-31.37804,2.992943,4.0222206
-31.408203,2.9879062,4.0196886
-31.43683,2.986749,4.021697
-31.465767,2.9850388,4.0231514
-31.496447,2.9796243,4.020446
-31.52463,2.979969,4.0244193
-31.55429,2.9772434,4.0249634
-31.585217,2.9720883,4.0228205
-31.614712,2.970162,4.0244513
-31.645191,2.9664373,4.0241194
-31.677969,2.9584186,4.018995
-31.702501,2.9667568,4.0325556
-31.729853,2.969532,4.0398626
-31.759844,2.9673903,4.0416727
-31.787506,2.9696937,4.048602
-31.817211,2.9683397,4.0514746
-31.85432,2.9540305,4.0398097
-31.89312,2.9373639,4.025613
-31.92644,2.9307342,4.022855
-31.96907,2.9087534,4.002944
-32.00055,2.9060564,4.0048404
-32.037003,2.89544,3.9979558
-32.069824,2.8910956,3.9982147
-32.10429,2.8843927,3.995942
-32.138885,2.8777978,3.9939046
-32.170815,2.875597,3.9968767
-32.202797,2.8734908,4.0000534
-32.238113,2.8665977,3.998014
-32.269825,2.8652985,4.002295
-32.303677,2.8610525,4.003414
-32.337193,2.8575182,4.00543
-32.372944,2.851057,4.0043287
-32.41057,2.8422918,4.00081
-32.447037,2.8354607,3.9995508
-32.478714,2.8353744,4.0058165
-32.50724,2.8395896,4.016892
-32.53388,2.8462825,4.0307574
-32.588203,2.8171062,4.0055723
-19.252245,0.81994534,4.1599264
-19.450993,0.87154675,4.1506853
-19.643955,0.9215877,4.1418447
-19.926277,1.0161004,4.163819
-20.051437,1.0357652,4.1376944
-20.200459,1.0678453,4.1208224
-20.47676,1.16401,4.1489024
-20.681,1.2260139,4.155276
-20.857239,1.2752306,4.1541123
-20.956524,1.286387,4.127202
-21.099667,1.3205559,4.117384
-21.309805,1.3902948,4.1342196
-21.448511,1.4241924,4.126337
-21.564198,1.446825,4.111061
-21.737146,1.5005326,4.1196346
-21.929337,1.565731,4.13798
-21.998966,1.5661068,4.1085153
-22.150269,1.611242,4.1136417
-22.354383,1.6864176,4.1428947
-22.412582,1.6822944,4.111876
-22.590729,1.7453678,4.1338162
-22.650225,1.7429142,4.105154
-22.79715,1.7903463,4.1165233
-22.906347,1.8172112,4.112317
-23.019188,1.846881,4.111039
-23.130816,1.8765891,4.110473
-23.231678,1.9007106,4.1059976
-23.332197,1.9252752,4.102481
-23.43,1.9488641,4.098742
-23.536894,1.9785703,4.1006966
-23.65431,2.0154161,4.1093
-23.733803,2.0298395,4.0995665
-23.852627,2.0690842,4.1114783
-23.894459,2.061134,4.083516
-24.043198,2.1206164,4.1140714
-24.10311,2.1248884,4.09747
-24.248955,2.1845436,4.1296616
-24.284077,2.1738248,4.100745
-24.418095,2.2276573,4.1291447
-24.49654,2.2460518,4.126761
-24.539625,2.2414756,4.104221
-24.659252,2.288311,4.128174
-24.702805,2.2847285,4.1071577
-24.78315,2.3063722,4.109296
-24.892395,2.3484914,4.130594
-24.926807,2.3395631,4.105559
-25.00402,2.3606606,4.1084023
-25.080894,2.3820822,4.111951
-25.128807,2.3833938,4.097131
-25.203722,2.4043608,4.100955
-25.283955,2.4297564,4.109335
-25.336342,2.4353566,4.0993986
-25.404013,2.452553,4.100724
-25.480438,2.476784,4.1091013
-25.535038,2.4851637,4.102668
-25.588802,2.4932299,4.096185
-25.637642,2.497825,4.0865912
-25.725754,2.5331616,4.1070623
-25.761354,2.5281718,4.088673
-25.811092,2.5344326,4.08143
-25.890013,2.5642908,4.0975924
-25.94991,2.5795364,4.099736
-25.97865,2.569849,4.077471
-26.018627,2.5693717,4.0644493
-26.103998,2.606751,4.089348
-26.159107,2.6196313,4.090149
-26.18584,2.6088684,4.067444
-26.246403,2.6269956,4.073942
-26.298447,2.6382716,4.073788
-26.360935,2.6590452,4.083501
-26.385752,2.647148,4.0602293
-26.445316,2.6661236,4.0685687
-26.49413,2.6759531,4.0678015
-26.570131,2.7108665,4.093031
-26.594225,2.698927,4.0702977
-26.649647,2.7159805,4.0776234
-26.698227,2.7271097,4.0790434
-26.756035,2.747372,4.090171
-26.810558,2.7650554,4.0988626
-26.854902,2.773386,4.0979986
-26.89103,2.7739773,4.0891876
-26.940825,2.7882586,4.0949183
-26.991491,2.8038597,4.102249
-27.02504,2.8025987,4.0919437
-27.05859,2.8014412,4.0818644
-27.097105,2.8055286,4.077479
-27.149197,2.8240628,4.088646
-27.1912,2.832461,4.0891905
-27.230356,2.8381286,4.086969
-27.259293,2.8329678,4.073255
-27.29462,2.834825,4.067189
-27.339813,2.847807,4.0732574
-27.38735,2.8638566,4.082821
-27.425888,2.8701828,4.082029
-27.452637,2.8632164,4.066925
-27.488522,2.8668466,4.0634394
-27.52482,2.8711782,4.0608454
-27.568895,2.8850253,4.0687876
-27.613197,2.8996181,4.0777173
-27.646152,2.9008021,4.0720835
-27.675255,2.897358,4.0614614
-27.706285,2.8963633,4.0536275
-27.740112,2.8990211,4.0499277
-27.78217,2.912489,4.0583105
-27.823517,2.925508,4.066351
-27.854258,2.9249372,4.0594363
-27.883656,2.9226615,4.0507174
-27.915274,2.9234653,4.0455194
-27.94947,2.9279647,4.044552
-27.992588,2.9452055,4.0579596
-28.033262,2.9595847,4.0683193
-28.061102,2.9559903,4.058634
-28.08899,2.9524713,4.0491104
-28.121819,2.9562979,4.047945
-28.155773,2.9620457,4.049051
-28.192785,2.9727626,4.0558853
-28.229984,2.9842098,4.063672
-28.262325,2.9884596,4.063424
-28.288857,2.9836426,4.05298
-28.315836,2.979506,4.0433807
-28.345833,2.9803433,4.039518
-28.37872,2.986177,4.041441
-28.416874,3.0013323,4.054114
-28.454388,3.0159993,4.0663586
-28.485008,3.0190754,4.065458
-28.509733,3.011743,4.0527143
-28.53525,3.0057063,4.041518
-28.564508,3.006545,4.03829
-28.594389,3.0087054,4.0366654
-28.62518,3.0128138,4.037372
-28.667217,3.0393934,4.0640907
-28.694843,3.0381072,4.058778
-28.720053,3.031908,4.047861
-28.747446,3.03014,4.0421343
-28.776905,3.0328186,4.0416327
-28.804583,3.031826,4.0369577
-28.839293,3.0465655,4.050622
-28.872898,3.059534,4.062338
-28.899513,3.0569139,4.0560255
-28.924314,3.0499637,4.044741
-28.950521,3.0462186,4.0372524
-28.982346,3.056395,4.046069
-29.010021,3.05658,4.0433164
-29.04106,3.0656738,4.0510464
-29.074514,3.0818071,4.0671005
-29.10123,3.0803413,4.0626607
-29.126171,3.073883,4.0524435
-29.151657,3.0687525,4.0438423
-29.179562,3.0706587,4.043559
-29.20763,3.0732741,4.0441837
-29.234838,3.0734262,4.0419903
-29.265352,3.0844543,4.052653
-29.295845,3.0962064,4.0642548
-29.320791,3.0895896,4.054325
-29.347095,3.0874925,4.049778
-29.372398,3.0816388,4.0408707
-29.399958,3.084139,4.041876
-29.427626,3.0873513,4.043794
-29.454918,3.0893607,4.044366
-29.484097,3.09975,4.054906
-29.511795,3.104467,4.0588236
-29.537895,3.1022203,4.054584
-29.563112,3.09556,4.045191
-29.587946,3.0864005,4.032901
-29.61485,3.0875533,4.032877
-29.641724,3.088776,4.0330048
-29.669325,3.0945587,4.038603
-29.697527,3.104906,4.0496826
-29.724384,3.1076288,4.0518007
-29.750378,3.104642,4.047218
-29.776087,3.0991526,4.0397315
-29.803686,3.1085062,4.049917
-29.829308,3.1018653,4.0411973
-29.85551,3.0997891,4.037957
-29.882172,3.1022818,4.0402074
-29.909327,3.1112757,4.0502453
-29.935635,3.1113338,4.049741
-29.961428,3.1037388,4.0402126
-29.98743,3.097496,4.0323544
-30.014408,3.1093416,4.046052
-30.040545,3.1051643,4.04078
-30.06706,3.1113544,4.0478926
-30.09312,3.1008742,4.035263
-30.119629,3.1136389,4.050322
-30.145876,3.1123068,4.0486956
-30.172123,3.1142616,4.0510416
-30.198483,3.1072702,4.0428224
-30.224903,3.102922,4.0378103
-30.25145,3.0973544,4.031417
-30.27753,3.1047297,4.040468
-30.304163,3.099299,4.034371
-30.32965,3.1138859,4.0521193
-30.355745,3.1163113,4.0554857
-30.382164,3.1143007,4.0536494
-30.410416,3.0924215,4.0282917
-30.436325,3.0982685,4.0359225
-30.462547,3.1003237,4.0391164
-30.488888,3.101161,4.0409317
-30.51611,3.094999,4.0345116
-30.542137,3.0985427,4.0396705
-30.568104,3.1021523,4.044973
-30.595098,3.0987682,4.0420527
-30.623945,3.0845513,4.026368
-30.649172,3.092856,4.0374346
-30.67577,3.0928907,4.038772
-30.703966,3.0846672,4.030404
-30.73129,3.081643,4.028263
-30.755985,3.0914898,4.0414114
-30.78317,3.0892434,4.040326
-30.811134,3.0838737,4.0356226
-30.83996,3.0753856,4.0273123
-30.867844,3.0714471,4.024451
-30.894003,3.074602,4.030029
-30.921976,3.0708098,4.027485
-30.948097,3.074102,4.0333614
-30.973259,3.0806434,4.043128
-30.99999,3.0815206,4.046292
-31.034424,3.0570388,4.0197067
-31.06276,3.0536294,4.017992
-31.09055,3.0522008,4.01868
-31.119217,3.0483103,4.016554
-31.14537,3.0521023,4.023514
-31.168804,3.0635576,4.039518
-31.195223,3.0662098,4.0452685
-31.229296,3.0480776,4.0267725
-31.260603,3.03826,4.018103
-31.288671,3.0373645,4.019947
-31.316765,3.0365448,4.0219545
-31.347445,3.0295076,4.0167904
-31.376167,3.0275893,4.0176783
-31.405472,3.0244946,4.017277
-31.434294,3.022737,4.018512
-31.463438,3.0204318,4.0191927
-31.492636,3.0182085,4.020049
-31.522465,3.0148163,4.019634
-31.552069,3.0121336,4.020126
-31.581432,3.010158,4.0215206
-31.612072,3.0057745,4.020216
-31.640614,3.0058331,4.0241294
-31.670757,3.0028646,4.0246315
-31.694813,3.0117702,4.038894
-31.724981,3.0089588,4.039738
-31.752533,3.0111842,4.0464554
-31.784142,3.006069,4.0448275
-31.817932,2.9973464,4.039162
-31.85365,2.9856489,4.0302024
-31.889946,2.973452,4.02079
-31.920673,2.971201,4.0228486
-31.953663,2.9653592,4.0209084
-31.986399,2.9602313,4.0198827
-32.026436,2.9435866,4.0058737
-32.05487,2.9460015,4.013633
-32.086784,2.943009,4.015346
-32.117188,2.9425454,4.0200186
-32.154423,2.9318433,4.013216
-32.19673,2.9139879,3.9984756
-32.2332,2.9053612,3.9942799
-32.26609,2.90229,3.9964533
-32.29863,2.8999221,3.9995193
-32.33336,2.8946414,3.9994254
-32.367332,2.890672,4.0009117
-32.402267,2.8856075,4.001287
-32.44041,2.8764625,3.997231
-32.4738,2.8740177,4.000762
-32.498627,2.8830066,4.017097
-32.528824,2.88491,4.0256395
-32.560856,2.8845234,4.031741
-19.127544,0.8788099,4.1637263
-19.299805,0.91606,4.145191
-19.496058,0.965574,4.135976
-19.738657,1.0382373,4.143649
-19.931019,1.0884812,4.137868
-20.116745,1.1367211,4.1320586
-20.322556,1.1958711,4.1351023
-20.467575,1.2265699,4.1196322
-20.671257,1.2870941,4.1262727
-20.88868,1.3558066,4.140182
-21.060188,1.4029262,4.139961
-21.217552,1.4439809,4.1364603
-21.335564,1.465925,4.1198945
-21.518929,1.5222106,4.12968
-21.673052,1.5645473,4.130192
-21.772327,1.5791402,4.1106405
-21.943836,1.632443,4.1213593
-22.077312,1.6666543,4.11844
-22.18637,1.6885927,4.106796
-22.365932,1.7493997,4.1263847
-22.474953,1.772934,4.117584
-22.589375,1.8001059,4.1123543
-22.69447,1.8228106,4.104223
-22.8106,1.852346,4.1022663
-22.95134,1.8965636,4.1130238
-23.023113,1.9024225,4.0930376
-23.174875,1.9546707,4.1119556
-23.24376,1.959933,4.0925274
-23.415787,2.0259314,4.124604
-23.473003,2.0254772,4.101416
-23.564075,2.0454154,4.0959206
-23.646235,2.060564,4.086826
-23.781221,2.108235,4.1063037
-23.865788,2.1261148,4.100664
-23.967865,2.1553297,4.1054144
-24.059496,2.1787667,4.1056542
-24.123957,2.185763,4.0918355
-24.253109,2.234076,4.1151733
-24.344345,2.2592142,4.1184855
-24.432924,2.2832868,4.1213365
-24.497835,2.2925863,4.111279
-24.57007,2.307055,4.1062603
-24.674057,2.3430102,4.1213074
-24.730116,2.3477697,4.1081896
-24.809649,2.368635,4.110255
-24.894703,2.3938236,4.11676
-24.957499,2.4043684,4.1100183
-25.015766,2.412151,4.100989
-25.096241,2.4357862,4.107209
-25.172028,2.4567275,4.111291
-25.22894,2.4647865,4.1034765
-25.308388,2.4893718,4.1117578
-25.357128,2.4923053,4.0996146
-25.415615,2.5026026,4.0948033
-25.505959,2.536817,4.1134768
-25.545195,2.5337024,4.0962386
-25.599606,2.5421252,4.0904474
-25.664124,2.5585618,4.0927796
-25.729717,2.5763028,4.0967054
-25.7619,2.5686445,4.0757847
-25.831787,2.5905094,4.084335
-25.911972,2.6210976,4.1019306
-25.957838,2.6250517,4.093234
-25.995716,2.6228037,4.078491
-26.04539,2.6302614,4.0736914
-26.11181,2.6517875,4.083357
-26.175922,2.6719768,4.0919757
-26.207636,2.6655598,4.0737457
-26.248981,2.6673207,4.0639944
-26.308607,2.6848998,4.0706544
-26.373568,2.7075949,4.0828543
-26.410095,2.706082,4.070322
-26.454666,2.7117767,4.0654006
-26.504032,2.7220068,4.0653763
-26.58672,2.7625895,4.0972424
-26.613676,2.753467,4.077463
-26.667767,2.769239,4.083904
-26.71145,2.775814,4.0808907
-26.76268,2.7897558,4.0858307
-26.814827,2.805003,4.092369
-26.857391,2.8115253,4.089858
-26.900402,2.8187563,4.088266
-26.952415,2.8351102,4.0965867
-27.000729,2.8482893,4.101723
-27.035864,2.8486843,4.0933294
-27.070415,2.8486266,4.084569
-27.107157,2.8509436,4.07849
-27.159172,2.8692808,4.0898776
-27.205965,2.8826933,4.096137
-27.237986,2.880868,4.086012
-27.269484,2.8785672,4.075473
-27.308393,2.8843875,4.073907
-27.342997,2.885741,4.0675907
-27.39465,2.9062142,4.0823746
-27.426434,2.904942,4.073449
-27.461267,2.907237,4.068557
-27.495035,2.9084826,4.062622
-27.528763,2.9098325,4.0569143
-27.575748,2.9270172,4.068885
-27.616562,2.9373674,4.073441
-27.649454,2.938497,4.067873
-27.678488,2.9350371,4.057287
-27.719368,2.946347,4.063305
-27.754425,2.9507322,4.0617123
-27.793543,2.960539,4.0663223
-27.83338,2.9716601,4.072549
-27.860365,2.9663336,4.0603824
-27.884748,2.9575164,4.044349
-27.922935,2.9671888,4.049284
-27.958319,2.9734137,4.050446
-27.999596,2.9881082,4.0613356
-28.037193,2.9981623,4.067099
-28.067041,2.9975586,4.0608563
-28.095226,2.9946406,4.052062
-28.124264,2.993001,4.044807
-28.156942,2.9968622,4.043927
-28.18874,2.9996164,4.0418806
-28.228718,3.0151544,4.054599
-28.261427,3.0199347,4.0550957
-28.290216,3.018753,4.0488324
-28.316751,3.0140076,4.0385437
-28.350033,3.0202773,4.0410366
-28.383917,3.0278683,4.045159
-28.421246,3.0416644,4.056569
-28.458664,3.0561955,4.068955
-28.485687,3.0531068,4.061024
-28.511719,3.0482507,4.051112
-28.53546,3.0391657,4.0363483
-28.570978,3.051642,4.046746
-28.603317,3.058694,4.0509343
-28.635191,3.0652277,4.054616
-28.669456,3.0767934,4.064273
-28.697609,3.076729,4.0604334
-28.721489,3.068082,4.046619
-28.747604,3.0638254,4.038007
-28.777004,3.0664566,4.037544
-28.80577,3.0679288,4.0358024
-28.837877,3.0769405,4.043005
-28.87284,3.0928938,4.0584745
-28.901014,3.0940063,4.05657
-28.927301,3.0908303,4.049684
-28.954412,3.0895953,4.0451555
-28.9828,3.091557,4.0444746
-29.012129,3.096099,4.0469217
-29.038464,3.0932088,4.040655
-29.073809,3.1142087,4.06275
-29.100006,3.1114767,4.056826
-29.126244,3.108812,4.0510488
-29.15055,3.1005573,4.038701
-29.177769,3.1005397,4.0361958
-29.206427,3.1050024,4.039088
-29.235395,3.110805,4.0436506
-29.262684,3.1116426,4.0423822
-29.293173,3.1232843,4.0540547
-29.321047,3.126802,4.056131
-29.346533,3.1221762,4.0485687
-29.3702,3.1106548,4.0328407
-29.397232,3.1112175,4.0315933
-29.42441,3.112485,4.0312567
-29.452328,3.1169934,4.034864
-29.4812,3.126018,4.043946
-29.510324,3.1370268,4.055481
-29.536085,3.133511,4.0497084
-29.560064,3.1211658,4.0334253
-29.586023,3.1177764,4.027927
-29.612755,3.118269,4.027145
-29.639698,3.1201038,4.02804
-29.666819,3.1232831,4.0306153
-29.695608,3.137361,4.0463367
-29.7224,3.14005,4.0484657
-29.74896,3.1415343,4.049217
-29.773552,3.1284227,4.032507
-29.800417,3.1319537,4.0358458
-29.826849,3.1323652,4.0355043
-29.853537,3.1353974,4.0383787
-29.879257,3.1289244,4.029894
-29.906897,3.143587,4.0468836
-29.932945,3.1410801,4.043298
-29.95861,3.1322515,4.032174
-29.985174,3.136266,4.036561
-30.011444,3.135876,4.035715
-30.037443,3.1285245,4.0265603
-30.063635,3.1231565,4.019855
-30.090202,3.1312768,4.029444
-30.11661,3.1388273,4.038413
-30.14287,3.1438882,4.0444527
-30.169111,3.1387906,4.0383334
-30.195372,3.1382341,4.037744
-30.221773,3.1326323,4.031149
-30.248415,3.1232648,4.02009
-30.274664,3.1267464,4.024555
-30.301464,3.1187947,4.0153327
-30.326807,3.136466,4.036995
-30.352745,3.1414256,4.0434294
-30.379112,3.1400642,4.042329
-30.406319,3.1298332,4.030631
-30.432693,3.1298873,4.0313654
-30.459768,3.1236286,4.024579
-30.486052,3.1250963,4.027145
-30.513699,3.11579,4.016836
-30.537148,3.1384337,4.044962
-30.563915,3.135639,4.0426025
-30.591036,3.1310034,4.038102
-30.619717,3.1175249,4.0230637
-30.646877,3.1143103,4.0204115
-30.675034,3.1060781,4.011815
-30.698069,3.125266,4.036148
-30.727186,3.1127257,4.0225277
-30.75237,3.1199603,4.032662
-30.778688,3.1215422,4.036092
-30.807472,3.1124046,4.026765
-30.835669,3.1065187,4.021405
-30.860977,3.1127512,4.0305996
-30.890928,3.1006787,4.017995
-30.918564,3.098187,4.0169086
-30.945375,3.0989313,4.0197563
-30.968914,3.1111207,4.036317
-30.996168,3.1101017,4.0371914
-31.025957,3.1009517,4.028454
-31.057312,3.0874739,4.0146513
-31.083195,3.0917292,4.0220275
-31.112585,3.0853496,4.0168285
-31.139723,3.0859702,4.0200257
-31.166859,3.0866628,4.0233774
-31.194447,3.0861707,4.0253944
-31.222984,3.0832443,4.0246
-31.252544,3.0778902,4.02101
-31.282701,3.0713682,4.01612
-31.313488,3.0636828,4.009943
-31.343145,3.0592115,4.0076485
-31.370535,3.0604396,4.0121613
-31.398449,3.0604935,4.0153627
-31.425278,3.0631137,4.021661
-31.454304,3.0608277,4.022255
-31.48367,3.058002,4.022296
-31.513676,3.0540175,4.021059
-31.544954,3.0476413,4.0171013
-31.574549,3.0450711,4.0176964
-31.604202,3.042585,4.018473
-31.632973,3.0420346,4.021598
-31.667503,3.030466,4.011935
-31.693178,3.0362477,4.0226192
-31.719751,3.0402474,4.0312915
-31.74727,3.0424733,4.037968
-31.776127,3.0423198,4.041953
-31.81158,3.030614,4.032609
-31.842686,3.0269709,4.0327272
-31.884596,3.005105,4.01184
-31.914934,3.003502,4.0145316
-31.94679,2.9995518,4.0146017
-31.978357,2.9963045,4.0155783
-32.020622,2.9761639,3.997198
-32.048637,2.9791884,4.0056067
-32.0813,2.9750316,4.0058455
-32.118404,2.9643338,3.9986868
-32.1497,2.9627976,4.00214
-32.179005,2.9643617,4.009232
-32.211594,2.9612026,4.011017
-32.245506,2.9563432,4.0109673
-32.279945,2.9509916,4.0104647
-32.31706,2.9421642,4.0061274
-32.349586,2.9400167,4.009489
-32.393127,2.92309,3.9962263
-32.42678,2.919979,3.998734
-32.460506,2.916973,4.0014677
-32.48976,2.9199867,4.0110855
-32.518517,2.9236722,4.0215435
-32.561634,2.9091682,4.0116825
-19.224274,0.98271465,4.16103
-19.398212,1.0203297,4.144022
-19.632801,1.0871093,4.1479206
-19.907475,1.1741543,4.167339
-19.997223,1.1757171,4.129609
-20.156162,1.2105999,4.115749
-20.396574,1.2855434,4.1313004
-20.634327,1.3608091,4.148762
-20.773481,1.3895252,4.1342287
-20.907167,1.4163542,4.1192327
-21.118809,1.4826841,4.134249
-21.278702,1.5245271,4.1324553
-21.373821,1.5346541,4.1078534
-21.527786,1.5752413,4.106966
-21.724026,1.6385448,4.1244907
-21.821556,1.6520495,4.1047926
-21.956417,1.6855867,4.1013165
-22.158087,1.7552061,4.1270947
-22.276896,1.7822251,4.1203704
-22.39204,1.8080103,4.113392
-22.54624,1.855634,4.1247354
-22.631067,1.8664817,4.1071367
-22.782555,1.9144619,4.1204643
-22.866005,1.9257511,4.1044273
-22.997791,1.9645503,4.111756
-23.065424,1.9680321,4.090281
-23.233217,2.0288792,4.1175976
-23.268394,2.0148115,4.0822587
-23.432566,2.0755072,4.111063
-23.482643,2.0707796,4.0844855
-23.631306,2.1243496,4.1087227
-23.687357,2.123977,4.0867505
-23.822311,2.1711822,4.1068635
-23.870228,2.166731,4.082096
-23.991749,2.2073832,4.0976744
-24.065643,2.219615,4.0885186
-24.200699,2.2703047,4.1143723
-24.278486,2.2861786,4.109485
-24.3583,2.303822,4.1066213
-24.480923,2.3493214,4.129686
-24.511057,2.3362422,4.099515
-24.596022,2.358772,4.1024075
-24.702969,2.3963227,4.119727
-24.746336,2.3926601,4.0990877
-24.832499,2.417706,4.105623
-24.911655,2.438675,4.108758
-24.960564,2.4396367,4.093308
-25.049341,2.468169,4.1043777
-25.130436,2.4920866,4.111488
-25.17095,2.4882536,4.0922937
-25.273588,2.5283666,4.115774
-25.335835,2.5406337,4.112743
-25.37882,2.5394561,4.096885
-25.426716,2.5419917,4.0848475
-25.518482,2.5768828,4.104867
-25.552826,2.570141,4.084203
-25.621021,2.5887108,4.088789
-25.691635,2.6096232,4.096036
-25.756443,2.6266847,4.0997715
-25.801336,2.62894,4.088938
-25.849533,2.6339614,4.0810814
-25.924343,2.660084,4.0947876
-25.964195,2.6592314,4.081449
-26.00866,2.662198,4.0721602
-26.043882,2.657929,4.0556474
-26.123388,2.6898012,4.076378
-26.182316,2.7055333,4.0808578
-26.21016,2.6959052,4.059378
-26.264904,2.7088132,4.0613623
-26.33017,2.7310514,4.073299
-26.388126,2.7476358,4.079627
-26.4146,2.7374635,4.058177
-26.4728,2.754963,4.0658846
-26.53867,2.7797492,4.0815296
-26.6041,2.8048031,4.0977554
-26.621258,2.7869887,4.068807
-26.669334,2.79712,4.0696087
-26.730927,2.820057,4.0842686
-26.779686,2.831678,4.0870914
-26.821184,2.836854,4.0831985
-26.866062,2.8454967,4.083192
-26.904423,2.8481944,4.076947
-26.957596,2.865492,4.0866365
-27.005909,2.8785288,4.091923
-27.032589,2.8704832,4.074479
-27.068872,2.8720427,4.067581
-27.113403,2.882155,4.070157
-27.166506,2.9014482,4.082963
-27.207844,2.9090762,4.0831747
-27.243105,2.9106145,4.0768366
-27.276184,2.9099946,4.068235
-27.314535,2.9151688,4.0661507
-27.351206,2.9187593,4.062447
-27.40231,2.938486,4.076799
-27.439182,2.9429264,4.074332
-27.466805,2.9371438,4.060584
-27.502056,2.940074,4.056658
-27.539728,2.946003,4.05621
-27.584673,2.9607344,4.065778
-27.624943,2.9704103,4.069825
-27.657293,2.9709275,4.063691
-27.68388,2.964556,4.049876
-27.721905,2.9722564,4.052059
-27.762575,2.9835913,4.058496
-27.804874,2.9974108,4.067899
-27.836851,2.9984636,4.0629253
-27.865177,2.994906,4.0527925
-27.894438,2.9926047,4.044176
-27.925488,2.9927475,4.038439
-27.96349,3.0024486,4.04375
-28.007757,3.0211675,4.0595446
-28.042313,3.0269802,4.0606575
-28.070868,3.0245724,4.052414
-28.096542,3.0180712,4.039528
-28.133776,3.028353,4.0460987
-28.167978,3.0345697,4.048089
-28.200855,3.0390973,4.0482306
-28.237957,3.0503273,4.0562525
-28.26941,3.053263,4.0547566
-28.297735,3.051475,4.047857
-28.324568,3.0473518,4.038314
-28.355543,3.0499446,4.0366774
-28.387917,3.0550478,4.038068
-28.430988,3.0784297,4.060948
-28.462622,3.0831494,4.062111
-28.48717,3.075808,4.049217
-28.51527,3.0746126,4.043601
-28.54101,3.069226,4.0331316
-28.570826,3.0712295,4.0314293
-28.602549,3.0769858,4.0342355
-28.64315,3.099977,4.0574775
-28.673843,3.1047196,4.0592947
-28.701954,3.104642,4.055499
-28.7267,3.0978818,4.043865
-28.752752,3.093643,4.0352793
-28.782682,3.0974789,4.0363398
-28.81569,3.1081855,4.0456467
-28.845667,3.1128187,4.0478315
-28.880243,3.1280491,4.0627117
-28.903975,3.1192486,4.049073
-28.92918,3.1136017,4.0392485
-28.955772,3.1111188,4.0332603
-28.984932,3.114914,4.0348387
-29.015495,3.1225224,4.041054
-29.042034,3.1202626,4.0355496
-29.077816,3.1423643,4.0592833
-29.103039,3.1371486,4.050393
-29.1279,3.130747,4.040142
-29.154835,3.1300282,4.0367694
-29.180923,3.1268797,4.030547
-29.20768,3.1256745,4.026725
-29.23727,3.133307,4.033598
-29.269447,3.1497977,4.0512133
-29.296753,3.1513321,4.050912
-29.323654,3.1516838,4.0492563
-29.348043,3.143312,4.0371504
-29.372927,3.1362557,4.026689
-29.40026,3.1380672,4.026988
-29.42643,3.1355445,4.0221233
-29.454805,3.1419082,4.02806
-29.486332,3.1622162,4.050927
-29.513895,3.166851,4.0549297
-29.53917,3.1614633,4.046877
-29.563618,3.151719,4.0336103
-29.58887,3.1451921,4.0242968
-29.614834,3.1418881,4.0189466
-29.642218,3.1462379,4.022935
-29.669083,3.1481295,4.0240135
-29.697536,3.1602182,4.037525
-29.724993,3.1673198,4.045062
-29.75123,3.1668944,4.043535
-29.776209,3.157033,4.0306187
-29.802855,3.159275,4.0324574
-29.828585,3.1539783,4.0252066
-29.855738,3.1614308,4.0335035
-29.882326,3.1645148,4.036561
-29.90847,3.163226,4.0343714
-29.93556,3.1740618,4.046982
-29.961718,3.174179,4.046632
-29.98743,3.1667457,4.0371656
-30.013742,3.1689012,4.0394206
-30.03944,3.15652,4.024064
-30.065763,3.1575394,4.025066
-30.091951,3.152911,4.0192633
-30.118464,3.1699443,4.0398674
-30.14464,3.1775181,4.049033
-30.170788,3.1699164,4.0398073
-30.197025,3.1655579,4.03459
-30.223478,3.1561863,4.023341
-30.249924,3.1519637,4.0184183
-30.276022,3.1573339,4.0252247
-30.302605,3.1519773,4.0190535
-30.32828,3.1625605,4.0323234
-30.353712,3.173841,4.0465035
-30.380972,3.160438,4.0307465
-30.407787,3.154722,4.024399
-30.43362,3.1598577,4.031301
-30.460833,3.1517434,4.0221734
-30.48569,3.1646194,4.038603
-30.514568,3.1446047,4.0151606
-30.538467,3.1633124,4.0387917
-30.564646,3.1643443,4.041029
-30.592999,3.1515174,4.026522
-30.620329,3.1463623,4.021392
-30.645197,3.1558268,4.034051
-30.676697,3.128687,4.002417
-30.699469,3.1490295,4.0283833
-30.728706,3.1359506,4.013933
-30.752121,3.1513577,4.0340347
-30.77821,3.1535692,4.038226
-30.806318,3.1470213,4.0318894
-30.833792,3.143701,4.0295286
-30.861967,3.1379364,4.0242853
-30.892885,3.122181,4.007056
-30.917809,3.1297832,4.0180974
-30.946115,3.124878,4.0141134
-30.967613,3.1439116,4.039056
-30.994768,3.142909,4.0399055
-31.02524,3.131321,4.028083
-31.055935,3.119822,4.0164547
-31.080492,3.1278176,4.0283475
-31.113136,3.1114807,4.0110674
-31.13959,3.1139898,4.016507
-31.16534,3.1184397,4.0243416
-31.188278,3.1304383,4.041286
-31.221066,3.1156938,4.026248
-31.252216,3.10603,4.0173893
-31.281347,3.102055,4.0154233
-31.31232,3.0938148,4.00844
-31.343456,3.085665,4.0016546
-31.370813,3.086907,4.0061607
-31.397354,3.0900784,4.0130367
-31.424942,3.0908432,4.017115
-31.45365,3.089211,4.018413
-31.48154,3.0895102,4.022085
-31.514679,3.0787892,4.0127487
-31.54298,3.0786366,4.0160456
-31.57281,3.075488,4.015869
-31.603634,3.0705814,4.0136967
-31.631424,3.071898,4.0189705
-31.667185,3.0579784,4.0063267
-31.694767,3.0600767,4.01269
-31.720673,3.0653024,4.0228105
-31.743137,3.0766916,4.040248
-31.775312,3.0704658,4.0370293
-31.802063,3.0740685,4.0454454
-31.839693,3.0589156,4.031941
-31.884777,3.031762,4.004511
-31.916914,3.0271733,4.0036316
-31.943981,3.031144,4.012845
-31.974737,3.0291495,4.0151725
-32.01695,3.0091686,3.9966424
-32.04026,3.0194151,4.0134163
-32.072784,3.0152988,4.0135612
-32.105007,3.0118804,4.014615
-32.138107,3.007362,4.014494
-32.17212,3.0017507,4.013212
-32.20749,2.9944563,4.0100946
-32.245514,2.9837031,4.003106
-32.27613,2.9837742,4.0087023
-32.311905,2.9768152,4.006313
-32.34869,2.968788,4.0028152
-32.386955,2.9591074,3.997548
-32.419186,2.9578128,4.0019975
-32.45596,2.950728,3.9999387
-32.48559,2.9531634,4.0088477
-32.51152,2.960373,4.023269
-32.541992,2.9617944,4.0311894
-19.13895,1.051198,4.179483
-19.247326,1.0577798,4.1416416
-19.480991,1.1217737,4.1435995
-19.683304,1.1728742,4.138328
-19.92857,1.2450652,4.149175
-20.071308,1.2710664,4.12916
-20.265709,1.3221478,4.1279917
-20.468105,1.378242,4.131771
-20.674095,1.4373543,4.1391325
-20.870754,1.4933088,4.1455703
-21.002558,1.5189993,4.130803
-21.13404,1.5452895,4.1173363
-21.309362,1.5940349,4.1217628
-21.512817,1.6579685,4.1389856
-21.611652,1.6706345,4.117889
-21.733025,1.6952565,4.1067266
-21.91606,1.7521718,4.121761
-22.025694,1.77244,4.108857
-22.159174,1.8057613,4.1070814
-22.368423,1.8797511,4.1390023
-22.436295,1.8803555,4.11248
-22.581465,1.9225634,4.1204977
-22.671146,1.9358422,4.1054673
-22.798996,1.9703693,4.1086755
-22.89627,1.9889774,4.0992785
-23.00461,2.014283,4.096112
-23.152893,2.062577,4.11318
-23.227392,2.0704079,4.096404
-23.372942,2.118977,4.1152525
-23.428585,2.1171117,4.091075
-23.55323,2.1553364,4.1022987
-23.62993,2.1665041,4.0903893
-23.72139,2.1867776,4.0869727
-23.854006,2.2320623,4.1063976
-23.907253,2.2308447,4.0848083
-24.046577,2.2818239,4.1106586
-24.10253,2.28311,4.092129
-24.233734,2.330906,4.1164074
-24.278559,2.326174,4.0931196
-24.414753,2.3787599,4.123046
-24.489542,2.39371,4.1187453
-24.561823,2.4075317,4.1137753
-24.636124,2.4231,4.110815
-24.700466,2.4326854,4.1025815
-24.786907,2.457109,4.108754
-24.874424,2.4828808,4.116666
-24.913773,2.4771953,4.094864
-25.0058,2.5070405,4.107462
-25.098785,2.5382743,4.1218863
-25.125486,2.5248332,4.0933366
-25.211323,2.5522332,4.1047783
-25.294554,2.578506,4.1155524
-25.341095,2.579588,4.10191
-25.3982,2.5883808,4.0961013
-25.478327,2.6140454,4.1073346
-25.539158,2.62638,4.1056533
-25.587961,2.6303184,4.095835
-25.629087,2.628828,4.0807605
-25.727844,2.6704612,4.1094418
-25.76112,2.6637528,4.0895677
-25.815493,2.6731167,4.086183
-25.875748,2.6873422,4.0880103
-25.925709,2.6940274,4.0823703
-25.972878,2.6988177,4.074991
-26.027868,2.7100449,4.074463
-26.085274,2.7235796,4.076568
-26.153507,2.7462716,4.0884614
-26.187035,2.7413073,4.071776
-26.239906,2.7523084,4.0719423
-26.286825,2.758738,4.0675244
-26.365936,2.7924728,4.0921097
-26.385296,2.7763793,4.0643215
-26.44427,2.794039,4.07241
-26.497337,2.8070996,4.0758557
-26.552004,2.8219786,4.0814686
-26.597229,2.828968,4.0788584
-26.645342,2.8388295,4.079512
-26.691458,2.847239,4.0787964
-26.74875,2.8661654,4.0896306
-26.80214,2.8820398,4.0974016
-26.824081,2.8690882,4.0740576
-26.868378,2.8770528,4.0735617
-26.924656,2.8967423,4.086051
-26.969675,2.9061594,4.087518
-27.017918,2.9190607,4.0929885
-27.045052,2.9116015,4.0762234
-27.081795,2.9136748,4.07006
-27.128452,2.9259129,4.0752754
-27.179817,2.9433572,4.0864506
-27.219421,2.9492188,4.0849466
-27.250809,2.9467819,4.074333
-27.28489,2.947256,4.067072
-27.32529,2.954617,4.0676346
-27.368689,2.965515,4.0723133
-27.41291,2.977703,4.0786047
-27.444546,2.9763932,4.0698433
-27.483826,2.983733,4.0709524
-27.517403,2.9849179,4.0652313
-27.554434,2.9902177,4.064287
-27.602219,3.0082722,4.077968
-27.637434,3.012117,4.0756454
-27.663366,3.0051172,4.061061
-27.692753,3.0022283,4.0512447
-27.727852,3.006373,4.049571
-27.768946,3.0181746,4.056802
-27.81351,3.034771,4.0696907
-27.849972,3.0416207,4.071515
-27.87769,3.0374956,4.060795
-27.905458,3.0334454,4.0502367
-27.93859,3.0365052,4.0479875
-27.972078,3.0402536,4.04664
-28.01929,3.0629373,4.067398
-28.05158,3.06575,4.0652056
-28.077488,3.0598001,4.052898
-28.106808,3.05865,4.046259
-28.13941,3.0623255,4.0453453
-28.173546,3.0684757,4.047429
-28.21354,3.0836565,4.0602083
-28.249298,3.0930157,4.066289
-28.279043,3.0935369,4.062089
-28.304165,3.0869687,4.049625
-28.335804,3.0906432,4.049302
-28.365128,3.0908136,4.044934
-28.393698,3.0898654,4.0393243
-28.435265,3.110658,4.059536
-28.469324,3.119543,4.065772
-28.496202,3.1164646,4.0579133
-28.521055,3.1098304,4.0458984
-28.551096,3.112337,4.044818
-28.578741,3.1106863,4.038871
-28.610006,3.115788,4.041049
-28.64857,3.1349628,4.0601215
-28.68075,3.142703,4.065652
-28.705933,3.1371322,4.0553503
-28.73029,3.1297932,4.0429916
-28.757162,3.1274009,4.036619
-28.786417,3.1299734,4.036276
-28.819647,3.141205,4.0464153
-28.852934,3.153152,4.057514
-28.882666,3.1578348,4.059969
-28.91067,3.1589143,4.0581646
-28.935719,3.1533012,4.0483627
-28.96086,3.1477504,4.0386963
-28.987108,3.1447284,4.0321436
-29.017372,3.1516519,4.0376797
-29.05089,3.1673157,4.053877
-29.081263,3.17566,4.0613103
-29.107542,3.1735663,4.056178
-29.134073,3.172161,4.0519466
-29.158646,3.1652405,4.0410876
-29.184404,3.1614845,4.0341287
-29.210638,3.1590369,4.0288215
-29.239937,3.1659875,4.0350075
-29.272825,3.1848488,4.0557685
-29.302303,3.1938422,4.0646095
-29.329205,3.1948147,4.063757
-29.353577,3.1871233,4.05241
-29.377739,3.1782413,4.039666
-29.402725,3.1719155,4.0300975
-29.429596,3.1725307,4.0290613
-29.457844,3.1788473,4.035058
-29.488504,3.1958847,4.0542336
-29.515394,3.197977,4.055217
-29.540997,3.194499,4.049453
-29.565605,3.1860683,4.0376873
-29.590992,3.1808348,4.029894
-29.617073,3.1788044,4.0260835
-29.64444,3.1837504,4.030884
-29.668896,3.1724298,4.0158157
-29.698568,3.1919734,4.0386477
-29.725943,3.1990228,4.0462337
-29.751549,3.1948211,4.040084
-29.776808,3.1875367,4.0302114
-29.804873,3.2017221,4.046756
-29.829903,3.1920514,4.0340786
-29.855913,3.1900022,4.0308204
-29.883114,3.1999927,4.0424137
-29.910288,3.2119462,4.0564876
-29.936253,3.2113638,4.0552244
-29.96197,3.2070642,4.0494556
-29.987467,3.1977856,4.037628
-30.013666,3.1992939,4.0391216
-30.03943,3.1907759,4.0283527
-30.065952,3.2018812,4.041771
-30.091957,3.1985445,4.0374966
-30.118126,3.2041068,4.0442286
-30.144184,3.2072134,4.0480027
-30.170244,3.2015533,4.0410604
-30.196423,3.1953297,4.0334883
-30.22257,3.1948519,4.033044
-30.248684,3.1957026,4.034297
-30.274666,3.199144,4.0387964
-30.301203,3.191298,4.0294847
-30.326681,3.2024407,4.0435762
-30.35255,3.20545,4.047733
-30.379198,3.19844,4.0396395
-30.405981,3.1914997,4.031698
-30.431808,3.1953416,4.037067
-30.4598,3.1790924,4.017824
-30.484617,3.1918867,4.034313
-30.512463,3.1795602,4.020024
-30.5366,3.1956286,4.0406494
-30.562498,3.1979136,4.0444202
-30.58935,3.1939769,4.0406218
-30.617966,3.1800542,4.024648
-30.644178,3.1812904,4.027328
-30.671778,3.1750588,4.0209227
-30.697285,3.180199,4.028515
-30.72515,3.1734843,4.021654
-30.7491,3.1856546,4.037975
-30.77522,3.187228,4.0413857
-30.802345,3.1844845,4.039582
-30.83105,3.1755538,4.030287
-30.858664,3.1717086,4.027279
-30.888327,3.1604366,4.015275
-30.910213,3.178609,4.039279
-30.939861,3.1681118,4.028363
-30.963715,3.178284,4.04272
-30.990198,3.179162,4.045808
-31.017643,3.1769955,4.0452557
-31.053701,3.148145,4.012311
-31.073904,3.1691537,4.040097
-31.104057,3.1597586,4.0309777
-31.133093,3.1541755,4.0265713
-31.159128,3.157356,4.032874
-31.184658,3.1618414,4.0408225
-31.211285,3.1632957,4.045161
-31.247963,3.138851,4.018215
-31.27676,3.135529,4.0169353
-31.307388,3.1279683,4.0106096
-31.335342,3.1272783,4.0126667
-31.363583,3.126048,4.014145
-31.390514,3.1279702,4.019497
-31.419067,3.1262777,4.020564
-31.448223,3.1234365,4.0203247
-31.47716,3.1212902,4.021001
-31.505274,3.1210613,4.0240583
-31.534296,3.1190758,4.0250816
-31.564276,3.115339,4.024087
-31.594337,3.1116886,4.023278
-31.622282,3.112389,4.0277576
-31.654383,3.1052577,4.0229554
-31.682076,3.1067278,4.028511
-31.710419,3.1070595,4.0327835
-31.736752,3.1111035,4.041551
-31.766102,3.109771,4.043992
-31.794449,3.1103342,4.048766
-31.830212,3.098311,4.038686
-31.87266,3.0755653,4.016018
-31.90244,3.0746152,4.0192876
-31.933361,3.0719495,4.0206137
-31.967722,3.0639803,4.0157714
-32.001865,3.0567186,4.01187
-32.03654,3.048967,4.007498
-32.068245,3.0460963,4.008972
-32.100414,3.042725,4.0099535
-32.13387,3.0376673,4.009054
-32.16662,3.0339007,4.00977
-32.198215,3.03201,4.0127773
-32.231537,3.0278492,4.0132303
-32.264526,3.0243807,4.014594
-32.30017,3.0174804,4.0120673
-32.335526,3.0112824,4.0104723
-32.37277,3.0028505,4.0064034
-32.407066,2.9986415,4.0073442
-32.441013,2.9951243,4.0091934
-32.471848,2.9957967,4.01598
-32.502235,2.9971404,4.023631
-32.533543,2.9974098,4.030137
-32.58654,2.971104,4.0062633
-18.136242,0.7732501,3.9972668
-18.092016,0.708827,3.9078398
-19.160915,1.133457,4.150951
-19.341541,1.1716669,4.1355996
-19.568241,1.231549,4.1366234
-19.873848,1.3284752,4.1654005
-19.987133,1.3398597,4.1352086
-20.15076,1.374928,4.1228647
-20.382479,1.4425058,4.135376
-20.609001,1.5091753,4.1488047
-20.733814,1.5293899,4.129094
-20.885872,1.563242,4.120467
-21.100864,1.6281922,4.136523
-21.27658,1.6755872,4.1405087
-21.384453,1.6910133,4.1208134
-21.52435,1.7227757,4.114587
-21.720425,1.7832849,4.131988
-21.826416,1.8000298,4.1157303
-21.962387,1.8325012,4.112774
-22.14472,1.8894489,4.130541
-22.251284,1.9087275,4.1186204
-22.376665,1.9383746,4.1158953
-22.538826,1.9880474,4.1305966
-22.604729,1.9880769,4.104667
-22.757603,2.0346513,4.1184254
-22.833788,2.0411363,4.098984
-23.003494,2.0986311,4.123712
-23.055592,2.093146,4.095069
-23.21759,2.1483717,4.119499
-23.270994,2.1444514,4.0930924
-23.410145,2.188787,4.1095066
-23.489607,2.200377,4.0976677
-23.600649,2.2304308,4.1027565
-23.662998,2.233212,4.083948
-23.80952,2.2851682,4.109953
-23.85101,2.2767181,4.0818124
-23.982334,2.321458,4.1025696
-24.060923,2.3357587,4.0960293
-24.153193,2.3587656,4.097969
-24.282791,2.4050705,4.122119
-24.34886,2.4134908,4.111494
-24.460508,2.4504507,4.1280904
-24.491926,2.438231,4.098707
-24.577858,2.4603095,4.1021
-24.680693,2.4937294,4.116797
-24.715738,2.484499,4.091007
-24.82376,2.5225039,4.1110253
-24.90527,2.5440953,4.1156716
-24.9592,2.5481005,4.103561
-25.029875,2.5635037,4.1028776
-25.109741,2.5855489,4.109086
-25.16462,2.591263,4.0995245
-25.230904,2.6050632,4.0982537
-25.32486,2.6383996,4.1168137
-25.35561,2.6285138,4.092491
-25.416933,2.6401157,4.0899205
-25.49493,2.66395,4.1000075
-25.535439,2.6615462,4.083822
-25.596825,2.6743736,4.083329
-25.668344,2.6950178,4.091121
-25.733315,2.7114003,4.0948715
-25.766579,2.7046602,4.07506
-25.820967,2.7138362,4.071849
-25.886642,2.731923,4.0781393
-25.94797,2.7471952,4.081793
-25.981056,2.7410693,4.063312
-26.037369,2.7531395,4.0640674
-26.100025,2.7706163,4.0707684
-26.163664,2.7893858,4.079116
-26.193253,2.7812648,4.059197
-26.244844,2.7910333,4.058427
-26.310947,2.8130803,4.0709934
-26.37157,2.831181,4.079625
-26.408537,2.8299642,4.0677433
-26.454262,2.8362916,4.064134
-26.506683,2.8486347,4.0672135
-26.576134,2.8761144,4.086938
-26.6102,2.8733847,4.074087
-26.653399,2.8788104,4.070256
-26.694069,2.8822365,4.064399
-26.765154,2.9133272,4.0890636
-26.804226,2.9160285,4.0827904
-26.844402,2.9199476,4.078002
-26.884485,2.9240048,4.073513
-26.933739,2.9369311,4.079012
-26.977571,2.945117,4.0794315
-27.01611,2.9485211,4.0746818
-27.050611,2.9482036,4.0659075
-27.094612,2.9573722,4.0678797
-27.14564,2.973888,4.0782733
-27.1859,2.9800625,4.077219
-27.223299,2.9835963,4.0733294
-27.257372,2.9839108,4.065924
-27.293556,2.9865668,4.061285
-27.334972,2.9949398,4.0632668
-27.384094,3.0118785,4.075154
-27.421442,3.016621,4.073306
-27.45147,3.0135918,4.0626945
-27.485611,3.0151708,4.057454
-27.52273,3.0202575,4.0563526
-27.561733,3.027739,4.0581326
-27.608006,3.0438902,4.070047
-27.638288,3.041956,4.061231
-27.66277,3.033248,4.0446615
-27.697931,3.0372038,4.042841
-27.733002,3.0412722,4.0412645
-27.782986,3.0638661,4.0613704
-27.822332,3.0739622,4.0670867
-27.854137,3.0749478,4.062293
-27.882275,3.0713975,4.0522842
-27.912697,3.0708246,4.045844
-27.94355,3.0709221,4.0402794
-27.98313,3.0827584,4.0486126
-28.02593,3.0993977,4.0627394
-28.05432,3.096896,4.054427
-28.080627,3.0915442,4.042824
-28.11076,3.0915413,4.0376186
-28.143333,3.0951526,4.036784
-28.177849,3.1018078,4.0396614
-28.219421,3.1191912,4.055402
-28.253551,3.126083,4.058791
-28.281313,3.123611,4.0511208
-28.309868,3.1224003,4.0450306
-28.338804,3.121863,4.0398216
-28.366987,3.1202166,4.0333643
-28.401789,3.129373,4.0399323
-28.441828,3.147592,4.057484
-28.472254,3.1504087,4.056659
-28.498755,3.1467292,4.048104
-28.524271,3.1413202,4.037532
-28.552927,3.1413789,4.0336156
-28.582563,3.143321,4.03205
-28.616415,3.1531754,4.0401306
-28.653616,3.1697686,4.056467
-28.682566,3.1713903,4.054785
-28.709915,3.1700711,4.0496144
-28.73452,3.1633768,4.0379887
-28.760736,3.159773,4.030175
-28.790537,3.1635199,4.0313663
-28.830357,3.1886196,4.0586386
-28.858372,3.1895208,4.056549
-28.885523,3.188671,4.052397
-28.911047,3.1842353,4.043935
-28.937174,3.181085,4.037104
-28.964125,3.1798358,4.0326624
-28.99236,3.1817164,4.032119
-29.01955,3.1812253,4.0287433
-29.062525,3.2206593,4.0743866
-29.086962,3.2142158,4.063881
-29.112896,3.2115173,4.05803
-29.137291,3.2045803,4.0470343
-29.162245,3.198934,4.03768
-29.188362,3.1964293,4.0322495
-29.214518,3.193992,4.026964
-29.246574,3.2095182,4.0438766
-29.276361,3.218965,4.053384
-29.304245,3.2229347,4.0562143
-29.33075,3.2226503,4.0538654
-29.356176,3.2187212,4.047079
-29.381842,3.215475,4.041197
-29.40689,3.209815,4.0323906
-29.432522,3.2060776,4.02602
-29.461946,3.2173047,4.038232
-29.490852,3.2273722,4.0490856
-29.51769,3.2294416,4.0501056
-29.54324,3.2259839,4.0443425
-29.568058,3.2188575,4.034089
-29.592625,3.2099247,4.021652
-29.619156,3.2103944,4.020938
-29.6467,3.2165422,4.027337
-29.67217,3.2115417,4.0199604
-29.701214,3.2278132,4.0390663
-29.727722,3.2298136,4.0405154
-29.75301,3.2237678,4.0320277
-29.778324,3.217161,4.0229006
-29.80604,3.2287328,4.0364394
-29.832003,3.2272582,4.033819
-29.85799,3.2258492,4.0313416
-29.884792,3.2326353,4.0391245
-29.91146,3.239492,4.047059
-29.937605,3.2414145,4.048917
-29.963665,3.242779,4.0501423
-29.988733,3.227941,4.0312557
-30.015078,3.2331927,4.037444
-30.040615,3.2209868,4.0219545
-30.067055,3.2307549,4.0338917
-30.093203,3.235583,4.0397396
-30.119211,3.236723,4.0410557
-30.145203,3.2398076,4.044855
-30.171185,3.236072,4.040222
-30.197449,3.2198832,4.0201397
-30.223392,3.2275505,4.029833
-30.249685,3.2215133,4.022519
-30.27564,3.2255583,4.027823
-30.301723,3.225915,4.028596
-30.327318,3.2338467,4.038862
-30.35318,3.2362127,4.042259
-30.379623,3.2311392,4.036457
-30.406166,3.226134,4.0308046
-30.432806,3.2211995,4.025304
-30.460802,3.2050853,4.0059614
-30.484474,3.227161,4.034186
-30.512234,3.2149372,4.0198126
-30.536278,3.230887,4.040532
-30.562178,3.2325375,4.0435324
-30.58895,3.2286386,4.0397005
-30.616219,3.2223167,4.0329247
-30.644283,3.2123275,4.021664
-30.671133,3.2098927,4.0198507
-30.698034,3.2075295,4.0181923
-30.724468,3.2077262,4.0197744
-30.748743,3.2179456,4.033845
-30.774944,3.2188964,4.036483
-30.802015,3.2161856,4.0346503
-30.830061,3.2098217,4.0283613
-30.856647,3.209741,4.0299196
-30.882586,3.2122111,4.0346966
-30.91121,3.204831,4.02736
-30.938923,3.2012472,4.024788
-30.963436,3.2088776,4.036134
-30.989878,3.209765,4.0392127
-31.016508,3.210103,4.041679
-31.050724,3.1870508,4.015381
-31.074701,3.1961846,4.028831
-31.102318,3.1942809,4.0287457
-31.13085,3.1899881,4.0257926
-31.156797,3.1931577,4.0320873
-31.18338,3.1945493,4.0362597
-31.21112,3.1929402,4.0368147
-31.241304,3.1852727,4.0300093
