x,y,z
-50.923264,3.2601867,3.9587178
-51.518288,3.2410533,3.982339
-52.15509,3.2197733,4.006012
-52.831795,3.1969068,4.0307283
-53.552383,3.172292,4.0565834
-54.303154,3.1478713,4.0862226
-4.208191,2.4836636,2.503397
-4.3229294,2.3560877,2.2227755
-5.8731766,2.4374375,2.2503443
-5.8033924,2.3590608,2.091374
-5.845848,2.2969816,1.9564819
-5.879616,2.1647434,1.6746621
-5.88455,2.096455,1.5304193
-5.949955,2.0377312,1.4008436
-5.890869,1.9585295,1.2396951
-5.726139,1.8609378,1.0496387
-7.3071346,2.0605674,1.3248444
-6.126623,1.7889028,0.861928
-6.164049,1.7253816,0.72528076
-6.3341007,1.6855984,0.626492
-8.010229,1.8560815,0.8325329
-9.345781,2.042132,1.1019893
-9.442322,1.998445,1.0019827
-10.469994,2.1362352,1.1982307
-10.558023,2.0942187,1.1026273
-10.551447,2.0334473,0.9763465
-10.761753,2.0165067,0.9223852
-10.82254,1.9696217,0.819262
-12.236965,2.2068684,1.189148
-12.519224,2.2114499,1.1739206
-12.820299,2.2215471,1.1685953
-13.140005,2.237306,1.173491
-13.425913,2.2472546,1.1693125
-13.696543,2.2552576,1.1624823
-13.946514,2.2599485,1.1506243
-14.265968,2.2820437,1.1689634
-14.49836,2.2854111,1.1559992
-14.724852,2.2885652,1.143158
-15.041908,2.3147676,1.1704044
-15.216845,2.3079214,1.1413631
-15.477579,2.323214,1.1509252
-15.685753,2.3266947,1.1405568
-15.900585,2.332947,1.1354127
-16.12022,2.3415632,1.1348066
-16.311844,2.344013,1.1238666
-16.555962,2.361364,1.1393604
-16.732481,2.3619077,1.1258535
-16.941048,2.3720644,1.1295662
-17.103603,2.3706632,1.1133118
-17.33285,2.3886843,1.131629
-17.471117,2.3822758,1.1071615
-17.691294,2.3999605,1.1256299
-17.838364,2.3976977,1.1090736
-18.0332,2.4101748,1.1189933
-18.204315,2.4166808,1.118609
-18.380901,2.4257436,1.1230841
-18.52894,2.427074,1.1140237
-18.689304,2.4329574,1.1133676
-18.835733,2.4353473,1.1067023
-18.980953,2.4381096,1.100944
-19.144997,2.4476442,1.107616
-19.264412,2.4436426,1.0901284
-19.40599,2.447464,1.0869589
-19.452316,2.4204576,1.0282092
-19.525312,2.4023917,0.98571014
-19.477425,2.3434982,0.8691797
-19.252407,2.2229867,0.6404915
-19.313932,2.1998339,0.5886283
-19.392693,2.1828363,0.5480542
-19.236954,2.082623,0.35564184
-19.236248,2.0364974,0.26180172
-24.969225,2.727525,1.2744665
-25.174725,2.8172412,1.4420633
-25.340734,2.8842144,1.5665169
-25.79218,3.1384025,2.0485206
-25.791538,3.1022403,1.9765763
-25.728264,3.0237517,1.8237286
-25.8652,2.9259436,1.6223345
-26.312471,3.207523,2.159224
-26.352303,3.200051,2.142436
-26.044022,2.9356885,1.6328897
-26.089529,2.9291196,1.6176691
-26.149656,2.9337263,1.6239367
-26.212112,2.9405174,1.6344504
-26.257439,2.9344206,1.6202526
-26.288174,2.9168992,1.5841231
-26.289799,2.8758495,1.5027575
-26.34257,2.7872512,1.3250527
-26.34716,2.745547,1.2423654
-26.287071,2.6473312,1.0507593
-27.054333,3.2677486,2.2443767
-27.089382,3.259023,2.2256532
-27.12685,3.2524326,2.2110705
-26.029896,2.212208,0.20181465
-26.58142,2.2222595,0.20030642
-27.26223,2.885985,1.4831233
-27.285213,2.8057008,1.3242278
-27.97098,3.1894891,2.056584
-28.02015,3.199484,2.0747304
-28.054287,3.190164,2.0554032
-28.084755,3.1757221,2.026147
-27.44708,2.2396343,0.20635414
-28.040962,2.803034,1.2958298
-28.58681,3.272488,2.2028604
-28.625225,3.2724986,2.2020025
-28.748478,3.214868,2.0864491
-28.783892,3.2081966,2.0726676
-28.815147,3.1926925,2.0416975
-28.859293,2.9324322,1.5314503
-28.898958,2.9264762,1.519125
-29.057838,2.9009492,1.4667144
-29.145044,2.909982,1.4831657
-29.540571,3.1925464,2.0310998
-29.579,3.1964746,2.0384421
-29.645267,2.9170678,1.4919701
-29.774113,2.9596086,1.574317
-29.813747,2.9514122,1.5581112
-29.952784,3.1934266,2.0303645
-29.936367,2.2590775,0.20523739
-29.98656,2.2658825,0.21842527
-30.067968,3.2989619,2.2362738
-30.0864,2.2812471,0.248312
-30.135996,2.2875268,0.26055717
-30.185505,2.2852764,0.25616693
-30.212387,3.2605798,2.1612782
-30.249617,3.2380047,2.1172276
-30.285973,3.2451417,2.1312332
-30.384502,2.271627,0.22980309
-30.433214,2.2850454,0.25615597
-30.485077,2.2598822,0.20717812
-30.470726,2.8781,1.414823
-30.584707,2.262316,0.21235752
-30.634876,2.2607672,0.20958662
-30.58733,2.9360828,1.5286942
-30.735308,2.258515,0.20578003
-30.66101,2.9839828,1.6227589
-30.836088,2.2558749,0.2013278
-30.732983,3.0281286,1.7095652
-30.76969,3.0428362,1.738615
-30.805714,3.0589912,1.7705078
-30.915874,3.0907512,1.8336911
-30.96936,3.1757917,2.0005493
-30.995466,3.2149801,2.0774884
-31.547016,2.2512689,0.2004466
-31.596554,2.2558215,0.21012163
-31.33756,3.0242882,1.7094626
-31.375935,3.0300806,1.7214336
-31.75049,2.2568026,0.21459866
-31.802673,2.2556121,0.21319199
-31.394064,3.2575657,2.1669817
-31.907707,2.2527602,0.20955372
-31.960358,2.2515473,0.20819664
-32.011982,2.2527022,0.21148443
-31.53458,3.2799911,2.213645
-32.114834,2.2563133,0.22068453
-32.16844,2.2543333,0.21795845
-31.667953,3.2454836,2.1489105
-32.274487,2.2534692,0.21862984
-32.32814,2.252372,0.21772003
-32.381622,2.2518637,0.21798801
-32.436,2.250182,0.21600628
-32.488003,2.252605,0.22204351
-32.54227,2.2516594,0.22155952
-32.18707,2.8726628,1.4305449
-32.645214,2.258965,0.2385745
-32.705956,2.2492955,0.22123098
-32.301014,2.903221,1.4935689
-32.32735,2.9292371,1.5453749
-32.35751,2.9492059,1.5854411
-32.931232,2.2406373,0.21058416
-32.397655,3.0139358,1.7137442
-33.04051,2.242675,0.2178421
-32.369522,3.1609018,2.0016499
-32.41014,3.162786,2.0066166
-32.40463,3.2209592,2.120801
-33.26798,2.238748,0.21725893
-33.390724,2.228189,0.20053196
-33.444016,2.2327557,0.2113142
-33.50071,2.2336507,0.21501589
-33.55864,2.2334402,0.21661615
-32.91245,2.991543,1.6865358
-32.958096,2.9923766,1.6898108
-33.73147,2.2355087,0.22687721
-33.791843,2.2338817,0.22589493
-33.84947,2.2353625,0.23096657
-33.13583,3.002461,1.7162766
-33.143814,3.0409553,1.7924953
-34.042175,2.2221563,0.21231985
-33.132957,3.1405053,1.9884615
-34.14969,2.2349925,0.24191236
-33.133747,3.2243114,2.153916
-34.282375,2.2254512,0.22847033
-33.110264,3.3257253,2.353239
-33.17089,3.3109477,2.3265839
-33.21604,3.3102176,2.327056
-33.25655,3.3136828,2.3356457
-33.30619,3.3095858,2.3297005
-33.369633,3.2943714,2.302392
-47.35524,1.8329206,0.35104322
-47.548077,1.8433137,0.3890462
-47.555,1.8980579,0.5031395
-47.56831,1.9510312,0.6141758
-47.58989,2.001871,0.7215667
-47.588707,2.0576208,0.83725166
-47.593033,2.1118226,0.9502678
-47.599236,2.165324,1.0620584
-47.591663,2.2215106,1.1783004
-47.605362,2.2728462,1.2863736
-47.580235,2.3320618,1.4075184
-47.5885,2.3839731,1.5164475
-47.58477,2.4380774,1.6289577
-47.521328,2.5037775,1.7604432
-47.525074,2.5556355,1.869061
-47.56646,2.599975,1.9653926
-47.641983,2.6378062,2.0512357
-47.8037,2.6596913,2.1115117
-48.791496,2.6399152,2.1590953
-47.48948,2.9229581,2.634738
-47.615173,2.9517899,2.7066498
-47.7873,2.9732504,2.767375
-47.87902,3.008896,2.8506331
-48.12252,3.0199754,2.896194
-48.362278,3.0328395,2.9452333
-48.63092,3.0422935,2.9898148
-48.862152,3.058876,3.0460343
-49.219666,3.0573018,3.0757122
-49.554367,3.0609536,3.1143727
-49.82549,3.0756233,3.1704578
-49.925156,3.1163144,3.265634
-50.07377,3.150445,3.3515801
-50.806976,3.1042266,3.3222528
-50.851513,3.1553688,3.4346066
-50.869972,3.2100317,3.5520473
-50.90129,3.2629342,3.6670427
-51.4888,3.2449048,3.6840506
-52.080894,3.2293375,3.7067885
-52.763718,3.205743,3.7211285
-53.448288,3.1854715,3.7427716
-54.206207,3.1601746,3.7607632
-4.1911335,2.5526068,2.2801633
-4.2369423,2.486989,2.1372218
-4.218733,2.4126062,1.9808884
-4.96084,2.4441652,1.9885988
-5.5470123,2.4573765,1.9699264
-5.8842945,2.4374282,1.9008818
-5.8196793,2.359553,1.7411633
-5.854456,2.2960644,1.6040955
-5.87096,2.229693,1.4624524
-5.9287376,2.169609,1.330924
-5.380743,2.012904,1.0429983
-5.6381073,1.983598,0.9609513
-8.037724,2.1167307,1.0545626
-8.300175,2.0982904,0.9954028
-8.412516,2.054085,0.89369583
-9.331326,2.1577508,1.0409131
-9.47489,2.1224701,0.955709
-10.431469,2.2413034,1.1320438
-9.8088665,2.062564,0.80429935
-11.069195,2.246751,1.0947804
-11.118221,2.1985116,0.98985386
-11.198589,2.156567,0.89581347
-10.926596,2.0429046,0.6781802
-12.2331505,2.254239,1.0223298
-12.582939,2.2721963,1.033628
-12.515429,2.2029862,0.8938699
-12.923143,2.2359316,0.93230486
-13.213463,2.2453446,0.9303541
-13.772091,2.3160706,1.0366349
-13.855677,2.2826722,0.96070385
-14.017643,2.2674632,0.91700935
-14.307945,2.282815,0.92768383
-14.67406,2.3176026,0.97337866
-15.09011,2.3663957,1.0446682
-15.2715225,2.3607552,1.0197091
-15.311512,2.3212614,0.9345832
-15.571191,2.3364003,0.9473071
-15.789243,2.3424506,0.9441786
-16.154541,2.3872917,1.0111699
-16.457441,2.418121,1.0535593
-16.621132,2.414151,1.0336456
-16.708303,2.390629,0.9786272
-17.051594,2.4363875,1.049283
-17.278454,2.452435,1.0665731
-17.452501,2.4551437,1.059968
-17.706495,2.481139,1.0960641
-17.893158,2.4895165,1.1004105
-18.038067,2.4869094,1.0849595
-18.252798,2.5053215,1.1082144
-18.405392,2.506661,1.1004825
-18.569489,2.5122125,1.1007109
-18.746635,2.5225754,1.1100326
-18.90045,2.5267847,1.1082721
-19.036219,2.5262208,1.0979209
-19.163326,2.5236225,1.0839968
-19.3168,2.530006,1.0868669
-19.412628,2.5187128,1.057188
-19.449036,2.488496,0.9925103
-19.486732,2.458622,0.928493
-19.402195,2.3879821,0.78864956
-19.281715,2.3041708,0.6240983
-19.44692,2.3163924,0.63845396
-19.45245,2.2744627,0.55189896
-19.263458,2.1642466,0.33763647
-19.262638,2.1185236,0.24377728
-24.80488,2.7126575,1.1364317
-24.979757,2.7798557,1.2637057
-25.17811,2.8637125,1.4234962
-25.357033,2.9377258,1.5643744
-25.724642,3.1346226,1.9442158
-25.744774,3.1117158,1.8971448
-25.699055,3.045299,1.7654529
-25.889246,2.984022,1.6337657
-26.268175,3.2133327,2.078526
-26.315413,3.2107217,2.0712743
-26.359411,3.205939,2.0598164
-26.12324,2.994573,1.6450853
-26.16275,2.983887,1.6220002
-26.215816,2.9834545,1.6189685
-26.261631,2.9777062,1.6055851
-26.290318,2.9587235,1.5663528
-26.28294,2.9109924,1.4709034
-26.34418,2.8298903,1.3059464
-26.30479,2.7518597,1.1510835
-26.251795,2.6602986,0.9696479
-26.300652,2.653955,0.95513964
-27.058743,3.2668536,2.154623
-27.100693,3.2638075,2.1470132
-27.13902,3.25764,2.1333055
-26.662624,2.2924962,0.22025776
-26.712389,2.2835982,0.20096588
-27.289316,2.294706,0.20679283
-27.402542,2.2982457,0.21095037
-28.031044,2.8927195,1.3791947
-28.057032,2.86399,1.3214259
-28.545218,3.2325532,2.043992
-28.638401,3.2581992,2.0931482
-28.772514,3.216573,2.0080047
-28.90697,2.9794493,1.5349979
-28.942781,2.9643276,1.5044727
-29.024172,2.957444,1.4897146
-29.064468,2.9528236,1.480032
-29.107786,2.9567676,1.4873266
-29.157635,2.980888,1.5346003
-29.536934,3.2041364,1.9737539
-29.539242,2.3127363,0.20619011
-29.73381,2.9891684,1.5462713
-29.775759,2.9993942,1.566349
-29.860336,3.0359278,1.6384425
-29.951078,3.187259,1.9381647
-29.938408,2.3177814,0.21461535
-29.988277,2.3218052,0.22250223
-30.068441,3.310915,2.183075
-30.087744,2.3347402,0.24803591
-30.137207,2.3418505,0.26211262
-30.186563,2.3400793,0.2586069
-30.235065,2.3767178,0.3312621
-30.280394,2.4720237,0.5202317
-30.328484,2.4620628,0.5005617
-30.376268,2.4612322,0.49901056
-30.429775,2.3876,0.35318184
-30.476833,2.4063835,0.39055777
-30.533342,2.3307962,0.24090815
-30.510885,2.9363887,1.4413838
-30.631865,2.3361685,0.25197077
-30.681396,2.3365715,0.25301123
-30.729712,2.3447404,0.2694664
-30.78102,2.334616,0.24969244
-30.832201,2.326873,0.23466396
-30.729069,3.0878928,1.7429876
-30.93506,2.3126957,0.20727396
-30.985277,2.312536,0.20734692
-30.873413,3.1421006,1.8516431
-31.187563,2.30918,0.20249796
-30.970224,3.2097657,1.986795
-31.591908,2.3150606,0.21893358
-31.321148,3.1024303,1.7781091
-31.372427,3.0762525,1.7268786
-31.742147,2.3232107,0.2372737
-31.794634,2.3207357,0.23316383
-31.84847,2.315755,0.22412348
-31.900381,2.3153327,0.2241292
-31.954313,2.3110867,0.21659851
-31.501423,3.3053908,2.1839948
-32.06086,2.3065593,0.20946217
-32.112663,2.3075864,0.2124424
-32.1645,2.3087513,0.21572208
-32.215134,2.3122425,0.22362709
-32.270798,2.3071315,0.21455383
-32.322266,2.309593,0.22047806
-32.37691,2.3069658,0.21637249
-32.432243,2.3036225,0.21088266
-32.485245,2.3043427,0.213449
-32.534622,2.3108413,0.22745466
-32.589962,2.3083816,0.22379637
-32.64338,2.309101,0.22644615
-32.693855,2.3142798,0.23792553
-32.750088,2.311414,0.23355436
-32.80679,2.3082807,0.22868729
-32.869377,2.2975965,0.20895433
-32.922634,2.2999415,0.21496058
-32.975914,2.3024337,0.22128534
-33.029552,2.3046453,0.22708464
-32.392197,3.1690984,1.9326229
-32.3999,3.211834,2.0179949
-33.19627,2.3053944,0.23306465
-32.459686,3.2409165,2.0776167
-33.31633,2.2968478,0.21939135
-33.37151,2.298738,0.22474623
-33.434616,2.2919679,0.21308231
-33.490005,2.2941914,0.21915865
-33.54506,2.2969885,0.2263956
-33.60563,2.294106,0.22249079
-33.667976,2.289744,0.21571302
-33.72773,2.2884793,0.21506405
-33.77945,2.2956688,0.23107052
-33.84311,2.291029,0.22385788
-33.897766,2.2956433,0.23486853
-33.954967,2.297949,0.24137497
-34.014816,2.2979653,0.24341917
-34.067795,2.3046937,0.2586789
-34.13354,2.2997603,0.2510805
-33.185123,3.2146883,2.0482168
-33.14877,3.288124,2.193873
-33.15733,3.3200989,2.2581744
-33.202263,3.3198225,2.2592502
-33.24213,3.3241005,2.2692795
-33.300503,3.3128881,2.2489886
-33.353035,3.3070695,2.239304
-47.497482,1.9593434,0.36359262
-47.492435,2.0163937,0.4822626
-47.54652,2.0597968,0.5768709
-47.58811,2.1059797,0.6764164
-47.592392,2.1602416,0.79012966
-47.570084,2.2199302,0.9132638
-47.59093,2.270022,1.0196104
-47.56763,2.3291564,1.1416278
-47.606224,2.3751159,1.2407727
-47.59684,2.430742,1.3566065
-47.55307,2.4928865,1.4835572
-47.630295,2.5307038,1.5687346
-47.576267,2.5941133,1.6976752
-47.665314,2.629675,1.7791333
-47.54843,2.7041163,1.9265494
-47.61827,2.7431517,2.013949
-47.650833,2.7891178,2.1131086
-47.79889,2.8144069,2.1777391
-47.81613,2.8633006,2.28199
-47.812706,2.915626,2.3919234
-47.733383,2.9805863,2.5226345
-47.890038,3.0054772,2.5873213
-47.953003,3.0464165,2.6785975
-48.278355,3.0971725,2.811256
-48.40619,3.129042,2.8886456
-49.1084,3.0738056,2.8272538
-49.405,3.083072,2.8702908
-49.729744,3.0896702,2.9099703
-49.92142,3.1170619,2.9831786
-49.97742,3.1644945,3.0881152
-50.816704,3.1035502,3.0258203
-50.8415,3.1576233,3.1424732
-50.864532,3.2118704,3.2594213
-50.940292,3.2591858,3.3659444
-51.547607,3.2389846,3.3718061
-52.138157,3.2240217,3.387517
-52.705933,3.2148805,3.4138398
-53.349625,3.1995978,3.4332957
-54.194878,3.164142,3.4261808
-5.1056213,2.4692366,1.6590061
-5.644663,2.47575,1.6374369
-5.850994,2.4367213,1.540988
-5.8828506,2.3727667,1.4030848
-5.788145,2.289629,1.2327881
-6.3590164,2.103008,0.8000121
-6.902157,2.1238427,0.80907965
-8.147404,2.2655902,1.0289845
-8.429527,2.2495542,0.97692347
-9.347584,2.3455343,1.1211143
-9.449024,2.3021317,1.02286
-9.702282,2.286354,0.9733658
-10.42417,2.3574975,1.0777473
-9.764925,2.175932,0.7361655
-9.802168,2.1216674,0.6192713
-11.190207,2.326553,0.96396637
-11.224884,2.2757154,0.8545718
-10.725746,2.1190891,0.5557184
-12.539551,2.424164,1.0850639
-12.579815,2.378024,0.9853716
-13.090654,2.3225756,0.836998
-14.078392,2.4827445,1.1128907
-14.456728,2.5148876,1.1571975
-14.51635,2.4780545,1.0761614
-14.710317,2.4716992,1.0509701
-14.374684,2.3447473,0.80490446
-14.622682,2.3511417,0.8032756
-15.6768,2.5491018,1.1547437
-15.768269,2.5232997,1.0951343
-15.841278,2.4933155,1.0279093
-15.592275,2.384296,0.81443024
-15.77503,2.3809361,0.7964945
-15.925683,2.370368,0.7654195
-16.829033,2.5532784,1.0946317
-17.068035,2.5696115,1.1146894
-16.704319,2.4287488,0.8415761
-16.764387,2.3979669,0.7737293
-17.365356,2.5133078,0.9796095
-17.165844,2.4135911,0.7829814
-17.351027,2.4187117,0.782948
-17.518524,2.4198465,0.77565527
-17.698437,2.4253683,0.7768364
-17.875273,2.4309583,0.77837515
-18.048195,2.4363477,0.77975416
-18.249352,2.4509935,0.798851
-18.418598,2.457236,0.8022871
-18.56551,2.4576252,0.7948308
-18.753834,2.4714563,0.81306124
-19.36665,2.6181133,1.0839362
-19.434933,2.5980103,1.0383434
-19.459686,2.5642312,0.9667635
-19.388037,2.4992363,0.8356662
-19.298965,2.427624,0.6918111
-19.288864,2.3809788,0.5955186
-19.417564,2.3802233,0.5869627
-19.257654,2.2825363,0.3929367
-19.255976,2.237277,0.29916382
-19.267168,2.1960416,0.2130785
-24.864367,2.797768,1.1846852
-25.054323,2.8733218,1.3314834
-25.212454,2.9315555,1.4441867
-25.353573,2.9809976,1.5396276
-25.663132,3.1381223,1.8483458
-25.688976,3.118542,1.807414
-25.6786,3.0753398,1.7196927
-25.914505,3.0447817,1.6487336
-25.965761,3.0418909,1.6410131
-26.290993,3.2331362,2.0188699
-26.337885,3.2301245,2.011095
-26.372112,3.218082,1.9854002
-26.212862,3.0633929,1.6761527
-26.223166,3.0313811,1.6106882
-26.26074,3.0194097,1.5850773
-26.291954,3.0024893,1.5496364
-26.366,2.8914094,1.3215213
-26.294294,2.7879806,1.1137319
-26.29101,2.7390063,1.0143962
-26.329134,2.723993,0.9827442
-26.332436,2.6788483,0.89101696
-27.067204,3.271602,2.0716972
-27.124424,3.2817225,2.090529
-27.120674,3.2374978,2.000936
-26.186947,2.3421,0.21221161
-27.24438,3.2250917,1.9722395
-27.275202,3.211185,1.943193
-26.790909,2.354846,0.22172451
-26.843153,2.349174,0.20894241
-26.901405,2.3502786,0.20974684
-26.95695,2.3486447,0.20509815
-27.948439,3.177159,1.8576608
-27.35237,2.352575,0.20407486
-27.409119,2.3547506,0.20726967
-28.084518,3.1885867,1.8778725
-28.01446,2.9085915,1.3137479
-28.09981,2.8995411,1.293849
-28.64033,3.295818,2.0841546
-28.731968,3.248579,1.9874735
-28.803858,3.2353911,1.9598479
-28.83917,3.2271872,1.942821
-28.477262,2.364028,0.20767164
-28.528452,2.3632874,0.205513
-28.579418,2.3622448,0.20276833
-28.946243,3.0104215,1.5045834
-28.988518,3.011328,1.5059271
-29.027561,3.0040052,1.4907398
-29.069979,3.0055676,1.4934373
-29.161993,3.031048,1.5438409
-29.25573,3.0676358,1.6166677
-29.304787,3.096285,1.673943
-29.3969,3.140767,1.7627788
-29.490044,3.20083,1.8830462
-29.53055,3.2098112,1.9008589
-29.441477,2.3706841,0.21193552
-29.54182,2.3743968,0.2188797
-29.591398,2.373342,0.2165227
-29.737093,3.0492435,1.5765138
-29.778322,3.056231,1.5904188
-29.739666,2.366497,0.20216608
-29.789461,2.3672843,0.20359659
-29.902233,3.0947366,1.667541
-29.989866,3.2368925,1.9534883
-30.067942,3.3261342,2.133008
-30.087381,2.3720298,0.21264029
-30.140425,3.252483,1.9847317
-30.186321,2.3857555,0.24025583
-30.23568,2.3854675,0.2397008
-30.284964,2.3875308,0.24389696
-30.33417,2.3901656,0.24926376
-30.38328,2.3933709,0.25579786
-30.433147,2.3860292,0.24112463
-30.482649,2.3850417,0.23926115
-30.532566,2.3806262,0.23051786
-30.5816,2.3847828,0.2390461
-30.630413,2.3899534,0.24963331
-30.585747,3.0266788,1.5311852
-30.728514,2.395339,0.26089525
-30.65676,3.0859165,1.6507702
-30.828482,2.3901393,0.2509365
-30.880447,2.378649,0.22809887
-30.931986,2.3708441,0.21269703
-31.234604,2.3653333,0.20386219
-31.285574,2.3637762,0.20117617
-31.33561,2.365436,0.20498371
-31.386543,2.364586,0.20376301
-31.538017,2.367231,0.21067286
-31.588078,2.3695455,0.21589947
-31.319534,3.1420128,1.7693534
-31.68758,2.3758786,0.22983742
-31.73795,2.3777084,0.23415136
-31.789116,2.377924,0.23524046
-31.840944,2.3769672,0.23399544
-31.892853,2.3761501,0.23305464
-31.946362,2.3724287,0.22630072
-31.518898,3.3049264,2.1003747
-32.052708,2.3676002,0.2181139
-31.620026,3.2606,2.0124984
-31.704,3.2515001,1.9954662
-32.26613,2.3610022,0.20816612
-32.318787,2.3613362,0.20972013
-32.370712,2.3631034,0.2141738
-32.42347,2.3637226,0.21634626
-32.476288,2.3644857,0.21883106
-32.528027,2.3671043,0.22506142
-32.580635,2.36858,0.2290225
-32.632988,2.3706264,0.23415089
-32.688663,2.3681328,0.23019648
-32.742043,2.369197,0.23340368
-32.796726,2.3687131,0.23352957
-32.852776,2.3666902,0.23059607
-32.90703,2.3673632,0.23309278
-32.962997,2.36608,0.2316947
-32.37775,3.1702254,1.8442183
-33.073265,2.3665168,0.23499298
-33.12818,2.3673887,0.2379899
-33.18282,2.3688345,0.24216318
-32.480152,3.2527325,2.0133543
-33.30318,2.3597019,0.226511
-33.36222,2.3570702,0.2226038
-33.420685,2.355445,0.22073984
-33.473206,2.3606067,0.23248434
-32.857346,3.0789127,1.6708598
-33.591866,2.3569603,0.22810602
-33.620205,2.3876183,0.29091263
-33.642975,2.4232056,0.36357546
-33.66693,2.4567418,0.43213797
-33.72989,2.4511814,0.42257214
-33.86413,2.3771803,0.27630424
-33.935368,2.3657248,0.25506353
-33.985046,2.375112,0.275486
-34.034588,2.3846276,0.29618645
-34.094616,2.3846302,0.2979207
-33.128765,3.3025448,2.1313844
-33.141594,3.3310163,2.1895194
-33.18952,3.3283958,2.185636
-33.23112,3.3314884,2.1931715
-33.29293,3.3176806,2.1670375
-33.340965,3.3159375,2.164988
-33.398758,3.30648,2.147595
-47.377884,2.091679,0.36209726
-47.52233,2.1148772,0.41965723
-47.58471,2.1565993,0.5111556
-47.58806,2.2111008,0.62593555
-47.578613,2.2680209,0.7450595
-47.57004,2.324385,0.8631158
-47.57525,2.3775513,0.97534657
-47.603584,2.4257588,1.0786238
-47.542366,2.4917386,1.2137938
-47.543953,2.5447,1.3255115
-47.55584,2.595396,1.4331465
-47.52591,2.6538606,1.5545816
-47.55851,2.7001438,1.6543097
-47.631615,2.7388825,1.7407227
-47.545616,2.8066998,1.8784933
-47.598534,2.8489332,1.9710999
-47.694218,2.8837194,2.0507417
-47.729973,2.9291801,2.14917
-47.748978,2.97746,2.2525344
-47.81846,3.0171916,2.3411007
-47.944443,3.0478332,2.4141078
-47.894882,3.107264,2.5368075
-48.00272,3.1412833,2.6158934
-48.790855,3.0700066,2.515926
-48.383873,3.1852982,2.7340126
-49.32944,3.0956187,2.6053495
-49.563362,3.1155918,2.6630402
-49.878136,3.12503,2.703702
-49.97225,3.1671906,2.7994704
-50.786552,3.1099925,2.731412
-50.832348,3.1613624,2.843689
-50.85899,3.2153268,2.960278
-50.92949,3.2635362,3.0675707
-51.56704,3.239751,3.0591607
-52.157867,3.2251065,3.0671797
-52.657814,3.2245824,3.0993123
-53.389595,3.1989977,3.093503
-54.160515,3.1726608,3.0887594
-54.897232,3.1542127,3.0986285
-5.7703724,2.6425145,1.6001182
-4.5666637,2.4066541,1.1582894
-5.1339283,2.4151502,1.1474681
-6.033039,2.4746213,1.2285175
-5.922043,2.3898113,1.0533419
-5.7074337,2.2885065,0.84831715
-6.1431675,2.2854052,0.81966114
-9.575062,2.453168,1.0043473
-9.742542,2.421573,0.9288554
-9.689888,2.3517942,0.7832079
-9.940634,2.3359113,0.7370529
-9.833714,2.2559114,0.5724678
-9.777634,2.184404,0.42344713
-9.802713,2.1275566,0.30159092
-10.674454,2.1733637,0.3560772
-10.749882,2.1284847,0.25726795
-13.057884,2.4258742,0.7754159
-14.315847,2.6367311,1.1612053
-14.463418,2.6182292,1.1149621
-14.545689,2.5862265,1.0433168
-14.707925,2.5720282,1.0055451
-14.752821,2.5324023,0.9196296
-15.471799,2.6452734,1.1240921
-15.773129,2.6666608,1.1550364
-15.898262,2.6487038,1.1112099
-15.958388,2.615922,1.0391665
-16.100662,2.6028984,1.0050163
-16.141916,2.5659924,0.9252119
-16.600262,2.6316934,1.0425076
-17.012444,2.6886594,1.1435504
-17.133373,2.6744647,1.1080432
-17.233307,2.655403,1.0632744
-17.342052,2.639005,1.0237427
-17.395302,2.608432,0.95691776
-17.188719,2.5085917,0.75608873
-17.129154,2.4466996,0.6285076
-17.411629,2.4777114,0.68101835
-17.46622,2.4471717,0.6143193
-17.530605,2.4194264,0.5530882
-17.904308,2.479857,0.66347075
-18.321316,2.5113816,0.7112341
-18.534893,2.5304296,0.7418361
-19.297401,2.7151663,1.0963106
-19.412077,2.708793,1.0779223
-19.534866,2.705442,1.0655503
-19.450237,2.63817,0.9280782
-19.441063,2.5936477,0.835094
-19.263348,2.4949472,0.63576937
-19.364195,2.4843915,0.6093359
-19.479582,2.4790063,0.59314346
-19.264435,2.3647997,0.36299467
-19.251446,2.3161533,0.26165962
-24.885904,2.8633962,1.1896763
-25.056578,2.926177,1.314292
-25.201656,2.9754083,1.4116802
-25.328766,3.0152123,1.4901352
-25.619913,3.1580489,1.7767148
-25.939457,3.0707505,1.5870614
-25.975864,3.0573652,1.5584159
-25.958858,3.0061712,1.4532232
-26.321274,3.2255168,1.8959589
-26.367641,3.2217724,1.8869805
-26.276123,3.077334,1.5914984
-26.303108,3.0575025,1.5498986
-26.255936,2.8059852,1.032732
-26.287569,2.7859104,0.9906039
-26.321499,2.767449,0.9517584
-27.059742,3.2665708,1.9619102
-27.105312,3.2657921,1.9592557
-27.138477,3.254052,1.9343381
-26.254549,2.4031901,0.20353365
-27.280468,3.2146542,1.8501534
-27.324955,3.213358,1.8465352
-27.560246,3.075648,1.558816
-27.671486,3.097956,1.6025605
-27.906773,3.166744,1.7396092
-27.96051,3.1797557,1.7654023
-28.013487,3.192526,1.7907257
-28.042076,3.1737154,1.7516618
-28.040339,2.9902725,1.3753734
-28.75003,3.248341,1.8948641
-28.427246,2.4201825,0.20194149
-28.481415,2.425719,0.21271038
-28.530453,2.4206326,0.20178938
-28.94945,3.0629637,1.513145
-28.98757,3.0538704,1.4941821
-29.02907,3.053102,1.4922471
-29.158348,3.0657876,1.5171714
-29.20056,3.0685098,1.522428
-29.24825,3.08919,1.5644178
-29.293505,3.1039126,1.5942426
-29.33745,3.1157122,1.6181054
-29.387527,3.151627,1.691299
-29.474955,3.1841648,1.7573848
-29.518,3.200837,1.791275
-29.440397,2.4233255,0.20064068
-29.490452,2.4246306,0.20309258
-29.54022,2.4247508,0.2031393
-29.589825,2.4241242,0.20167255
-29.73643,3.0982022,1.5803566
-29.777227,3.1028917,1.5898242
-29.901093,3.1443646,1.6743703
-29.985966,3.2442603,1.8785977
-30.062634,3.263373,1.9176178
-30.251612,3.2573154,1.9052372
-30.332365,2.4313397,0.2155428
-30.381527,2.434945,0.22298288
-30.43077,2.4364808,0.22620678
-30.480597,2.4315617,0.21623993
-30.529907,2.4329135,0.21911716
-30.498259,3.0983658,1.5804954
-30.62946,2.428543,0.21044731
-30.577541,3.1056206,1.595581
-30.726864,2.4395847,0.23336649
-30.777037,2.435876,0.22596931
-30.8275,2.431423,0.21706724
-30.877298,2.4310398,0.21650648
-30.98576,3.2218804,1.835557
-31.184069,3.2147722,1.8225102
-31.533298,2.421848,0.20205975
-31.63358,2.4257538,0.210958
-31.352146,3.1920826,1.7775617
-31.735376,2.4267328,0.21394062
-31.427282,3.2031984,1.8010712
-31.839373,2.4239492,0.20930195
-31.88982,2.4262056,0.21446371
-31.942217,2.4247324,0.21202183
-31.53329,3.308834,2.0186043
-32.049377,2.4183614,0.20019674
-31.672235,3.2704194,1.9415503
-32.41858,2.4170964,0.20234632
-32.120205,3.0220172,1.438395
-32.577877,2.4187245,0.207973
-32.632576,2.4174576,0.2061925
-32.683186,2.4222217,0.21673727
-32.736504,2.423347,0.21987629
-32.79206,2.4216921,0.21736383
-32.845207,2.423536,0.22200632
-32.900978,2.4221935,0.22017097
-32.956882,2.421011,0.21868134
-33.010227,2.4233088,0.22430754
-32.38955,3.2443378,1.8988152
-33.11909,2.4258676,0.23146915
-33.174324,2.426552,0.23386669
-33.23429,2.4220462,0.22571039
-33.289753,2.423059,0.22881937
-33.350468,2.418497,0.2205944
-33.40766,2.4182053,0.2210908
-33.45964,2.4237878,0.23357058
-33.521236,2.4193459,0.22565985
-33.57562,2.4228005,0.23384953
-32.936012,3.1319542,1.6783695
-33.703392,2.4112022,0.21262598
-33.0355,3.1259494,1.6680908
-33.066643,3.1414435,1.7006106
-33.87169,2.4195502,0.23336029
-33.919643,2.430375,0.25666904
-33.976048,2.433357,0.2640481
-34.0373,2.4321353,0.2629037
-33.124866,3.3025138,2.0332284
-33.132248,3.3362608,2.1028504
-33.18504,3.3298018,2.0907812
-33.238113,3.3235204,2.0790968
-33.287285,3.3209395,2.0749526
-33.329586,3.3243687,2.0830317
-33.38615,3.316255,2.0676985
-47.51364,2.2280982,0.3698721
-47.605145,2.2637053,0.44959974
-47.58847,2.3221698,0.57254505
-47.596428,2.375147,0.68509865
-47.558517,2.4371607,0.81460905
-47.56922,2.4889383,0.9248285
-47.59478,2.537569,1.02914
-47.605705,2.5888994,1.1384969
-47.54901,2.652885,1.2714238
-47.549755,2.7054918,1.3830662
-47.53286,2.7610843,1.5002136
-47.559883,2.8083496,1.6018863
-47.572136,2.8581522,1.7082543
-47.593925,2.906103,1.8111987
-47.617805,2.953576,1.9132681
-47.662643,2.9973965,2.008655
-47.822113,3.0221527,2.0692644
-47.917057,3.0581656,2.1506257
-47.985916,3.2016118,2.4594378
-48.032875,3.245605,2.555522
-48.064865,3.2918901,2.655768
-48.1297,3.3333435,2.7474208
-49.885933,3.1321776,2.4077983
-49.984367,3.1740122,2.50205
-50.774723,3.1207662,2.4288
-50.856865,3.1674268,2.5326023
-50.87365,3.222986,2.6520963
-50.976707,3.2672582,2.7519565
-51.554184,3.2517605,2.7485642
-52.166523,3.2349348,2.744174
-52.713665,3.22919,2.7601533
-53.35105,3.2155576,2.763977
-54.1687,3.184347,2.7395768
-54.997395,3.1561513,2.7222543
-5.6602516,2.4921577,0.91700363
-5.750925,2.4357786,0.7929239
-6.0893536,2.4161887,0.7384634
-8.348827,2.56163,0.9663749
-9.298285,2.5887856,0.9896474
-9.474264,2.556846,0.9149513
-9.673008,2.5294805,0.8492341
-9.764931,2.4847639,0.75036144
-9.791916,2.4290235,0.6303296
-9.785221,2.3672004,0.49855852
-10.886812,2.5041952,0.7512841
-9.791626,2.246147,0.23993254
-14.167919,2.7519069,1.1624713
-14.39121,2.7475927,1.1453996
-14.471268,2.7146971,1.0725098
-14.672371,2.7075002,1.0501299
-14.693151,2.6627562,0.9541359
-14.76516,2.6289606,0.8796859
-15.4868765,2.7383325,1.0873666
-15.83482,2.7685907,1.1396923
-15.9195595,2.7411757,1.0784507
-16.015276,2.7165432,1.0227704
-16.091658,2.6877327,0.9588938
-16.157742,2.6566887,0.890645
-16.670807,2.7329779,1.0352926
-17.044971,2.778623,1.1195712
-17.151787,2.7605684,1.0776043
-17.2508,2.7409835,1.0326734
-17.394333,2.7330503,1.0110068
-17.399685,2.6902957,0.92007065
-17.448162,2.6584878,0.85094833
-17.484165,2.623403,0.7753105
-17.469208,2.574613,0.67230606
-17.394447,2.5091727,0.53598166
-17.423325,2.4713063,0.45474386
-17.43754,2.4292166,0.36505175
-19.362858,2.8055918,1.1001325
-19.419024,2.781631,1.0475936
-19.486267,2.7610855,1.0019507
-19.447239,2.7083647,0.89159966
-19.388763,2.6489975,0.76781654
-19.243183,2.5616271,0.58754873
-19.457405,2.5864558,0.63335085
-19.401207,2.526064,0.50738573
-19.27363,2.4417112,0.3329935
-19.22201,2.3808494,0.20593262
-24.90427,2.9216194,1.1874561
-25.071232,2.981166,1.3084164
-25.246994,3.047801,1.4440403
-25.383133,3.0925808,1.5347848
-25.516098,3.136887,1.6246204
-25.72735,3.0855215,1.5125065
-25.974716,3.0987208,1.5349746
-26.01669,3.089152,1.5141101
-26.237614,3.2058487,1.7536945
-26.293678,3.2081332,1.7573547
-26.342327,3.2053738,1.7506275
-26.302652,3.1378837,1.6103282
-26.303627,3.099069,1.5291886
-26.23975,2.8370445,0.9829707
-26.291437,2.8331947,0.97399664
-26.322065,2.8121681,0.9295435
-26.340471,2.683683,0.6609931
-27.07519,3.2761624,1.8850727
-27.116222,3.2710457,1.873704
-27.165115,3.2730994,1.8771772
-27.261904,3.2339237,1.7938828
-27.281502,3.2083173,1.7401652
-27.311485,3.1922522,1.7061944
-27.57125,3.1254694,1.5631618
-27.62041,3.1290276,1.5698972
-27.66298,3.125422,1.5618057
-27.710459,3.1276333,1.5657768
-27.77018,3.144675,1.6004939
-27.813427,3.1427002,1.5958204
-27.88725,3.1785467,1.6695466
-27.933178,3.1809952,1.6740723
-28.013235,3.171453,1.6532259
-28.010645,3.0493371,1.3989944
-28.04026,3.0277205,1.353653
-28.100473,3.0489388,1.397152
-28.194616,3.1207156,1.5455289
-28.23624,3.1178265,1.5390701
-28.6219,3.2667918,1.8452477
-28.73106,3.2448695,1.7986956
-28.766966,3.2361858,1.7803378
-28.997498,3.112883,1.5222402
-29.033026,3.0975668,1.4901681
-29.076328,3.1020284,1.4991755
-29.119158,3.105751,1.506659
-29.161844,3.1095889,1.5143938
-29.204102,3.1126835,1.5205941
-29.38074,3.158494,1.6149445
-29.422693,3.1651888,1.6286759
-29.539963,2.9541662,1.1896701
-29.73981,3.1500363,1.5961361
-29.779818,3.1503325,1.5966606
-29.820919,3.1602602,1.6172061
-29.985226,3.2482984,1.799902
-30.062538,3.2606575,1.8255239
-30.457308,3.1519973,1.5999966
-30.538498,3.142093,1.5795789
-30.692667,3.1749988,1.6483779
-30.774752,3.163744,1.6252685
-30.956734,3.226828,1.7571492
-30.993992,3.2336798,1.771575
-31.247532,3.192033,1.6864467
-31.356188,3.2209804,1.7473693
-31.389168,3.2369025,1.780716
-31.523737,3.2881358,1.8883119
-31.609188,3.2772233,1.8663373
-31.659632,3.2586617,1.8281689
-31.702204,3.2550077,1.8209505
-31.789333,3.2455418,1.802072
-32.196095,3.0811086,1.4640799
-32.308918,3.1093225,1.524117
-32.323784,3.147877,1.6045756
-32.357067,3.2166917,1.7482944
-32.511276,3.2405813,1.8000512
-33.235428,2.4698968,0.20404816
-33.291985,2.4697917,0.20460272
-33.4623,2.4704602,0.20840311
-32.996937,3.1578717,1.6346288
-33.033207,3.1684144,1.6571732
-33.05766,3.1901274,1.7028413
-33.767296,2.567876,0.41617012
-33.81087,2.5811718,0.44460535
-33.87059,2.579646,0.44239473
-33.898575,2.6068878,0.49969673
-33.120037,3.3450806,2.0271335
-33.17259,3.3391364,2.0156164
-33.21589,3.3415182,2.021329
-33.262897,3.3409321,2.0209188
-33.31885,3.3331633,2.0056815
-33.37513,3.3255882,1.9908628
-47.560028,2.3251476,0.3036108
-47.5378,2.3845828,0.42942095
-47.56202,2.4341445,0.535861
-47.54699,2.4913888,0.6573119
-47.56403,2.541933,0.76564693
-47.593147,2.5899498,0.8690505
-47.561523,2.6494255,0.9947529
-47.6325,2.6891978,1.0821223
-47.55358,2.7567594,1.2234364
-47.55432,2.8091283,1.3352189
-47.57098,2.858397,1.4409842
-47.576584,2.9094462,1.55018
-47.589798,2.9589643,1.6564069
-47.6257,3.0044687,1.7549119
-47.706085,3.0425372,1.8391743
-47.814285,3.0762908,1.9152565
-47.960857,3.1042776,1.9804411
-47.972763,3.1541297,2.087472
-48.248623,3.1629539,2.1164746
-48.02086,3.2496777,2.2936177
-48.04287,3.297637,2.3970532
-48.090885,3.3417091,2.4931583
-48.101936,3.3911498,2.599413
-48.2042,3.4276295,2.6813283
-50.76704,3.125567,2.1296573
-50.851646,3.1721096,2.2325287
-50.88845,3.2252285,2.3477378
-50.968857,3.2727036,2.4525127
-51.61108,3.249317,2.426446
-52.25351,3.229265,2.407568
-52.692474,3.2371845,2.4410734
-53.29788,3.2276344,2.4433985
-54.230865,3.1833608,2.3836002
-54.940636,3.16917,2.3799767
-6.295412,2.5183673,0.5881257
-7.258869,2.5263367,0.5829077
-9.58777,2.6974685,0.8969579
-9.665947,2.65001,0.7932005
-9.745686,2.602992,0.690372
-9.854113,2.5609753,0.5976496
-10.929289,2.6843379,0.83805084
-11.285982,2.6890302,0.840013
-11.621454,2.6918259,0.8384032
-11.975668,2.6997252,0.84734297
-12.32996,2.709496,0.8603153
-12.494316,2.6858556,0.8058872
-12.993526,2.7261534,0.8811388
-13.033245,2.6810656,0.7835288
-14.252939,2.8659842,1.1529188
-14.382947,2.8423553,1.0993514
-14.506701,2.8180008,1.044384
-14.696829,2.807705,1.0181022
-14.707575,2.761104,0.91797304
-15.023099,2.77849,0.94829226
-15.659597,2.866245,1.1223826
-15.862683,2.8637133,1.1125164
-15.943762,2.8353255,1.0499344
-16.072376,2.8178039,1.0096087
-16.110374,2.7802727,0.92840624
-16.514687,2.827004,1.0197458
-16.971931,2.8884742,1.1415172
-17.119915,2.8794596,1.1190467
-17.194912,2.8536124,1.0621204
-17.29378,2.8337872,1.0175867
-17.429337,2.8233922,0.99246645
-17.418928,2.7770658,0.8935728
-17.44917,2.7406743,0.81508684
-17.489471,2.7067623,0.7417078
-17.516548,2.6693583,0.6611495
-17.546806,2.6326537,0.58203554
-17.51033,2.5779428,0.4658227
-19.301449,2.9001944,1.1177311
-19.37822,2.8819406,1.0771704
-19.42433,2.8550394,1.0187693
-19.502327,2.837517,0.9797702
-19.436794,2.7775397,0.85299873
-19.29695,2.694319,0.6780944
-19.292517,2.6509955,0.5856862
-19.370436,2.6327286,0.5451455
-19.235882,2.5481772,0.3673315
-19.237452,2.5053353,0.2758689
-24.82397,2.9623716,1.1504583
-24.952957,2.9978943,1.2239614
-25.100443,3.0453622,1.3225517
-25.237503,3.0882745,1.4116354
-25.349667,3.1178498,1.4727845
-25.44043,3.1356506,1.5092654
-25.493568,3.1313286,1.4993539
-26.087751,3.1430287,1.5162392
-26.266153,3.2298539,1.6979756
-26.307861,3.2217643,1.6803131
-26.338434,3.2056596,1.6458135
-26.3168,3.1510491,1.5303831
-26.313585,3.1088786,1.4410892
-26.319843,3.072936,1.364881
-26.314278,3.0271826,1.2680397
-26.257391,2.8964357,0.9918108
-26.293745,2.880435,0.9575124
-26.324339,2.8595755,0.91299725
-26.323423,2.764903,0.71257496
-26.324116,2.7168195,0.6107807
-27.03074,3.276106,1.7869968
-27.08685,3.2835543,1.8021631
-27.122637,3.2734127,1.7803216
-27.56728,3.1601338,1.536385
-27.616505,3.1635432,1.5431628
-27.657707,3.1582866,1.5316911
-27.707726,3.1631794,1.5416117
-27.86304,3.1868594,1.5903969
-27.915604,3.1968331,1.6110625
-28.067692,3.1047573,1.4153113
-28.10956,3.1006887,1.4064155
-28.339443,3.1808631,1.5742731
-28.388275,3.1903193,1.5939393
-28.597647,3.259979,1.7398362
-28.7137,3.2476244,1.7130976
-28.997871,3.150859,1.5074
-29.078278,3.1442997,1.493227
-29.117634,3.1386352,1.4811182
-29.158152,3.136034,1.4754791
-29.203693,3.1483731,1.5013709
-29.247347,3.1561751,1.5176969
-29.291132,3.1653707,1.5369706
-29.336857,3.1823354,1.5726471
-29.381,3.1956048,1.600532
-29.418573,3.185595,1.5792961
-29.458525,3.1841924,1.5762305
-29.46016,3.0192876,1.2281051
-29.502764,3.0192742,1.2279778
-29.545256,3.018945,1.22719
-29.59262,3.0443304,1.2806811
-29.64444,3.0993102,1.3966408
-29.694107,3.1510293,1.5057282
-29.736088,3.1610193,1.5267496
-29.77634,3.1604347,1.5254574
-29.81878,3.1783412,1.563199
-29.86074,3.196789,1.6020918
-29.901272,3.205509,1.6204562
-29.982948,3.2459502,1.7057548
-30.02255,3.2588408,1.7329421
-30.061678,3.2688372,1.7540264
-30.216957,3.2404675,1.694139
-30.256155,3.2368376,1.6864891
-30.459196,3.170601,1.546835
-30.499508,3.1693091,1.5441575
-30.540462,3.1638477,1.5326848
-30.582243,3.1542218,1.5124288
-30.622952,3.1528215,1.5095415
-30.698568,3.180633,1.5683899
-30.737202,3.1880646,1.584158
-30.778336,3.1836576,1.5749483
-30.857357,3.189646,1.5877843
-30.890018,3.2178893,1.6474962
-30.9266,3.2296188,1.6723619
-30.965658,3.232089,1.6776943
-31.00547,3.2321134,1.6778693
-31.088367,3.2231524,1.6592269
-31.134434,3.2065635,1.6243663
-31.177711,3.1989937,1.6085429
-31.253855,3.2120774,1.6364679
-31.296608,3.2069528,1.6258245
-31.325954,3.233538,1.6820889
-31.398144,3.2528107,1.7231135
-31.436579,3.2569075,1.7319474
-31.47063,3.2699058,1.7595644
-31.542751,3.2865095,1.7949972
-31.632456,3.2700958,1.7608113
-31.675499,3.266044,1.7524934
-31.727398,3.247146,1.7128711
-31.767284,3.2495887,1.7182665
-31.907,3.226147,1.6696033
-31.95567,3.2162752,1.6490612
-32.00856,3.2007885,1.6166878
-32.123077,3.1600728,1.5314336
-32.180573,3.1410294,1.4915948
-32.228176,3.1364882,1.482338
-32.26833,3.1422884,1.4948902
-32.300903,3.157966,1.528266
-32.32866,3.1793957,1.573771
-32.347786,3.2110047,1.6407313
-32.379593,3.2260132,1.6727076
-32.40904,3.2435071,1.7099233
-32.442497,3.2558115,1.7362084
-32.505154,3.234003,1.69062
-32.57063,3.2100103,1.6404438
-32.619682,3.205472,1.6312671
-32.72213,3.192865,1.6055064
-32.76963,3.1911776,1.6023645
-32.803936,3.203512,1.6287637
-32.857315,3.1961424,1.6136708
-32.89923,3.2007835,1.6238799
-32.944294,3.2023892,1.6277065
-33.026802,3.2134306,1.6518664
-33.0603,3.2263396,1.6795125
-33.91992,2.529037,0.21275663
-33.107716,3.352797,1.9475965
-33.176865,3.332732,1.9058619
-33.21982,3.3359535,1.9131417
-33.26324,3.338917,1.9198861
-33.32183,3.3294194,1.900425
-33.363625,3.3341966,1.9110031
-47.557655,2.4856367,0.37088585
-47.5518,2.541039,0.48955774
-47.580715,2.5893686,0.59385204
-47.564796,2.6461258,0.71524
-47.602207,2.692492,0.81554794
-47.55954,2.7535799,0.945662
-47.635147,2.792666,1.0312433
-47.578514,2.855537,1.1649032
-47.56444,2.9103343,1.2822137
-47.588593,2.9581947,1.3855166
-47.63163,3.0027459,1.4821591
-47.679634,3.0464747,1.5771685
-47.780533,3.0815928,1.6549082
-47.925255,3.110021,1.7192998
-48.144264,3.1273432,1.7615523
-48.335976,3.149933,1.8145146
-48.62519,3.1585906,1.8397999
-48.000008,3.304985,2.1400232
-48.051285,3.348679,2.2351527
-48.088608,3.394455,2.3344507
-48.18827,3.4314797,2.4164
-50.61528,3.1484952,1.8643556
-50.844864,3.1752992,1.9273877
-50.866074,3.230684,2.0470543
-51.005676,3.2706733,2.1363878
-51.57254,3.2572136,2.1207528
-52.236897,3.2346456,2.0878272
-52.652203,3.245658,2.1213412
-53.301193,3.2311563,2.105463
-54.145164,3.1975288,2.0530334
-54.94995,3.1727414,2.0187368
-6.2473583,2.5072432,0.22126055
-7.3008995,2.5939898,0.39784575
-7.9469585,2.625234,0.45873022
-7.9760475,2.5653481,0.32910442
-8.832417,2.634585,0.46991348
-8.842726,2.5738924,0.33875513
-9.740271,2.656778,0.5086384
-9.771938,2.60177,0.38955498
-9.789543,2.5442994,0.26530647
-10.92684,2.6780834,0.5426855
-11.3856735,2.7003436,0.5861392
-11.81543,2.7199297,0.6241188
-12.242094,2.74127,0.665925
-12.549736,2.7431288,0.66687775
-12.962181,2.7660842,0.71232605
-13.374239,2.7912116,0.7624726
-13.686401,2.7993891,0.7770386
-14.15878,2.84052,0.86113596
-14.6066885,2.8794565,0.9407468
-14.696398,2.8486922,0.87350273
-14.778308,2.8166122,0.80350256
-15.206895,2.8568664,0.88616514
-15.746758,2.9230683,1.0237212
-15.969449,2.92445,1.024549
-16.068573,2.9000914,0.9710655
-16.155441,2.873382,0.9126344
-16.49676,2.9039922,0.9753728
-17.030907,2.9804223,1.1350732
-17.119743,2.9573247,1.0844293
-17.233324,2.9403229,1.0466995
-17.352165,2.9250388,1.01263
-17.404774,2.8943052,0.9458852
-17.436104,2.8584278,0.86825943
-17.477516,2.824955,0.79572916
-17.492714,2.784869,0.7091942
-17.53437,2.7513072,0.63648033
-17.538883,2.7081206,0.5433755
-17.564644,2.6701944,0.46141577
-17.564713,2.6252952,0.3646736
-19.358454,2.983905,1.1209321
-19.432491,2.9648855,1.0792928
-19.464222,2.934093,1.012681
-19.302437,2.8476007,0.82783794
-19.408627,2.8375707,0.80528927
-19.282848,2.7595847,0.63845587
-19.456938,2.7698765,0.65908
-19.46893,2.7320945,0.5776181
-19.271421,2.6298175,0.35912418
-19.243732,2.57834,0.24853182
-24.821688,3.0071437,1.12711
-24.935652,3.0334475,1.1828628
-25.082703,3.0796072,1.2810488
-25.196234,3.1079671,1.3412261
-25.298183,3.1306267,1.3892403
-25.39114,3.148878,1.4278479
-25.460869,3.1540046,1.4384217
-25.526266,3.156951,1.4443431
-25.587435,3.1576855,1.4455466
-25.992672,3.1946998,1.522603
-26.054663,3.198782,1.5310106
-26.113226,3.2009182,1.5352616
-26.160112,3.1952965,1.522933
-26.294178,3.2511482,1.6420565
-26.33969,3.245661,1.6300287
-26.3448,3.2110617,1.5557489
-26.304783,3.1426392,1.409131
-26.322271,3.074328,1.2624502
-26.333742,3.041195,1.1912951
-26.264687,2.9447958,0.9848099
-26.304266,2.9315095,0.9561
-26.325775,2.8108373,0.6970954
-26.328678,2.765173,0.5991163
-26.367544,2.748969,0.564168
-27.024126,3.2658024,1.6697445
-27.097658,3.2879398,1.7168865
-27.12879,3.2732627,1.6852589
-27.516556,3.1924362,1.5102415
-27.567827,3.19753,1.5209599
-27.61813,3.2019942,1.530335
-27.939056,3.2066703,1.5391855
-28.000175,3.111478,1.3349047
-28.09654,3.1192558,1.3512702
-28.176212,3.1683564,1.4562759
-28.337439,3.2131112,1.5517302
-28.382378,3.2162607,1.5583539
-28.426388,3.218312,1.5626273
-28.535336,3.25847,1.6484075
-28.629814,3.2783494,1.6907725
-28.703232,3.2620723,1.6557088
-28.747198,3.267494,1.6672258
-29.002964,3.1980677,1.517911
-29.036121,3.1776545,1.4741068
-29.081886,3.1886215,1.4975271
-29.11677,3.171302,1.4603553
-29.161186,3.1795745,1.4780092
-29.203041,3.1812718,1.4815807
-29.245903,3.1864326,1.4925747
-29.290276,3.1971612,1.515501
-29.337164,3.2176661,1.5593743
-29.380587,3.2282288,1.5819497
-29.419636,3.2237804,1.5723705
-29.461851,3.062838,1.2274718
-29.504253,3.062387,1.2264619
-29.548836,3.0725787,1.2482557
-29.595139,3.0934293,1.2928896
-29.644968,3.1376042,1.3874979
-29.690928,3.166316,1.4489813
-29.732746,3.1732087,1.4637184
-29.774517,3.1814778,1.48141
-29.815678,3.1869004,1.4930053
-29.857384,3.1991909,1.5193167
-29.899382,3.2187765,1.5612617
-29.981926,3.2629316,1.6558375
-30.061047,3.2829907,1.6987987
-30.138788,3.2624326,1.654746
-30.178137,3.2489207,1.6257958
-30.217743,3.2410083,1.6088457
-30.257528,3.234467,1.5948377
-30.336184,3.2436786,1.614593
-30.37706,3.2273011,1.5795155
-30.457949,3.2155752,1.5544286
-30.50103,3.1910772,1.5019636
-30.542341,3.1844318,1.4877491
-30.581303,3.1943545,1.5090365
-30.621925,3.1929832,1.5061283
-30.66167,3.1967778,1.5142903
-30.7004,3.2053092,1.5326033
-30.740791,3.2050896,1.5321712
-30.783995,3.1927667,1.5058103
-30.821445,3.2058082,1.533793
-30.856377,3.2273471,1.5799847
-30.893911,3.237197,1.6011353
-30.928293,3.2572148,1.6440711
-30.978577,3.2227628,1.5703154
-31.023785,3.207754,1.538219
-31.059889,3.2217798,1.568326
-31.104015,3.2116137,1.5466089
-31.139719,3.2258248,1.5771179
-31.225155,3.215674,1.55551
-31.372572,3.2537239,1.6373253
-31.405508,3.2706127,1.6735859
-31.446564,3.2697442,1.6718111
-31.606129,3.2772763,1.6883159
-31.64738,3.2769506,1.6877174
-31.703274,3.2512429,1.6327586
-31.91867,3.24268,1.614984
-31.965164,3.2366858,1.6022696
-32.064796,3.2165897,1.5594888
-32.132023,3.1830738,1.4878502
-32.217068,3.187414,1.4974222
-32.259758,3.1895552,1.502151
-32.332794,3.2098331,1.5458689
-32.35783,3.2339137,1.59758
-32.40036,3.2360418,1.6022925
-32.443577,3.2374897,1.6055508
-32.486492,3.2394562,1.6099224
-32.53325,3.2371745,1.6052036
-32.57452,3.2413695,1.6143532
-32.641182,3.2176182,1.5636797
-32.77227,3.2247293,1.5794435
-32.826424,3.2166471,1.5623326
-32.866604,3.223186,1.5765204
-32.951073,3.2323034,1.5964298
-32.987812,3.2422643,1.61795
-33.017002,3.259265,1.6545396
-33.083935,3.327023,1.8001723
-33.103138,3.3514185,1.8525891
-33.14883,3.3522005,1.8544803
-33.19151,3.3557787,1.8623571
-33.238228,3.3560717,1.8632097
-33.292755,3.3500922,1.8506451
-33.33518,3.3544545,1.8602123
-47.511215,2.5937428,0.34216404
-47.53995,2.642086,0.44675255
-47.55694,2.6925201,0.55574465
-47.585045,2.7407103,0.6600132
-47.614243,2.7885904,0.76362944
-47.59561,2.8449235,0.8850217
-47.625053,2.8924174,0.987823
-47.714993,2.9293618,1.0684667
-47.60175,3.0011008,1.2221894
-47.672623,3.0411792,1.3094215
-47.76259,3.078296,1.3904605
-47.895203,3.1088307,1.457727
-48.08297,3.1311865,1.5078998
-48.266953,3.1549878,1.5611625
-48.63665,3.1513495,1.5570669
-48.92582,3.1616488,1.5822568
-49.23996,3.1697261,1.602912
-49.724373,3.1549244,1.575901
-49.95315,3.178647,1.6294918
-50.119057,3.2121148,1.7034955
-50.825935,3.1732295,1.626771
-50.868973,3.2259078,1.7410297
-50.982147,3.2695286,1.8364525
-51.608337,3.2486017,1.79772
-52.175255,3.2382998,1.7813439
-52.80003,3.2239351,1.7567964
-53.283157,3.2295766,1.7740235
-54.137054,3.194841,1.7078552
-9.53261,2.6871614,0.23723269
-13.325705,2.7823975,0.46019077
-13.553652,2.7739432,0.44277096
-13.946735,2.7988923,0.49861765
-14.066946,2.7718222,0.4402957
-14.764667,2.8617318,0.63854885
-14.852103,2.830705,0.57148886
-15.296511,2.8742418,0.6679239
-15.3745775,2.8429103,0.6001563
-15.653751,2.854943,0.6274471
-16.176374,2.9215322,0.77428913
-16.246346,2.891145,0.70853376
-16.474138,2.896344,0.7207532
-16.81083,2.9275568,0.78995085
-17.191498,2.970883,0.8856497
-17.389246,2.9735756,0.8922949
-17.439764,2.9422843,0.82448196
-17.476883,2.9078012,0.7496748
-17.513674,2.8731825,0.67457056
-17.544136,2.836933,0.59589195
-17.54183,2.7923267,0.4989171
-17.562513,2.7532446,0.41403818
-17.577082,2.7123911,0.3252821
-19.308132,3.0432446,1.0512877
-19.399942,3.0286806,1.0199761
-19.428514,2.9969625,0.95112324
-19.237148,2.90341,0.7469845
-19.267693,2.8711991,0.6770625
-19.301235,2.8397398,0.6087847
-19.453957,2.8429816,0.61641026
-19.277786,2.7497504,0.41301632
-19.259727,2.702178,0.30950022
-19.235394,2.652185,0.2006936
-24.860538,3.040903,1.065156
-24.971146,3.0651426,1.1182294
-25.061304,3.0787556,1.1481109
-25.183727,3.1116128,1.219975
-25.293932,3.1385503,1.2789154
-25.37315,3.1482468,1.3002377
-25.465052,3.1661043,1.3393593
-25.51486,3.159267,1.324604
-25.960764,3.3956158,1.8403492
-25.889008,3.3167036,1.6683507
-25.747158,3.1917934,1.3960195
-25.805565,3.1916995,1.3959622
-25.858395,3.188296,1.3886852
-25.946545,3.208277,1.4324112
-26.001019,3.2067091,1.4291306
-26.07063,3.2155976,1.4486542
-26.128365,3.2169104,1.4516501
-26.191061,3.221986,1.4628544
-26.239681,3.2176006,1.4534183
-26.28273,3.209403,1.4356666
-26.383804,3.24321,1.509522
-26.409124,3.2227118,1.4649405
-26.48378,3.2386053,1.499721
-26.549608,3.2485743,1.5215788
-26.604963,3.2510896,1.5271788
-26.649237,3.2453368,1.5147471
-26.717373,3.2585053,1.5435739
-26.823326,3.2622116,1.5518699
-27.106558,3.2934377,1.6204586
-27.13832,3.2788682,1.5887871
-27.255949,3.2989197,1.632688
-28.604277,3.2697616,1.5711832
-29.613222,3.218845,1.4609656
-29.774256,3.208745,1.4390078
-29.814564,3.2057488,1.432488
-30.060986,3.2837777,1.6025615
-30.418734,3.2583215,1.5470662
-30.783422,3.2392044,1.5052919
-31.028107,3.2367706,1.4998584
-31.503098,3.2790034,1.5915141
-31.541536,3.2845693,1.6036043
-31.58705,3.2767992,1.5866294
-31.663755,3.2884474,1.6119299
-31.707827,3.2842827,1.6028085
-31.75111,3.2818618,1.597487
-32.161327,3.2452836,1.5172844
-32.25839,3.2335994,1.4916945
-32.343395,3.2387128,1.5027127
-32.778557,3.2607865,1.5501051
-32.826702,3.2591133,1.5463762
-32.873444,3.2591233,1.5463152
-32.949703,3.2763846,1.583777
-33.03805,3.3257332,1.691103
-33.05623,3.3517368,1.7477078
-33.10146,3.3532207,1.7508521
-33.14762,3.3540869,1.7526469
-33.19912,3.3505929,1.7449341
-33.25615,3.3427799,1.7278018
-33.30545,3.341869,1.7257175
-33.34355,3.350399,1.744216
-47.55445,2.7547653,0.39771843
-47.589737,2.8017125,0.49956703
-47.602253,2.8526502,0.6101799
-47.644325,2.8982043,0.7089672
-47.710655,2.9395614,0.7985306
-47.642204,3.0038626,0.9385071
-47.77483,3.0340576,1.0035343
-48.25422,3.0081558,0.9452243
