x,y,z
-29.41743,3.3761213,3.472621
-29.447994,3.38076,3.4785619
-29.478159,3.3844004,3.4830246
-29.509975,3.395156,3.498455
-29.537817,3.3902993,3.489983
-29.321718,2.3047142,1.8226428
-29.247572,1.7670834,0.9958749
-29.296741,1.7767558,1.0093002
-29.342134,1.7681117,0.9946742
-29.379162,1.7123497,0.90773296
-29.44745,1.8337202,1.0930185
-29.50295,1.8917437,1.1810899
-29.555542,1.9390607,1.25281
-29.599667,1.932153,1.2412629
-29.641012,1.901967,1.1939945
-29.673801,1.7908049,1.0222664
-29.720608,1.7923622,1.0239282
-29.767223,1.7924073,1.0233402
-29.81269,1.778415,1.0012345
-29.860231,1.7901347,1.0187559
-29.922142,2.054729,1.4253879
-29.96495,2.037311,1.3982563
-30.011366,2.1104462,1.5105181
-30.054626,2.121588,1.527472
-30.097395,2.1148593,1.5169983
-30.140335,2.1185935,1.5226936
-30.183317,2.1082704,1.5068297
-30.22551,2.148734,1.5691781
-30.247463,2.8082762,2.584117
-30.268438,3.1441803,3.101112
-30.290066,3.3281066,3.384296
-30.317957,3.351925,3.4211884
-30.344204,3.3905144,3.480844
-30.370256,3.4215398,3.5289035
-30.395836,3.4504468,3.573742
-30.424763,3.4429524,3.5626373
-30.453861,3.435534,3.5516992
-30.483486,3.4254742,3.5367475
-30.512333,3.4225621,3.5328355
-30.540579,3.4240732,3.5357676
-30.56862,3.426743,3.5405278
-30.594501,3.4414296,3.563795
-30.62261,3.4426084,3.566351
-30.651995,3.4373493,3.5590644
-30.683558,3.42241,3.5369654
-30.714382,3.4124384,3.5225477
-30.743925,3.4090514,3.518291
-30.771841,3.4127789,3.525002
-30.795818,3.4317217,3.5550957
-30.824429,3.4317958,3.5562859
-30.85395,3.428704,3.552669
-30.884645,3.4219131,3.5434337
-30.919392,3.402264,3.5145516
-30.94871,3.4015834,3.514791
-30.977882,3.4015183,3.5160232
-31.008152,3.398302,3.5124803
-31.032001,3.4139829,3.5379028
-31.054752,3.4318607,3.5667171
-31.08108,3.4390512,3.5792203
-31.114601,3.4270072,3.5623674
-31.140858,3.4343414,3.5751834
-31.169558,3.4353185,3.578331
-31.20468,3.4208739,3.5579891
-31.239687,3.4076054,3.5395122
-31.272207,3.400844,3.531026
-31.298197,3.4090908,3.5454755
-31.321083,3.4237819,3.5697818
-31.349943,3.4252334,3.5739584
-31.37725,3.4299455,3.5831451
-31.409998,3.4235942,3.5755496
-31.449623,3.4041057,3.5480447
-31.480644,3.402195,3.5473328
-31.51005,3.4035392,3.551619
-31.537447,3.408652,3.561676
-31.561255,3.4201512,3.5814629
-31.59198,3.4190826,3.582232
-31.623667,3.4165246,3.580803
-31.662552,3.4020019,3.5613208
-31.694534,3.3996449,3.560327
-31.72243,3.404173,3.5698013
-31.746006,3.4155538,3.589675
-31.772022,3.4228163,3.6033635
-31.805344,3.4187005,3.599928
-31.84016,3.4126077,3.5935783
-31.88038,3.3988485,3.5757523
-31.910994,3.3997102,3.5800214
-31.936209,3.4084032,3.5961246
-31.959435,3.4197311,3.6162257
-31.990257,3.4203002,3.6202044
-32.022232,3.4194157,3.6220603
-32.06499,3.4042716,3.6026034
-32.100338,3.3995082,3.598793
-32.12991,3.4025142,3.6066823
-32.15705,3.408657,3.6193151
-32.187336,3.4108,3.6260185
-32.218437,3.4120111,3.6313891
-32.25621,3.405208,3.6248717
-32.300076,3.3914528,3.6080832
-32.331455,3.3929806,3.614139
-32.355476,3.4031506,3.6331024
-32.385017,3.4068456,3.6424866
-32.41452,3.4106212,3.6520452
-32.45476,3.4024835,3.6440053
-32.4984,3.3909912,3.6310935
-32.53773,3.3846264,3.6258702
-32.56514,3.391295,3.639985
-32.587265,3.4034774,3.6622825
-32.61441,3.4102697,3.6766663
-32.64915,3.4092503,3.6796007
-32.70294,3.389176,3.6546001
-32.74196,3.3845003,3.6523519
-32.775146,3.38582,3.6589866
-32.80082,3.3945518,3.676547
-32.831425,3.3984818,3.6871262
-32.86353,3.4010441,3.6957688
-32.910133,3.39016,3.6848617
-32.94184,3.3934305,3.6946974
-32.97987,3.3910227,3.6963367
-33.00679,3.39881,3.7128773
-33.036827,3.4037957,3.7254028
-33.07333,3.4031446,3.7298226
-33.123615,3.3907266,3.7173057
-33.16092,3.389873,3.7216287
-33.19829,3.3891401,3.726215
-33.225582,3.397009,3.7432756
-33.26072,3.3983731,3.7510347
-33.310223,3.3881445,3.7422366
-33.349,3.3869674,3.7465448
-33.386684,3.3868499,3.7524648
-33.416183,3.393348,3.7679253
-33.45984,3.3888369,3.7677488
-33.500053,3.387243,3.7718406
-33.553024,3.3761473,3.7625327
-33.59655,3.3725743,3.764048
-33.61141,3.3905854,3.7962382
-33.653732,3.388156,3.7995467
-33.701138,3.3822532,3.798068
-33.752483,3.3738184,3.7931576
-33.79711,3.3705232,3.7956178
-33.814507,3.386649,3.8254359
-33.861748,3.3818197,3.8259418
-33.898815,3.3842788,3.836762
-33.95994,3.3704696,3.8250024
-34.0057,3.3674977,3.8285062
-34.025864,3.381837,3.8561656
-34.088272,3.3681846,3.8450887
-34.1283,3.3696156,3.855052
-34.175087,3.36684,3.8593245
-34.219276,3.3659668,3.8663502
-34.27172,3.3600812,3.8666239
-34.297596,3.3711367,3.890251
-34.36058,3.3591738,3.882494
-34.40581,3.3585348,3.8903704
-34.428745,3.3716252,3.917037
-34.496483,3.3577514,3.9071949
-34.546165,3.3550863,3.9127362
-34.596676,3.3521903,3.9181197
-34.639427,3.3540692,3.9300838
-34.673565,3.3610778,3.9490519
-34.73732,3.3512642,3.945612
-34.779476,3.3540435,3.9591842
-34.8612,3.3348768,3.9436982
-34.86381,3.360051,3.987303
-34.911907,3.3600361,3.9975617
-34.971233,3.3541503,4.0002365
-35.042713,3.3420782,3.9949865
-35.06784,3.3550844,4.0228434
-35.12757,3.3498597,4.026951
-35.169975,3.3539777,4.043426
-35.268913,3.329108,4.022435
-35.2939,3.342688,4.0515356
-35.321774,3.3547702,4.078761
-35.4092,3.3370657,4.067816
-35.471313,3.3324788,4.0739937
-35.540623,3.3246913,4.0763183
-35.628242,3.308413,4.0681233
-35.695686,3.3023949,4.0732546
-35.760925,3.297791,4.080425
-35.84307,3.2855673,4.0782766
-35.934326,3.2695904,4.071763
-36.022724,3.2555037,4.067977
-36.078312,3.256956,4.0838184
-36.163975,3.245033,4.083351
-36.262154,3.2280045,4.0769596
-36.33452,3.2230396,4.0857472
-36.447323,3.2006848,4.073639
-36.529236,3.1924872,4.0791903
-36.633743,3.1750085,4.0738816
-36.730316,3.161549,4.073856
-36.82469,3.1495776,4.0760283
-36.948708,3.1257586,4.064518
-37.047962,3.1129608,4.066613
-37.16357,3.0940294,4.061928
-37.276188,3.077002,4.0599976
-37.37045,3.0680063,4.0679355
-37.503384,3.044146,4.0590806
-37.61194,3.0306866,4.062829
-37.7664,2.9999537,4.047306
-37.848076,2.998251,4.065566
-38.000885,2.9697783,4.053915
-38.120354,2.9548361,4.058222
-38.225315,2.9459877,4.069909
-38.412743,2.9071515,4.048823
-38.509605,2.9026773,4.0665627
-38.661205,2.8788218,4.06355
-38.83447,2.848064,4.053804
-39.039333,2.8071046,4.0339446
-39.216503,2.777137,4.0269413
-39.344315,2.7653947,4.040243
-39.551056,2.7271252,4.0262175
-39.685856,2.7146206,4.0402684
-39.885662,2.6808872,4.0329895
-40.096893,2.644497,4.024067
-40.320526,2.6052382,4.0133834
-40.47866,2.5887072,4.0269365
-40.716194,2.5473218,4.0164433
-40.950798,2.5082543,4.0096064
-41.187897,2.4697437,4.0046616
-41.397243,2.4412837,4.0108747
-41.65667,2.3984475,4.004441
-41.932457,2.3520732,3.9961662
-42.19331,2.3118052,3.9953008
-42.493668,2.2611427,3.9863048
-42.85324,2.1946054,3.9645004
-43.059586,2.1751537,3.9878454
-43.483253,2.0936491,3.9565706
-43.748547,2.0601056,3.9706278
-13.344597,1.0425231,2.7402325
-13.84886,1.1372008,2.7798157
-14.209497,1.1918075,2.783249
-14.58943,1.2543001,2.7965307
-14.971036,1.3194876,2.8146687
-15.291992,1.368113,2.8183088
-15.605681,1.4162884,2.8232803
-15.780039,1.4221811,2.786645
-15.766161,1.3687437,2.68956
-15.818336,1.3362212,2.6141038
-15.852908,1.2979658,2.5328064
-15.864613,1.2520542,2.4434748
-15.882401,1.2079005,2.3559766
-15.884729,1.1582987,2.262597
-15.89407,1.1107352,2.1713295
-15.888104,1.0575941,2.0738988
-15.895394,1.0086405,1.9809346
-15.871564,0.948411,1.8753824
-27.14382,3.099669,3.1869369
-27.262974,3.1770532,3.2967434
-27.219593,3.097463,3.1732602
-27.177893,3.0175743,3.04913
-27.375616,3.176582,3.2812266
-27.422802,3.1865842,3.2913847
-27.471138,3.1982203,3.3040957
-27.511677,3.2021725,3.305418
-27.550692,3.2047796,3.304811
-27.591888,3.2099757,3.3081713
-27.631565,3.213822,3.3095932
-27.669771,3.2163079,3.3090544
-27.710522,3.221893,3.3132577
-27.74718,3.2231295,3.310997
-27.783766,3.2244768,3.3089767
-27.821978,3.2279346,3.310215
-27.860485,3.232012,3.3124685
-27.89762,3.2347038,3.3127046
-27.935875,3.2390182,3.3154707
-27.971575,3.2404265,3.3139124
-28.006407,3.24093,3.3110514
-28.042362,3.2430549,3.310717
-28.079,3.2463012,3.3121552
-28.117048,3.2516913,3.316924
-28.153063,3.2546537,3.3180766
-28.183805,3.2505805,3.308587
-28.217506,3.250678,3.3055034
-28.253672,3.2544558,3.3080945
-28.287252,3.2547507,3.3054404
-28.322174,3.2571971,3.3061318
-28.356323,3.2587154,3.305472
-28.39208,3.2629106,3.308967
-28.42639,3.2651455,3.3095307
-28.460293,3.266963,3.3095183
-28.493166,3.2673228,3.3073335
-28.526936,3.2693305,3.307735
-28.566143,3.2807906,3.3226995
-28.599352,3.2824848,3.3227491
-28.630722,3.2811449,3.3181968
-28.663538,3.2824996,3.3178396
-28.68893,3.2703538,3.2967753
-28.737305,3.3011887,3.3418908
-28.762974,3.2897334,3.3219943
-28.796572,3.293556,3.3256712
-28.82824,3.293795,3.3238835
-28.859112,3.2925415,3.319848
-28.89222,3.2961125,3.3233075
-28.924736,3.298721,3.3253403
-28.956934,3.3008916,3.3267522
-28.987677,3.299979,3.3234553
-29.022678,3.3092046,3.3358817
-29.050022,3.3005168,3.3206687
-29.082853,3.3051546,3.3261123
-29.116383,3.312008,3.335043
-29.14713,3.3120472,3.3334808
-29.181358,3.3217444,3.346929
-29.215729,3.3326056,3.3622427
-29.245266,3.3302426,3.3571196
-29.276781,3.3338232,3.3612595
-29.307173,3.3342867,3.3606172
-29.343636,3.3545995,3.3908238
-29.379625,3.3750234,3.4212718
-29.409637,3.3762922,3.4220457
-29.441074,3.3829947,3.4313073
-29.473331,3.3935356,3.4465857
-29.506414,3.4084573,3.4687257
-29.535416,3.4079132,3.466888
-29.323261,2.3524425,1.825079
-29.355595,2.3122284,1.7612762
-29.35418,2.103841,1.4359503
-29.361513,1.9163206,1.1430197
-29.390888,1.8261149,1.001462
-29.439112,1.8339131,1.0124402
-29.485502,1.8316071,1.0077701
-29.537075,1.863899,1.0570316
-29.583523,1.8645387,1.0571012
-29.626255,1.8361876,1.0121012
-29.673222,1.8392155,1.0160308
-29.719492,1.8364313,1.0109825
-29.766117,1.8370035,1.0112343
-29.812674,1.837156,1.0109067
-29.860397,1.8541617,1.0369077
-29.90521,1.8286428,0.9967303
-29.961895,2.0397344,1.3252854
-30.009186,2.1240897,1.4564643
-30.052256,2.1167629,1.4448609
-30.096235,2.1630147,1.5168123
-30.139038,2.160231,1.512425
-30.181868,2.1613379,1.5141659
-30.224342,2.1792967,1.542234
-30.24536,2.8767273,2.6291132
-30.267155,3.1842675,3.1084795
-30.290321,3.3368657,3.3464437
-30.317783,3.370194,3.398612
-30.344538,3.4030468,3.4500775
-30.370558,3.4359612,3.501677
-30.397755,3.449513,3.5231528
-30.42613,3.4496465,3.5237722
-30.456533,3.4331386,3.4985213
-30.485958,3.4269557,3.4893985
-30.514366,3.428933,3.4930272
-30.542568,3.4320607,3.4984908
-30.56999,3.439567,3.5108128
-30.59687,3.4492934,3.52663
-30.62425,3.455319,3.5367308
-30.654198,3.447972,3.5260715
-30.685682,3.434258,3.5055609
-30.716646,3.4243932,3.4910898
-30.74646,3.4205184,3.4859834
-30.774261,3.4253068,3.494388
-30.799486,3.4398131,3.5179343
-30.829145,3.4366975,3.5141435
-30.859337,3.4320555,3.5080318
-30.88902,3.4296353,3.5054202
-30.923307,3.4123287,3.479755
-30.951784,3.414887,3.4849715
-30.982306,3.4111142,3.4804149
-31.012209,3.4095569,3.4793458
-31.035103,3.4283242,3.5098243
-31.062769,3.4327643,3.5181336
-31.092333,3.4319563,3.5183573
-31.119284,3.4381328,3.5294437
-31.151144,3.4316378,3.5209622
-31.181446,3.4294763,3.5192394
-31.217133,3.414687,3.4980445
-31.250666,3.4058275,3.4860826
-31.279753,3.4076357,3.4906626
-31.307386,3.4126873,3.500297
-31.331743,3.4246602,3.5206566
-31.358364,3.4314198,3.5330067
-31.38871,3.4303544,3.5333314
-31.423832,3.4199178,3.519268
-31.458138,3.4116876,3.5086703
-31.48771,3.4129906,3.5128136
-31.515318,3.4180343,3.5227609
-31.541124,3.426281,3.5376768
-31.56794,3.4325006,3.5495148
-31.599407,3.4304507,3.5486932
-31.634892,3.4217286,3.5376878
-31.669363,3.4151938,3.5301075
-31.700855,3.4139495,3.530703
-31.728558,3.4190063,3.54101
-31.753237,3.4287853,3.5585885
-31.78504,3.4272647,3.5589156
-31.81792,3.4242902,3.5570774
-31.859148,3.4090686,3.536592
-31.889914,3.409903,3.5407076
-31.922113,3.4087734,3.541881
-31.946434,3.4189913,3.560412
-31.974594,3.423644,3.5704994
-32.002686,3.428369,3.5807443
-32.03297,3.4301138,3.5865035
-32.080116,3.4095993,3.5584955
-32.112976,3.4085143,3.5600963
-32.141163,3.413595,3.5711117
-32.166073,3.4227862,3.5884051
-32.196495,3.424981,3.5951395
-32.232662,3.4202223,3.5914102
-32.272305,3.4115653,3.5818639
-32.313866,3.4010386,3.5695815
-32.35142,3.3956475,3.5651398
-32.37181,3.4103112,3.591004
-32.40113,3.414565,3.6012154
-32.440163,3.4079843,3.595181
-32.478935,3.4020267,3.5901713
-32.512875,3.401629,3.5935903
-32.545025,3.4033036,3.6001863
-32.57392,3.4085114,3.6121368
-32.605576,3.4108553,3.619853
-32.641987,3.4083996,3.6204586
-32.67946,3.4050841,3.6198583
-32.717045,3.4018898,3.6195211
-32.76164,3.3920238,3.6093302
-32.78759,3.4007072,3.6268396
-32.814404,3.4084868,3.6430478
-32.84516,3.4124808,3.6536846
-32.90256,3.3915977,3.627511
-32.93092,3.3982282,3.6422167
-32.971222,3.3939526,3.640852
-32.98946,3.4098077,3.6692996
-33.023422,3.4114432,3.6767988
-33.073025,3.3994565,3.6643152
-33.124027,3.3867106,3.650844
-33.161076,3.3863897,3.6557484
-33.185993,3.3965092,3.676042
-33.21522,3.4029431,3.690981
-33.253952,3.4015307,3.6945071
-33.305855,3.3895566,3.6827102
-33.347733,3.3861194,3.6834917
-33.388004,3.384212,3.6866035
-33.41494,3.3930292,3.705391
-33.44351,3.4005368,3.7223277
-33.490376,3.3939443,3.7189045
-33.538635,3.3866115,3.7145348
-33.595554,3.3730974,3.701375
-33.61389,3.3887773,3.7304306
-33.660767,3.383278,3.7290492
-33.688046,3.3923354,3.7486868
-33.74569,3.3795137,3.7370281
-33.785477,3.3798623,3.744372
-33.82279,3.382124,3.754547
-33.853745,3.3889394,3.7712998
-33.882053,3.3976092,3.7907562
-33.94705,3.381287,3.7748027
-33.990982,3.3796883,3.779901
-34.04287,3.3730085,3.7779355
-34.089024,3.3704395,3.781918
-34.11072,3.3840613,3.8088179
-34.168964,3.3740013,3.802487
-34.235558,3.359016,3.7894325
-34.256454,3.373401,3.8176565
-34.287346,3.3814313,3.837045
-34.348328,3.3708792,3.830636
-34.41719,3.3559232,3.8183036
-34.452366,3.3618736,3.8351574
-34.493782,3.3641644,3.8470416
-34.539433,3.3640962,3.8557885
-34.584442,3.3646095,3.8654659
-34.64802,3.3545322,3.860746
-34.687515,3.3587136,3.8757412
-34.716183,3.369179,3.8994203
-34.77079,3.3650327,3.9032776
-34.86417,3.3395715,3.8783789
-34.89144,3.351316,3.9041724
-34.929592,3.3570962,3.921975
-34.981033,3.3557944,3.9303527
-35.051937,3.344326,3.9252515
-35.078197,3.356957,3.9526374
-35.127613,3.3574173,3.9638479
-35.211903,3.339995,3.9514375
-35.266937,3.338183,3.9600263
-35.289955,3.352922,3.990666
-35.362705,3.3425605,3.9882934
-35.417187,3.3417454,3.9987154
-35.487278,3.3334846,3.9995804
-35.5264,3.3407571,4.020949
-35.577988,3.3421009,4.034733
-35.668983,3.324796,4.024553
-35.698685,3.3371372,4.0529585
-35.7592,3.3350224,4.062867
-35.834198,3.3264775,4.0647645
-35.903008,3.3212037,4.0711174
-35.990513,3.3077831,4.0673842
-36.075108,3.2962065,4.066331
-36.158367,3.2857237,4.0669904
-36.237,3.277767,4.07115
-36.32404,3.2665648,4.071568
-36.43851,3.2439883,4.058194
-36.516304,3.2378707,4.0656834
-36.59345,3.2324395,4.074331
-36.719063,3.2070458,4.0588026
-36.805923,3.198576,4.064485
-36.92826,3.175972,4.053358
-37.00475,3.1728191,4.0662866
-37.133793,3.1488357,4.0544744
-37.248066,3.1315525,4.05126
-37.372948,3.1107473,4.044364
-37.474335,3.0998898,4.0498104
-37.588,3.0848317,4.050761
-37.744198,3.0541062,4.033885
-37.82757,3.0520036,4.051067
-37.97087,3.0277786,4.0430126
-38.037247,3.0330245,4.06954
-38.200478,3.0028715,4.0558796
-38.359047,2.9754055,4.0460706
-38.495327,2.9569263,4.04718
-38.625828,2.9412823,4.0521317
-38.79379,2.9131227,4.0437837
-38.995113,2.8742867,4.0244727
-39.132244,2.8588865,4.0319285
-39.30449,2.8322072,4.0277786
-39.470093,2.8087711,4.0280237
-39.679222,2.7716744,4.0144625
-39.860245,2.7451391,4.013259
-40.04177,2.7194648,4.0139213
-40.223778,2.6946545,4.016457
-40.406254,2.67071,4.02087
-40.65104,2.6279624,4.006915
-40.88928,2.5886984,3.9978786
-41.132782,2.5491664,3.9899068
-41.341217,2.5218234,3.9955168
-41.60896,2.4775677,3.985539
-41.863632,2.4387805,3.9824772
-42.136505,2.3960032,3.9770217
-42.39991,2.3575578,3.9773345
-42.767876,2.2901096,3.9516592
-42.953712,2.2772784,3.9795108
-43.373722,2.1986601,3.9474044
-43.737976,2.1381845,3.9345417
-12.510666,1.0718942,2.788001
-12.937149,1.135421,2.7945433
-13.214733,1.1590714,2.7647705
-13.680166,1.2381136,2.7910767
-14.090572,1.3038614,2.8068495
-14.452747,1.3577926,2.8130865
-14.8397455,1.4211435,2.8309155
-15.109859,1.4516306,2.8172278
-15.508596,1.5226316,2.8469133
-15.750668,1.547893,2.8310413
-15.808971,1.5174432,2.7577672
-15.795875,1.4646654,2.6609964
-15.903162,1.251504,2.2306795
-15.915095,1.2050738,2.140418
-15.942894,1.1637235,2.0558095
-15.900205,1.0981126,1.9438295
-15.903763,1.0477793,1.8488898
-15.890433,0.99118805,1.7466898
-15.838374,0.92044306,1.6279926
-27.234682,3.1812344,3.2413955
-27.18459,3.0956147,3.1071625
-27.235304,3.1067865,3.1190853
-27.373932,3.2058747,3.2642288
-27.420197,3.2147288,3.2730188
-27.471899,3.2295566,3.290977
-27.504944,3.2256281,3.2805657
-27.544046,3.2281215,3.2799802
-27.586248,3.2341547,3.2848616
-27.625097,3.236902,3.2848258
-27.663837,3.2397711,3.2850547
-27.705114,3.2457104,3.2900486
-27.744467,3.249814,3.2923222
-27.783249,3.2535472,3.2941098
-27.819777,3.2549279,3.2923727
-27.856224,3.2564187,3.2908745
-27.89301,3.2585166,3.2903762
-27.92684,3.2572384,3.2847667
-27.964687,3.261049,3.287037
-28.000814,3.262975,3.2864823
-28.037249,3.2655103,3.286934
-28.075129,3.2701647,3.2907166
-28.110958,3.2724197,3.290876
-28.145947,3.273773,3.28971
-28.181973,3.2767444,3.2911062
-28.21862,3.280835,3.2942996
-28.25406,3.2835157,3.2953815
-28.288698,3.285285,3.2951179
-28.32187,3.28512,3.2919216
-28.356033,3.2865772,3.2912965
-28.390461,3.2886434,3.2916765
-28.424147,3.2897863,3.2906857
-28.457771,3.291025,3.2899017
-28.491014,3.2918458,3.2885284
-28.524832,3.2937882,3.2889543
-28.558569,3.2958272,3.2895908
-28.58862,3.291776,3.2808075
-28.621382,3.2924485,3.279427
-28.65323,3.291661,3.2758274
-28.687618,3.2956195,3.2796798
-28.731602,3.317824,3.3120537
-28.75603,3.3038332,3.2880278
-28.787659,3.3034093,3.2852159
-28.817968,3.300467,3.2785215
-28.851366,3.3038583,3.281774
-28.882177,3.3021255,3.2770705
-28.91882,3.3130128,3.292162
-28.95448,3.322442,3.305037
-28.985058,3.3209794,3.300919
-29.01497,3.318024,3.2945108
-29.045801,3.317245,3.2915611
-29.081097,3.3275807,3.3060865
-29.109306,3.320665,3.2936144
-29.140263,3.3206608,3.2920299
-29.172564,3.3244286,3.2964134
-29.202301,3.3214273,3.2902226
-29.242151,3.3475401,3.3298092
-29.278027,3.3637397,3.3538942
-29.304792,3.3530748,3.3358169
-29.337559,3.3609974,3.3470025
-29.369492,3.366893,3.3550549
-29.40158,3.373937,3.3649664
-29.43467,3.3853142,3.3817487
-29.467907,3.398378,3.4012427
-29.500427,3.409943,3.4184341
-29.5328,3.422131,3.4366608
-29.555664,3.3945203,3.3922477
-29.351973,2.3329039,1.7187018
-29.282026,1.796824,0.8727069
-29.342484,1.8612494,0.9729705
-29.39899,1.9125369,1.0526328
-29.44022,1.882936,1.0048523
-29.487999,1.8897078,1.0144882
-29.535772,1.8976727,1.0260811
-29.57992,1.8812039,0.99920416
-29.626757,1.8830028,1.0012136
-29.673603,1.8854582,1.0043287
-29.72027,1.8869655,1.0060196
-29.766441,1.8837829,1.000381
-29.814087,1.8978276,1.0220022
-29.864647,1.957454,1.1156459
-29.913586,2.0129411,1.2028365
-29.966682,2.1803646,1.4668126
-30.010265,2.194394,1.4887166
-30.053812,2.2197726,1.5286031
-30.096294,2.2115538,1.5155144
-30.138975,2.20826,1.5102654
-30.181677,2.2114975,1.5153923
-30.229088,1.9719241,1.1372423
-30.244654,2.933102,2.6548333
-30.26552,3.254378,3.1621928
-30.29146,3.3456502,3.3064733
-30.319162,3.3781419,3.357998
-30.346292,3.4085598,3.4062886
-30.37222,3.4449215,3.463997
-30.399498,3.4594254,3.4872456
-30.428463,3.4558287,3.4819698
-30.458885,3.4410896,3.459159
-30.487795,3.440318,3.4584322
-30.517502,3.4342833,3.4494472
-30.545933,3.4373991,3.4549417
-30.572422,3.4517884,3.4782557
-30.59993,3.458776,3.4899354
-30.629421,3.454639,3.4841204
-30.659231,3.4495168,3.476799
-30.690643,3.437553,3.458744
-30.72174,3.4283385,3.4450722
-30.749033,3.4362254,3.4583883
-30.77787,3.4372704,3.460969
-30.804905,3.4452934,3.4745803
-30.832777,3.449667,3.4824853
-30.86536,3.437139,3.4638386
-30.89933,3.4209971,3.4395628
-30.93012,3.416606,3.433826
-30.960352,3.4144146,3.4315982
-30.989433,3.416006,3.4353638
-31.017597,3.420313,3.4434404
-31.039919,3.4410505,3.477364
-31.06831,3.4439008,3.4832296
-31.097841,3.443664,3.484292
-31.125765,3.4477148,3.4921293
-31.15802,3.4407961,3.4828062
-31.188728,3.4381723,3.4802704
-31.223944,3.4251404,3.4614763
-31.258795,3.4137893,3.4453793
-31.287853,3.416152,3.450818
-31.313534,3.42591,3.467875
-31.33877,3.4362476,3.4858732
-31.368065,3.4377744,3.49013
-31.398891,3.436253,3.4896698
-31.437136,3.4202504,3.4666433
-31.468243,3.4189196,3.4665942
-31.50215,3.4124856,3.4586377
-31.52277,3.4310234,3.489684
-31.5513,3.434588,3.4974132
-31.578611,3.4402921,3.5085196
-31.614159,3.4316182,3.497282
-31.652967,3.4179027,3.4782667
-31.68871,3.4099722,3.4683251
-31.718355,3.4124222,3.4745846
-31.737385,3.4318714,3.5072923
-31.767773,3.432916,3.5114489
-31.800161,3.4309776,3.5110302
-31.839725,3.4184184,3.4942074
-31.876165,3.4110832,3.4855566
-31.906162,3.4135225,3.4921064
-31.934717,3.4180722,3.5019708
-31.959957,3.4272542,3.5190415
-31.989426,3.4304252,3.5268621
-32.020348,3.4316556,3.5317383
-32.0645,3.415341,3.5096107
-32.10062,3.410242,3.5048628
-32.130276,3.4137862,3.5134935
-32.152786,3.426423,3.5361624
-32.181057,3.4316063,3.5474
-32.21737,3.426888,3.5434766
-32.256702,3.4187999,3.5344558
-32.301674,3.4043865,3.5158195
-32.33983,3.3985553,3.5104303
-32.358044,3.4160857,3.5408707
-32.38501,3.4232764,3.5555148
-32.420197,3.4211807,3.5560179
-32.463028,3.410846,3.5440168
-32.50433,3.4026186,3.5353246
-32.54267,3.3979523,3.5321455
-32.565964,3.4095013,3.5537167
-32.59045,3.4196374,3.5731697
-32.62559,3.4186673,3.575797
-32.66366,3.4149017,3.5742564
-32.713905,3.3991916,3.5547009
-32.74749,3.4005206,3.561051
-32.771248,3.411554,3.5821352
-32.798794,3.4188051,3.5975413
-32.84383,3.4094067,3.5878868
-32.886074,3.403027,3.5828853
-32.913105,3.4110446,3.599638
-32.960236,3.400653,3.5887756
-32.99036,3.406021,3.6016765
-33.022007,3.410059,3.612639
-33.054684,3.4132488,3.6223922
-33.102444,3.4034219,3.6127548
-33.141212,3.4017067,3.6153436
-33.18392,3.396861,3.6133518
-33.20905,3.4070141,3.6337886
-33.24184,3.4107473,3.6447206
-33.284203,3.4067369,3.644226
-33.328983,3.4010344,3.6413226
-33.38199,3.3890748,3.6292691
-33.40402,3.4019845,3.6541057
-33.44102,3.4030972,3.6615644
-33.491608,3.3938918,3.6539054
-33.546013,3.3821626,3.6426663
-33.582165,3.3846154,3.6523986
-33.60685,3.3957171,3.674893
-33.650223,3.3929973,3.677195
-33.6839,3.3975668,3.690256
-33.744736,3.3826814,3.6750126
-33.786644,3.3817682,3.680285
-33.811058,3.3933558,3.7038321
-33.8473,3.3966439,3.7153769
-33.8829,3.400486,3.727807
-33.938366,3.3909125,3.7209263
-33.991516,3.3832936,3.7170224
-34.03968,3.3793426,3.7185473
-34.07292,3.3854907,3.7347164
-34.117973,3.384005,3.7400103
-34.185715,3.3681288,3.7248254
-34.22442,3.3712883,3.7370372
-34.26043,3.3762743,3.7519479
-34.295044,3.3822222,3.768312
-34.356213,3.3718545,3.761602
-34.42659,3.3562813,3.7477055
-34.44069,3.3752398,3.7828188
-34.487843,3.374244,3.789805
-34.52179,3.381286,3.8082273
-34.598602,3.363291,3.7916026
-34.6454,3.3632684,3.8003824
-34.678017,3.3715868,3.8209424
-34.720566,3.37431,3.8337855
-34.781868,3.3666577,3.8323305
-34.856453,3.3519974,3.8213599
-34.894943,3.3577092,3.8387895
-34.931923,3.3643475,3.8575983
-34.989483,3.3599818,3.861378
-35.0561,3.351098,3.8591468
-35.0842,3.3629534,3.8854818
-35.127125,3.3670516,3.9013057
-35.234833,3.3377898,3.8719203
-35.269737,3.3466258,3.8945475
-35.317474,3.3490143,3.9085574
-35.368298,3.3500452,3.920884
-35.4607,3.330649,3.905951
-35.478592,3.3485093,3.941206
-35.5296,3.3501441,3.954843
-35.601715,3.3418245,3.9554114
-35.682697,3.3296967,3.9511921
-35.7112,3.3428326,3.9806194
-35.7601,3.3464322,3.99757
-35.846375,3.3329306,3.9922636
-35.900234,3.3348014,4.0073586
-35.97178,3.328882,4.0125003
-36.02337,3.3323045,4.030012
-36.088722,3.3298128,4.040064
-36.143627,3.3322392,4.056678
-36.21407,3.3281298,4.065113
-36.31664,3.3105392,4.0566196
-36.395744,3.3035946,4.062061
-36.49076,3.2903595,4.0598564
-36.59357,3.274425,4.0546374
-36.670925,3.2696414,4.063819
-36.767685,3.25731,4.063888
-36.886585,3.2365572,4.0538993
-36.98993,3.2227783,4.0530386
-37.082603,3.213835,4.0585613
-37.195057,3.1976202,4.0555735
-37.313847,3.1795955,4.050869
-37.40139,3.1743097,4.0621142
-37.54663,3.1474738,4.0477657
-37.632984,3.143754,4.0617766
-37.776543,3.119098,4.051208
-37.894596,3.1047344,4.053495
-38.004276,3.094096,4.060704
-38.164875,3.0656123,4.0475144
-38.273483,3.0567276,4.0578957
-38.425396,3.0330591,4.0516763
-38.593674,3.0045335,4.0406036
-38.723602,2.9903238,4.046692
-38.882248,2.9669561,4.0430174
-39.042267,2.9440343,4.040625
-39.254524,2.9044466,4.0203896
-39.420986,2.881382,4.0195785
-39.58791,2.8591037,4.0204744
-39.75348,2.8382025,4.0237236
-39.915863,2.8192482,4.0299335
-40.11847,2.7883525,4.0241275
-40.330746,2.7555647,4.017374
-40.507217,2.735165,4.0248647
-40.727898,2.702077,4.019983
-40.983047,2.6597147,4.0066624
-41.202255,2.6296782,4.0074506
-41.43305,2.5974016,4.007166
-41.770447,2.5349205,3.9776607
-41.99338,2.507852,3.985515
-42.23162,2.4775767,3.9914618
-42.550243,2.4256444,3.9775767
-42.937668,2.356093,3.9485087
-43.136883,2.3413308,3.974216
-43.55043,2.2684286,3.9460835
-43.79464,2.2441056,3.9658828
-12.449776,1.2143314,2.8271809
-12.626362,1.2064636,2.7655883
-13.138683,1.2916572,2.7974405
-13.507193,1.3398092,2.7950196
-13.939802,1.4080286,2.8150449
-14.298963,1.4578252,2.8185973
-14.661829,1.5106988,2.8273163
-15.028322,1.566679,2.841268
-15.678373,1.6602535,2.8554835
-15.815905,1.6533875,2.8074975
-15.812959,1.6043851,2.714491
-15.826228,1.5600317,2.6264496
-15.834726,1.5139563,2.5364804
-14.933479,1.1815219,2.1283484
-14.960344,1.137594,2.0382214
-15.86318,1.3250511,2.170835
-15.888902,1.2325869,1.989914
-15.906828,1.1876369,1.9008808
-15.936969,1.1465793,1.8163748
-15.89966,1.0822351,1.7045488
-15.886307,1.0255244,1.60145
-15.867711,0.96647835,1.4953957
-27.227173,3.2044804,3.2120018
-27.169222,3.1120937,3.0655546
-27.226017,3.1287324,3.0862837
-27.358997,3.2209322,3.223299
-27.412651,3.2367501,3.2431507
-27.455936,3.2426977,3.2479215
-27.499033,3.2487893,3.2530046
-27.539162,3.2521331,3.2539353
-27.580076,3.2565708,3.2566361
-27.619934,3.2601724,3.2581258
-27.659214,3.263415,3.259138
-27.699253,3.267754,3.2619276
-27.7374,3.2702718,3.2619686
-27.777596,3.2753503,3.266059
-27.815926,3.2785976,3.267383
-27.852455,3.2800012,3.265913
-27.888905,3.2815154,3.2646813
-27.924458,3.282152,3.2621503
-27.960352,3.283388,3.2606173
-27.996174,3.284731,3.2593164
-28.031528,3.2856836,3.2574706
-28.06991,3.2907171,3.262065
-28.107752,3.2953715,3.2661386
-28.14207,3.2956517,3.2634358
-28.179296,3.3000302,3.2672124
-28.216019,3.3040216,3.2704492
-28.251177,3.3061163,3.2707787
-28.287304,3.3098228,3.2736988
-28.32088,3.3101113,3.271316
-28.354753,3.3109996,3.2699318
-28.388231,3.3114793,3.2679625
-28.420671,3.3105345,3.2638073
-28.454393,3.3117075,3.2630405
-28.48869,3.3139923,3.2640824
-28.522272,3.3153582,3.2637339
-28.555176,3.3157997,3.2619839
-28.586834,3.314292,3.2572093
-28.61967,3.3149135,3.255849
-28.651882,3.3146026,3.253069
-28.681517,3.3097663,3.2431846
-28.716785,3.3152711,3.249704
-28.75108,3.3193371,3.254006
-28.781796,3.3168104,3.2479258
-28.812798,3.3148792,3.2428355
-28.844324,3.3140619,3.2395592
-28.877083,3.3159122,3.240562
-28.910013,3.3183708,3.2425818
-28.938604,3.3115976,3.2300029
-28.980005,3.3334131,3.2628598
-29.013693,3.3387508,3.269618
-29.04264,3.333271,3.259241
-29.073818,3.3330653,3.2572908
-29.10663,3.3371086,3.262146
-29.139528,3.3417642,3.2680268
-29.171516,3.3444245,3.2707853
-29.202667,3.3450823,3.2704067
-29.234697,3.348437,3.2743707
-29.268045,3.3560655,3.285193
-29.30154,3.364835,3.2978873
-29.334322,3.372127,3.3082814
-29.367235,3.3805604,3.3205485
-29.399174,3.386461,3.3288283
-29.4314,3.394025,3.3398132
-29.46527,3.4085138,3.3618975
-29.497711,3.4188907,3.3774767
-29.525003,3.409356,3.3613176
-29.55766,3.422009,3.3806272
-29.587559,3.4236865,3.3824582
-29.380186,2.2959185,1.5800033
-29.339605,1.8771911,0.90984774
-29.400454,1.9495974,1.0244083
-29.451012,1.9730794,1.0608783
-29.491669,1.939642,1.0064344
-29.538952,1.9448805,1.0138812
-29.585358,1.9449558,1.0131416
-29.630653,1.936688,0.99912786
-29.67837,1.9475822,1.0158272
-29.723238,1.9342566,0.9938555
-29.77151,1.9538655,1.0246358
-29.824337,2.0339675,1.1522713
-29.865076,1.9712234,1.0514374
-29.909414,1.9445946,1.0084467
-29.96,2.0340981,1.151351
-30.012613,2.2339473,1.4709144
-30.055782,2.2447765,1.4880748
-30.09879,2.2620764,1.5156536
-30.14137,2.2699475,1.5282073
-30.183878,2.2657409,1.5214939
-30.226814,2.245217,1.488729
-30.245289,3.0089967,2.7111259
-30.267248,3.2869048,3.156003
-30.294085,3.3592904,3.2720237
-30.321545,3.397305,3.3330812
-30.348873,3.42585,3.3790245
-30.375174,3.458695,3.4318824
-30.403336,3.4656625,3.4433784
-30.432295,3.4642339,3.4414845
-30.46319,3.4475389,3.4152164
-30.493402,3.4388618,3.4018202
-30.52242,3.4397814,3.4038138
-30.55151,3.4402473,3.4051247
-30.576647,3.4640298,3.4437504
-30.604792,3.468331,3.4512706
-30.634476,3.4642594,3.4454522
-30.666315,3.450245,3.423792
-30.697802,3.4394841,3.4073825
-30.728344,3.4340806,3.3995767
-30.757006,3.4371831,3.4054022
-30.782438,3.452988,3.4315453
-30.809593,3.4609609,3.445221
-30.839893,3.4569125,3.439753
-30.872402,3.4455938,3.4227352
-30.90503,3.4348938,3.4067578
-30.936296,3.4295306,3.399342
-30.966858,3.4268737,3.3962889
-30.996105,3.4284866,3.4000878
-31.02479,3.4317446,3.406549
-31.047462,3.4517965,3.439794
-31.075266,3.45675,3.4490285
-31.108126,3.4482121,3.4368367
-31.138344,3.447064,3.4364538
-31.167976,3.447559,3.4387307
-31.20129,3.439293,3.4271274
-31.238144,3.4233332,3.4033575
-31.267408,3.4256485,3.4086776
-31.295708,3.430112,3.4174523
-31.321772,3.4393048,3.4337726
-31.34863,3.4464884,3.4469423
-31.38038,3.4434094,3.4438777
-31.417631,3.4295912,3.4238453
-31.451008,3.4241302,3.4171214
-31.479963,3.427511,3.4244514
-31.509966,3.4289114,3.428691
-31.535753,3.4380853,3.4452715
-31.565086,3.440659,3.4514537
-31.59439,3.4433098,3.4578023
-31.631714,3.432248,3.442546
-31.670536,3.4192655,3.4243264
-31.699768,3.422701,3.432077
-31.72422,3.4338374,3.4520092
-31.751663,3.43995,3.4640594
-31.782927,3.4400492,3.4666815
-31.813889,3.4407418,3.4702897
-31.852993,3.4294004,3.455027
-31.888945,3.4232278,3.4479637
-31.918772,3.426224,3.4553623
-31.944298,3.435327,3.4723911
-31.972904,3.4399748,3.4824686
-32.010254,3.4326856,3.473886
-32.04594,3.4280128,3.4694715
-32.082146,3.4229512,3.4645157
-32.11505,3.4224806,3.4668055
-32.13788,3.4350157,3.48947
-32.164413,3.4426384,3.5044923
-32.197227,3.442412,3.5073118
-32.245117,3.4240224,3.4818835
-32.284405,3.4166405,3.473702
-32.323063,3.4103694,3.4673276
-32.34668,3.421874,3.4886603
-32.369656,3.4339156,3.5108557
-32.408024,3.42843,3.5058842
-32.447437,3.4220958,3.499672
-32.48926,3.4134614,3.4899793
-32.529522,3.4069083,3.483594
-32.55403,3.4174118,3.5036592
-32.57973,3.42652,3.5216026
-32.61181,3.4289517,3.5292816
-32.670296,3.4045987,3.495739
-32.707428,3.402495,3.4965944
-32.737415,3.4076717,3.5087204
-32.758076,3.421977,3.5349226
-32.785366,3.429666,3.550992
-32.82101,3.429369,3.5548615
-32.866783,3.419735,3.5445046
-32.90875,3.414033,3.5402665
-32.95038,3.4089437,3.537056
-32.97608,3.418519,3.5563126
-33.002148,3.4276867,3.5749855
-33.0413,3.4252706,3.576066
-33.09126,3.4136963,3.5633087
-33.13829,3.4050853,3.5551696
-33.17303,3.4072618,3.5634985
-33.19183,3.4228902,3.5922685
-33.232544,3.4201908,3.593336
-33.276733,3.4148846,3.590558
-33.332397,3.4006152,3.5743642
-33.367344,3.403376,3.583961
-33.394234,3.412586,3.6033278
-33.434902,3.411026,3.606565
-33.478592,3.4073524,3.6067257
-33.534805,3.394414,3.5931163
-33.575302,3.3937616,3.5980215
-33.592495,3.4106183,3.6291528
-33.643833,3.4021883,3.622611
-33.674095,3.4094334,3.639523
-33.747242,3.3859081,3.6107826
-33.778267,3.3929925,3.6276474
-33.804836,3.4032276,3.6492372
-33.836906,3.4096034,3.6651673
-33.867634,3.4169416,3.6825833
-33.946728,3.3914795,3.65175
-34.00139,3.3831666,3.6463642
-34.032356,3.3909523,3.6647496
-34.07104,3.3936932,3.6758075
-34.128765,3.3842049,3.6690779
-34.19072,3.372397,3.659123
-34.21774,3.3832393,3.6823301
-34.249958,3.3907814,3.7007895
-34.29489,3.3904524,3.7078996
-34.375866,3.368156,3.683329
-34.41299,3.373231,3.698545
-34.44045,3.3842216,3.722374
-34.485737,3.3845642,3.7309413
-34.55615,3.370294,3.718657
-34.62203,3.359177,3.711103
-34.638176,3.3772144,3.7453966
-34.676704,3.3823028,3.7612433
-34.754433,3.3653436,3.7458377
-34.82254,3.3543339,3.7391186
-34.844044,3.3695726,3.7697515
-34.886353,3.3733196,3.7841945
-34.943985,3.3689036,3.7872581
-35.010593,3.3599873,3.7841754
-35.054577,3.363497,3.7987058
-35.095596,3.3687234,3.8157547
-35.152252,3.3659399,3.8217561
-35.25181,3.3413615,3.7976537
-35.272747,3.3575816,3.830414
-35.316177,3.3623676,3.8474116
-35.399975,3.3471453,3.8369746
-35.46578,3.3413694,3.8397982
-35.490204,3.3561938,3.871038
-35.553085,3.352349,3.876844
-35.665104,3.325291,3.8512766
-35.68322,3.343574,3.8876076
-35.702618,3.361144,3.9229937
-35.813217,3.3362327,3.9011788
-35.877647,3.3333263,3.9093218
-35.911175,3.3448176,3.9369447
-35.97893,3.3409176,3.9441361
-36.078163,3.3233247,3.9333742
-36.11732,3.332893,3.9589348
-36.16366,3.3394077,3.980582
-36.266094,3.3218002,3.9706917
-36.32401,3.3239021,3.986984
-36.376213,3.3286695,4.0069504
-36.46961,3.316351,4.004916
-36.52774,3.3192227,4.0228777
-36.575092,3.3267665,4.0470576
-36.65157,3.3226094,4.0564
-36.76421,3.3042798,4.0479517
-36.857105,3.2945051,4.050831
-36.943516,3.2878056,4.0579705
-37.051304,3.2732158,4.055526
-37.16965,3.2551723,4.049204
-37.273914,3.2432203,4.050973
-37.373337,3.2336829,4.0561733
-37.48849,3.2187958,4.0551887
-37.598824,3.2063527,4.0576997
-37.753605,3.1782174,4.041532
-37.8343,3.177927,4.05986
-37.949932,3.1654627,4.0638285
-38.071117,3.1516614,4.0667043
-38.217186,3.129777,4.06048
-38.375175,3.1045957,4.0510178
-38.52751,3.0822887,4.045682
-38.64934,3.0712595,4.0542674
-38.827396,3.0419216,4.042113
-39.018524,3.009272,4.0269904
-39.145977,2.9987712,4.038226
-39.313118,2.975983,4.0360594
-39.480736,2.9539862,4.03561
-39.692974,2.9186716,4.0210295
-39.86794,2.896379,4.0220437
-40.052425,2.8720846,4.021726
-40.26103,2.841363,4.015299
-40.44198,2.8202844,4.02045
-40.681824,2.7823825,4.0083838
-40.912308,2.7486582,4.002064
-41.1324,2.7193089,4.0016212
-41.37146,2.685636,3.9978232
-41.586224,2.6603298,4.0040374
-41.890266,2.6106622,3.9863214
-42.178493,2.5672073,3.9766579
-42.422874,2.537631,3.982644
-42.76466,2.4824748,3.9644618
-42.979485,2.463935,3.9844465
-43.419193,2.3858116,3.9474607
-43.745792,2.340398,3.944684
-44.008316,2.3136845,3.9616914
-9.596079,0.96006894,2.7763567
-9.96677,0.9890528,2.7392364
-10.63464,1.0941842,2.7772512
-11.133818,1.1604409,2.7815323
-11.549965,1.2082071,2.7705684
-13.447283,1.4844902,2.837513
-13.660776,1.4894114,2.7942038
-14.048746,1.5433259,2.8034267
-14.409751,1.5919218,2.809114
-14.754105,1.6378546,2.8138833
-15.140918,1.697794,2.835598
-15.433656,1.7328808,2.832273
-15.717412,1.7669723,2.8293614
-15.82469,1.7506819,2.772049
-15.846311,1.7092943,2.687169
-15.81755,1.6525681,2.5850267
-14.103933,1.0823524,1.8996353
-14.922141,1.2796013,2.0831118
-14.954413,1.2374294,1.9948163
-14.917957,1.1734855,1.881309
-15.735776,1.3807726,2.0845513
-15.763372,1.3391745,1.9989285
-15.749629,1.2839613,1.8972096
-15.912137,1.2862332,1.8638649
-15.921603,1.187119,1.6741018
-15.916038,1.1335378,1.5742073
-15.891983,1.0731745,1.4658918
-15.878553,1.0159166,1.3611679
-15.807533,0.93794966,1.230679
-27.213543,3.2294264,3.1818514
-27.147175,3.1300302,3.0223212
-27.190943,3.1336365,3.0232863
-27.267574,3.1694374,3.0746331
-27.36878,3.2305958,3.1658225
-27.419647,3.2433884,3.1815634
-27.488474,3.274889,3.226727
-27.511522,3.2604687,3.2000318
-27.550436,3.2623212,3.1989074
-27.591064,3.266209,3.2010531
-27.627075,3.2654288,3.1959348
-27.667913,3.2700455,3.1993752
-27.705975,3.2719004,3.1985412
-27.7461,3.276288,3.2017713
-27.786497,3.281287,3.2060409
-27.827574,3.2873855,3.2121234
-27.861408,3.2853475,3.20542
-27.897287,3.2858424,3.2027802
-27.936337,3.2903507,3.2065578
-27.975632,3.2954712,3.2113752
-28.008091,3.2923753,3.2032356
-28.043673,3.2933002,3.2015276
-28.081856,3.297777,3.2055225
-28.116884,3.2984235,3.203497
-28.150745,3.2976878,3.1993318
-28.184944,3.2975435,3.1961632
-28.218746,3.297,3.1924138
-28.254988,3.3000321,3.194418
-28.290077,3.301678,3.194273
-28.324406,3.3024266,3.1927557
-28.358341,3.3027735,3.190652
-28.39487,3.3072221,3.195156
-28.431583,3.3122814,3.2006989
-28.467186,3.3159435,3.2040691
-28.501102,3.317194,3.203638
-28.533726,3.316524,3.2001863
-28.566933,3.316953,3.1985464
-28.60098,3.3189907,3.1995378
-28.634077,3.3196065,3.1983018
-28.669682,3.3248777,3.2045894
-28.702908,3.3261905,3.2045794
-28.73471,3.3250532,3.2006855
-28.766506,3.324001,3.1969767
-28.798819,3.324054,3.1950927
-28.83059,3.3231733,3.1917553
-28.861357,3.3203332,3.1853113
-28.894344,3.3221793,3.1864576
-28.927736,3.3251405,3.1894507
-28.96311,3.3328123,3.200087
-28.98883,3.3190155,3.1761708
-29.018785,3.314528,3.1672983
-29.05564,3.3265882,3.1851645
-29.086802,3.3253605,3.1816459
-29.118774,3.3262784,3.1816373
-29.153826,3.335543,3.1951547
-29.182396,3.327854,3.1813397
-29.213686,3.3274758,3.1793776
-29.248863,3.3385706,3.1960068
-29.28753,3.3611672,3.2312918
-29.317724,3.3589897,3.2265697
-29.349857,3.3631184,3.2320943
-29.38295,3.3709705,3.2436924
-29.415844,3.3789148,3.2554903
-29.448252,3.3859103,3.2658029
-29.480888,3.3945565,3.2788377
-29.512016,3.3980842,3.28363
-29.548464,3.4246294,3.3257618
-29.576557,3.4168632,3.3123498
-29.607592,3.4222112,3.3202329
-29.338764,1.9359915,0.9101167
-29.391382,1.9647865,0.955698
-29.445913,2.0083637,1.0253339
-29.498114,2.0442584,1.0825949
-29.54027,2.0206733,1.0434542
-29.58326,1.9992809,1.0079255
-29.628033,1.9879384,0.9887595
-29.67499,1.99294,0.99617624
-29.722496,2.004349,1.0140586
-29.773748,2.0577953,1.1002359
-29.820082,2.0678906,1.116127
-29.861488,2.0136402,1.0276351
-29.90789,2.020821,1.0389199
-29.955648,2.0590553,1.1006832
-30.009666,2.286706,1.4700303
-30.053009,2.3089492,1.5059762
-30.095617,2.3166208,1.5183263
-30.138023,2.3165352,1.5181403
-30.180489,2.3097415,1.5071235
-30.224365,2.2411773,1.3958783
-30.24596,2.921011,2.4997296
-30.267466,3.240091,3.0179014
-30.293386,3.3447604,3.1880064
-30.321848,3.3750458,3.237391
-30.34776,3.428982,3.3252025
-30.37615,3.441579,3.3459458
-30.404358,3.4531984,3.365141
-30.435326,3.438179,3.3411446
-30.466257,3.4263854,3.3224282
-30.496466,3.4220026,3.3157816
-30.52531,3.427639,3.3254318
-30.55495,3.4275959,3.3259087
-30.581459,3.4459245,3.356224
-30.610619,3.4475935,3.3595562
-30.640255,3.4467254,3.3588176
-30.67003,3.4454129,3.3574004
-30.705772,3.4170508,3.3121858
-30.736065,3.4153888,3.310296
-30.76527,3.4184966,3.316177
-30.791382,3.4336543,3.3416162
-30.820053,3.437942,3.3494854
-30.852531,3.4282615,3.3347788
-30.8857,3.4171133,3.317748
-30.918829,3.4070995,3.3026047
-30.950907,3.4013305,3.2943807
-30.982126,3.398761,3.29138
-31.012901,3.3978295,3.2910743
-31.036146,3.4187164,3.3260784
-31.062092,3.4308558,3.3469715
-31.089697,3.4378862,3.359645
-31.119734,3.4382749,3.3616295
-31.150805,3.436164,3.3596244
-31.176064,3.4485593,3.3810716
-31.22417,3.4059598,3.3138428
-31.25708,3.4010499,3.3074808
-31.28648,3.404446,3.3145595
-31.313019,3.4140701,3.3317132
-31.333607,3.4360456,3.3687925
-31.366734,3.430941,3.3622937
-31.401007,3.423888,3.352714
-31.4365,3.4148955,3.3400712
-31.469856,3.4105964,3.335034
-31.502264,3.4084282,3.3334756
-31.528973,3.417023,3.3492537
-31.553827,3.4287238,3.3700533
-31.582743,3.4328752,3.378769
-31.623295,3.4168618,3.355188
-31.662754,3.4035087,3.3359456
-31.6916,3.408443,3.3460736
-31.719128,3.4154642,3.3595834
-31.744946,3.4250655,3.3772588
-31.777008,3.4246836,3.3790011
-31.812057,3.4198806,3.3737283
-31.851582,3.4086792,3.358295
-31.88767,3.4030998,3.3519106
-31.918756,3.4051101,3.357697
-31.94493,3.4141726,3.374776
-31.974136,3.4188228,3.3848581
-32.00291,3.4240441,3.3958926
-32.033077,3.4273582,3.4039354
-32.077,3.4124749,3.38309
-32.109947,3.4125342,3.386075
-32.137554,3.4195766,3.4002023
-32.16777,3.4232483,3.40902
-32.20427,3.41916,3.4055824
-32.2401,3.4161634,3.4039397
-32.287834,3.3991244,3.3801346
-32.32487,3.3954039,3.3774943
-32.347004,3.4092908,3.402748
-32.381138,3.4091563,3.4058843
-32.41789,3.4062212,3.4046607
-32.44173,3.4178774,3.426506
-32.50052,3.3910646,3.387793
-32.533264,3.3933,3.3949246
-32.55384,3.4085665,3.422598
-32.586887,3.410479,3.4293156
-32.621784,3.4105797,3.4332466
-32.666527,3.4007974,3.4217467
-32.705875,3.3968644,3.4195032
-32.74107,3.3973176,3.4241986
-32.770992,3.4030695,3.437241
-32.79889,3.410784,3.4533958
-32.840477,3.4054217,3.4491954
-32.884727,3.3978586,3.4416518
-32.930214,3.3895159,3.4329882
-32.96423,3.3920417,3.441321
-32.993618,3.3988466,3.4563603
-33.02343,3.4052653,3.4708476
-33.064693,3.4016075,3.4697719
-33.10663,3.397628,3.4682837
-33.146034,3.3960853,3.4706511
-33.183372,3.3965015,3.4761224
-33.21531,3.4015968,3.4888835
-33.24829,3.4058728,3.5004401
-33.29623,3.3980064,3.4933805
-33.332638,3.3998022,3.5012732
-33.386593,3.3877497,3.4879923
-33.41635,3.395206,3.5047302
-33.445427,3.4031887,3.5223246
-33.492382,3.3974226,3.5189614
-33.55416,3.380712,3.49901
-33.595123,3.3801937,3.5038843
-33.629025,3.3851109,3.517116
-33.66768,3.386609,3.52522
-33.71665,3.3807802,3.5222926
-33.757275,3.3812466,3.5290146
-33.797962,3.3818483,3.5360312
-33.825077,3.3921266,3.557746
-33.86826,3.3912373,3.562673
-33.909645,3.3917894,3.5698671
-33.952984,3.3911958,3.5754333
-34.013634,3.3792174,3.5640292
-34.03991,3.390459,3.5875468
-34.086723,3.3881986,3.5909276
-34.15191,3.3742843,3.5770388
-34.2155,3.361895,3.5655994
-34.223904,3.384945,3.607007
-34.289787,3.3716726,3.5945096
-34.329895,3.3748693,3.6065817
-34.394295,3.363307,3.5969353
-34.419632,3.375898,3.6230922
-34.47963,3.3676264,3.6185813
-34.51099,3.3767462,3.6397824
-34.56784,3.3709083,3.6391206
-34.63604,3.3588133,3.6294618
-34.647797,3.3796487,3.668068
-34.721954,3.3647575,3.6546307
-34.78373,3.3573678,3.6523175
-34.840748,3.3530076,3.654574
-34.866344,3.3662853,3.6825056
-34.920624,3.3638642,3.6878242
-34.985928,3.3557706,3.6851268
-35.042717,3.352625,3.6897306
-35.066597,3.367175,3.7198505
-35.12275,3.3647738,3.7257824
-35.192406,3.355669,3.722321
-35.26158,3.347235,3.7200284
-35.309242,3.3501275,3.7340117
-35.35919,3.3520575,3.7467651
-35.460773,3.3285503,3.7237864
-35.48819,3.3422332,3.7534533
-35.529198,3.3492744,3.7738605
-35.606354,3.3390226,3.7701964
-35.66754,3.3368456,3.7780428
-35.696186,3.3503256,3.8078418
-35.773888,3.340891,3.8059509
-35.845577,3.334691,3.8087869
-35.912746,3.330956,3.8152542
-35.96818,3.33288,3.8297083
-36.02127,3.3360906,3.8460941
-36.09278,3.331345,3.8517997
-36.156437,3.3304262,3.8629446
-36.23392,3.3238049,3.8665814
-36.318104,3.314725,3.8671722
-36.354515,3.3264523,3.8960266
-36.453743,3.3117797,3.8896334
-36.526245,3.308846,3.8992662
-36.571682,3.3174422,3.9244726
-36.641045,3.3163998,3.9370651
-36.723812,3.3102727,3.943201
-36.766724,3.3205247,3.971141
-36.85309,3.3136847,3.9768753
-36.93883,3.3075519,3.9838557
-37.018024,3.3044116,3.99504
-37.091427,3.303888,4.009898
-37.14791,3.3101335,4.033722
-37.218018,3.311471,4.0514727
-37.345596,3.291759,4.0427217
-37.46762,3.2748525,4.0380535
-37.569336,3.2660465,4.044094
-37.6765,3.2558267,4.0487823
-37.816093,3.2346332,4.040245
-37.936115,3.2211626,4.0418844
-38.056473,3.2082434,4.0447183
-38.193832,3.1901197,4.0416965
-38.33337,3.172036,4.0393295
-38.469795,3.1557963,4.0398197
-38.619896,3.135749,4.0363383
-38.75711,3.120815,4.0396605
-38.938366,3.0922322,4.0273833
-39.06836,3.081293,4.0367956
-39.242577,3.0568929,4.0310173
-39.444298,3.0247805,4.017085
-39.57812,3.0150988,4.03008
-39.805363,2.977192,4.0112953
-39.97349,2.9587154,4.01579
-40.125656,2.9459918,4.0276165
-40.316414,2.9225144,4.028123
-40.53326,2.8923705,4.022172
-40.778202,2.8552232,4.0096035
-41.027534,2.8182025,3.9984536
-41.262833,2.7866135,3.9945102
-41.453484,2.7689657,4.0067987
-41.767628,2.7177985,3.9843965
-42.022385,2.6848493,3.9829316
-42.24241,2.6627955,3.9942355
-42.534645,2.6224208,3.9878073
-42.907013,2.562287,3.9628162
-43.142784,2.5402927,3.9785328
-43.51596,2.4837422,3.9610243
-43.804535,2.4510694,3.969297
-9.178875,1.037045,2.7520266
-9.761127,1.1125042,2.7600808
-10.23881,1.1659491,2.7500463
-10.779852,1.2374496,2.7606673
-13.400511,1.6182559,2.8830614
-13.436487,1.5750139,2.7895784
-14.973674,1.7851727,2.8386755
-15.285433,1.8229084,2.8394518
-15.601932,1.8637087,2.845241
-15.820232,1.8782606,2.8229465
-15.810958,1.8282604,2.728135
-15.836269,1.7879908,2.6443596
-15.838486,1.7407591,2.552559
-14.085499,1.1689639,1.8488183
-14.923309,1.3675871,2.0412407
-15.742897,1.5164795,2.1424274
-15.709556,1.4562054,2.0343142
-15.715723,1.4078267,1.940299
-15.722644,1.3593731,1.8461213
-15.821183,1.3401878,1.7876635
-15.907314,1.2661827,1.6277523
-15.906185,1.2143245,1.5294566
-15.913799,1.1650183,1.4342451
-15.902903,1.1090567,1.3305874
-15.865818,1.043582,1.214735
-15.848124,0.98417234,1.1063194
-27.184954,3.1584997,2.9978118
-27.265575,3.197562,3.0553102
-27.359173,3.250517,3.1350446
-27.405897,3.2588577,3.144154
-27.460825,3.2758203,3.1670623
-27.502771,3.2802596,3.1701622
-27.535381,3.2753866,3.1585078
-27.578022,3.2810216,3.1636553
-27.619133,3.2853723,3.1668334
-27.65478,3.2841434,3.1611776
-27.69783,3.2911289,3.1687093
-27.737644,3.294909,3.1711936
-27.77391,3.29498,3.1678128
-27.802973,3.2869918,3.1515808
-27.845034,3.2939992,3.1594315
-27.889751,3.304521,3.172998
-27.927307,3.3069727,3.1736908
-27.95679,3.2998462,3.1590557
-27.99503,3.3034766,3.161759
-28.035074,3.3096569,3.1686325
-28.063864,3.3018234,3.153007
-28.108202,3.3140905,3.1698155
-28.144064,3.3157365,3.1695762
-28.179478,3.3169978,3.168775
-28.213741,3.3168864,3.1658154
-28.249378,3.318843,3.1662498
-28.284233,3.3199167,3.1653147
-28.318676,3.3205967,3.1637974
-28.35172,3.3193948,3.159288
-28.389046,3.3247297,3.1654153
-28.42296,3.3252106,3.1637397
-28.442797,3.3038967,3.1267724
-28.489388,3.3244653,3.157771
-28.520714,3.321235,3.1502247
-28.553284,3.3200872,3.1461039
-28.584957,3.3175256,3.1397343
-28.617523,3.316552,3.1359906
-28.6532,3.3211896,3.1414232
-28.687902,3.324423,3.1446261
-28.721405,3.3257413,3.144765
-28.752714,3.323118,3.1385336
-28.785095,3.3225965,3.1357718
-28.820255,3.3277237,3.1422658
-28.85477,3.3319404,3.1473274
-28.888186,3.334227,3.1492944
-28.917015,3.3269637,3.1357222
-28.942984,3.3131645,3.1115136
-28.98095,3.3258722,3.1306357
-29.013332,3.3264723,3.1300335
-29.048235,3.3332775,3.1396213
-29.078598,3.329465,3.1318989
-29.113052,3.3359473,3.141059
-29.139128,3.3210487,3.1152825
-29.176699,3.3364067,3.1390634
-29.213703,3.3513663,3.162252
-29.243952,3.3479733,3.1554399
-29.275972,3.3497906,3.1572037
-29.309416,3.3563173,3.1667318
-29.33791,3.3475125,3.151177
-29.379158,3.3809679,3.2049499
-29.413715,3.3939586,3.2252288
-29.44442,3.3941665,3.2245917
-29.478075,3.405799,3.242742
-29.511574,3.4180422,3.2619457
-29.545013,3.4314137,3.2830496
-29.57122,3.4143982,3.2543159
-29.601475,3.4144998,3.2537212
-29.344082,1.9970577,0.9250574
-29.410107,2.0969853,1.0881433
-29.449175,2.0599382,1.0263119
-29.493866,2.0514631,1.0114713
-29.544306,2.0788522,1.0556264
-29.58909,2.0716524,1.0430074
-29.634167,2.0656025,1.0323381
-29.680307,2.0674484,1.0347075
-29.728477,2.0886106,1.0688977
-29.772675,2.0740924,1.0444899
-29.820822,2.102251,1.0903139
-29.863123,2.0599263,1.0203028
-29.90903,2.0602865,1.0205398
-29.961058,2.1838582,1.2234678
-30.01117,2.3335469,1.4694252
-30.05883,2.5238934,1.7823257
-30.09914,2.517477,1.7716775
-30.139528,2.486227,1.7202387
-30.181503,2.3584526,1.5100999
-30.225437,2.2811828,1.3830867
-30.247149,2.947899,2.479733
-30.2677,3.2858098,3.035616
