x,y,z
-31.94327,3.4299242,1.9198499
-31.996145,3.4130228,1.8829579
-32.036613,3.413831,1.884664
-32.06871,3.425886,1.9108834
-32.105427,3.4316587,1.923408
-32.152355,3.4244518,1.9076409
-32.206253,3.4090896,1.8740945
-32.2448,3.413239,1.8830771
-32.281326,3.4198513,1.8974271
-32.31203,3.4332323,1.9265313
-32.362564,3.4235516,1.9053626
-32.41277,3.4148173,1.8862562
-32.459435,3.410537,1.8768568
-32.494118,3.4196339,1.8966169
-32.52789,3.4295886,1.9182467
-32.567383,3.4334233,1.9265327
-32.64104,3.4022043,1.8584003
-32.676807,3.410581,1.876586
-32.70623,3.4251962,1.9083695
-32.758095,3.4176264,1.891787
-32.80988,3.4106102,1.8764095
-32.863182,3.40262,1.8589072
-32.897163,3.4130638,1.8815928
-32.945053,3.4106903,1.8763313
-32.98386,3.4167867,1.8895359
-33.03538,3.4116726,1.8782969
-33.094074,3.4007113,1.8543067
-33.12739,3.4120746,1.8789887
-33.18263,3.4048238,1.8630853
-33.24268,3.3940349,1.8394637
-33.294083,3.390888,1.8325024
-33.32411,3.4053106,1.8638525
-33.376137,3.4020743,1.8566923
-33.42932,3.3982728,1.8482995
-33.47656,3.3994153,1.8506842
-33.514748,3.4076467,1.8685269
-33.56984,3.403231,1.8587871
-33.620277,3.4026308,1.8573675
-33.681293,3.3945982,1.839736
-33.72912,3.396514,1.8437977
-33.762806,3.408633,1.87011
-33.83782,3.3918474,1.8333817
-33.90051,3.3842628,1.8167171
-33.92116,3.4056687,1.8632808
-33.98785,3.395951,1.8419585
-34.06244,3.3815467,1.8104105
-34.128433,3.3733966,1.7925014
-34.159447,3.388214,1.8246889
-34.213795,3.3881197,1.8243461
-34.284927,3.377803,1.801703
-34.34813,3.372936,1.7909436
-34.394123,3.3789585,1.803937
-34.42643,3.393339,1.8351626
-34.526287,3.3675482,1.7787495
-34.554604,3.3846154,1.8158321
-34.626434,3.3763776,1.7977047
-34.676857,3.3808637,1.8073344
-34.741585,3.377471,1.7997718
-34.78021,3.3889856,1.8247337
-34.86279,3.3763716,1.7970452
-34.953228,3.3601205,1.7614164
-34.988434,3.3741574,1.791873
-35.046314,3.37617,1.7960896
-35.154842,3.3520083,1.7431855
-35.211468,3.3555236,1.7506742
-35.24411,3.3714814,1.785315
-35.369637,3.3406801,1.7179041
-35.404343,3.3560576,1.7512727
-35.469223,3.356595,1.7522502
-35.577984,3.3362112,1.7075591
-35.620552,3.3483257,1.7337976
-35.6676,3.3583722,1.7555213
-35.79514,3.3309686,1.6954918
-35.823116,3.3504696,1.7378459
-35.910137,3.3429763,1.7212691
-35.99624,3.3364437,1.7067847
-36.05675,3.3417976,1.7182455
-36.195133,3.3132389,1.6556611
-36.222317,3.3339276,1.7005959
-36.282597,3.3403313,1.7143373
-36.408886,3.3190627,1.6676512
-36.438583,3.33903,1.7110023
-36.580894,3.3124633,1.6527314
-36.633453,3.3235073,1.6765904
-36.70534,3.32691,1.6837578
-36.844643,3.3038478,1.6331182
-36.871376,3.3259578,1.6811337
-37.013325,3.303275,1.6313076
-37.047283,3.3229358,1.6739674
-37.158627,3.3132758,1.6525741
-37.26456,3.3063142,1.6370659
-37.32832,3.3155353,1.6569085
-37.47407,3.2950969,1.6119437
-37.504982,3.316964,1.6594052
-37.66706,3.292126,1.6048098
-37.7178,3.3074687,1.6380072
-37.858253,3.2918053,1.6034408
-37.91838,3.3045263,1.6308975
-38.040504,3.296462,1.6129222
-38.143665,3.2954361,1.6103225
-38.300446,3.277269,1.5702453
-38.387978,3.2826257,1.5815802
-38.500977,3.280192,1.5758767
-38.615158,3.277986,1.570663
-38.710552,3.2822723,1.5796356
-38.859898,3.2703176,1.5530872
-38.96075,3.2740438,1.5608191
-39.093403,3.2686696,1.5486388
-39.231422,3.2624235,1.5345426
-39.355267,3.2611043,1.531209
-39.52379,3.2474794,1.5009484
-39.58267,3.2661994,1.541431
-39.762962,3.250787,1.507236
-39.923294,3.241987,1.4874902
-40.03838,3.246519,1.4969044
-40.191387,3.2413187,1.4850101
-40.347443,3.2361283,1.4731236
-40.52176,3.226959,1.4525142
-40.58911,3.2466037,1.4949608
-40.783024,3.2339418,1.4666772
-40.97087,3.2239044,1.4441218
-41.095142,3.2307858,1.4585924
-41.243706,3.23227,1.4612336
-41.42199,3.227287,1.4496965
-41.633762,3.2152364,1.4226604
-41.82458,3.2093015,1.4089985
-42.03695,3.199373,1.3865695
-42.235165,3.1938453,1.3737593
-42.47528,3.1799052,1.342494
-42.691586,3.172589,1.3257184
-42.857292,3.1775277,1.3357801
-43.175896,3.150249,1.2752008
-43.417473,3.1411693,1.2544832
-43.49111,3.1685832,1.313756
-10.306042,3.1053896,0.8408656
-10.827047,3.1245031,0.8920455
-11.083658,3.1067524,0.85791016
-11.525799,3.118606,0.89177704
-11.965836,3.1324713,0.9299855
-12.337757,3.1378632,0.94844246
-12.814417,3.162139,1.0100288
-13.529867,3.178568,1.058703
-13.850716,3.1833258,1.0748086
-14.178063,3.190896,1.0971646
-14.552071,3.2084463,1.1421552
-14.856444,3.2155027,1.1629558
-15.27278,3.244647,1.2340245
-15.441693,3.2300916,1.2051506
-15.47201,3.1901238,1.1182442
-15.520087,3.1534986,1.03895
-15.697308,3.1421375,1.0171733
-15.612416,3.0795968,0.8788314
-15.54405,3.0195746,0.7462783
-15.573181,2.9788105,0.6575508
-15.595856,2.9366024,0.565537
-15.598853,2.8900886,0.4637475
-27.157211,3.4195182,1.7946482
-27.171692,3.3914728,1.7327867
-27.223753,3.3957741,1.7427268
-27.272223,3.397259,1.746407
-27.325485,3.403385,1.7603774
-27.377636,3.4089348,1.7730627
-27.4259,3.4112668,1.7785988
-27.472797,3.4126172,1.7819476
-27.519157,3.4137309,1.7847662
-27.567686,3.4172614,1.7929368
-27.612219,3.4171398,1.7929993
-27.659264,3.4198174,1.7992654
-27.709805,3.4264617,1.814323
-27.743414,3.415641,1.7906322
-27.800385,3.4298627,1.8224831
-27.838278,3.4238732,1.8094969
-27.875225,3.4168236,1.7941542
-27.92753,3.4272714,1.8176112
-27.96845,3.425097,1.8130708
-28.015562,3.4304168,1.8251414
-28.052471,3.4238124,1.8107648
-28.107473,3.4395378,1.8458953
-28.138395,3.4257371,1.8155508
-28.176634,3.4210079,1.8053164
-28.217022,3.4191256,1.8013887
-28.258265,3.418533,1.800314
-28.298878,3.417266,1.7977405
-28.338894,3.4153209,1.7936563
-28.376974,3.4107153,1.7836714
-28.419956,3.4133387,1.7897038
-28.46305,3.4164815,1.7968817
-28.502905,3.414978,1.7937555
-28.543741,3.415173,1.7943902
-28.584507,3.4154809,1.7952685
-28.627111,3.4190953,1.8034692
-28.66093,3.4080303,1.7791338
-28.700012,3.4058554,1.7744942
-28.739323,3.4041836,1.770966
-28.78357,3.411856,1.7881379
-28.823978,3.4128184,1.7904353
-28.859032,3.4034176,1.7697659
-28.902386,3.4106355,1.785913
-28.941849,3.410305,1.7853308
-28.980347,3.4080577,1.7804966
-29.022621,3.4144108,1.7947111
-29.063105,3.4172356,1.8011036
-29.102291,3.4173305,1.801445
-29.143364,3.4224021,1.8128052
-29.18254,3.423116,1.8145065
-29.222996,3.4275951,1.824544
-29.264847,3.4366646,1.8447442
-29.292885,3.4054983,1.7758102
-29.34541,3.4482188,1.8705435
-29.261066,3.0456877,0.978982
-29.306746,3.0508137,0.99044085
-29.351118,3.0519736,0.9931092
-29.394785,3.0507946,0.9905915
-29.438757,3.050957,0.9910383
-29.482508,3.0504138,0.9899192
-29.525543,3.0467052,0.98178196
-29.569399,3.0467966,0.9820576
-29.613228,3.0470018,0.98257875
-29.656681,3.0452678,0.9787998
-29.700165,3.043645,0.9752631
-29.744192,3.045832,0.9801574
-29.787474,3.0427902,0.9734659
-29.831951,3.0501363,0.9897771
-29.875383,3.0489635,0.9872155
-29.933445,3.2325735,1.3939004
-29.979605,3.316399,1.5795798
-30.022465,3.3843093,1.7300024
-30.062405,3.4264128,1.8232641
-30.100603,3.4439306,1.862071
-30.138134,3.4302726,1.8318243
-30.176067,3.417122,1.8026981
-30.214142,3.413946,1.7956591
-30.252296,3.4112794,1.7897434
-30.289057,3.435453,1.843267
-30.326687,3.4370925,1.8468795
-30.364902,3.431426,1.8343072
-30.404936,3.409413,1.7855239
-30.442331,3.416283,1.8007064
-30.477396,3.4396834,1.8524971
-30.51582,3.435233,1.8425994
-30.55406,3.432937,1.8374672
-30.593533,3.4241736,1.818006
-30.633358,3.4151056,1.7978663
-30.672716,3.4098358,1.7861342
-30.711168,3.4095895,1.7855229
-30.745514,3.4270532,1.8241353
-30.780794,3.4388652,1.850225
-30.821053,3.430718,1.8320999
-30.859291,3.4308555,1.8323216
-30.900084,3.4225154,1.8137603
-30.942673,3.4093904,1.7845936
-30.981699,3.4086218,1.782793
-31.015226,3.424255,1.8173194
-31.053972,3.424084,1.8168349
-31.092302,3.4252353,1.8192735
-31.134874,3.4155164,1.7976255
-31.177935,3.405513,1.775342
-31.209833,3.4232066,1.8144145
-31.24825,3.4247637,1.8177328
-31.284485,3.4312754,1.8320255
-31.328247,3.4213085,1.8098006
-31.374477,3.4070294,1.778017
-31.411812,3.4118376,1.7885189
-31.446999,3.4207654,1.8081446
-31.48218,3.429374,1.8270578
-31.521935,3.4292328,1.8265791
-31.572239,3.4103541,1.784574
-31.61147,3.4120557,1.7881684
-31.641766,3.429053,1.8256526
-31.682465,3.4281452,1.8234553
-31.723743,3.4265525,1.8197336
-31.77677,3.406773,1.7756972
-31.814909,3.4110024,1.7848673
-31.84954,3.4204848,1.8056765
-31.880976,3.434402,1.8363113
-31.921192,3.4353428,1.8381782
-31.98208,3.4075985,1.7764525
-32.026268,3.4040875,1.7684379
-32.057972,3.4176035,1.7981639
-32.087246,3.4339294,1.8341169
-32.131718,3.430345,1.8259239
-32.19415,3.4046273,1.7686486
-32.230736,3.4118786,1.7844667
-32.270744,3.4149406,1.7909913
-32.300205,3.4305315,1.8252931
-32.344696,3.4283595,1.8202014
-32.398884,3.4155,1.7913985
-32.45493,3.40128,1.7595706
-32.48223,3.419176,1.7989669
-32.51303,3.4328935,1.8290906
-32.556614,3.4328892,1.8287759
-32.628006,3.4043732,1.765204
-32.670322,3.4066007,1.7698216
-32.686382,3.4351625,1.8328605
-32.750015,3.4163394,1.7907653
-32.80607,3.405685,1.7667818
-32.843445,3.4133132,1.78336
-32.89684,3.4059997,1.7667747
-32.92355,3.4236035,1.8054795
-32.97929,3.4147067,1.785366
-33.029522,3.4112177,1.7772441
-33.085503,3.4030576,1.7587466
-33.115955,3.41732,1.7900152
-33.167942,3.4131696,1.7804031
-33.217957,3.4110305,1.7752471
-33.291447,3.389959,1.7280469
-33.31989,3.406133,1.7635365
-33.363575,3.4099507,1.7715831
-33.4212,3.4029856,1.7556767
-33.486675,3.3904202,1.7273207
-33.516064,3.4059072,1.7612638
-33.56963,3.4030871,1.7545362
-33.63556,3.3914757,1.7282681
-33.69263,3.386898,1.7176137
-33.733097,3.3946264,1.7342935
-33.767445,3.4067233,1.760675
-33.875114,3.3676195,1.6732664
-33.909275,3.3804135,1.7011781
-33.94941,3.3890703,1.7198906
-33.98263,3.4023812,1.7489414
-34.06684,3.3819757,1.7030311
-34.13688,3.3716204,1.6794481
-34.15944,3.392283,1.7248235
-34.20492,3.3981616,1.73732
-34.320644,3.3602993,1.652525
-34.350677,3.376529,1.6880202
-34.393246,3.384994,1.7062402
-34.45886,3.3797004,1.6938424
-34.541874,3.3645344,1.6594648
-34.56234,3.3866088,1.7079396
-34.65299,3.3679297,1.6657152
-34.721,3.3629224,1.6538992
-34.765175,3.3717394,1.6728444
-34.84076,3.3632164,1.6531758
-34.921574,3.3523593,1.628294
-34.977528,3.3555298,1.6346316
-35.023827,3.364087,1.652955
-35.13021,3.3410935,1.6009922
-35.179943,3.348472,1.6166644
-35.236507,3.3524837,1.6248255
-35.329586,3.3382092,1.5922265
-35.386578,3.342696,1.6014185
-35.441086,3.3486362,1.6138377
-35.539948,3.3331122,1.5783973
-35.597424,3.3382783,1.5890598
-35.648438,3.3467414,1.6070647
-35.769646,3.3223395,1.5517616
-35.79992,3.3411298,1.5927701
-35.873116,3.340131,1.5896273
-35.98476,3.322106,1.5484748
-36.022278,3.3380566,1.583117
-36.116604,3.3288915,1.5616927
-36.215534,3.3183215,1.5371065
-36.24895,3.3366287,1.5769725
-36.367943,3.3184516,1.5353575
-36.427776,3.3259847,1.5511336
-36.521996,3.3194542,1.53548
-36.621597,3.3112812,1.51613
-36.660625,3.3282506,1.5529423
-36.823708,3.2955978,1.4788294
-36.860817,3.3139353,1.5186648
-36.94246,3.314873,1.5195851
-37.047607,3.307162,1.5011415
-37.132046,3.307962,1.5017061
-37.25645,3.2941658,1.4695897
-37.31127,3.306989,1.4970088
-37.421776,3.2995434,1.4790449
-37.49539,3.3060994,1.4923973
-37.634518,3.2895474,1.453979
-37.716217,3.2941563,1.4629173
-37.794273,3.3004067,1.4755101
-37.881607,3.3037996,1.4816799
-38.03134,3.2864008,1.4412136
-38.138683,3.2841735,1.4347172
-38.269672,3.2746847,1.411901
-38.40438,3.2647464,1.3880329
-38.52639,3.2596989,1.3750954
-38.674065,3.2471428,1.3452649
-38.78765,3.2461967,1.3414502
-38.924644,3.2385695,1.3225932
-39.047844,3.2359495,1.314939
-39.22119,3.2188036,1.2746005
-39.34545,3.217371,1.2695198
-39.497635,3.2083566,1.2473483
-39.665085,3.19576,1.2170663
-39.798992,3.1937675,1.2105799
-39.96122,3.1844554,1.1875715
-40.12081,3.1767924,1.1682148
-40.285164,3.168702,1.1478362
-40.392853,3.1769447,1.1641946
-40.553226,3.1715283,1.1497288
-40.728405,3.1630592,1.1283188
-40.85718,3.1676805,1.136364
-41.00818,3.1672027,1.1328549
-41.148605,3.1701913,1.1371102
-41.315735,3.1671882,1.1277819
-41.456932,3.1714742,1.1348505
-42.777325,2.8892255,0.49428654
-42.878757,2.908521,0.53489494
-41.979027,3.1651673,1.112359
-42.42489,3.101468,0.9653139
-42.64456,3.092505,0.9419904
-42.685333,3.125263,1.013072
-42.700233,3.1637821,1.0972023
-42.785595,3.1866279,1.1457958
-43.486572,3.1634455,1.0830722
-9.290913,3.081299,0.4444909
-10.30983,3.1074815,0.53460646
-10.709873,3.1085413,0.5496979
-11.260786,3.1342864,0.6238122
-11.6343975,3.1359136,0.63925457
-12.610912,3.1813936,0.77016544
-12.878748,3.1724584,0.7589612
-13.255535,3.182808,0.7935858
-13.610121,3.1914396,0.8237095
-14.03961,3.2147405,0.8884406
-14.309785,3.212709,0.892406
-14.595689,3.214848,0.9060221
-14.860863,3.214752,0.9140496
-15.322573,3.2519903,1.0103831
-15.445063,3.2287114,0.9628811
-15.500186,3.1931899,0.88630295
-15.517235,3.150425,0.7925682
-15.543937,3.1093826,0.7029066
-15.544563,3.0630522,0.60076714
-15.552236,3.0178657,0.5013428
-15.543875,2.9691503,0.3936267
-27.129133,3.3925667,1.6307726
-27.198702,3.4112422,1.6736946
-27.246262,3.411427,1.6748037
-27.296173,3.4139683,1.6812248
-27.346703,3.4174056,1.6896563
-27.39581,3.4198904,1.6959214
-27.443935,3.4217846,1.7008386
-27.489943,3.4219625,1.7018661
-27.537373,3.4237733,1.7065678
-27.58502,3.4261024,1.7124286
-27.631372,3.4274507,1.7160602
-27.674643,3.4259245,1.7131896
-27.71858,3.4252765,1.7122912
-27.756744,3.418699,1.6979966
-27.797812,3.415254,1.6907644
-27.864023,3.4396853,1.7464347
-27.907053,3.439197,1.7458487
-27.950005,3.438831,1.7455277
-27.996803,3.4431825,1.7558393
-28.028927,3.4304066,1.7274985
-28.05473,3.4096224,1.6810851
-28.117601,3.4343464,1.7373233
-28.151701,3.4237666,1.7139115
-28.194973,3.424872,1.7168484
-28.237547,3.425325,1.7183022
-28.279743,3.425509,1.719141
-28.319056,3.4219196,1.7114601
-28.36087,3.4219422,1.7119141
-28.40261,3.422081,1.7126198
-28.443487,3.4211614,1.7109289
-28.484322,3.4203522,1.7094789
-28.52486,3.419262,1.7073851
-28.565857,3.4190674,1.7073007
-28.604166,3.414652,1.6976933
-28.645105,3.4146729,1.6980767
-28.686892,3.4163854,1.7022624
-28.726355,3.4142578,1.6977835
-28.763247,3.4074793,1.6828175
-28.811148,3.4214203,1.7145286
-28.850254,3.4192207,1.7098608
-28.88878,3.4159303,1.7027264
-28.929075,3.4163232,1.7038822
-28.96949,3.4172218,1.7061687
-29.011438,3.4218225,1.7167845
-29.052336,3.424541,1.7231517
-29.092773,3.4265704,1.7279572
-29.132784,3.4279082,1.731194
-29.172401,3.42855,1.7328568
-29.21285,3.4317055,1.740171
-29.253878,3.4369783,1.752244
-29.291843,3.4339206,1.7455468
-29.332993,3.4406164,1.760807
-29.269701,3.1095629,1.01545
-29.31076,3.1001024,0.99432945
-29.354088,3.0980015,0.9897742
-29.39829,3.0992398,0.9927306
-29.441628,3.097364,0.9886627
-29.486208,3.1008523,0.996665
-29.529165,3.0975852,0.98944664
-29.571787,3.0924041,0.97790956
-29.615446,3.0921886,0.9775424
-29.659159,3.0924904,0.97833204
-29.704227,3.1018178,0.9994335
-29.746887,3.0962696,0.9870324
-29.79041,3.0965056,0.9876456
-29.833637,3.0944204,0.98302317
-29.876917,3.0924468,0.97864294
-29.920794,3.0974808,0.9900298
-29.978739,3.3217576,1.4949994
-30.02199,3.3875225,1.6430917
-30.062569,3.4339216,1.7475748
-30.101034,3.4443002,1.7709551
-30.139072,3.4304216,1.7397156
-30.177475,3.4215126,1.719657
-30.215897,3.4224439,1.7217445
-30.25386,3.4340272,1.7478042
-30.291796,3.440025,1.7612805
-30.329811,3.4424677,1.7667446
-30.367865,3.44379,1.7696791
-30.407942,3.4249308,1.727169
-30.44685,3.4211826,1.7186718
-30.482304,3.444694,1.7715383
-30.521702,3.4366825,1.7534256
-30.560764,3.4324214,1.7437477
-30.601692,3.4185467,1.7124162
-30.642044,3.410045,1.6931729
-30.6799,3.4149988,1.704217
-30.717804,3.4192405,1.7136497
-30.751657,3.4401405,1.7605848
-30.790836,3.4376984,1.754952
-30.826754,3.447867,1.777709
-30.86903,3.434737,1.7479925
-30.911005,3.424145,1.72398
-30.953585,3.412865,1.6984096
-30.991356,3.4173934,1.7084298
-31.028051,3.4248295,1.7249918
-31.068325,3.4219158,1.7182345
-31.103737,3.4323475,1.7415285
-31.150179,3.414009,1.7000127
-31.190037,3.4134264,1.6984787
-31.224709,3.4253461,1.7250996
-31.262392,3.4297554,1.7347941
-31.300528,3.4330626,1.7419982
-31.347782,3.4169383,1.7054181
-31.387648,3.4172795,1.7059221
-31.424362,3.424088,1.7209878
-31.455376,3.4417045,1.7603984
-31.497742,3.4371786,1.7499104
-31.544209,3.4256458,1.7236228
-31.592194,3.4122775,1.6931863
-31.625736,3.424719,1.7209034
-31.660845,3.434079,1.7416706
-31.69838,3.4391913,1.7528563
-31.74645,3.4275014,1.7261615
-31.790886,3.4222383,1.7139397
-31.832176,3.4221964,1.7134776
-31.867441,3.4312603,1.7335343
-31.904125,3.438065,1.7484903
-31.956446,3.4227536,1.7135706
-32.002518,3.416946,1.7000675
-32.043644,3.418263,1.7026196
-32.07303,3.4351873,1.7403607
-32.113987,3.4366994,1.7433352
-32.16722,3.4228895,1.7117386
-32.21565,3.4158013,1.6952906
-32.262146,3.4115536,1.6852369
-32.293972,3.425083,1.7152796
-32.331074,3.4321716,1.7307849
-32.38715,3.4175954,1.6973915
-32.430798,3.4176812,1.6970711
-32.478,3.414093,1.6884475
-32.507782,3.429602,1.7229171
-32.545067,3.4368446,1.7387223
-32.615707,3.4094758,1.6763783
-32.65992,3.4102178,1.6774793
-32.68882,3.426476,1.7136083
-32.734478,3.425937,1.7117982
-32.79262,3.4135861,1.6832991
-32.835945,3.4159586,1.6880379
-32.88408,3.4139988,1.6829772
-32.919464,3.4240367,1.7050118
-32.96039,3.428988,1.7155437
-33.03196,3.4068017,1.6647406
-33.084564,3.402142,1.6535239
-33.114853,3.4170544,1.6865311
-33.16077,3.418519,1.6891332
-33.22118,3.4081137,1.664885
-33.27893,3.4004598,1.6468382
-33.307022,3.417228,1.6840038
-33.34471,3.4261115,1.7033329
-33.422176,3.4038358,1.6521668
-33.48002,3.3976145,1.6372938
-33.51234,3.411218,1.6672611
-33.57432,3.4024823,1.646667
-33.632378,3.397156,1.6337681
-33.694622,3.3892033,1.6149054
-33.730225,3.4008262,1.6403413
-33.76711,3.411479,1.6635737
-33.856518,3.385539,1.6039233
-33.913887,3.3825843,1.5963016
-33.948437,3.3954282,1.6244526
-34.019505,3.3838232,1.597198
-34.139194,3.3408277,1.4987788
-34.12618,3.3854048,1.5988045
-34.17385,3.390211,1.608685
-34.28724,3.3536825,1.5248265
-34.33176,3.3613179,1.5410776
-34.36469,3.3761613,1.5736666
-34.41617,3.3796556,1.5805001
-34.51692,3.3538907,1.5209236
-34.546967,3.3708234,1.5582113
-34.59319,3.378196,1.5737915
-34.683582,3.360296,1.5319767
-34.736465,3.3644419,1.5401897
-34.778305,3.3749712,1.5628834
-34.851242,3.368362,1.5466304
-34.935856,3.3558717,1.516984
-34.99468,3.3579035,1.5203085
-35.047592,3.3633447,1.5313635
-35.134026,3.351392,1.5028491
-35.213657,3.3435962,1.4837523
-35.291252,3.337373,1.4682002
-35.36176,3.3352215,1.4618821
-35.41684,3.341155,1.4739356
-35.516254,3.3254726,1.4367614
-35.590218,3.322899,1.4293928
-35.660618,3.3224514,1.4268346
-35.735138,3.3204236,1.4206495
-35.81907,3.3144095,1.4053488
-35.90472,3.3081174,1.3893776
-36.01459,3.2913127,1.3493977
-36.084606,3.2932503,1.3521128
-36.169548,3.2888875,1.3404264
-36.26228,3.2815986,1.3220243
-36.354805,3.2749774,1.3051023
-36.465553,3.2611148,1.2716041
-36.544632,3.261394,1.2703528
-36.63574,3.2570572,1.2585187
-36.72166,3.255382,1.2527275
-36.821224,3.2486162,1.2352562
-36.933258,3.2374318,1.2076297
-37.008984,3.2413812,1.2145734
-37.09987,3.2397296,1.2086625
-37.187492,3.23983,1.2067208
-37.280453,3.238339,1.2010908
-37.36939,3.238867,1.2000422
-37.462254,3.2383816,1.1966267
-37.546604,3.2415166,1.2014666
-37.640034,3.241751,1.1996117
-37.735245,3.241825,1.1973419
-37.837494,3.2398958,1.1904244
-37.93335,3.2407541,1.1898556
-38.03478,3.240169,1.1859198
-38.12363,3.2444072,1.1930165
-38.262333,3.2322662,1.162406
-38.412483,3.2171566,1.1248865
-38.595074,3.1923213,1.0648966
-38.667847,3.2042725,1.0894933
-38.897285,3.1663525,0.9991746
-38.980965,3.176021,1.018383
-39.06865,3.1847825,1.0354543
-39.10897,3.2084868,1.0869508
-39.214096,3.2124987,1.0929823
-39.341026,3.2104812,1.0850296
-39.388187,3.2327313,1.1330705
-39.496277,3.2372422,1.1400819
-39.81503,3.181595,1.0078859
-40.01964,3.1605163,0.9554663
-40.218773,3.1422114,0.9093318
-40.306534,3.1558948,0.9371762
-40.3943,3.169917,0.96575594
-40.462204,3.189621,1.0074658
-40.58058,3.1961155,1.018475
-40.848434,3.16403,0.939795
-41.240776,3.1014366,0.79000664
-41.09338,3.1787896,0.9654169
-42.83693,2.869412,0.23049927
-42.84644,2.9113154,0.32287312
-42.779797,2.9710176,0.45680618
-42.84339,2.9995158,0.5179205
-42.93684,3.021267,0.56322384
-42.65168,3.1292367,0.810215
-42.692234,3.1621974,0.88181496
-42.843044,3.1708686,0.89646435
10.632399,3.672454,0.50730515
-0.69784164,3.446332,0.543231
-1.7130718,3.4562387,0.61226034
-2.6479855,3.46412,0.67305136
-3.1697063,3.438169,0.6402521
-11.163477,3.1142726,0.29193783
-11.719427,3.143361,0.38113403
-12.246761,3.1710098,0.46583128
-12.32168,3.1295946,0.3775077
-12.37052,3.0841362,0.27904177
-13.220425,3.1708844,0.50878716
-13.680742,3.1970317,0.5870452
-14.024769,3.2058144,0.6216688
-14.308771,3.2059782,0.63451815
-14.94482,3.2230136,0.70014477
-15.329665,3.2463398,0.76867676
-15.470069,3.2262056,0.7301054
-15.495139,3.1848083,0.6393032
-15.528903,3.1449714,0.5523133
-15.542858,3.1011884,0.45567417
-27.068676,3.3775065,1.4947085
-27.142426,3.398538,1.5441098
-27.201607,3.4078894,1.566617
-27.2612,3.4181693,1.5912328
-27.308964,3.4184494,1.5928378
-27.358606,3.4207008,1.5989552
-27.410433,3.4253063,1.6104603
-27.459663,3.4278715,1.6172571
-27.50755,3.429484,1.6218448
-27.554138,3.4301326,1.6242027
-27.601717,3.4320323,1.6294141
-27.646193,3.431105,1.6281161
-27.688059,3.4276996,1.6211119
-27.736332,3.4311275,1.6297798
-27.780546,3.4305873,1.6293211
-27.821579,3.4267988,1.6213923
-27.864662,3.425377,1.6188779
-27.909357,3.4259596,1.6209497
-27.950016,3.42214,1.612906
-28.035976,3.4717948,1.7275019
-28.053791,3.4417567,1.659286
-28.090084,3.433379,1.6407418
-28.13444,3.4349914,1.6450925
-28.173302,3.4298618,1.6339707
-28.217201,3.4313328,1.6379681
-28.26126,3.4333127,1.643116
-28.29565,3.4223666,1.6186228
-28.343193,3.4295743,1.6357226
-28.387217,3.432302,1.6425395
-28.428982,3.4320676,1.6425538
-28.46863,3.4288547,1.6357303
-28.51131,3.4303935,1.6397791
-28.551432,3.428172,1.6352
-28.590597,3.4245026,1.6272912
-28.63167,3.4240477,1.6267328
-28.671787,3.4221447,1.6228442
-28.713005,3.4222991,1.6236548
-28.749645,3.4143567,1.6059113
-28.791271,3.415506,1.6089716
-28.83808,3.426959,1.6356096
-28.876608,3.4228525,1.6266108
-28.918451,3.4255247,1.6331182
-28.960716,3.429492,1.6425748
-29.002092,3.4320006,1.6486793
-29.042997,3.4338331,1.6532216
-29.0838,3.4357762,1.6580048
-29.124496,3.4378288,1.6630254
-29.16555,3.4411776,1.6709986
-29.206163,3.443846,1.6774011
-29.24651,3.4462266,1.6831341
-29.283203,3.4383998,1.6654983
-29.324524,3.444164,1.678947
-29.276623,3.1650848,1.0407448
-29.313858,3.143804,0.99232435
-29.357307,3.1425073,0.98960686
-29.401503,3.1441102,0.99351025
-29.444818,3.1426408,0.9903722
-29.489553,3.1472654,1.0011587
-29.531492,3.1400366,0.98482084
-29.574764,3.1385028,0.98149586
-29.618284,3.138279,0.98115206
-29.661995,3.139366,0.9837942
-29.705273,3.138167,0.981195
-29.749193,3.1414797,0.9889002
-29.792233,3.1389053,0.9831271
-29.835512,3.1380413,0.9812546
-29.87919,3.141292,0.9887781
-29.922333,3.1394508,0.984643
-29.977203,3.315552,1.3874106
-30.02084,3.3760493,1.5257988
-30.062939,3.445878,1.6855125
-30.101559,3.4481072,1.6906319
-30.140072,3.4424233,1.6776419
-30.17894,3.4200103,1.6263871
-30.217854,3.4221377,1.6312375
-30.256521,3.428772,1.6463814
-30.294464,3.4447174,1.6828065
-30.333166,3.4435365,1.6800551
-30.372786,3.4324448,1.6546292
-30.414686,3.4026432,1.5864038
-30.45193,3.4201825,1.6264272
-30.488594,3.4382117,1.6675601
-30.526503,3.44433,1.6814437
-30.565422,3.443349,1.6790781
-30.607616,3.424486,1.6358061
-30.649315,3.411334,1.6055803
-30.688326,3.4130666,1.6093836
-30.724062,3.429262,1.6462555
-30.76067,3.4399579,1.6705389
-30.79861,3.4443662,1.680429
-30.83872,3.4405074,1.6713982
-30.876339,3.4459083,1.683536
-30.925522,3.4128346,1.6076465
-30.964472,3.415275,1.6129847
-31.005236,3.412258,1.6058254
-31.03696,3.4355266,1.658793
-31.07395,3.4426107,1.6747231
-31.121784,3.4208868,1.6247239
-31.165453,3.41157,1.6030989
-31.20504,3.4130452,1.6061535
-31.233967,3.4394841,1.6663294
-31.27527,3.4364069,1.6589441
-31.318886,3.4287176,1.6409898
-31.368402,3.4093552,1.5963016
-31.406961,3.4137151,1.605897
-31.436865,3.4350398,1.6543174
-31.474176,3.4411385,1.6678739
-31.519596,3.4320729,1.646697
-31.569477,3.4157188,1.6088161
-31.607409,3.4213676,1.6213007
-31.639265,3.4372373,1.6571817
-31.6794,3.4387805,1.660243
-31.720995,3.4381013,1.6582007
-31.778492,3.4127254,1.5995708
-31.818863,3.4150252,1.6043191
-31.842133,3.4429328,1.6677256
-31.883429,3.4434743,1.6684241
-31.942383,3.4191024,1.6120205
-31.993574,3.4068494,1.583363
-32.03278,3.411637,1.5937438
-32.055756,3.437966,1.6534886
-32.09449,3.4429135,1.6642156
-32.159874,3.414021,1.5973439
-32.216736,3.3971636,1.5580397
-32.25735,3.4010062,1.5661807
-32.27696,3.4299676,1.6319194
-32.316154,3.4351058,1.6430116
-32.38558,3.4056334,1.5746937
-32.428852,3.4069118,1.5768948
-32.466038,3.4150722,1.5948725
-32.49995,3.4266946,1.6207848
-32.537476,3.4342787,1.6374187
-32.61033,3.4050407,1.5695124
-32.65397,3.4069507,1.5730834
-32.682503,3.424195,1.6118498
-32.718487,3.4337137,1.6328678
-32.792004,3.406778,1.5701442
-32.834747,3.4103053,1.5773635
-32.876316,3.4150524,1.5873713
-32.9083,3.428698,1.6178136
-32.96015,3.4241548,1.6064429
-33.027805,3.405947,1.5636392
-33.06959,3.4112153,1.5747776
-33.111336,3.4165974,1.5861611
-33.159424,3.4166815,1.5853457
-33.220142,3.4064813,1.5608554
-33.2612,3.4129875,1.5747714
-33.322533,3.403161,1.5510912
-33.361008,3.4120774,1.5705175
-33.430626,3.396586,1.5337467
-33.482037,3.3958642,1.5309472
-33.54754,3.3847225,1.5041304
-33.60741,3.3783867,1.4883504
-33.669994,3.3705058,1.4689822
-33.748825,3.3513231,1.4235435
-33.827415,3.3331401,1.3803663
-33.89296,3.3249636,1.3602166
-33.959904,3.3163302,1.3389802
-34.018234,3.3141308,1.3325481
-34.08338,3.3076704,1.3162608
-34.14018,3.3072448,1.3138666
-34.203884,3.302585,1.3016725
-34.262142,3.301875,1.2985654
-34.322704,3.3000093,1.2927618
-34.39043,3.29398,1.2773147
-34.443974,3.2972312,1.2832713
-34.51608,3.2893193,1.2634087
-34.569946,3.2929575,1.2702055
-34.62887,3.2937932,1.2704968
-34.694656,3.2908766,1.2620826
-34.756775,3.2904863,1.2594786
-34.816814,3.2916138,1.260356
-34.87644,3.2932692,1.2624245
-34.942577,3.2915697,1.2566962
-35.00488,3.292356,1.2566915
-35.064995,3.2946382,1.2601199
-35.133564,3.2926614,1.2536488
-35.19581,3.2944205,1.2558002
-35.261833,3.2944992,1.254024
-35.330498,3.2935557,1.2498407
-35.397568,3.2937975,1.2483692
-35.477833,3.2877486,1.2322607
-35.54978,3.2863364,1.226872
-35.61257,3.289804,1.2327752
-35.66599,3.2980793,1.249814
-35.752533,3.2906911,1.230423
-36.736744,3.0887766,0.7430906
-36.495308,3.2291303,1.0675435
-36.538437,3.2452023,1.1023426
-36.594326,3.2559242,1.1246395
-36.68318,3.2531106,1.1153097
-36.764084,3.2540536,1.1146932
-36.929565,3.2211635,1.0349741
-37.25626,3.1250968,0.8074455
-37.121872,3.2138882,1.0119791
-37.440865,3.1242115,0.79906607
-37.47435,3.1471286,0.8494663
-37.51893,3.165734,0.88975906
-37.525646,3.1985588,0.9633508
-37.518566,3.2361536,1.04814
-37.618862,3.2340138,1.0397482
-37.6607,3.253528,1.0821061
-37.73331,3.2620723,1.0986838
-37.788124,3.277164,1.1305976
-37.90411,3.27112,1.1127906
-38.03565,3.2604065,1.0839086
-38.148952,3.2566614,1.0713229
-38.258152,3.2549157,1.0633574
-38.415108,3.2379923,1.0195389
-38.86471,3.1267185,0.7531023
-38.89293,3.1543827,0.81408024
-38.91367,3.184292,0.8803539
-38.961914,3.2054038,0.9258437
-39.00517,3.228105,0.9750633
-39.08587,3.23939,0.99725056
-39.334263,3.2005002,0.9005799
-39.48494,3.1922884,0.8763623
-39.675385,3.1732724,0.8263917
-40.02883,3.1082678,0.6671138
-40.002056,3.1541736,0.77087307
-40.132877,3.1551712,0.7679534
-40.201504,3.1741104,0.80759096
-40.24221,3.2008922,0.865849
-40.326782,3.2158062,0.8958101
-40.59742,3.1814501,0.80820847
-40.927464,3.1331635,0.6870785
-40.929024,3.1721072,0.77398586
-41.31083,3.1135793,0.6278472
-41.316593,3.1522312,0.71388435
-42.81691,2.996667,0.3052435
-42.820396,3.0393696,0.4002533
-42.814487,3.0839238,0.499753
-3.2193375,3.6136072,0.5698705
-3.2227535,3.5407252,0.40910864
-4.7726192,3.6111085,0.661355
-5.346195,3.596496,0.66480017
-5.6340675,3.5567389,0.5947919
-14.223689,3.2014506,0.32854843
-14.555742,3.2109237,0.3692975
-14.949425,3.2332587,0.4423952
-15.199498,3.231513,0.45314598
-15.396318,3.2211561,0.44146395
-27.08197,3.3925056,1.4068232
-27.12772,3.3893027,1.4007077
-27.184153,3.3955183,1.4166703
-27.239447,3.4012032,1.431355
-27.290829,3.4038346,1.4388456
-27.34398,3.4084284,1.4509096
-27.40154,3.4175282,1.4735074
-27.449097,3.4177623,1.4752903
-27.492367,3.414142,1.4680157
-27.538616,3.413556,1.4678278
-27.59321,3.4215043,1.4876118
-27.644915,3.4270675,1.5017772
-27.687803,3.4239838,1.4956656
-27.73488,3.4254353,1.5001507
-27.779398,3.4244435,1.4988928
-27.822151,3.42173,1.4935837
-27.86888,3.4235811,1.4989367
-27.915777,3.425942,1.5054569
-27.960577,3.4262075,1.5070534
-28.004015,3.4251091,1.5054364
-28.047703,3.424506,1.5049567
-28.091015,3.4236505,1.5038671
-28.13962,3.4296732,1.5188389
-28.183573,3.430201,1.5209389
-28.223711,3.4259522,1.5118546
-28.268934,3.4286065,1.5188847
-28.306595,3.4211748,1.5023255
-28.349503,3.4210372,1.5027919
-28.39155,3.419879,1.5008545
-28.434837,3.420737,1.5036077
-28.47627,3.4190478,1.5003915
-28.517439,3.417088,1.4965243
-28.56003,3.4175317,1.4982514
-28.602537,3.4180923,1.5002322
-28.644732,3.4183857,1.5015688
-28.686632,3.4184093,1.5022583
-28.728039,3.4177768,1.5013971
-28.767317,3.4134033,1.4917865
-28.812344,3.4199302,1.507596
-28.8518,3.4161577,1.499352
-28.892271,3.4144194,1.4958377
-28.934217,3.4158847,1.4997811
-28.975887,3.417076,1.5030651
-29.019363,3.4226491,1.516551
-29.060787,3.424069,1.5203304
-29.10228,3.4259887,1.5252571
-29.14459,3.4303565,1.5358748
-29.185982,3.432891,1.5421987
-29.22668,3.4339752,1.545124
-29.26921,3.4406357,1.5610309
-29.302006,3.418879,1.5106711
-29.353037,3.4527407,1.5899544
-29.315554,3.1962645,0.99243116
-29.358868,3.194959,0.98972845
-29.40134,3.1906288,0.9799571
-29.444613,3.189153,0.9768214
-29.490328,3.1979954,0.9977145
-29.532331,3.1916416,0.9831734
-29.574913,3.1873581,0.9734402
-29.618202,3.1863291,0.97127247
-29.661774,3.1869855,0.97301435
-29.705555,3.1893291,0.9786687
-29.749071,3.190605,0.9818177
-29.793139,3.1967196,0.99622345
-29.835796,3.1923118,0.98609257
-29.878653,3.1888008,0.978034
-29.921831,3.188159,0.97664213
-29.965828,3.199851,1.0039687
-30.018589,3.392265,1.4523301
-30.05969,3.4231348,1.5242977
-30.099428,3.4336033,1.5487151
-30.138779,3.429579,1.5393534
-30.178392,3.4134302,1.5017252
-30.218231,3.407638,1.4882107
-30.258015,3.4074697,1.487783
-30.29767,3.4097703,1.4930892
-30.337635,3.4070468,1.4866743
-30.3772,3.409945,1.4933405
-30.416433,3.4153092,1.5057359
-30.455841,3.4180138,1.5119195
-30.496677,3.4097931,1.492629
-30.535872,3.414278,1.5029273
-30.57705,3.40627,1.484097
-30.617916,3.401518,1.4728389
-30.65848,3.399234,1.4673128
-30.697367,3.405307,1.481245
-30.733917,3.4209023,1.517353
-30.770874,3.4330509,1.5454135
-30.809734,3.4366577,1.553554
-30.850246,3.4340928,1.5472908
-30.892818,3.4249759,1.5257392
-30.940535,3.4003239,1.4679532
-30.981562,3.3988874,1.4642649
-31.022003,3.3995128,1.4653664
-31.063154,3.398292,1.4621453
-31.103655,3.3991296,1.463707
-31.14553,3.396567,1.4573221
-31.186895,3.395674,1.454812
-31.226698,3.3987787,1.461607
-31.268143,3.3981013,1.4595652
-31.312107,3.3921037,1.4450951
-31.35649,3.3858426,1.4299898
-31.396616,3.3889945,1.4368234
-31.43205,3.401526,1.4655237
-31.471338,3.4060297,1.4754801
-31.513212,3.4056218,1.473958
-31.559597,3.397243,1.453815
-31.603254,3.3943818,1.446528
-31.640581,3.4027736,1.4654875
-31.69308,3.385577,1.424696
-31.738174,3.3815591,1.4146452
-31.792631,3.3631523,1.3709741
-31.843525,3.351406,1.3428297
-31.888268,3.3497183,1.3381505
-31.934174,3.346636,1.3301921
-31.980247,3.3436847,1.3225183
-32.02676,3.3404863,1.3142457
-32.07262,3.338558,1.3089161
-32.118336,3.3371365,1.3047509
-32.160427,3.3407416,1.3123116
-32.205433,3.3406982,1.311327
-32.249325,3.3422825,1.3141232
-32.294785,3.342116,1.3128057
-32.344086,3.3375952,1.3012829
-32.390755,3.3365788,1.2979307
-32.43658,3.3368113,1.2974792
-32.482822,3.3368042,1.296443
-32.527824,3.3384092,1.299159
-32.576622,3.3360791,1.2926402
-32.62317,3.336473,1.2924743
-32.67051,3.336266,1.2908778
-32.717247,3.3369303,1.2912984
-32.764797,3.3369982,1.290298
-32.811348,3.3383,1.2921634
-32.864727,3.3331873,1.2789745
-32.909992,3.3362253,1.2848611
-32.953346,3.3411996,1.2952638
-33.00294,3.340519,1.2923846
-33.051086,3.3414268,1.2932057
-33.10134,3.3406832,1.2901268
-33.15256,3.3393772,1.2857018
-33.20063,3.3410826,1.2883158
-33.25424,3.3383076,1.280386
-33.303802,3.3392475,1.2811484
-33.354336,3.3396297,1.2805758
-33.404556,3.3405192,1.2811656
-33.45754,3.3394547,1.2771349
-33.514275,3.3357568,1.2668872
-33.79842,3.2419348,1.0413437
-33.815662,3.2700117,1.1056604
-33.811745,3.3128617,1.2047505
-33.86913,3.3110108,1.1986346
-33.929157,3.307641,1.1889048
-34.198776,3.2783582,1.1123462
-34.242943,3.2874765,1.1318607
-34.286484,3.2970471,1.1524205
-34.34716,3.29576,1.1473336
-35.586025,3.2872393,1.0802178
-36.00901,3.1890283,0.8373804
-36.03883,3.2107015,0.8857732
-36.08492,3.2247045,0.9158797
-36.153473,3.2285123,0.921649
-36.604782,3.2056468,0.849504
-36.681564,3.2083416,0.85222244
-36.73885,3.219524,0.8751931
-36.835724,3.2145798,0.8595009
-36.91859,3.21589,0.8587079
-36.994785,3.220291,0.86525345
-37.083683,3.2200058,0.8604913
-37.164474,3.223355,0.86437416
-37.244053,3.2275517,0.8702221
-37.437424,3.188776,0.77269745
-37.468742,3.212395,0.8250561
-37.521194,3.2280579,0.8582506
-37.519974,3.263482,0.9390087
-37.59721,3.2701135,0.9503908
-37.676758,3.276248,0.9605036
-38.002094,3.196077,0.7621989
-38.109913,3.1941764,0.7525954
-38.165337,3.210857,0.7878051
-38.349205,3.1840928,0.7178545
-38.35459,3.2183068,0.79535055
-38.41896,3.2327056,0.8248491
-38.591904,3.2118924,0.7688842
-38.85679,3.1626062,0.6435995
-38.86334,3.1972308,0.721858
-38.903126,3.221131,0.7740612
-38.961147,3.239364,0.81244564
-39.135124,3.222339,0.7648864
-39.397774,3.1796808,0.6546087
-39.622845,3.1499531,0.5755544
-39.690327,3.1678634,0.6126032
-39.725082,3.195426,0.6731925
-40.034798,3.1444821,0.54157066
-40.0282,3.1846123,0.6327238
-40.15288,3.1879177,0.6335802
-40.244724,3.2008328,0.65788317
-40.536564,3.160118,0.55022717
-40.80896,3.126443,0.4594903
-40.929596,3.1343055,0.47073555
-41.02247,3.149917,0.50095034
-41.131035,3.161878,0.5220399
-41.33686,3.14984,0.48363495
-41.377678,3.179888,0.5491657
-42.846027,3.0820856,0.24728823
-3.2223701,3.690078,0.34890747
-5.503929,3.6813781,0.5030961
-15.557911,3.4746513,0.7892418
-27.038025,3.3953278,1.3056645
-27.07723,3.3859801,1.2850871
-27.121542,3.3809512,1.2748032
-27.178082,3.3866313,1.2900639
-27.237514,3.3953278,1.3124838
-27.294563,3.4024482,1.3311005
-27.34931,3.4079778,1.3458791
-27.399912,3.4101136,1.3525248
-27.455244,3.417058,1.3706036
-27.503899,3.418081,1.374526
-27.55607,3.4228485,1.3873425
-27.600025,3.4198422,1.3815999
-27.648586,3.4216604,1.3873243
-27.693829,3.4203608,1.3855915
-27.73246,3.4122832,1.3676901
-27.73638,3.3667681,1.2606363
-27.759933,3.3412595,1.2012224
-27.811651,3.3465202,1.2150307
-27.866629,3.3559756,1.2387862
-27.912062,3.3549418,1.2375522
-27.959904,3.3569834,1.2436061
-28.00667,3.3580563,1.2473278
-28.053606,3.3596334,1.2522197
-28.099524,3.3602333,1.2547593
-28.144472,3.3598475,1.254931
-28.189062,3.3592148,1.2544894
-28.233585,3.3587053,1.2543144
-28.278576,3.3590655,1.2561808
-28.322159,3.3576794,1.2538724
-28.369553,3.3620372,1.2651815
-28.413221,3.361272,1.2642975
-28.458303,3.362884,1.2690325
-28.499916,3.359344,1.2615113
-28.54343,3.3589327,1.261394
-28.58598,3.3571262,1.2579417
-28.629398,3.3569477,1.2583299
-28.671036,3.3538516,1.2517724
-28.713123,3.3516235,1.2472515
-28.756231,3.3514075,1.2474813
-28.798298,3.3494022,1.2434435
-28.842468,3.3517034,1.2495952
-28.880592,3.3419037,1.2270303
-28.845865,3.1758025,0.8338809
-28.957254,3.3218105,1.180675
-29.00248,3.3268476,1.193223
-29.045246,3.3266375,1.1933112
-29.089514,3.330382,1.2027464
-29.13985,3.3503945,1.250709
-29.198912,3.3959575,1.3591852
-29.25063,3.425153,1.4288406
-29.294607,3.4344602,1.451345
-29.34223,3.4562376,1.5033674
-29.322752,3.2611167,1.041563
-29.359016,3.2370162,0.9848914
-29.402678,3.237359,0.9861007
-29.446495,3.2385905,0.9893899
-29.490427,3.2407103,0.99476147
-29.531458,3.2305448,0.9710164
-29.574413,3.228236,0.96585417
-29.618467,3.231467,0.97379017
-29.66115,3.227828,0.965435
-29.70506,3.231286,0.9738631
-29.748327,3.2313638,0.9742632
-29.792488,3.2385473,0.99146557
-29.834972,3.2334077,0.9794698
-29.87776,3.2299318,0.9713912
-29.920805,3.2285101,0.96815395
-29.964014,3.2291434,0.9697585
-30.008633,3.2575097,1.0369964
-30.057589,3.4303427,1.4462152
-30.09767,3.4367714,1.4614711
-30.137527,3.4394116,1.4677386
-30.179426,3.2483728,1.0154824
-30.222633,3.233718,0.9807625
-30.265692,3.2335708,0.9803667
-30.308802,3.2327566,0.9783673
-30.351915,3.2324417,0.9775305
-30.400286,3.173908,0.83884
-30.437534,3.238366,0.99130535
-30.488476,3.1734767,0.83751774
-30.530333,3.1899447,0.87632227
-30.570496,3.214281,0.9337373
-30.610106,3.2375462,0.98859787
-30.652084,3.2442167,1.0041447
-30.691849,3.261076,1.0437999
-30.729425,3.285782,1.1020164
-30.736994,3.4364834,1.4585991
-30.776266,3.4403663,1.4674826
-30.81728,3.4373832,1.4600854
-30.855492,3.4449494,1.4776521
-30.912256,3.3892436,1.3453255
-30.967796,3.3433824,1.2362804
-31.014688,3.3285635,1.2007408
-31.052134,3.3427873,1.2339826
-31.085142,3.3682635,1.2938695
-31.126657,3.3691802,1.295547
-31.169842,3.3659775,1.2874408
-31.21223,3.3651958,1.285048
-31.254848,3.364143,1.28199
-31.30059,3.3563082,1.2628336
-31.343302,3.3558738,1.2611947
-31.39006,3.3471453,1.2398677
-31.435835,3.341224,1.2251687
-31.461184,3.376224,1.3074865
-31.503807,3.3762193,1.3067789
-31.546284,3.376709,1.3072214
-31.580778,3.3917403,1.3421359
-31.62702,3.385612,1.3268337
-31.679098,3.3701537,1.2893648
-31.726,3.3643086,1.2746768
-31.825108,3.2751987,1.0623293
-31.885395,3.251677,1.0055957
-31.928467,3.2558157,1.0144916
-31.95302,3.2874765,1.0887184
-31.9927,3.2959127,1.1077838
-32.02849,3.3096826,1.1394992
-32.06879,3.316805,1.155406
-32.110886,3.321417,1.1653285
-32.15264,3.32651,1.1763711
-32.195183,3.3305955,1.1849971
-32.240036,3.3318286,1.1868186
-32.28344,3.3350344,1.1933036
-32.32683,3.338356,1.2000408
-32.373333,3.3381116,1.1982703
-32.42057,3.3372645,1.1950393
-32.471165,3.3328881,1.1833806
-32.51607,3.335249,1.1877241
-32.5667,3.33153,1.1775684
-32.616524,3.3290567,1.1703467
-32.67035,3.3227384,1.153934
-32.724125,3.3169518,1.1387529
-32.79359,3.2957966,1.0869179
-32.888565,3.2503824,0.9772153
-32.963303,3.2265599,0.9188986
-33.01716,3.2238066,0.9107585
-33.086075,3.207274,0.86972094
-33.806633,3.2755942,1.0048318
-33.84467,3.288447,1.033473
-33.891956,3.2946079,1.0460563
-34.30846,3.2076917,0.82583237
-34.339684,3.2267163,0.86901903
-34.419144,3.2144413,0.83698034
-34.39775,3.2668784,0.9604373
-34.477856,3.254611,0.9283366
-34.856377,3.2531466,0.9081125
-34.918682,3.2544992,0.9084096
-34.990746,3.2506866,0.8961911
-35.05404,3.2521687,0.8966923
-35.118645,3.253238,0.89614344
-35.19618,3.2476704,0.87949944
-35.256004,3.2520075,0.88673306
-35.321808,3.2534528,0.88692236
-35.38839,3.2548182,0.8868599
-35.460545,3.2536635,0.8806362
-35.526333,3.2561135,0.88308096
-35.59958,3.2551599,0.8772154
-35.670033,3.255976,0.87557507
-35.74256,3.2561443,0.87229824
-35.810966,3.2586594,0.87465096
-35.894615,3.2543051,0.86025
-35.979286,3.2499743,0.84582376
-36.06882,3.2439175,0.82711077
-36.14276,3.2454917,0.82688236
-36.220146,3.2458856,0.82370615
-36.302353,3.2445493,0.8162365
-36.382256,3.2446682,0.8122325
-36.45384,3.248787,0.8179059
-36.53555,3.2489161,0.81376934
-36.618885,3.2487907,0.80892515
-36.712627,3.2447898,0.7945156
-36.794575,3.2461576,0.79314184
-36.880188,3.2464535,0.7890558
-36.997738,3.234463,0.75476646
-37.1056,3.2270513,0.73156595
-37.18405,3.2317197,0.7378917
-37.30404,3.220815,0.7058778
-37.421875,3.2114813,0.67758083
-37.451622,3.2357965,0.73192835
-37.4752,3.2622569,0.79154587
-37.553566,3.2685823,0.8015404
-37.749844,3.2328618,0.7077403
-37.907646,3.2122216,0.6508994
-38.141766,3.1659122,0.5304208
-38.20719,3.1796482,0.55811024
-38.22596,3.2094915,0.6256056
-38.338547,3.2075253,0.61428976
-38.370834,3.2328491,0.67051363
-38.59207,3.1961122,0.57265043
-38.646393,3.2149308,0.6125226
-38.86001,3.182969,0.5260191
-38.86508,3.2181644,0.6064358
-38.934647,3.2329812,0.6360822
-39.31887,3.151474,0.42526054
-39.423973,3.1572585,0.4319129
-39.56515,3.1527612,0.41270685
-39.667767,3.1604066,0.4237032
-39.758766,3.1718907,0.4441862
-39.96289,3.1513133,0.38407087
-40.06409,3.1610925,0.39992714
-40.171814,3.169492,0.4121709
-40.235638,3.190455,0.45591736
-40.389442,3.1871607,0.43839025
-40.68782,3.146026,0.32502317
-40.898674,3.1298804,0.27436256
-40.990604,3.1458929,0.30481768
-41.10956,3.1553233,0.3184452
-41.367825,3.130097,0.24383211
-41.40676,3.1610436,0.31170607
-26.915764,3.3368237,1.0452542
-26.94445,3.3171773,0.999619
-27.01816,3.3349595,1.0450788
-27.04844,3.3165483,1.002398
-27.09201,3.3093295,0.9869304
-27.11115,3.2805672,0.919044
-27.159542,3.2773674,0.9133048
-27.245556,3.3087342,0.9915323
-27.314144,3.3252811,1.03367
-27.443966,3.4007108,1.2187595
-27.495584,3.4037275,1.227879
-27.544094,3.4040623,1.2304459
-27.55227,3.3643043,1.1356807
-27.566162,3.3291242,1.0520387
-27.627546,3.3422215,1.0854998
-27.681961,3.3487084,1.102879
-27.75402,3.3747845,1.1677032
-27.810417,3.3849013,1.1937814
-27.865416,3.3941162,1.217628
-27.91213,3.3944538,1.2199254
-27.9609,3.3974657,1.2286654
-28.009165,3.4002583,1.2368379
-28.055456,3.4010055,1.2400236
-28.101336,3.4015193,1.2426109
-28.145674,3.4003336,1.2410526
-28.189117,3.398169,1.2370963
-28.237753,3.4031029,1.2502794
-28.280237,3.400082,1.2441902
-28.321157,3.3949618,1.2329955
-28.363955,3.3925314,1.2282791
-28.408503,3.3928058,1.2300711
-28.452473,3.3924615,1.2303386
-28.494465,3.3892663,1.2236862
-28.53439,3.3828332,1.2091856
-28.573765,3.3753817,1.1922002
-28.612644,3.3669066,1.17272
-28.654518,3.3633833,1.1651726
-28.700407,3.3670783,1.1750259
-28.7384,3.3566608,1.1507812
-28.780008,3.3527114,1.1421275
-28.821873,3.3492446,1.1346097
-28.863232,3.3447564,1.1246028
-28.845661,3.216052,0.8148885
-28.926676,3.2934737,1.0024562
-28.966467,3.283588,0.9793649
-29.014072,3.291565,0.99933004
-29.066317,3.3117862,1.0487895
-29.125591,3.3518643,1.1460905
-29.168997,3.3534567,1.1505561
-29.219536,3.375282,1.2037702
-29.262815,3.3782628,1.2115216
-29.288805,3.3288865,1.0930481
-29.322247,3.2985666,1.0204954
-29.362452,3.2881157,0.9958105
-29.406876,3.291864,1.0053186
-29.449347,3.2888653,0.9985404
-29.493475,3.2924619,1.0076289
-29.532457,3.2744093,0.96452856
-29.575743,3.2740242,0.96396875
-29.619768,3.2775733,0.9728608
-29.663654,3.2812386,0.98200417
-29.705439,3.2731555,0.96282244
-29.749344,3.277811,0.97429705
-29.793287,3.2841125,0.9897089
-29.835709,3.27942,0.97861433
-29.87807,3.27292,0.9631405
-29.921246,3.2738097,0.96543694
-29.964302,3.2736602,0.96520567
-30.00774,3.2809067,0.98275805
-30.056581,3.44011,1.3662415
-30.097126,3.4483578,1.3861504
-30.136908,3.3608387,1.1753998
-30.179459,3.275725,0.970418
-30.22249,3.274322,0.9670081
-30.265472,3.2753303,0.9693785
-30.308447,3.2760653,0.97106457
-30.351488,3.2757611,0.97022104
-30.400219,3.2131004,0.8191695
-30.43308,3.3180134,1.0716839
-30.475819,3.315348,1.0650754
-30.528969,3.238512,0.8797903
-30.569117,3.2617416,0.93549633
-30.607687,3.290038,1.0033851
-30.646587,3.3119197,1.0558009
-30.68908,3.3128679,1.057765
-30.727795,3.3311164,1.1013823
-30.746092,3.4338312,1.348484
-30.787712,3.4308362,1.3408852
-30.829762,3.4268072,1.33077
-30.869478,3.431655,1.3420162
-30.93421,3.3528376,1.1516075
-30.976582,3.3530052,1.1515098
-31.018982,3.353282,1.15165
-31.061014,3.354809,1.1547766
-31.102898,3.3568246,1.1590552
-31.145481,3.3570526,1.1589961
-31.189304,3.3543625,1.151875
-31.232788,3.352926,1.147747
-31.276203,3.351983,1.1447821
-31.32071,3.3488913,1.1366062
-31.36554,3.345544,1.1277833
-31.411432,3.3404374,1.1146855
-31.461472,3.327561,1.0828075
-31.514874,3.3091998,1.0376577
-31.564545,3.2992582,1.0127878
-31.6353,3.2516298,0.8969064
-31.687597,3.2397926,0.86737394
-31.706274,3.286753,0.9797807
-31.742466,3.3019955,1.0155911
-31.791521,3.2957163,0.99939966
-31.849539,3.2758253,0.9502878
-31.882977,3.295094,0.995749
-31.920069,3.3081248,1.0261188
-31.952524,3.3275232,1.0718622
-31.986507,3.3440251,1.1105862
-32.02745,3.350273,1.1245008
-32.068546,3.3562546,1.1377473
-32.108704,3.3634422,1.1538825
-32.150414,3.3685293,1.1649127
-32.19291,3.3726263,1.1735196
-32.236835,3.3750098,1.1779509
-32.281376,3.3767843,1.1808767
-32.32534,3.3794074,1.1858292
-32.370876,3.380337,1.1866465
-32.415844,3.3821177,1.1894946
-32.46247,3.382218,1.1882386
-32.512486,3.3788497,1.1785417
-32.559032,3.3795848,1.1787543
-32.609745,3.3761508,1.1688237
-32.661716,3.3717992,1.1566253
-32.719925,3.3615441,1.130064
-32.787518,3.3425884,1.082336
-32.87074,3.3093264,0.9998131
-32.955887,3.2756772,0.9162669
-33.006626,3.275885,0.914876
-33.06738,3.267092,0.8915763
-34.28661,3.228095,0.7451501
-34.318867,3.24663,0.78754663
-34.354767,3.262611,0.8236685
-34.35808,3.299098,0.91005373
-34.368683,3.3303201,0.9835491
-34.463634,3.3090444,0.9282131
-34.53783,3.3012836,0.90595293
-34.60555,3.297941,0.8944702
-34.63806,3.3157992,0.9350319
-34.681606,3.3270721,0.9593806
-34.743637,3.327753,0.95763445
-34.86342,3.296048,0.87609386
-34.958744,3.2792008,0.83100414
-35.016506,3.2838507,0.8387847
-35.070354,3.2908494,0.8523011
-35.13338,3.2930908,0.85403013
-35.214504,3.2860534,0.8327875
-35.282658,3.2863293,0.82951784
-35.353394,3.285631,0.8237686
-35.44576,3.2743254,0.79170656
-35.548313,3.258582,0.7485485
-35.61119,3.2632565,0.7558298
-35.686333,3.2622013,0.7488451
-35.757473,3.2634866,0.7475815
-35.852932,3.2535648,0.71842766
-35.924057,3.2557108,0.7191205
-36.00103,3.2554932,0.7138605
-36.083336,3.2532449,0.7034621
-36.153248,3.257054,0.70803833
-36.239357,3.2539654,0.69535637
-36.33037,3.2492166,0.67843103
-36.412712,3.2487762,0.6721344
-36.493385,3.2494872,0.668612
-36.56905,3.2527301,0.6713166
-36.678154,3.2423801,0.63994503
-36.779194,3.2360609,0.6185093
-36.861202,3.2380898,0.6178441
-36.952957,3.2366145,0.60829306
-37.041656,3.2368479,0.6029062
-37.149925,3.2298996,0.5793705
-37.234528,3.2327337,0.58026695
-37.402336,3.2401505,0.58612776
-37.446014,3.2593694,0.6279807
-37.529137,3.2641532,0.63338184
-37.688107,3.2419176,0.57043934
-37.95444,3.182495,0.41324282
-37.97029,3.2132854,0.48386765
-38.103195,3.2031648,0.45087624
-38.211967,3.2021255,0.44070435
-38.293957,3.2107239,0.45483494
-38.354618,3.2267787,0.48780298
-38.604645,3.1806164,0.3623948
-38.65335,3.2016747,0.40777683
-38.98026,3.1712966,0.31327677
-39.038406,3.190494,0.3535185
-39.26045,3.15933,0.2647729
-39.32975,3.1760428,0.2983389
-39.469112,3.1719584,0.27843475
-39.552475,3.185198,0.30281258
-39.71141,3.1767128,0.2711568
-40.121494,3.1753545,0.23672247
-40.55353,3.1745286,0.20141745
-26.965033,3.3717241,1.017159
-27.00222,3.359162,0.9885464
-27.049023,3.3545473,0.979599
-27.086206,3.3418312,0.9505472
-27.102322,3.310619,0.87567806
-27.133732,3.2921467,0.83234644
-27.18442,3.2906806,0.83107185
-27.229342,3.2841566,0.8172445
-27.28328,3.2861025,0.82432127
-27.335552,3.2868173,0.8283043
-27.384056,3.2841892,0.8239813
-27.433582,3.28275,0.8225541
-27.485126,3.2835627,0.82664394
-27.562317,3.3109708,0.8963337
-27.681105,3.3831968,1.0765285
-27.752533,3.4080865,1.1398044
-27.8214,3.4314575,1.1992598
-27.87078,3.4344263,1.2083426
-27.917126,3.4343314,1.2098293
-27.96553,3.4368708,1.2177696
-28.014053,3.439912,1.2269025
-28.060888,3.4413002,1.2319231
-28.106413,3.4413836,1.2336907
-28.15098,3.440513,1.2330728
-28.196043,3.440488,1.2345009
-28.241562,3.4413133,1.2379832
-28.284283,3.438639,1.2328186
-28.327528,3.4368045,1.2296891
-28.370235,3.4343593,1.2250214
-28.413187,3.432392,1.2214966
