x,y,z
-32.071373,3.078453,2.8308082
-32.10955,3.0759406,2.8296456
-32.14714,3.074537,2.8303156
-32.1848,3.073242,2.8312192
-32.223957,3.0700676,2.8291926
-32.262146,3.068498,2.8297877
-32.299675,3.0680294,2.8321986
-32.33689,3.0681622,2.8356285
-32.376415,3.0654433,2.8345885
-32.414513,3.0648105,2.8369303
-32.45813,3.0574143,2.8286042
-32.497215,3.0560377,2.829904
-32.537186,3.0537987,2.8299055
-32.579285,3.0492406,2.8263054
-32.61783,3.049196,2.8299217
-32.658092,3.0473208,2.8307114
-32.700146,3.0436282,2.828703
-32.742332,3.040067,2.8269792
-32.78205,3.0395327,2.8301048
-32.824028,3.0367103,2.8296976
-32.86479,3.0354593,2.8318405
-32.905186,3.0348117,2.8350062
-32.947018,3.0328526,2.836185
-32.987106,3.0329306,2.8406382
-33.02958,3.0307515,2.8416257
-33.07263,3.028231,2.8421583
-33.115803,3.025847,2.842987
-33.159084,3.0235994,2.844112
-33.203453,3.020548,2.8440647
-33.248444,3.01717,2.843596
-33.294567,3.0130026,2.8419847
-33.341354,3.0085201,2.8399773
-33.385754,3.0065203,2.8419251
-33.430267,3.004664,2.8441834
-33.47436,3.003414,2.8474712
-33.521175,2.9999976,2.8474903
-33.56866,2.9962766,2.8471336
-33.61469,2.9940913,2.8492494
-33.662457,2.9906845,2.849575
-33.712,2.9860697,2.8481383
-33.759514,2.983444,2.8498693
-33.80938,2.979164,2.8491578
-33.85885,2.9755065,2.8495107
-33.906776,2.9733696,2.8523035
-33.953106,2.9727407,2.8575091
-34.00643,2.9668949,2.8548298
-34.0675,2.9554403,2.8437042
-34.10666,2.9611053,2.8588428
-34.145172,2.9673293,2.874907
-34.17113,2.9829366,2.9053192
-34.21302,2.9867134,2.9177918
-34.247643,2.9958816,2.9385276
-34.285187,3.0029595,2.9561582
-34.3331,3.0027466,2.9628372
-34.3749,3.0070333,2.9764156
-34.418556,3.0101552,2.988325
-34.46788,3.0095444,2.9947119
-34.521732,3.0061016,2.9969583
-34.575737,3.0028532,2.9996252
-34.63246,2.9980967,3.0001655
-34.684193,2.9969409,3.0062275
-34.740593,2.9930115,3.0082755
-34.794537,2.9909723,3.01328
-34.852573,2.986614,3.0149684
-34.911453,2.9820542,3.0165067
-34.974533,2.9752223,3.01483
-35.03717,2.9690452,3.0142899
-35.116325,2.95322,2.9996862
-35.203426,2.9332075,2.9791436
-35.293793,2.9119256,2.9569917
-50.35328,0.63885427,2.0553374
-50.338448,0.70598817,2.1831884
-50.375263,0.75937605,2.2972293
-50.179512,0.8718021,2.4690142
-50.28793,0.906245,2.5642567
-50.33248,0.95687413,2.675456
-49.94219,1.1140578,2.88688
-50.026215,1.1537018,2.9868288
-49.962208,1.2289429,3.11969
-50.156326,1.2425449,3.1965914
-50.22709,1.2857673,3.3008728
-50.470337,1.2894149,3.3710437
-50.75569,1.284646,3.4355316
-51.19464,1.2468195,3.4740443
-51.275604,1.2905192,3.5827875
-51.391533,1.3267674,3.6859412
-51.53488,1.3574991,3.7854176
-51.698036,1.3845713,3.8829565
-51.93039,1.3977952,3.9710355
-53.147316,1.2083714,3.9101982
-53.20014,1.2631583,4.035269
-53.27449,1.3136411,4.1575775
-54.588642,1.1183176,4.1113677
-7.3758926,1.411406,3.9547663
-7.214777,1.3138232,3.797308
-6.7330685,1.1490805,3.584794
-6.732643,1.0816951,3.4484806
-7.2779083,1.1294343,3.4081273
-7.444624,1.0327394,3.1715536
-7.504574,0.97950935,3.0496154
-7.5193176,0.9162319,2.9189448
-7.529253,0.8516362,2.7870498
-7.5544605,0.79027486,2.6580858
-7.5729465,0.7271726,2.527524
-7.6161404,0.6696539,2.402269
-7.581375,0.5934887,2.259159
-7.629244,0.53668904,2.1346474
-7.6353836,0.46963358,2.0001378
-7.6359158,0.40086508,1.8638163
-7.6242847,0.3286841,1.7239056
-7.830866,0.31134868,1.6400876
-7.850029,0.246835,1.5083694
-9.883169,0.2506249,1.0368695
-10.01293,0.22114563,0.94956636
-10.879595,0.404809,1.1057463
-11.073942,0.3975036,1.0469389
-11.22451,0.37815022,0.9750624
-11.34799,0.35129738,0.8950863
-11.438246,0.31481862,0.80429983
-12.149954,0.46837234,0.9387083
-12.709198,0.45813727,0.7935972
-12.7419815,0.40739083,0.68928003
-12.932314,0.40730953,0.6469512
-13.133116,0.41155076,0.6107321
-13.537413,0.42389965,0.54558945
-15.302381,0.9587705,1.1760683
-15.499534,0.97150874,1.1574569
-15.729474,0.99658465,1.1552601
-15.936104,1.0148268,1.1453161
-16.170849,1.044096,1.1503081
-16.419556,1.0796819,1.1643748
-16.617386,1.0984316,1.1577067
-16.811232,1.1168246,1.1513557
-17.013954,1.1395509,1.1514063
-17.196438,1.1559098,1.1439071
-17.316385,1.1497958,1.1075368
-17.363472,1.1165562,1.035739
-17.437191,1.0934594,0.97750235
-17.752323,1.1640368,1.0443182
-17.777967,1.1233921,0.96353626
-18.134356,1.2133584,1.0582495
-18.146683,1.1682677,0.9721799
-18.215153,1.1455016,0.91629267
-18.320969,1.1380913,0.88146114
-18.445618,1.1388803,0.85815144
-18.595392,1.1507349,0.8504052
-18.734177,1.1587801,0.83793306
-18.871809,1.1670663,0.8262577
-19.254944,1.2816648,0.9621415
-19.616282,1.3897336,1.0903921
-19.262615,1.1866293,0.7865448
-19.931694,1.4335728,1.1101131
-19.956673,1.3974373,1.039381
-19.705696,1.236037,0.7925043
-19.79119,1.2257705,0.7577362
-19.922768,1.237112,0.7537708
-20.046953,1.2457349,0.74636126
-20.169243,1.2541385,0.73901796
-20.328865,1.2810209,0.7584157
-20.435728,1.2835114,0.7434192
-21.076704,1.5467529,1.1028671
-21.15992,1.54139,1.078187
-21.215977,1.5228443,1.0347128
-21.17562,1.4558764,0.92133284
-21.142498,1.3916099,0.8116355
-20.983107,1.2616072,0.60618305
-21.102768,1.2740588,0.6076174
-21.143566,1.2458777,0.55005217
-20.969938,1.0523987,0.23389626
-26.766232,2.0426788,1.1531467
-26.875736,2.1097965,1.2559738
-26.953726,2.1415758,1.3023052
-27.049635,2.1964164,1.3858552
-27.128891,2.2326956,1.4397678
-27.20027,2.2605104,1.4802227
-27.296125,2.3207622,1.5730581
-27.333006,2.3066418,1.5462503
-27.430508,2.372398,1.6483011
-27.72843,2.7102716,2.1896896
-27.533527,2.3856626,1.6621032
-27.585953,2.3942542,1.6723003
-27.650982,2.4212573,1.7123561
-28.078022,2.9727414,2.6010385
-28.123837,2.983796,2.6160321
-28.181574,3.013342,2.6610575
-28.234037,3.0361419,2.695262
-28.308882,3.0949428,2.7879438
-28.346004,3.096234,2.7874799
-28.3849,3.100625,2.7921052
-28.426365,3.1096294,2.804285
-28.465511,3.115256,2.8110456
-28.503038,3.118491,2.8139806
-28.539886,3.120829,2.8155146
-28.576086,3.1222658,2.815638
-28.613579,3.1263208,2.8200793
-28.649076,3.1269534,2.8190036
-28.684784,3.1281886,2.8189611
-28.721195,3.131039,2.8216057
-28.755016,3.1289284,2.816214
-28.788372,3.1258926,2.8093605
-28.824135,3.128019,2.810979
-28.860281,3.1312594,2.8144698
-28.89587,3.1335835,2.8165174
-28.931595,3.1365144,2.8196087
-28.96765,3.140563,2.8245797
-29.00296,3.143181,2.8272648
-29.038383,3.1464067,2.8309956
-29.073315,3.1487064,2.8332615
-29.108168,3.1511006,2.8357334
-29.140373,3.1464167,2.826665
-29.17231,3.1407871,2.816091
-29.205557,3.1388304,2.8115768
-29.23965,3.139528,2.8114576
-29.274187,3.1418588,2.8140635
-29.308495,3.1437664,2.8160238
-29.342148,3.1437063,2.814806
-29.376064,3.1447644,2.8154683
-29.409399,3.1438496,2.8129401
-29.443382,3.1456003,2.8148332
-29.476198,3.1427944,2.8092937
-29.509768,3.143172,2.8090239
-29.54309,3.1426034,2.8072467
-29.576727,3.1436718,2.8082037
-29.610226,3.1443112,2.8085022
-29.643324,3.1429665,2.8055868
-29.676876,3.1442964,2.8071108
-29.710464,3.146232,2.8096762
-29.743774,3.1467,2.809875
-29.777063,3.147254,2.8102598
-29.81014,3.1463385,2.8082747
-29.843288,3.1460266,2.8073263
-29.876686,3.1483946,2.8108292
-29.909758,3.1477344,2.8093982
-29.942722,3.1456025,2.8055906
-29.97586,3.1456308,2.8053813
-30.008991,3.1457455,2.8053584
-30.042076,3.1449065,2.8038106
-30.075191,3.1446717,2.8033013
-30.10831,3.144522,2.8029776
-30.141436,3.1460156,2.8054
-30.174522,3.1475952,2.8080082
-30.207594,3.1482198,2.809091
-30.240686,3.147891,2.8086495
-30.273878,3.1455696,2.8049765
-30.307009,3.145411,2.804905
-30.340076,3.1463764,2.806726
-30.373207,3.1463878,2.8070226
-30.406248,3.1475232,2.8092127
-30.439266,3.1487432,2.8115854
-30.4725,3.147973,2.8107305
-30.505756,3.1472883,2.810062
-30.539108,3.1461713,2.8087287
-30.572184,3.1472137,2.810989
-30.605328,3.1478229,2.812582
-30.638645,3.1474826,2.8126593
-30.672173,3.1461923,2.811222
-30.705538,3.1460247,2.8116746
-30.738918,3.1459444,2.812315
-30.772083,3.1469831,2.8148394
-30.80608,3.1444929,2.8116155
-30.840021,3.1426077,2.809433
-30.874155,3.1402972,2.8065982
-30.907665,3.140654,2.8081884
-30.941616,3.139553,2.8074322
-30.975159,3.1400857,2.809403
-31.008707,3.140706,2.811564
-31.043234,3.1383297,2.8088593
-31.07733,3.1375868,2.8088799
-31.111113,3.1379604,2.8107772
-31.14527,3.1373968,2.8111873
-31.179089,3.137949,2.8134718
-31.2133,3.1375659,2.8142738
-31.24794,3.136252,2.8136
-31.283861,3.1319666,2.808117
-31.318224,3.1318629,2.8095226
-31.351965,3.1333787,2.8136253
-31.38703,3.1319294,2.81293
-31.423752,3.1270165,2.8066292
-31.458744,3.1262698,2.8071856
-31.493542,3.126125,2.8087769
-31.528126,3.126581,2.8113961
-31.563484,3.1256118,2.8117423
-31.599152,3.1242337,2.8114738
-31.634357,3.1239636,2.8130636
-31.670408,3.1222775,2.812399
-31.706532,3.1206915,2.8119526
-31.741318,3.1217186,2.8158116
-31.776978,3.1213346,2.8174262
-31.81473,3.1175418,2.8135533
-31.852606,3.1138577,2.809918
-31.889385,3.1122818,2.809764
-31.923758,3.1147997,2.8163104
-31.960953,3.1129274,2.8157873
-31.998875,3.1101677,2.8138819
-32.035587,3.1095028,2.8154316
-32.07469,3.1054738,2.8115902
-32.111217,3.1055167,2.8144045
-32.147438,3.1061563,2.8182387
-32.18544,3.104433,2.8183093
-32.224594,3.1013448,2.8162365
-32.2635,3.0988636,2.8152084
-32.300304,3.0994377,2.819172
-32.339005,3.0976706,2.8194194
-32.377792,3.096017,2.8199139
-32.416283,3.0949655,2.8214407
-32.454063,3.0949986,2.8247752
-32.494663,3.0917454,2.8228893
-32.532177,3.0924883,2.8274918
-32.570942,3.09189,2.8300018
-32.61266,3.0880322,2.8273487
-32.652847,3.0862277,2.8280592
-32.692703,3.0850244,2.829802
-32.735214,3.0810692,2.8272085
-32.7783,3.0767698,2.824142
-32.815388,3.079278,2.832027
-32.857815,3.0761874,2.8310375
-32.900368,3.07323,2.830336
-32.941223,3.0722988,2.83294
-32.984924,3.0686612,2.8313074
-33.0297,3.0642214,2.8284812
-33.071804,3.0627446,2.8304453
-33.11496,3.0604622,2.8312087
-33.16064,3.055982,2.8285646
-33.20551,3.0525827,2.8277216
-33.25052,3.0493295,2.8271942
-33.295662,3.0462222,2.8269844
-33.343464,3.0409522,2.823444
-33.388393,3.0386066,2.824614
-33.43344,3.0364072,2.8260999
-33.478085,3.034812,2.8286228
-33.52283,3.0333607,2.8314595
-33.57033,3.029778,2.8310342
-33.617443,3.0268075,2.8316655
-33.66091,3.027163,2.8376026
-33.716988,3.0172794,2.8275952
-33.760143,3.0183935,2.8349056
-33.80668,3.0169544,2.8383112
-33.85668,3.012987,2.8378687
-33.905155,3.0105286,2.839881
-33.953182,3.0086782,2.8429394
-33.993843,3.0127418,2.8552852
-34.033325,3.017811,2.8692675
-34.069256,3.0256357,2.8875923
-34.109222,3.0304935,2.9013882
-34.149754,3.0350358,2.9147725
-34.19086,3.0392675,2.9277544
-34.234978,3.0414588,2.9376736
-34.281563,3.0420666,2.9452453
-34.32945,3.0419688,2.9518328
-34.37865,3.041177,2.957458
-34.429203,3.0397005,2.9621425
-34.47798,3.0396767,2.969162
-34.526207,3.0402443,2.977192
-34.582165,3.0359104,2.9778566
-34.640232,3.0305192,2.977046
-34.69267,3.0291142,2.982429
-34.74979,3.0249746,2.983789
-34.80446,3.022708,2.98812
-34.863895,3.017743,2.9885044
-34.92153,3.0142365,2.9912362
-34.98469,3.00766,2.9894867
-35.05011,3.0000992,2.9864197
-35.111706,2.9952338,2.987564
-35.169395,2.9930336,2.992856
-35.27816,2.9611912,2.9540024
-50.330097,0.7591896,2.0108871
-50.42408,0.7981787,2.1101065
-50.18234,0.98375154,2.4183655
-50.17063,1.1091981,2.6639762
-49.933372,1.2268281,2.8398824
-49.99555,1.2718718,2.9446144
-50.058975,1.3166924,3.049409
-50.1084,1.3648231,3.1575708
-50.185776,1.4065897,3.2600942
-50.365917,1.4254417,3.3423042
-50.624405,1.4277015,3.410839
-50.913605,1.4244788,3.4761906
-51.24229,1.4141443,3.5372715
-51.354362,1.4515696,3.6407151
-51.456234,1.4915116,3.7468967
-51.638676,1.5150778,3.8404164
-51.822685,1.5391049,3.9354787
-53.179806,1.3276026,3.8492022
-53.174458,1.3941493,3.9831533
-53.21964,1.4505041,4.1094193
-53.9168,1.3810523,4.1453924
-7.2720203,1.5194311,3.8819728
-7.2087708,1.4419489,3.7392488
-6.7054195,1.2757747,3.5218134
-6.7233486,1.2122364,3.3884344
-7.3017693,1.2638779,3.3552227
-7.4160633,1.2216933,3.2426147
-7.472294,1.1675911,3.1198964
-7.5072365,1.1089482,2.9932642
-7.5296154,1.047473,2.8641014
-7.5366287,0.9824312,2.7315888
-7.550337,0.9186077,2.600172
-7.5678444,0.85540223,2.4693198
-7.614212,0.73094153,2.2095246
-7.716057,0.6869197,2.0980892
-7.600851,0.5914235,1.9343586
-7.5409565,0.50822234,1.7825885
-7.6674385,0.330925,1.4020452
-7.707588,0.27107143,1.2745929
-7.864498,0.24107313,1.1798973
-7.981678,0.20132732,1.0751553
-9.781073,0.40877533,1.0806327
-9.970335,0.3949108,1.0116348
-10.323265,0.4275968,0.99766445
-11.017363,0.55862284,1.1007295
-11.197725,0.54691195,1.0384626
-11.519476,0.5768945,1.0266266
-11.51123,0.51204586,0.9025264
-12.028275,0.6022265,0.96551037
-11.679611,0.43628168,0.71943283
-11.572897,0.34080648,0.5578103
-12.644899,0.5444932,0.72197247
-14.147802,0.95414805,1.1916575
-14.40621,0.97972775,1.1862612
-14.644388,1.0002482,1.1755705
-14.885517,1.0230167,1.1687212
-15.168413,1.0607829,1.1820126
-15.362343,1.0707307,1.1607742
-15.526054,1.071564,1.1285429
-15.652824,1.060684,1.0817451
-15.739517,1.0366135,1.018209
-15.935962,1.050724,1.0049663
-16.132801,1.066021,0.9940376
-16.373142,1.097755,1.0055952
-16.422655,1.0627203,0.9293766
-17.039787,1.2326007,1.1267409
-17.024242,1.1759167,1.0229225
-17.364277,1.2498572,1.0947895
-17.099394,1.1004901,0.8660884
-17.261059,1.1093206,0.8509388
-17.446733,1.1281416,0.84997225
-17.54808,1.1155493,0.80668163
-17.835524,1.1757259,0.8636627
-18.14065,1.2447646,0.93392706
-18.173569,1.207717,0.85850143
-18.206242,1.1703835,0.7827139
-18.385586,1.1923771,0.7896557
-18.543034,1.20645,0.7861304
-18.65606,1.2029915,0.7585182
-19.431736,1.4775729,1.1228094
-19.528715,1.4712577,1.0931282
-19.144602,1.2595675,0.7726221
-19.20048,1.2341132,0.7153702
-20.021517,1.5428648,1.1349244
-20.108635,1.5347278,1.1041303
-19.69114,1.3018479,0.7510905
-19.710018,1.26124,0.6731024
-20.03104,1.3579054,0.79320955
-20.080915,1.3323216,0.7374811
-21.125078,1.6349475,1.1079092
-21.176235,1.6140203,1.0609889
-21.169641,1.5647836,0.9725437
-21.212688,1.5395379,0.91935444
-21.002537,1.3874471,0.6788168
-21.00322,1.3392344,0.5913029
-21.150114,1.3652041,0.61382914
-21.041714,1.260261,0.44199276
-20.975555,1.1755867,0.299922
-26.692146,2.0630624,1.0990472
-26.80491,2.1314008,1.2054424
-26.88649,2.165828,1.2568774
-26.982964,2.2192168,1.3393693
-27.074926,2.2691505,1.4164329
-27.149927,2.3002234,1.4629169
-27.219093,2.3253107,1.499774
-27.095867,2.1084354,1.1414661
-27.313316,2.322068,1.486556
-27.401527,2.374416,1.5683379
-27.72314,2.7391949,2.161715
-27.54246,2.4373405,1.6640258
-27.612787,2.470644,1.7150884
-27.673578,2.4919984,1.7466903
-28.179989,3.043112,2.6422148
-28.268892,3.1206768,2.767068
-28.302628,3.1163785,2.7574897
-28.34394,3.1240044,2.7675772
-28.382881,3.1282978,2.7722445
-28.419264,3.1287475,2.7706418
-28.456188,3.130289,2.7708893
-28.494488,3.1344168,2.7754545
-28.532366,3.138158,2.7794404
-28.569283,3.1405146,2.7811985
-28.606106,3.1429753,2.7831812
-28.642838,3.14554,2.785389
-28.679731,3.1487074,2.7886467
-28.717281,3.1534803,2.7946124
-28.753439,3.155855,2.7966657
-28.790237,3.159836,2.8014283
-28.826672,3.1634178,2.805585
-28.862066,3.1650898,2.806631
-28.898066,3.168369,2.8103895
-28.934177,3.1722527,2.8151994
-28.969955,3.175732,2.8193917
-29.005623,3.1793106,2.8237982
-29.040573,3.18147,2.8259006
-29.076227,3.1857493,2.8315692
-29.110996,3.1881003,2.8340874
-29.142933,3.1829357,2.8241796
-29.175854,3.1803901,2.8186607
-29.210012,3.1814864,2.819232
-29.24346,3.180639,2.8166213
-29.277225,3.1808972,2.8158913
-29.311115,3.1817534,2.8162003
-29.344376,3.1806598,2.8133135
-29.378208,3.1816928,2.8140063
-29.411997,3.182815,2.8148918
-29.445482,3.1830046,2.8142715
-29.47907,3.1837926,2.8146906
-29.512386,3.1836452,2.8135977
-29.54547,3.1825604,2.810989
-29.578983,3.1836102,2.811975
-29.612358,3.1842346,2.8122969
-29.645334,3.1828954,2.8093934
-29.678501,3.1826663,2.808381
-29.711744,3.1830366,2.8084097
-29.745192,3.1850324,2.8111897
-29.778236,3.184548,2.8098817
-29.811157,3.183121,2.807046
-29.844105,3.1817787,2.8043942
-29.877277,3.1825774,2.8053508
-29.910423,3.1834605,2.8064928
-29.943504,3.1839159,2.8069634
-29.976503,3.1834276,2.8059049
-30.00951,3.183024,2.8050303
-30.04252,3.1827054,2.804339
-30.075577,3.184015,2.8064055
-30.108616,3.1864383,2.8103704
-30.141588,3.1868887,2.8110886
-30.174566,3.185366,2.8085608
-30.207548,3.1854715,2.8087897
-30.24063,3.1825757,2.804058
-30.273575,3.184394,2.8072267
-30.306593,3.1842394,2.80715
-30.339655,3.183656,2.8064003
-30.372568,3.1852138,2.8092623
-30.405544,3.185828,2.810594
-30.438562,3.1860127,2.8112535
-30.471819,3.184229,2.8086743
-30.504929,3.1840713,2.808848
-30.538193,3.182972,2.8074965
-30.571337,3.1829858,2.8080416
-30.604654,3.1820595,2.8070645
-30.637556,3.1837828,2.8105435
-30.670906,3.183028,2.809938
-30.704184,3.1828723,2.8103743
-30.737476,3.1828027,2.8109975
-30.771011,3.1817966,2.8101048
-30.804462,3.181389,2.8102527
-30.838066,3.180558,2.8097405
-30.871702,3.1798148,2.8094187
-30.904957,3.1806912,2.8118343
-30.938496,3.1806333,2.8127403
-30.972506,3.1791341,2.8112955
-31.006256,3.178744,2.8117385
-31.040195,3.177934,2.8115296
-31.074005,3.177722,2.8123589
-31.107319,3.1791227,2.8159127
-31.141521,3.178073,2.8154402
-31.175024,3.1791422,2.8185325
-31.209103,3.1787791,2.819292
-31.243809,3.1769886,2.817731
-31.278376,3.175797,2.8172112
-31.314047,3.1721742,2.812708
-31.34918,3.1701632,2.8109264
-31.3835,3.1702635,2.8126912
-31.418072,3.1699524,2.8138223
-31.453617,3.1677237,2.8118258
-31.489002,3.1660948,2.810873
-31.523226,3.1670709,2.8142781
-31.558968,3.165133,2.8129125
-31.595818,3.1612928,2.808455
-31.631207,3.1605551,2.809176
-31.666378,3.1604128,2.8109307
-31.702412,3.1588728,2.8104281
-31.738235,3.15793,2.8109632
-31.773829,3.1575837,2.812533
-31.813272,3.1508875,2.8036885
-31.848133,3.1522331,2.8081522
-31.883303,3.153179,2.8120074
-31.918798,3.1537263,2.815258
-31.955269,3.152893,2.8162875
-31.992764,3.1506863,2.8151135
-32.031662,3.1466231,2.810946
-32.06703,3.1480694,2.8158855
-32.106815,3.1432483,2.8105907
-32.143307,3.1434338,2.8135715
-32.178783,3.1451855,2.8191733
-32.216763,3.1436262,2.8194027
-32.25663,3.1397486,2.8158956
-32.2959,3.1369607,2.8142352
-32.334534,3.1352582,2.8144112
-32.37212,3.1351185,2.8172035
-32.409756,3.135087,2.8202295
-32.448612,3.1337214,2.821136
-32.489532,3.1300707,2.8183775
-32.527775,3.129898,2.8213563
-32.566887,3.1288817,2.823021
-32.608555,3.1251204,2.82028
-32.646595,3.1257708,2.8247843
-32.688065,3.1227343,2.8233576
-32.728806,3.120773,2.8237472
-32.76964,3.118936,2.824407
-32.8119,3.1158106,2.8230457
-32.85384,3.1132884,2.8227344
-32.894547,3.1123042,2.8249831
-32.9367,3.11004,2.8252316
-32.98174,3.1051073,2.8212419
-33.02368,3.1035807,2.8228307
-33.066193,3.1017203,2.8239546
-33.108807,3.0999935,2.8253684
-33.152008,3.0979388,2.8263283
-33.193855,3.0974038,2.8298106
-33.23825,3.0947018,2.829883
-33.28277,3.092143,2.830266
-33.32691,3.0901859,2.831695
-33.3732,3.0865476,2.8305116
-33.4181,3.084426,2.831842
-33.46311,3.0824504,2.8334894
-33.510868,3.0783634,2.8318481
-33.558254,3.074887,2.831273
-33.602577,3.0742621,2.8353343
-33.648613,3.0724387,2.8375692
-33.69476,3.0707664,2.8401327
-33.74322,3.0674684,2.8402019
-33.796837,3.0603456,2.8342996
-33.843956,3.0587153,2.8372116
-33.90081,3.0497563,2.828617
-33.94081,3.054171,2.8412828
-33.977913,3.0608935,2.8576646
-34.01784,3.0655422,2.8708372
-34.0595,3.0690076,2.8822198
-34.09998,3.0734692,2.8952446
-34.144012,3.0754657,2.9044733
-34.186882,3.078464,2.9153576
-34.232185,3.079886,2.9238558
-34.283638,3.0771892,2.9260035
-34.335854,3.074249,2.9278793
-34.388836,3.07107,2.9294963
-34.441975,3.06808,2.9315228
-34.490856,3.0682218,2.9385352
-34.54616,3.0643446,2.9394116
-34.59845,3.0627537,2.9439564
-34.65536,3.0584397,2.9444022
-34.71505,3.0526803,2.9427447
-34.775608,3.0467317,2.9409366
-34.8331,3.043064,2.9427824
-34.890102,3.0400171,2.9457173
-34.950592,3.0351448,2.9459834
-35.009945,3.0313106,2.9479847
-35.0769,3.0232587,2.943678
-35.135292,3.0206919,2.9479113
-35.212307,3.0075383,2.9361544
-35.304173,2.986333,2.9123545
-50.199158,0.97023535,2.1141071
-50.111313,1.2368898,2.6236672
-49.95825,1.3330872,2.7801504
-49.963448,1.3915057,2.898045
-50.02398,1.4370418,3.0032215
-50.032326,1.4943871,3.120078
-50.172707,1.5221806,3.2087035
-50.25237,1.5638206,3.3111067
-50.449425,1.5802803,3.3906317
-50.76349,1.5726738,3.4494362
-51.17009,1.5471671,3.494185
-53.135807,1.2004218,3.2594056
-51.418682,1.617862,3.6964588
-51.516094,1.6593037,3.8038464
-51.70875,1.682111,3.8963604
-51.93791,1.6986103,3.9849963
-53.19213,1.5182385,3.9190893
-53.195557,1.5826724,4.0515723
-53.717896,1.5496023,4.110351
-54.684097,1.4372542,4.114571
-7.2149944,1.6392133,3.8106518
-6.747444,1.4846878,3.6009445
-6.7023945,1.4093475,3.4573069
-7.2704544,1.4543796,3.4206076
-7.4317837,1.3555481,3.1832047
-7.4783955,1.2993913,3.0587707
-7.5027695,1.238569,2.9300604
-7.5241966,1.176966,2.8006315
-7.5427017,1.1145551,2.6704245
-7.560217,1.0517256,2.5397973
-7.586294,0.9905689,2.4108486
-7.5894623,0.92412233,2.2765164
-7.771387,0.89784956,2.1837783
-7.6148987,0.7946682,2.0111694
-7.5919113,0.5838654,1.5947542
-7.6359425,0.52527237,1.4684443
-7.668627,0.46379805,1.3390512
-7.300171,0.30271888,1.0980997
-7.357071,0.24570584,0.97278214
-9.014906,0.59547377,1.3120699
-8.103548,0.29430866,0.9099984
-8.25897,0.26480913,0.81878185
-9.729427,0.5825856,1.1351881
-9.839809,0.54644966,1.0407763
-10.105549,0.5525887,0.9971409
-10.404079,0.56901455,0.9670477
-11.085543,0.6929078,1.0682373
-11.225567,0.6693325,0.9930272
-11.436096,0.66624975,0.9435115
-12.247131,0.8362379,1.1086249
-11.548998,0.57374525,0.73978376
-12.694828,0.84693813,1.0378871
-13.452511,1.0123448,1.2054777
-13.6947155,1.0278354,1.1864982
-13.967825,1.0539811,1.1821032
-14.18922,1.0657487,1.1604042
-14.277276,1.0372579,1.0876808
-14.468842,1.0414951,1.0576849
-14.558164,1.0142109,0.9873347
-14.825452,1.0443139,0.9924922
-14.83999,0.9938369,0.89254093
-15.45417,1.139977,1.052916
-15.464836,1.089777,0.9545374
-15.486771,1.0430226,0.8607092
-15.574638,1.0183883,0.7965913
-15.9096985,1.0788195,0.84754944
-16.017998,1.0626574,0.79595995
-16.958296,1.3387389,1.1426716
-16.897549,1.2665973,1.0169191
-16.934593,1.2286224,0.9377465
-17.495537,1.3803611,1.1202383
-17.09858,1.1851728,0.8245597
-17.131113,1.1454415,0.7432823
-17.192028,1.1161427,0.6765933
-17.283512,1.0984433,0.6262932
-17.807552,1.2464292,0.80916595
-18.21106,1.3516653,0.93366337
-18.184906,1.2919338,0.82605743
-18.355246,1.3091109,0.8275261
-18.188335,1.1926756,0.6390791
-18.215857,1.1527662,0.55936193
-19.349758,1.563607,1.1264634
-19.451614,1.5586238,1.099112
-19.01501,1.3298793,0.74892855
-19.12552,1.3270268,0.72424793
-19.168701,1.2960374,0.6590047
-19.221909,1.2692509,0.5999527
-20.133942,1.6154892,1.0861225
-19.872265,1.4543927,0.83199215
-20.124313,1.4232912,0.7317052
-20.171646,1.3481405,0.5850706
-21.07844,1.72317,1.1261206
-21.143782,1.7089243,1.0891495
-21.260826,1.719528,1.0895071
-21.179846,1.6351964,0.94778967
-21.142563,1.5708344,0.83574104
-20.977419,1.4424884,0.6270671
-21.03389,1.4223101,0.58112574
-21.111298,1.4127057,0.5512986
-20.975864,1.2949839,0.35762787
-20.983742,1.2489367,0.27239084
-26.728912,2.148394,1.1432586
-26.8188,2.1905355,1.2083454
-26.912127,2.238216,1.2827644
-26.994541,2.274904,1.3391905
-27.089582,2.328024,1.4229703
-27.171099,2.366787,1.4831653
-27.24465,2.3972847,1.5298209
-27.113337,2.173214,1.1544833
-27.355488,2.4160428,1.5534563
-27.381548,2.3883116,1.5037947
-27.524693,2.5137596,1.7086201
-27.567377,2.509471,1.6981049
-27.625315,2.5260205,1.7223053
-27.682802,2.5427618,1.7469215
-27.702854,2.5074492,1.6849589
-28.223759,3.138815,2.7311716
-28.256353,3.1324492,2.718099
-28.302786,3.1471117,2.7401557
-28.342867,3.1526546,2.7470636
-28.382774,3.1583173,2.7542305
-28.42039,3.1606724,2.7559295
-28.459387,3.1655865,2.7619596
-28.495907,3.166686,2.7616668
-28.532358,3.167888,2.7615962
-28.569857,3.1711617,2.7650428
-28.606968,3.1740487,2.7678962
-28.643703,3.176547,2.7701488
-28.681128,3.1806326,2.775113
-28.718927,3.1858153,2.7819695
-28.755573,3.189123,2.7857342
-28.792105,3.1925337,2.789722
-28.827099,3.1930637,2.7889247
-28.8639,3.197671,2.79502
-28.900784,3.2028804,2.802178
-28.935755,3.204203,2.802854
-28.971306,3.2071185,2.8062563
-29.00676,3.210132,2.8098693
-29.041105,3.2107403,2.809485
-29.07619,3.2134445,2.8126707
-29.111942,3.2182503,2.8194408
-29.145168,3.2166293,2.8154383
-29.178228,3.2145915,2.8107772
-29.211828,3.2141483,2.8088431
-29.24525,3.2132897,2.806252
-29.27915,3.21403,2.8063965
-29.312548,3.2133467,2.804185
-29.345942,3.212751,2.8021626
-29.379753,3.2137563,2.8028827
-29.413387,3.2143462,2.8029447
-29.447117,3.2155292,2.80405
-29.48006,3.213765,2.8002248
-29.513498,3.2141113,2.8000016
-29.5468,3.2140374,2.7991114
-29.5803,3.2150638,2.8001208
-29.613562,3.215164,2.7996068
-29.646622,3.2143352,2.7975664
-29.679775,3.2140987,2.7965674
-29.713243,3.2159798,2.7991858
-29.746658,3.2179477,2.8019924
-29.779806,3.2184784,2.8024125
-29.812683,3.2170608,2.799583
-29.845697,3.216745,2.798654
-29.878813,3.2175312,2.7996292
-29.911766,3.2168767,2.7982097
-29.944845,3.2178335,2.7995543
-29.97783,3.2178571,2.7993627
-30.01076,3.2169483,2.797635
-30.043724,3.2166324,2.7969503
-30.076721,3.2174203,2.7981715
-30.10969,3.2177837,2.798716
-30.142645,3.2177227,2.7985835
-30.175587,3.2192736,2.8012156
-30.208565,3.2173448,2.798008
-30.241556,3.2165194,2.7967052
-30.27466,3.2137425,2.7921438
-30.307573,3.2156324,2.7955122
-30.340338,3.2191334,2.8016424
-30.373434,3.2176294,2.799355
-30.406523,3.2167199,2.7981129
-30.439585,3.2164042,2.797915
-30.47272,3.215665,2.7970433
-30.505749,3.2160285,2.7980747
-30.53892,3.2154613,2.7975745
-30.572111,3.2149794,2.7972593
-30.60524,3.2150905,2.7979884
-30.638197,3.2163026,2.8006163
-30.671423,3.216078,2.800859
-30.70487,3.2149255,2.7995763
-30.738249,3.2143667,2.7993388
-30.771427,3.2149081,2.8009987
-30.805084,3.2135103,2.799429
-30.83879,3.2122016,2.7980509
-30.872545,3.210981,2.7968645
-30.90579,3.2118697,2.7992787
-30.939177,3.2123404,2.8010283
-30.973019,3.2113838,2.800415
-31.006748,3.2110214,2.800846
-31.04034,3.211251,2.8023176
-31.074287,3.2105625,2.8022842
-31.10757,3.2119744,2.8058329
-31.141205,3.2124684,2.8078775
-31.175222,3.2120473,2.8084245
-31.208889,3.212719,2.8108535
-31.24296,3.2124772,2.811791
-31.278492,3.2088244,2.807034
-31.313929,3.20577,2.8033314
-31.347948,3.2063067,2.8057132
-31.382427,3.2059376,2.8066154
-31.417627,3.2041664,2.8052077
-31.45243,3.2034864,2.8056808
-31.48752,3.202404,2.8055243
-31.522419,3.2019136,2.806408
-31.557362,3.2015178,2.807497
-31.59441,3.197258,2.8021545
-31.630272,3.1955748,2.8011827
-31.666208,3.1939917,2.8004274
-31.702217,3.1925085,2.7998886
-31.737734,3.1921103,2.8012156
-31.772432,3.1932845,2.8052216
-31.80597,3.1965146,2.8127122
-31.845745,3.1895442,2.803196
-31.881153,3.1900315,2.8061981
-31.91752,3.1891499,2.8069649
-31.954897,3.186909,2.8055124
-31.991404,3.1862352,2.8067288
-32.02862,3.1846926,2.806548
-32.064583,3.1851976,2.8098335
-32.102276,3.183381,2.8093023
-32.137638,3.1850576,2.8146396
-32.174763,3.1844184,2.816175
-32.213013,3.1824415,2.815539
-32.252087,3.1796155,2.8135486
-32.2898,3.1788247,2.8149972
-32.328697,3.1767063,2.814299
-32.3677,3.1747036,2.8138509
-32.40564,3.1742475,2.8160253
-32.445988,3.171047,2.8137102
-32.484875,3.169869,2.814806
-32.52465,3.1678581,2.8145833
-32.56615,3.1640768,2.8114948
-32.60697,3.1613674,2.8102446
-32.64498,3.1620774,2.814704
-32.685146,3.1605499,2.8155303
-32.725407,3.1591449,2.8166203
-32.76576,3.1578624,2.817976
-32.80928,3.1534393,2.814228
-32.85029,3.1519454,2.8153691
-32.890938,3.1510417,2.8175468
-32.935326,3.1465607,2.8139153
-32.97896,3.1431463,2.8121095
-33.022728,3.1398716,2.810607
-33.065693,3.1376553,2.8109126
-33.10782,3.136491,2.8130121
-33.151,3.134545,2.8139033
-33.192833,3.1341023,2.8173246
-33.237206,3.1315198,2.8173218
-33.28121,3.129533,2.8183684
-33.323814,3.1290424,2.8219285
-33.36956,3.1259851,2.8213825
-33.416992,3.1217306,2.8189726
-33.462513,3.1194258,2.8198166
-33.50763,3.117717,2.8217087
-33.554985,3.1143754,2.8210344
-33.60034,3.1129668,2.823578
-33.64581,3.1117067,2.8264422
-33.69302,3.1092732,2.8274937
-33.74312,3.104801,2.8253417
-33.792282,3.1013775,2.8249764
-33.84048,3.0989947,2.8263812
-33.886547,3.0985155,2.8309393
-33.932133,3.0986216,2.8365226
-33.9703,3.1044946,2.851447
-34.00376,3.113924,2.8721342
-34.049988,3.1139998,2.8778968
-34.096294,3.1142294,2.8839922
-34.142677,3.1146133,2.890421
-34.195747,3.1104815,2.8897376
-34.239304,3.113307,2.9002438
-34.297535,3.1061578,2.8949652
-34.34617,3.1059427,2.9008255
-34.401714,3.1012926,2.8997474
-34.45433,3.098928,2.9024081
-34.505196,3.097995,2.9074426
-34.55744,3.0964134,2.9115577
-34.61429,3.092134,2.9115267
-34.668747,3.0897036,2.9145322
-34.726597,3.0854275,2.9147525
-34.78659,3.080145,2.9135199
-34.841537,3.0783286,2.9178553
-34.89529,3.0775177,2.923884
-34.95783,3.071677,2.922173
-35.01791,3.0676749,2.923473
-35.08493,3.0599153,2.9190598
-35.147465,3.055192,2.919528
-35.230743,3.0388646,2.9021354
-35.363422,2.9949787,2.8422713
-49.956367,0.96412706,1.7589769
-49.96122,1.0248919,1.8805046
-50.033634,1.0686944,1.9830208
-50.700287,1.0941944,2.1777544
-50.670822,1.1636672,2.310131
-50.122772,1.3524637,2.568347
-50.086403,1.4209502,2.6976113
-49.99095,1.5022111,2.8397279
-49.979095,1.5640423,2.9613786
-49.991142,1.6202772,3.0772195
-50.090378,1.6574564,3.1741385
-50.196747,1.6934204,3.2703657
-50.341972,1.721566,3.35962
-50.600266,1.7268434,3.4280086
-51.032837,1.6977215,3.4658623
-51.4929,1.6652942,3.5033636
-51.296562,1.7656775,3.6633358
-51.461548,1.7939146,3.7581415
-51.616432,1.8247876,3.8562312
-51.817436,1.8475218,3.9483542
-53.131554,1.6626451,3.8692331
-53.17281,1.719769,3.9957652
-53.19764,1.779857,4.1248293
-54.10235,1.6824319,4.132134
-7.305519,1.8541672,3.8925734
-7.256649,1.7809322,3.7525182
-6.756756,1.6234167,3.53618
-6.714571,1.5490963,3.3928576
-7.3071194,1.5957363,3.3621755
-7.384033,1.5453329,3.2428422
-7.476141,1.4980891,3.1269312
-7.4986305,1.4371707,2.9980483
-7.5095196,1.3737411,2.8666897
-7.521349,1.3102746,2.7352505
-7.5446568,1.2489722,2.6059918
-7.572695,1.1885016,2.477622
-7.579979,1.0564971,2.2092314
-7.5870037,0.9907875,2.0752144
-7.5883675,0.9235213,1.9394202
-7.6172714,0.8621633,1.8100405
-7.62533,0.79584837,1.6751666
-7.6372223,0.7301192,1.5408783
-7.7018948,0.6765423,1.4203744
-7.8331146,0.6388843,1.3183942
-7.702265,0.53827953,1.143897
-7.5543365,0.43229675,0.96230793
-9.02125,0.72562003,1.25175
-8.126141,0.43435478,0.8516393
-8.696936,0.5099585,0.88786745
-9.759256,0.7153847,1.0840454
-9.868687,0.6787219,0.9897051
-10.263636,0.7177415,0.9888725
-11.651394,1.0242171,1.3212223
-11.929859,1.0392973,1.2963538
-11.275898,0.80057454,0.9537411
-12.324547,1.0288637,1.1988053
-12.618231,1.0520458,1.1873918
-12.963003,1.0912995,1.1978021
-13.18091,1.0960653,1.1651897
-13.247705,1.0580273,1.077919
-13.397863,1.0445533,1.022892
-13.545372,1.030926,0.96821785
-14.243444,1.1835008,1.1334124
-13.927971,1.0321777,0.8982916
-14.724821,1.2205496,1.1148286
-14.817818,1.1950512,1.047893
-14.81915,1.1409583,0.9427185
-14.803732,1.081137,0.82969093
-14.980822,1.0827827,0.80013704
-15.479885,1.1901445,0.91573
-15.493909,1.1410124,0.8183398
-15.529594,1.098778,0.730423
-15.479248,1.0274141,0.6021924
-16.835476,1.4341445,1.1388907
-16.860134,1.3922849,1.0540719
-16.818562,1.327148,0.9366002
-16.891779,1.3016713,0.87473774
-17.582546,1.4960513,1.1239486
-16.845785,1.181915,0.6539202
-16.908846,1.1523991,0.5864973
-16.969784,1.1221495,0.5181699
-17.195473,1.1531546,0.5378809
-17.484585,1.2093453,0.5946064
-18.150745,1.4106138,0.8619518
-18.176165,1.3709354,0.7823181
-18.161797,1.3155773,0.6798811
-18.1936,1.2777438,0.6028776
-19.27483,1.6557777,1.1346936
-19.350601,1.6396422,1.091486
-18.733011,1.2930942,0.5413604
-18.716171,1.2358727,0.4364829
-19.138153,1.3615496,0.60320663
-19.214611,1.3444302,0.55855083
-20.224617,1.7264068,1.1103373
-20.267841,1.6995962,1.0531206
-19.987808,1.53161,0.78392506
-20.093586,1.5307364,0.76535654
-20.131504,1.500099,0.7021265
-20.171452,1.4702291,0.64010525
-20.153324,1.4137695,0.53779316
-21.075155,1.7893729,1.0924377
-21.1512,1.7799504,1.0630984
-21.212858,1.7640209,1.0239921
-21.213573,1.7192302,0.9408126
-21.08675,1.6126478,0.7627201
-20.981544,1.5147221,0.5974579
-21.14938,1.5491834,0.6358547
-21.13238,1.4931388,0.53489923
-20.997923,1.3278463,0.250072
-26.736683,2.2042544,1.1376305
-26.824385,2.243504,1.1992011
-26.925016,2.2989562,1.288136
-27.009678,2.3379703,1.3496537
-27.092533,2.3763676,1.4102912
-27.172033,2.4122593,1.466866
-27.25099,2.448919,1.524878
-27.121084,2.2292044,1.1512938
-27.392122,2.5056276,1.6133375
-27.388685,2.441269,1.5014381
-27.540113,2.5761623,1.7256088
-27.567802,2.5523849,1.6822786
-27.626427,2.5696292,1.7082448
-27.679703,2.5803845,1.723341
-27.704584,2.5520847,1.6724906
-28.160982,3.1371982,2.6592302
-28.198267,3.1369307,2.6563663
-28.242987,3.1478293,2.6724567
-28.290913,3.1641681,2.697832
-28.333067,3.1724632,2.7096486
-28.374363,3.1799204,2.7201076
-28.415434,3.1875038,2.7308383
-28.452726,3.1893933,2.731965
-28.4879,3.1879883,2.7275486
-28.52534,3.1905696,2.729947
-28.564905,3.1971538,2.7391973
-28.601274,3.1984892,2.7395802
-28.63704,3.198949,2.7385206
-28.67458,3.2029307,2.7434993
-28.711733,3.2065299,2.7478757
-28.748514,3.209744,2.7516456
-28.783968,3.2106051,2.7514577
-28.820314,3.2135303,2.7548304
-28.856556,3.2165563,2.758422
-28.892693,3.2196836,2.7622323
-28.928503,3.2224174,2.7654185
-28.964428,3.2257438,2.7696614
-29.00066,3.230159,2.7758074
-29.035343,3.2312088,2.7762566
-29.070366,3.2333431,2.7786002
-29.107203,3.240534,2.7896223
-29.141638,3.2418702,2.790691
-29.17477,3.239818,2.7860136
-29.208616,3.239842,2.784923
-29.243097,3.241947,2.7874308
-29.27639,3.2406554,2.784174
-29.309689,3.2394502,2.781104
-29.343882,3.2413268,2.7833452
-29.3773,3.2407959,2.7815094
-29.410847,3.2408524,2.7807178
-29.444504,3.2414966,2.780973
-29.478249,3.2427292,2.7822747
-29.511827,3.2435493,2.7829108
-29.546038,3.2474651,2.788888
-29.578667,3.2444508,2.7830377
-29.611652,3.2430253,2.7799468
-29.644842,3.2426877,2.7787585
-29.6782,3.243441,2.7794771
-29.711205,3.242271,2.7769408
-29.744226,3.2411854,2.7745872
-29.777605,3.2426991,2.7767272
-29.810686,3.2422872,2.7756062
-29.843882,3.2429676,2.7763953
-29.876902,3.2422233,2.7747812
-29.909933,3.2415643,2.7733521
-29.943085,3.2424996,2.774695
-29.976147,3.2425141,2.7744975
-30.009356,3.245635,2.7796655
-30.042288,3.243805,2.776383
-30.075302,3.2435703,2.7758746
-30.108326,3.2439246,2.7764149
-30.141335,3.242349,2.773683
-30.174366,3.2423692,2.7737265
-30.207375,3.2434812,2.7756815
-30.240423,3.2426639,2.774366
-30.273449,3.2429385,2.774962
-30.306381,3.2448092,2.7783318
-30.33941,3.2447503,2.7784328
-30.372572,3.2432659,2.7761273
-30.405582,3.24388,2.7774591
-30.438583,3.2445793,2.7789755
-30.471514,3.2458663,2.7815375
-30.504486,3.2467349,2.7834206
-30.537588,3.2466826,2.7837648
-30.571012,3.2447062,2.78085
-30.604914,3.2403052,2.7738209
-30.6383,3.2395086,2.773007
-30.671621,3.2393005,2.7732406
-30.70496,3.2391787,2.773662
-30.738747,3.2371385,2.7708373
-30.772482,3.2356875,2.7690625
-30.805544,3.2373302,2.7726235
-30.838455,3.2395573,2.777225
-30.871859,3.2398684,2.7785845
-30.905825,3.238268,2.7767134
-30.939993,3.236258,2.7741833
-30.97287,3.2388296,2.7795305
-31.00696,3.237497,2.7782397
-31.041428,3.2352583,2.7754412
-31.07563,3.234107,2.7745447
-31.10971,3.2335446,2.7746954
-31.1431,3.2350595,2.778438
-31.1776,3.2336833,2.7772813
-31.211386,3.2343829,2.7797122
-31.245974,3.2331903,2.7789526
-31.280617,3.23209,2.7783952
-31.315313,3.2310839,2.77804
-31.349627,3.2311575,2.7795715
-31.384636,3.229844,2.77878
-31.419704,3.228626,2.7781944
-31.454834,3.227503,2.7778153
-31.489058,3.2284417,2.7809925
-31.524277,3.2275078,2.7810245
-31.560055,3.2256901,2.7795959
-31.595135,3.2254405,2.780882
-31.62999,3.2257748,2.783206
-31.667303,3.2218103,2.778265
-31.703644,3.219903,2.7768703
-31.73894,3.2200441,2.7790046
-31.773981,3.220768,2.7821722
-31.809631,3.2206166,2.7839007
-31.845324,3.220564,2.785841
-31.879837,3.2225447,2.791278
-31.918695,3.217857,2.7854548
-31.954859,3.2176235,2.7872329
-31.991713,3.2165284,2.7876005
-32.02995,3.2136166,2.7849417
-32.0663,3.2136943,2.787394
-32.103027,3.213395,2.789259
-32.141193,3.2112887,2.7881184
-32.176292,3.2135866,2.7944708
-32.214954,3.2112195,2.7929935
-32.253723,3.2089663,2.7917633
-32.291855,3.2077763,2.7923813
-32.32894,3.2081172,2.7956338
-32.368732,3.2052588,2.7935467
-32.406715,3.2048762,2.7956872
-32.44593,3.2031937,2.7956944
-32.48524,3.201628,2.7959542
-32.524242,3.2006476,2.7972555
-32.56332,3.1997838,2.798809
-32.602474,3.1990354,2.8006139
-32.64212,3.1979392,2.8018909
-32.682274,3.1964982,2.80265
-32.72209,3.195642,2.8044477
-32.762424,3.1944435,2.8057337
-32.804607,3.1915255,2.804204
-32.84871,3.186902,2.7998896
-32.889816,3.1856291,2.8012419
-32.93056,3.18494,2.8036313
-32.97092,3.1848319,2.8070512
-33.012753,3.183482,2.8084645
-33.054207,3.182716,2.810916
-33.096706,3.181174,2.8121414
-33.138824,3.1802173,2.8144064
-33.184456,3.1762426,2.811729
-33.22827,3.1742134,2.812354
-33.274704,3.1700876,2.8095775
-33.320297,3.1670089,2.8086119
-33.360413,3.1689715,2.8160658
-33.404167,3.167952,2.8186517
-33.454273,3.1617675,2.8127823
-33.50091,3.1588414,2.8123765
-33.544506,3.1587074,2.8166542
-33.592472,3.1552079,2.8154635
-33.640053,3.1523077,2.8153424
-33.691063,3.1469555,2.811277
-33.739513,3.1439507,2.8111582
-33.78923,3.1402452,2.8099775
-33.83574,3.1392965,2.8134027
-33.87725,3.1423686,2.8234892
-33.918198,3.1459963,2.8345528
-33.959724,3.1493235,2.8451934
-34.007072,3.1485286,2.8491807
-34.05805,3.145352,2.8493738
-34.110363,3.1415086,2.848579
-34.16226,3.1382704,2.8488688
-34.2089,3.1389863,2.8556752
-34.261677,3.1356838,2.856052
-34.314007,3.1329832,2.8575077
-34.36834,3.129225,2.8573546
-34.422226,3.1260753,2.8582916
-34.476902,3.1227071,2.8589835
-34.528595,3.1215835,2.863401
-34.58295,3.11901,2.8655872
-34.635536,3.1178508,2.8701553
-34.692757,3.114045,2.8705854
-34.752106,3.109241,2.869535
-34.80839,3.1066647,2.8721724
-34.86813,3.1022956,2.8720655
-34.92077,3.102527,2.8794193
-34.984184,3.0966053,2.877088
-35.0438,3.093293,2.879044
-35.107655,3.0878468,2.8777432
-35.17105,3.0830357,2.877592
-35.253166,3.0679576,2.8613472
-50.011906,0.9481249,1.4406328
-49.968357,1.0215621,1.5779285
-49.941418,1.090281,1.7093334
-50.002396,1.1370974,1.8149505
-49.960373,1.2086871,1.9493823
-50.744896,1.2720742,2.2362118
-50.936413,1.2911325,2.3138552
-50.0757,1.5445266,2.6467018
-50.080093,1.6030765,2.7656531
-49.939583,1.692657,2.917389
-50.022247,1.7335854,3.017323
-49.99903,1.7969658,3.1408072
-50.155144,1.8227935,3.2258177
-50.23984,1.8638508,3.3269444
-50.429787,1.8839502,3.4077578
-50.688873,1.8911738,3.4771008
-51.128407,1.8643517,3.515345
-53.16156,1.5327663,3.2692676
-51.38243,1.9361365,3.7159877
-51.502365,1.9740627,3.819234
-51.662537,2.0050168,3.9169574
-51.948647,2.0137994,3.9963078
-53.15657,1.8594038,3.9381838
-53.19696,1.9166813,4.0648837
-53.501976,1.9281825,4.154466
-54.56804,1.8116572,4.144417
-7.1724052,1.9644902,3.81709
-6.8193398,1.8375161,3.6262836
-6.6206226,1.7360566,3.457213
-7.2135105,1.7777922,3.424275
-7.4197903,1.6861091,3.194902
-7.4684124,1.6303244,3.0709558
-7.4899025,1.5692773,2.9418044
-7.5007477,1.5059764,2.8103318
-7.515417,1.4432135,2.6793861
-7.5425186,1.3827629,2.5508857
-7.5571136,1.3195975,2.4194937
-7.5745544,1.2568054,2.288484
-7.827511,1.2436359,2.212442
-7.7074203,1.1516075,2.0492725
-7.570738,1.05493,1.8800874
-7.6034145,0.9944515,1.7515278
-7.674835,0.94249105,1.6328793
-7.779373,0.8300247,1.3862519
-7.815468,0.76997113,1.2586112
-9.067205,0.9311619,1.3443494
-9.483526,0.9663253,1.3360963
-9.884972,1.0000796,1.3279953
-10.347839,1.05124,1.3433008
-10.743637,1.0880988,1.3427858
-11.091293,1.1148543,1.3312759
-11.480665,1.1542215,1.3372707
-11.799055,1.1772032,1.3239946
-11.971643,1.1633537,1.2646608
-12.124115,1.1448798,1.2000065
-12.306868,1.1352334,1.1474319
-12.476812,1.1229072,1.0920434
-12.599508,1.0982234,1.0209837
-12.789513,1.0928736,0.97601414
-12.9432335,1.078105,0.91917944
-13.122238,1.0712557,0.87352467
-14.1322,1.3069732,1.155932
-13.582024,1.0899937,0.82816124
-14.738297,1.3770323,1.1854753
-14.814644,1.3463397,1.1118703
-14.80085,1.2883229,1.0008392
-14.755274,1.2200193,0.8754196
-14.769971,1.1697917,0.77485895
-15.482644,1.339467,0.98145676
-15.449333,1.2758317,0.8633776
-15.493097,1.2364247,0.7792196
-15.435614,1.1638763,0.6482334
-16.754265,1.5447662,1.1613312
-16.79398,1.5080924,1.0835271
-16.846737,1.4253333,0.9145713
-16.869392,1.3823516,0.82779837
-17.674866,1.612371,1.1365671
-16.83613,1.2679107,0.6128268
-17.280575,1.3743792,0.7439866
-18.21161,1.5639381,0.95497656
-18.142773,1.4898663,0.82432413
-18.131704,1.4365714,0.7241721
-17.847456,1.2786341,0.4681568
-19.194431,1.7462976,1.1450086
-19.250412,1.7220292,1.0898232
-18.594997,1.4177251,0.6142173
-18.652271,1.3910024,0.5543518
-18.717999,1.367697,0.49975872
-18.56195,1.2542906,0.30884838
-19.63293,1.5965707,0.7917104
-20.27191,1.8176358,1.1118674
-20.355175,1.8080735,1.0810814
-20.038277,1.6270678,0.787457
-20.118797,1.615062,0.7526555
-20.142544,1.578419,0.68005323
-20.167685,1.5421176,0.6079774
-21.036877,1.8837283,1.1212597
-21.252651,1.8937252,1.1082826
-21.227987,1.8382454,1.0078855
-21.188534,1.7751026,0.8953676
-20.974531,1.6285188,0.651989
-21.006516,1.5967877,0.5881109
-21.104433,1.5966935,0.5740018
-20.959736,1.4785786,0.374166
-20.963802,1.431804,0.2864418
-26.756866,2.2731516,1.1576552
-26.849745,2.317884,1.2298303
-26.936531,2.357442,1.2933507
-27.02552,2.4010303,1.3639007
-27.104986,2.4352305,1.4185863
-27.177246,2.4622953,1.4612246
-27.30314,2.5547876,1.6157722
-27.117887,2.2713766,1.1279244
-27.406967,2.5665443,1.6292849
-27.404709,2.5047452,1.5203199
-27.53883,2.6160204,1.7076788
-27.572979,2.6008973,1.6787395
-27.631521,2.617887,1.7048817
-27.66449,2.601081,1.6731482
-28.090721,3.1263902,2.571673
-28.138025,3.1391494,2.5912094
-28.191263,3.1610823,2.6265702
-28.235453,3.170835,2.6410842
-28.283195,3.1864438,2.665729
-28.325483,3.1945746,2.6775832
-28.364756,3.198534,2.6823153
-28.403883,3.2026072,2.6872983
-28.44287,3.2067952,2.6925278
-28.481998,3.2115777,2.6988325
-28.519547,3.2140694,2.7012405
-28.558105,3.2185948,2.7072015
-28.594875,3.2203367,2.7084112
-28.631563,3.222181,2.709844
-28.668428,3.2246125,2.7123346
-28.705706,3.228116,2.7167225
-28.742113,3.2302697,2.7188244
-28.777943,3.2315528,2.7194667
-28.814182,3.2339067,2.7220044
-28.850098,3.2358742,2.7239175
-28.887737,3.2418416,2.73279
-28.92256,3.2420578,2.7317624
-28.9582,3.2443223,2.7343197
-28.994587,3.248642,2.7404761
-29.030636,3.2525728,2.746005
-29.066166,3.255623,2.7500505
-29.100834,3.2568066,2.750906
-29.13655,3.2610316,2.757072
-29.17,3.2594533,2.753222
-29.204151,3.2599308,2.7529736
-29.237934,3.2595131,2.7512126
-29.271702,3.2591844,2.7496438
-29.305609,3.259437,2.7491221
-29.34008,3.2617545,2.752222
-29.373903,3.2621868,2.75209
-29.407562,3.2622135,2.7512913
-29.441458,3.2633176,2.7524028
-29.475307,3.264511,2.753706
-29.508993,3.2652977,2.754342
-29.542532,3.2656763,2.7543073
-29.575306,3.2626696,2.7484293
-29.609032,3.264213,2.7504935
-29.642426,3.2643554,2.7501602
-29.6758,3.2645845,2.7500153
-29.70924,3.2653973,2.7509208
-29.742271,3.2638097,2.747693
-29.775812,3.2657897,2.7507024
-29.808918,3.2648704,2.7487092
-29.842377,3.267023,2.7520938
-29.875622,3.2677689,2.753069
-29.90844,3.2641177,2.7464366
-29.941572,3.2635396,2.745183
-29.974743,3.2635448,2.7449799
-30.00817,3.268619,2.7536287
-30.041067,3.2638113,2.7451296
-30.074203,3.2635736,2.7446156
-30.107367,3.2649171,2.7468863
-30.140488,3.2638535,2.745007
-30.173615,3.2648683,2.7467804
-30.206736,3.2649715,2.7470036
-30.23989,3.2641633,2.745679
-30.27304,3.263938,2.7454052
-30.306086,3.265792,2.7487822
-30.339191,3.2662358,2.749745
-30.372496,3.2642736,2.74656
-30.405664,3.2643895,2.747026
-30.438942,3.2635963,2.7459464
-30.471949,3.2653766,2.7493796
-30.505312,3.2642558,2.747805
-30.53864,3.2637198,2.747284
-30.572065,3.2627718,2.7460852
-30.60586,3.259923,2.741619
-30.639465,3.2586532,2.7399354
-30.673113,3.257471,2.7384415
-30.706596,3.2573688,2.7388625
-30.740097,3.2573538,2.739472
-30.773382,3.2584171,2.7419906
-30.806778,3.259071,2.7438364
-30.841562,3.254365,2.736413
-30.873432,3.261133,2.7489486
-30.908478,3.2561119,2.741057
-30.942219,3.2561276,2.7419462
-30.976429,3.2547503,2.740457
-31.00991,3.2559297,2.743443
-31.044197,3.2547324,2.742344
-31.07786,3.2555952,2.7448564
-31.112223,3.2545784,2.7441492
-31.147535,3.251195,2.7393794
-31.180902,3.25331,2.7441797
-31.215206,3.2530577,2.744917
-31.249542,3.2528977,2.7458525
-31.284317,3.2518492,2.7452903
-31.319355,3.2504048,2.7440844
-31.353807,3.2505214,2.7456207
-31.38851,3.250242,2.7465124
-31.423704,3.2490814,2.7459207
-31.458958,3.248016,2.7455368
-31.493309,3.248992,2.748722
-31.528652,3.2481167,2.7487497
-31.564304,3.2468538,2.7481499
-31.598988,3.2476249,2.7511053
-31.63448,3.247039,2.751761
-31.671911,3.2431707,2.7467952
-31.707819,3.242303,2.7470531
-31.742376,3.243941,2.7516756
-31.778372,3.2432683,2.7523556
-31.815008,3.2417362,2.7515998
-31.852022,3.2398276,2.7502432
-31.891258,3.2346754,2.7433496
-31.925377,3.2377594,2.7506795
-31.960732,3.2390268,2.7549238
-31.997387,3.238486,2.7561045
-32.03443,3.237574,2.7566934
-32.071205,3.2372415,2.758326
-32.110073,3.2341723,2.7553072
-32.148026,3.2326353,2.75497
-32.185715,3.2316804,2.755681
-32.22597,3.2275388,2.750979
-32.26094,3.230567,2.758614
-32.298466,3.230407,2.7608352
-32.335297,3.231291,2.7648902
-32.374817,3.2290106,2.7635818
-32.412136,3.229644,2.7673087
-32.451447,3.22806,2.7672963
-32.490055,3.2275205,2.7691216
-32.528736,3.2270942,2.771193
-32.568707,3.2253969,2.7711482
-32.606293,3.2265851,2.7760782
-32.647682,3.2237434,2.7741947
-32.68665,3.2237818,2.7772741
-32.727398,3.2221062,2.7774892
-32.76868,3.220098,2.7771997
-32.81096,3.2173064,2.7756395
-32.85292,3.215102,2.7751389
-32.892284,3.2157469,2.7795315
-32.932617,3.215605,2.7826471
-32.975327,3.213333,2.7822118
-33.019566,3.2098463,2.7797866
-33.06064,3.2096412,2.782978
-33.103703,3.207774,2.783421
-33.147846,3.2051513,2.7826552
-33.189674,3.2048943,2.7859488
-33.235046,3.201664,2.7842917
-33.280567,3.1985815,2.782957
-33.32573,3.1960897,2.7826877
-33.372044,3.1928666,2.7812605
-33.41593,3.191987,2.7838464
-33.459915,3.1912482,2.786737
-33.505573,3.1893444,2.7877436
-33.549225,3.1893275,2.7919846
-33.596714,3.1864207,2.7914567
-33.641644,3.18583,2.7948828
-33.68776,3.184526,2.7971888
-33.735645,3.1820877,2.797679
-33.784782,3.1789572,2.7970943
-33.830704,3.1785488,2.8011289
-33.87729,3.177868,2.8047862
-33.9234,3.1777647,2.809482
-33.97191,3.1761281,2.8117094
-34.023453,3.1725574,2.810812
-34.073994,3.1700037,2.8116932
-34.122314,3.1692927,2.815714
-34.17253,3.1675003,2.8180299
-34.222282,3.1662946,2.821406
-34.275185,3.1631994,2.821754
-34.328247,3.1602917,2.8225093
-34.379627,3.1588001,2.8256917
-34.433,3.1562655,2.8272552
-34.491528,3.1506734,2.8239017
-34.54146,3.1509585,2.830295
-34.595924,3.148597,2.8324475
-34.649902,3.1468322,2.8356805
-34.705956,3.1440625,2.8373756
-34.763474,3.1407015,2.8382168
-34.823128,3.1363637,2.837582
-34.881668,3.1330369,2.8387117
-34.93906,3.1307123,2.8415866
-34.999283,3.1270344,2.842383
-35.05499,3.126307,2.8480778
-35.11352,3.1242309,2.851706
-35.186516,3.1142719,2.8427339
-35.272182,3.0976934,2.8232598
-49.97442,1.0109143,1.2669835
-49.92347,1.0860434,1.4074163
-49.9329,1.1457834,1.5285993
-49.986298,1.1946557,1.6364884
-49.97807,1.2581515,1.7621789
-49.914387,1.3342569,1.9028034
-50.0001,1.3750882,2.001171
-50.05224,1.4237859,2.1091094
-51.02099,1.454267,2.357235
-50.07174,1.718785,2.7087178
-49.952156,1.8029373,2.8560925
-49.9804,1.8554575,2.9682546
-50.013626,1.9068551,3.079265
-50.081596,1.9511812,3.182858
-50.211395,1.9833636,3.2740254
-50.386967,2.0070858,3.3571177
-50.601776,2.0240037,3.434228
-50.846333,2.0362566,3.507856
-51.55599,1.962668,3.4982538
