x,y,z
-31.62842,2.5941327,3.8355117
-31.65571,2.6012383,3.84732
-31.681398,2.6116743,3.8627515
-31.706007,2.6241255,3.8803935
-31.731958,2.6333723,3.8946853
-31.760593,2.6368232,3.9028873
-31.786297,2.6461973,3.9174547
-31.814129,2.6510878,3.9273386
-31.840233,2.6592894,3.940804
-31.866882,2.666258,3.9530344
-31.89308,2.6739378,3.9660892
-31.922632,2.6752257,3.9724784
-31.95076,2.679172,3.9817543
-31.97704,2.6864104,3.9945698
-32.00357,2.693069,4.006849
-32.03332,2.694017,4.013221
-32.062695,2.6956878,4.0204415
-32.088627,2.703198,4.033847
-32.115215,2.7094932,4.0460563
-32.142487,2.7145784,4.0570817
-32.17246,2.7152755,4.063629
-33.227043,1.092566,2.3874311
-33.25509,1.1202068,2.4250546
-33.26456,1.1757753,2.491568
-33.23391,1.290767,2.6192808
-33.246147,1.3385382,2.677524
-33.27428,1.3616779,2.710425
-33.248802,1.4622896,2.822791
-33.2576,1.5111444,2.8819447
-33.266933,1.5580661,2.9390645
-33.301968,1.568001,2.958447
-33.272438,1.6667624,3.0682392
-33.267902,1.7290986,3.1407924
-33.264683,1.7882061,3.2099423
-33.287235,1.8117888,3.2430844
-33.301357,1.8459413,3.2869096
-33.273727,1.9333062,3.3842273
-33.280518,1.9747317,3.4351878
-33.276367,2.0290518,3.4989953
-33.302486,2.0445094,3.5238752
-33.32537,2.063702,3.552536
-33.318207,2.1190743,3.6171846
-33.27554,2.2158964,3.7227736
-33.28221,2.2520273,3.7680101
-33.30077,2.273506,3.79875
-33.32528,2.2877147,3.8223596
-33.327896,2.3268178,3.8704433
-33.278664,2.4238997,3.9751577
-33.291965,2.4488668,4.009142
-33.301075,2.4780421,4.047214
-33.321793,2.4939814,4.072418
-33.339497,2.5129502,4.100594
-33.34353,2.5462816,4.1426396
-33.343666,2.583139,4.188013
-33.375557,2.586028,4.200753
-33.425133,2.570622,4.1961327
-33.485912,2.5441585,4.1812105
-33.532005,2.5332859,4.181384
-33.580624,2.5202272,4.1796937
-33.629456,2.5073485,4.1783957
-33.675518,2.497581,4.180244
-33.72714,2.4827228,4.1775312
-33.785038,2.462234,4.169807
-33.834133,2.4506905,4.1706834
-33.89077,2.4323752,4.1655126
-33.94399,2.417749,4.1640224
-33.9906,2.4096665,4.1688046
-34.037342,2.401754,4.1739554
-34.06655,2.4100595,4.194122
-34.118504,2.3978696,4.1957564
-34.185993,2.3722005,4.1854343
-34.257744,2.343399,4.1726384
-34.338356,2.3075316,4.1538763
-34.39016,2.2974286,4.1585965
-34.47101,2.2627397,4.1416707
-34.51802,2.257596,4.1513853
-34.576416,2.2431045,4.153066
-34.624992,2.2372146,4.1626015
-34.69521,2.213698,4.1569467
-34.749516,2.2037826,4.1635113
-34.818283,2.1824641,4.1604652
-34.872967,2.173002,4.168012
-34.95745,2.1401258,4.155737
-35.042416,2.107613,4.144249
-35.095753,2.1005726,4.1548886
-35.174458,2.0741496,4.1494083
-35.231667,2.0648673,4.158786
-35.308167,2.0412164,4.1564374
-35.37287,2.0270422,4.162403
-35.464325,1.9932687,4.1525
-35.524517,1.9834278,4.1628237
-35.634148,1.9375787,4.1440077
-35.732033,1.90125,4.1336007
-35.79526,1.8907561,4.144669
-35.888084,1.8594186,4.139326
-35.989475,1.8227044,4.1302423
-36.056416,1.8110456,4.1416616
-36.155643,1.7772256,4.135974
-36.25683,1.7428019,4.1304164
-36.354706,1.7114129,4.127842
-36.446938,1.6845791,4.1293864
-36.538754,1.658659,4.132192
-36.604893,1.6505415,4.149132
-36.74261,1.5952613,4.1307344
-36.847855,1.562458,4.1301303
-36.9636,1.5235422,4.1256275
-37.088413,1.4796019,4.118145
-37.182503,1.4563069,4.1266418
-37.302795,1.4169192,4.123995
-37.451195,1.360645,4.109918
-37.553566,1.334317,4.118316
-37.699997,1.2812741,4.108368
-37.800766,1.2574332,4.12
-37.97157,1.1914213,4.1028004
-38.085228,1.1613255,4.1116633
-38.238026,1.1084242,4.1056204
-38.391453,1.0562305,4.1011105
-38.5341,1.0114863,4.1026797
-38.713223,0.94630384,4.0915966
-38.851284,0.9063039,4.0984154
-39.052357,0.8308208,4.0829873
-39.241093,0.7638602,4.0745244
-30.077261,2.195634,3.2565527
-30.110125,2.179421,3.2384129
-30.14328,2.1686494,3.2263985
-30.177555,2.0267375,3.068984
-30.21041,2.131294,3.185101
-30.2428,2.180363,3.239746
-30.274622,2.2208085,3.2849083
-30.306242,2.2492833,3.316877
-30.337605,2.2731512,3.3438158
-30.36847,2.298434,3.372406
-30.399672,2.3124177,3.3885489
-30.430681,2.3258104,3.404119
-30.461687,2.3366046,3.4168897
-30.492886,2.3434646,3.425383
-30.524105,2.3490653,3.4325647
-30.554554,2.3607602,3.44658
-30.58561,2.3658488,3.4533596
-30.61675,2.36968,3.4588313
-30.647179,2.3782642,3.469646
-30.677168,2.3889256,3.4828386
-30.70541,2.4096673,3.5072532
-30.738352,2.3997977,3.4979048
-30.772512,2.384019,3.4821239
-30.80087,2.4016495,3.503337
-30.831348,2.4066913,3.5107255
-30.852816,2.4564066,3.5674791
-30.884958,2.4509346,3.5634112
-30.916477,2.4488728,3.5631957
-30.94849,2.4449015,3.560964
-30.977448,2.4542983,3.5735407
-31.007383,2.459119,3.5811563
-31.040598,2.450749,3.5743508
-31.070316,2.4563909,3.5830398
-31.103354,2.4495215,3.5780702
-31.13633,2.4434059,3.5740252
-31.166363,2.4479644,3.5817823
-31.197895,2.4473107,3.5839086
-31.230663,2.4427779,3.5818787
-31.264763,2.4343762,3.5757117
-31.289179,2.4564016,3.602911
-31.329687,2.4290638,3.5762434
-31.37,2.4038303,3.552013
-31.402443,2.4024014,3.5538774
-31.433971,2.4036887,3.558795
-31.461609,2.4155617,3.5753217
-31.477642,2.4576638,3.624785
-31.475714,2.5443194,3.7226472
-31.499262,2.5628178,3.7464519
-31.527004,2.5702457,3.7583027
-31.551653,2.5849247,3.7780805
-31.576607,2.598351,3.7965574
-31.601904,2.6105266,3.8137422
-31.627863,2.6208048,3.8289385
-31.65424,2.6298413,3.8428607
-31.679277,2.6415377,3.8597136
-31.705036,2.6513429,3.8745937
-31.730946,2.6605587,3.8889046
-31.757338,2.6685402,3.9019575
-31.784565,2.674646,3.9130678
-31.810066,2.684047,3.9277802
-31.835747,2.692861,3.9419298
-31.8623,2.6998038,3.9541473
-31.887718,2.7087402,3.9685616
-31.914734,2.7145255,3.9796872
-31.94272,2.7184548,3.9889154
-31.97173,2.720537,3.9962645
-31.99889,2.725893,4.007169
-32.02745,2.7287648,4.015521
-32.055973,2.7317128,4.02404
-32.08293,2.7372823,4.0354066
-32.110195,2.7422843,4.0462523
-32.138947,2.7448192,4.054584
-32.16965,2.7442653,4.0597615
-33.23223,1.1205313,2.3651986
-33.26438,1.1417625,2.3963451
-33.242966,1.2443578,2.512464
-33.23657,1.3215692,2.6018987
-33.271202,1.3358321,2.6257343
-33.267918,1.4053514,2.7069988
-33.24528,1.5010409,2.8152332
-33.251343,1.5534039,2.8784366
-33.280083,1.5726471,2.9073997
-33.303574,1.5987909,2.9435272
-33.256226,1.7212703,3.0786586
-33.263382,1.7671292,3.1348486
-33.279083,1.8005536,3.178256
-33.293777,1.8345861,3.2222733
-33.28276,1.901284,3.2995458
-33.27306,1.9647591,3.3733754
-33.27542,2.0115166,3.4300966
-33.295162,2.0355244,3.4637198
-33.31056,2.0644426,3.5023184
-33.3085,2.1141067,3.5617986
-33.277866,2.1971743,3.654716
-33.28108,2.2380683,3.7051048
-33.29445,2.2661653,3.7426305
-33.317253,2.2827559,3.7686782
-33.324585,2.3168943,3.8122163
-33.302246,2.3841233,3.888514
-33.29754,2.4301248,3.943596
-33.293182,2.4748278,3.9972796
-33.30172,2.5044777,4.036049
-33.30705,2.5370827,4.0776796
-33.32626,2.5541625,4.1040792
-33.336273,2.5807738,4.139803
-33.34418,2.6091435,4.1772118
-33.35903,2.6297996,4.207112
-33.42167,2.6009336,4.189183
-33.479576,2.5776157,4.1769037
-33.52331,2.5691934,4.1791987
-33.57012,2.5580015,4.1790333
-33.62185,2.5423121,4.1747875
-33.66787,2.5326414,4.1765018
-33.714657,2.5225573,4.1780295
-33.77371,2.5010636,4.1689963
-33.82396,2.4884665,4.16862
-33.86889,2.4812422,4.173512
-33.923836,2.4649897,4.1701717
-33.98714,2.441505,4.160365
-34.03576,2.431983,4.1638207
-34.061157,2.4437122,4.1871257
-34.12455,2.4214296,4.179217
-34.177402,2.40903,4.1806846
-34.249798,2.3798943,4.1671333
-34.313553,2.358942,4.1614003
-34.376328,2.3393703,4.157242
-34.438087,2.3211696,4.15464
-34.504097,2.2998688,4.149569
-34.56311,2.2849543,4.1505475
-34.608944,2.2813616,4.1618958
-34.66293,2.2713,4.167725
-34.746925,2.2372024,4.1526294
-34.7973,2.230927,4.162416
-34.84914,2.2237446,4.1716523
-34.914906,2.2058434,4.1718264
-35.01707,2.1599257,4.1481137
-35.0633,2.1583738,4.1631804
-35.14892,2.12673,4.152696
-35.21379,2.1116107,4.156772
-35.279594,2.0962157,4.160962
-35.367058,2.0650406,4.152203
-35.434135,2.0497015,4.1572227
-35.50865,2.0293229,4.1584044
-35.58927,2.0050204,4.156749
-35.67899,1.974731,4.1506176
-35.788208,1.9311656,4.134134
-35.877396,1.9027519,4.130653
-35.930656,1.9002895,4.1487055
-36.063644,1.8424026,4.122434
-36.115852,1.8415811,4.1426272
-36.231236,1.7976096,4.128805
-36.32606,1.7685509,4.127471
-36.411407,1.7465632,4.1322517
-36.527557,1.7045329,4.121929
-36.57683,1.7077467,4.147328
-36.719963,1.649379,4.125685
-36.795826,1.6360464,4.1393075
-36.944088,1.5763183,4.11826
-37.052567,1.5432911,4.1182437
-37.156773,1.5137353,4.121501
-37.30698,1.4558575,4.104466
-37.373398,1.4515555,4.127744
-37.518387,1.3987939,4.1161284
-37.652893,1.3535628,4.110918
-37.787964,1.3089459,4.1070395
-37.925194,1.2639744,4.1038084
-38.028305,1.2404397,4.116577
-38.225563,1.1614609,4.091359
-38.376682,1.1112461,4.087392
-38.48355,1.0880022,4.102917
-38.641422,1.0357413,4.0994782
-38.82291,0.9709556,4.0887284
-39.010933,0.9037242,4.077638
-39.109562,0.8885274,4.102105
-39.337856,0.80088615,4.0800796
-30.0774,2.2255955,3.244463
-30.1105,2.232772,3.2523613
-30.143438,2.2213993,3.2395444
-30.177483,2.0796766,3.080617
-30.210384,2.168964,3.1808777
-30.242561,2.2237275,3.2425022
-30.27475,2.2492924,3.2714648
-30.30531,2.3028805,3.331933
-30.336588,2.3239439,3.356011
-30.368134,2.3344412,3.3683238
-30.39899,2.3523343,3.389009
-30.430206,2.3616586,3.4001727
-30.461086,2.3730557,3.4137397
-30.491766,2.3845296,3.4274735
-30.522867,2.3900998,3.4346747
-30.553799,2.3964126,3.44279
-30.584784,2.4014752,3.4495869
-30.61542,2.4086075,3.4587836
-30.645935,2.4158165,3.468145
-30.676817,2.4197848,3.4739623
-30.707842,2.4225044,3.4784665
-30.738932,2.4246414,3.4824033
-30.769873,2.4275198,3.4872518
-30.80101,2.429153,3.4907923
-30.829062,2.4467516,3.5122328
-30.852943,2.4836004,3.5552144
-30.884392,2.4814787,3.5547924
-30.916607,2.4761362,3.5508695
-30.947714,2.4761639,3.55302
-30.978355,2.4782531,3.5575504
-31.012375,2.4665687,3.5468416
-31.039545,2.4826682,3.5671225
-31.069395,2.4876285,3.5750914
-31.098087,2.496614,3.5876083
-31.12811,2.5004053,3.5944362
-31.158838,2.501643,3.5985122
-31.192703,2.4924505,3.5911179
-31.22572,2.4866362,3.5875645
-31.25718,2.48616,3.5900154
-31.291224,2.4779036,3.5839553
-31.323881,2.474328,3.5831676
-31.364727,2.4472907,3.5565848
-31.396572,2.4471838,3.559835
-31.426058,2.453692,3.5704627
-31.419779,2.556174,3.6867957
-31.442759,2.5770729,3.713303
-31.469446,2.5875952,3.728456
-31.49622,2.5975285,3.7430272
-31.522564,2.608173,3.7584443
-31.547379,2.6221232,3.7775478
-31.572788,2.6341805,3.7946353
-31.597435,2.6475894,3.8132606
-31.623873,2.6565218,3.8270555
-31.6487,2.6687465,3.8445063
-31.673624,2.6803794,3.861371
-31.699879,2.6888442,3.8748493
-31.724447,2.7005901,3.8919573
-31.750717,2.7085307,3.9049954
-31.777502,2.715249,3.9167762
-31.804834,2.7207503,3.9273114
-31.83009,2.7301636,3.9421482
-31.854519,2.7409139,3.9584923
-31.882204,2.7453296,3.9680662
-31.907734,2.753645,3.9819145
-31.935608,2.75756,3.9911017
-31.963428,2.7615476,4.000444
-31.990826,2.766243,4.0106244
-32.01704,2.7729118,4.022993
-32.045033,2.7764783,4.0321198
-32.072975,2.7801187,4.041405
-32.101257,2.783201,4.0501776
-32.130276,2.7850986,4.0577745
-32.15729,2.7902226,4.068884
-32.19067,2.785363,4.0694904
-33.24089,1.216872,2.416233
-33.2195,1.3181696,2.5320868
-33.255836,1.3304842,2.5539117
-33.27376,1.3697183,2.6041527
-33.254154,1.4625168,2.7106323
-33.24733,1.5345919,2.7951655
-33.273148,1.558738,2.8294096
-33.290127,1.5946927,2.8760242
-33.260643,1.6937189,2.9883447
-33.26273,1.7474368,3.0532732
-33.274517,1.786902,3.1033201
-33.30381,1.8023553,3.1284676
-33.29335,1.86942,3.2070131
-33.2718,1.9492025,3.2985048
-33.271053,2.0006676,3.3606386
-33.287918,2.0288613,3.3987827
-33.307278,2.0534031,3.4331894
-33.30146,2.1083355,3.498662
-33.277225,2.1843715,3.5855136
-33.282097,2.2239041,3.6350098
-33.28786,2.2615697,3.682547
-33.313652,2.275093,3.7056003
-33.317886,2.3133106,3.7536373
-33.295235,2.381452,3.8317304
-33.283684,2.4356384,3.8955865
-33.29214,2.466411,3.9358392
-33.304966,2.491792,3.9706721
-33.327747,2.5058773,3.9942465
-33.318977,2.5537915,4.051467
-33.31998,2.5903528,4.0973067
-33.34837,2.5973547,4.1138806
-33.337738,2.645033,4.1705904
-33.358204,2.659716,4.194764
-33.387047,2.6656528,4.210422
-33.467266,2.6196918,4.175545
-33.506847,2.6154356,4.181639
-33.55884,2.5991125,4.176198
-33.607555,2.5864654,4.174547
-33.65827,2.5722666,4.1716204
-33.7008,2.566329,4.176857
-33.749496,2.554793,4.176917
-33.803265,2.5388513,4.1729994
-33.856064,2.5242605,4.1706166
-33.89857,2.5195658,4.1778493
-33.95301,2.5042167,4.1752157
-34.006447,2.4902124,4.174104
-34.048088,2.487155,4.183495
-34.098064,2.4769137,4.186363
-34.147568,2.467422,4.190162
-34.21466,2.442985,4.18036
-34.295788,2.4070895,4.1603413
-34.3441,2.3999527,4.1671557
-34.408997,2.3791094,4.161664
-34.47886,2.3546534,4.153216
-34.533752,2.3431826,4.1569004
-34.600243,2.3225694,4.152603
-34.635975,2.3274586,4.171562
-34.709698,2.301841,4.16338
-34.776974,2.281983,4.1607213
-34.849365,2.258597,4.155287
-34.89305,2.258254,4.170565
-34.98546,2.2202854,4.1530166
-35.053238,2.2020867,4.1532583
-35.11425,2.1895256,4.1587586
-35.18677,2.1686578,4.1573925
-35.2717,2.1390395,4.1488953
-35.33488,2.126237,4.1552634
-35.406162,2.1078691,4.157229
-35.482048,2.0866349,4.157157
-35.566242,2.0599422,4.1529136
-35.668365,2.0210538,4.1389427
-35.72475,2.0154617,4.1532845
-35.842514,1.9669735,4.13243
-35.90232,1.9599031,4.146353
-36.000267,1.9267708,4.139289
-36.10168,1.8920138,4.13149
-36.17344,1.8781755,4.141186
-36.28172,1.8401607,4.131895
-36.37227,1.8148178,4.1333647
-36.492958,1.7701361,4.120066
-36.53443,1.7784111,4.149151
-36.657505,1.7336159,4.136999
-36.743233,1.7138779,4.145048
-36.891445,1.6546679,4.1232333
-36.972477,1.6392946,4.1358705
-37.131382,1.5753605,4.112172
-37.222572,1.5549679,4.122283
-37.354378,1.5099821,4.1145935
-37.488346,1.464622,4.1074862
-37.59497,1.4368787,4.1141973
-37.772434,1.3670342,4.090917
-37.839798,1.3645029,4.1174664
-38.00406,1.3046818,4.1033826
-38.178795,1.2398975,4.086896
-38.301453,1.2068405,4.0939255
-38.435112,1.1681814,4.0978637
-38.576614,1.1258891,4.100193
-38.7219,1.0823691,4.102647
-38.874306,1.0357809,4.104019
-39.075317,0.96293044,4.0888486
-39.220642,0.9225044,4.0966177
-39.453213,0.8348377,4.074396
-39.63155,0.77854776,4.074236
-30.07955,2.2671788,3.2383661
-30.11254,2.2710047,3.2425685
-30.145443,2.263021,3.2334447
-30.178976,2.188383,3.1486979
-30.212208,2.2142706,3.1782227
-30.244595,2.255439,3.2251897
-30.275755,2.3112211,3.288837
-30.30734,2.334047,3.3151345
-30.338556,2.3562906,3.3408518
-30.369658,2.3739877,3.3614879
-30.400675,2.3884606,3.3785415
-30.431955,2.3964076,3.388269
-30.46269,2.409054,3.403411
-30.493584,2.417817,3.4142246
-30.524464,2.4253378,3.4237103
-30.555288,2.432277,3.4326158
-30.586233,2.4373147,3.439446
-30.616833,2.444408,3.4486866
-30.6474,2.4509194,3.4573474
-30.674696,2.4785838,3.4900422
-30.704643,2.486556,3.5005069
-30.737103,2.4788077,3.493256
-30.76505,2.4974594,3.5159616
-30.79988,2.4773817,3.4949389
-30.827517,2.4961786,3.5179586
-30.854828,2.515037,3.5411124
-30.886974,2.5096664,3.536971
-30.917622,2.5116,3.5411625
-30.945215,2.526727,3.560319
-30.97757,2.5209453,3.5559692
-31.009546,2.517217,3.5540237
-31.042099,2.5116103,3.5500536
-31.073015,2.512634,3.5536375
-31.10464,2.5111237,3.5544548
-31.132578,2.5227602,3.5701365
-31.164919,2.518798,3.5683656
-31.198126,2.5123146,3.563859
-31.230846,2.5078785,3.5617452
-31.260725,2.5126493,3.5700417
-31.291603,2.514242,3.5748577
-31.330397,2.492513,3.5536685
-31.365961,2.481298,3.5443587
-31.396862,2.4838138,3.550496
-31.419176,2.5097466,3.582847
-31.421827,2.5868783,3.67232
-31.445538,2.6057131,3.6967854
-31.471725,2.617483,3.713437
-31.49902,2.6260834,3.7266269
-31.523779,2.6405535,3.7464037
-31.549109,2.6531415,3.7641478
-31.574505,2.6651416,3.7812982
-31.5997,2.6771972,3.7985687
-31.625273,2.6880236,3.8145385
-31.64949,2.7014728,3.833468
-31.673483,2.714973,3.8525062
-31.699694,2.7234037,3.8660111
-31.725456,2.7325354,3.880352
-31.751703,2.74045,3.8934193
-31.778145,2.7477894,3.905923
-31.806108,2.7520094,3.9150724
-31.830345,2.7632947,3.9320374
-31.855415,2.7727282,3.947034
-31.881706,2.7796826,3.959384
-31.90754,2.7873342,3.9725628
-31.935028,2.7918859,3.982432
-31.963888,2.7939835,3.989708
-31.991627,2.7980494,3.999206
-32.017082,2.8059645,4.0129566
-32.04542,2.8089123,4.0213943
-32.073727,2.8119354,4.0299954
-32.102375,2.8144073,4.038084
-32.130997,2.8169575,4.0463414
-32.157993,2.822083,4.057454
-32.185314,2.8266544,4.0680475
-33.223957,1.2913878,2.427597
-33.239853,1.3353789,2.4834127
-33.2676,1.3607388,2.519298
-33.244396,1.4598267,2.6338649
-33.244892,1.5222235,2.7091236
-33.256096,1.5678632,2.7664685
-33.28064,1.5937538,2.8028226
-33.271786,1.6651659,2.8873963
-33.26219,1.7358224,2.9710145
-33.26054,1.7940857,3.0414052
-33.288364,1.8119042,3.0691257
-33.293053,1.8596685,3.1283484
-33.267727,1.9451153,3.2269807
-33.27196,1.9908442,3.2838368
-33.27496,2.0371141,3.3411837
-33.30203,2.0524487,3.3662457
-33.29246,2.1125271,3.4378428
-33.279922,2.1748815,3.5116467
-33.279404,2.2214522,3.5689635
-33.271034,2.2763386,3.6347613
-33.299644,2.2867932,3.6547003
-33.303806,2.3253953,3.7036076
-33.32091,2.3484418,3.7365222
-33.277607,2.4392982,3.8386989
-33.28598,2.4705153,3.8797798
-33.294388,2.5011077,3.9201884
-33.314213,2.5186749,3.947363
-33.33049,2.539806,3.9781718
-33.33266,2.575643,4.023813
-33.318142,2.6284237,4.0864086
-33.336967,2.6453748,4.11293
-33.338005,2.6804414,4.1575813
-33.34704,2.7067127,4.1933956
-33.38267,2.7056727,4.202056
-33.440353,2.6827426,4.1891747
-33.498413,2.6600413,4.1767893
-33.54567,2.648517,4.175677
-33.591934,2.6383162,4.1760697
-33.63837,2.6282847,4.1768303
-33.695225,2.6087084,4.1684923
-33.741474,2.5996149,4.1706033
-33.795834,2.5833015,4.165929
-33.84738,2.570033,4.164446
-33.897907,2.5580907,4.164474
-33.951134,2.544085,4.162756
-33.99326,2.5403996,4.171137
-34.04496,2.5284557,4.1718435
-34.06622,2.5435286,4.1983852
-34.1496,2.504602,4.1740127
-34.21095,2.485476,4.1686974
-34.264133,2.473796,4.170658
-34.345707,2.438579,4.1509204
-34.383614,2.4405904,4.1661935
-34.46866,2.4037676,4.1457005
-34.524197,2.391927,4.148679
-34.57858,2.381393,4.153123
-34.63719,2.3678064,4.1550436
-34.69125,2.358243,4.160912
-34.757793,2.3391662,4.158432
-34.814983,2.3278975,4.163331
-34.87096,2.317925,4.1696754
-34.952896,2.2883859,4.158835
-35.051414,2.2469404,4.137869
-35.08072,2.2585099,4.164318
-35.174408,2.2219934,4.148582
-35.232265,2.2127876,4.157273
-35.29026,2.2038083,4.1664534
-35.390938,2.1641533,4.149369
-35.458847,2.1489525,4.153928
-35.520424,2.1387095,4.1630983
-35.636364,2.0903673,4.1401377
-35.689674,2.0869489,4.15592
-35.78966,2.0513263,4.1448503
-35.888676,2.017171,4.1355977
-35.965,1.9992795,4.140462
-36.07839,1.9567844,4.125406
-36.135765,1.952802,4.142692
-36.25159,1.9101747,4.128714
-36.329155,1.8937129,4.1366787
-36.43067,1.8620498,4.1328297
-36.53724,1.8278421,4.127557
-36.60719,1.8179593,4.142281
-36.719948,1.7811414,4.1361246
-36.819176,1.7537024,4.1380234
-36.96809,1.6957731,4.1167884
-37.06825,1.6693342,4.1208563
-37.1806,1.6360323,4.1202755
-37.285454,1.6080806,4.124473
-37.429684,1.556937,4.111812
-37.57138,1.5083823,4.1020355
-37.62862,1.5112183,4.131376
-37.806683,1.4427822,4.1085067
-37.931423,1.4069788,4.1106887
-38.050106,1.3755193,4.1168313
-38.23766,1.3050838,4.095766
-38.376183,1.2640994,4.0969453
-38.45523,1.2577763,4.1234813
-38.640686,1.1919224,4.10894
-38.804604,1.139416,4.1049194
-38.987423,1.0775588,4.0956316
-39.127647,1.0403597,4.1043377
-39.29171,0.9910486,4.1058817
-39.51256,0.9121282,4.088929
-39.718346,0.84283614,4.079892
-39.964634,0.7534187,4.059281
-30.07612,2.2849247,3.2082777
-30.10938,2.3024979,3.2283282
-30.14228,2.29456,3.2191396
-30.175426,2.2722676,3.1935363
-30.209162,2.2382479,3.1545405
-30.241428,2.2870064,3.2107854
-30.272438,2.3469994,3.2800226
-30.30424,2.3637593,3.2996483
-30.334442,2.4055295,3.3480945
-30.365618,2.419164,3.364286
-30.396734,2.4302533,3.3776326
-30.427393,2.444698,3.3949127
-30.45791,2.4579077,3.4108515
-30.488766,2.465294,3.4201798
-30.519213,2.4753788,3.4326863
-30.550007,2.4809535,3.440093
-30.580706,2.4866056,3.447668
-30.610958,2.494954,3.4584155
-30.641527,2.5001051,3.4655728
-30.671614,2.50795,3.4758964
-30.702295,2.5112917,3.4811363
-30.734358,2.5062149,3.4768143
-30.765001,2.5097165,3.4824
-30.794977,2.5165613,3.4918914
-30.824324,2.5260909,3.5045328
-30.854172,2.5324304,3.5135975
-30.884472,2.536235,3.5198412
-30.915293,2.537511,3.523275
-30.945791,2.5401678,3.528368
-30.977036,2.5396492,3.5299172
-31.008621,2.5379105,3.530159
-31.041256,2.5323558,3.5261374
-31.072775,2.5314374,3.5274892
-31.103235,2.5344973,3.5334554
-31.133835,2.5369864,3.5388517
-31.165356,2.5363128,3.5407343
-31.197687,2.533132,3.5398545
-31.229269,2.5326278,3.5421047
-31.261076,2.531561,3.5438013
-31.291193,2.5357475,3.5515418
-31.322346,2.5367832,3.5557923
-31.355753,2.53145,3.5529208
-31.389496,2.5255663,3.5495234
-31.418358,2.533297,3.5616064
-31.415186,2.625353,3.6689405
-31.437313,2.6479185,3.6978102
-31.461346,2.6647444,3.7202516
-31.487955,2.674564,3.7348566
-31.515999,2.6806016,3.745274
-31.542316,2.6905482,3.7601533
-31.567633,2.7024722,3.7773166
-31.59275,2.7144518,3.7945986
-31.616512,2.7290368,3.8148575
-31.641207,2.7411227,3.8323698
-31.667799,2.7488084,3.8450232
-31.69396,2.7571936,3.8585234
-31.719986,2.7656393,3.8721557
-31.745241,2.7754145,3.8873324
-31.770014,2.7858796,3.9033384
-31.795925,2.7938714,3.916655
-31.821375,2.8025563,3.9308047
-31.84838,2.8081481,3.9415908
-31.874954,2.8144364,3.95322
-31.90073,2.8220482,3.9663815
-31.929228,2.824699,3.9741344
-31.95661,2.8293066,3.9841242
-31.982826,2.8358622,3.9963322
-32.01154,2.8381073,4.0038743
-32.039474,2.8416784,4.0129533
-32.066597,2.846569,4.0235567
-32.094807,2.8496628,4.0322714
-32.124157,2.8509693,4.039115
-32.151905,2.8548367,4.0488377
-32.18,2.8581595,4.0580473
-32.208054,2.8615565,4.067419
-33.26085,1.3407493,2.4240131
-33.270416,1.393132,2.4894528
-33.25783,1.476196,2.5879884
-33.25332,1.5455933,2.6715984
-33.28163,1.567092,2.703504
-33.29504,1.6088133,2.757194
-33.262676,1.7121389,2.8769298
-33.271915,1.7567296,2.9334965
-33.28772,1.7915463,2.97957
-33.30387,1.8251381,3.0243244
-33.29145,1.8950529,3.1077204
-33.289665,1.9497035,3.1747355
-33.27361,2.021142,3.259429
-33.30171,2.0358324,3.2839274
-33.313,2.0710032,3.3300982
-33.271015,2.170278,3.4437256
-33.285095,2.1998708,3.4838204
-33.276077,2.2563105,3.5520391
-33.302677,2.2697432,3.5751467
-33.308052,2.307595,3.6237893
-33.310738,2.3477657,3.6747851
-33.276714,2.4286866,3.7680054
-33.287247,2.4580069,3.8075094
-33.291454,2.4937816,3.853654
-33.31066,2.5124664,3.882131
-33.32415,2.5370355,3.9166822
-33.33506,2.5639384,3.953619
-33.29257,2.6468165,4.047741
-33.30383,2.6718006,4.082524
-33.34669,2.6636896,4.0836563
-33.35064,2.6956763,4.125598
-33.351215,2.7305005,4.17035
-33.366207,2.750281,4.1998677
-33.41571,2.7355993,4.1947756
-33.47717,2.7096438,4.1786118
-33.521957,2.7005107,4.179535
-33.56453,2.69382,4.1830797
-33.609623,2.6850069,4.1846952
-33.66875,2.6633177,4.173771
-33.714252,2.6548686,4.1761756
-33.769707,2.6375635,4.1700773
-33.819283,2.6260986,4.1699543
-33.88459,2.6008034,4.156561
-33.92402,2.5992546,4.1665735
-33.976727,2.5861342,4.1655354
-34.020763,2.5809965,4.172447
-34.058495,2.5815582,4.1850305
-34.100098,2.5789297,4.194707
-34.161842,2.55937,4.1884003
-34.228474,2.5362153,4.178978
-34.296795,2.5122404,4.169113
-34.358887,2.4940047,4.165008
-34.421276,2.4760196,4.1614456
-34.492657,2.451235,4.1518316
-34.540848,2.4456701,4.160491
-34.602016,2.4300435,4.160037
-34.647064,2.4275537,4.172021
-34.72853,2.3968496,4.158263
-34.78286,2.3878388,4.1647997
-34.863026,2.3593595,4.153861
-34.899628,2.3646157,4.1739483
-35.00009,2.3219182,4.1509
-35.06093,2.3096747,4.1557765
-35.124092,2.2960992,4.159769
-35.192463,2.279118,4.1610575
-35.27977,2.2488728,4.150969
-35.34298,2.2366552,4.1572375
-35.422344,2.213312,4.154092
-35.50279,2.1897898,4.151227
-35.576977,2.1712325,4.1531086
-35.67062,2.1396818,4.144203
-35.74545,2.1217945,4.147537
-35.847363,2.0859392,4.1359816
-35.931828,2.062677,4.1356854
-36.01136,2.0433035,4.139142
-36.10629,2.0142267,4.1349287
-36.201633,1.9855651,4.131617
-36.31494,1.9458648,4.119748
-36.380497,1.9379305,4.134634
-36.48468,1.9055514,4.1299486
-36.57151,1.8849549,4.135432
-36.653957,1.8676716,4.1440883
-36.75382,1.8399986,4.144926
-36.90738,1.7797065,4.1204996
-36.998756,1.7588617,4.1281195
-37.14024,1.7080388,4.1128592
-37.25461,1.6746719,4.1120477
-37.349476,1.6537688,4.121546
-37.46543,1.6209018,4.122487
-37.59227,1.5823948,4.1198916
-37.743015,1.5307815,4.1082654
-37.849045,1.5061741,4.1177545
-38.01803,1.4460242,4.10166
-38.16655,1.398772,4.096147
-38.28615,1.3688924,4.1042333
-38.425865,1.3284771,4.1055217
-38.56938,1.2868652,4.10689
-38.72666,1.2386,4.10453
-38.874546,1.1965258,4.1075697
-39.057156,1.1365659,4.0992403
-39.255566,1.0693545,4.0872216
-39.418644,1.0223722,4.090316
-39.62612,0.9529362,4.0794926
-39.84203,0.8804896,4.068157
-40.00531,0.836921,4.0773163
-40.278076,0.7378104,4.0516243
-30.073494,2.1248157,2.9804702
-30.110611,2.3445954,3.2354708
-30.143345,2.3262627,3.2141275
-30.176586,2.2838674,3.1649337
-30.209932,2.282021,3.1629019
-30.242085,2.3285496,3.2171144
-30.273462,2.3732002,3.2692246
-30.304401,2.409444,3.3116555
-30.33582,2.4242346,3.3292623
-30.366327,2.4495392,3.35915
-30.39707,2.465136,3.3778462
-30.427689,2.4788525,3.3944402
-30.458927,2.482866,3.3998556
-30.489332,2.4947798,3.4145117
-30.520012,2.5022082,3.4240446
-30.550634,2.5090616,3.4329882
-30.581135,2.5159914,3.4420981
-30.611427,2.5236497,3.452129
-30.641865,2.5294306,3.4600606
-30.67131,2.5411425,3.4749365
-30.702017,2.5438218,3.4794312
-30.733232,2.5433304,3.480338
-30.764227,2.5442193,3.482923
-30.794844,2.5471365,3.4879322
-30.8249,2.552727,3.496111
-30.855396,2.5557983,3.5014548
-30.886263,2.5570025,3.5047226
-30.917261,2.5576377,3.5074143
-30.946735,2.5648298,3.5177493
-30.979078,2.5597975,3.5140696
-31.010538,2.5587337,3.5150495
-31.041517,2.5596914,3.5184417
-31.074059,2.5549166,3.5153193
-31.100912,2.570886,3.536138
-31.132523,2.5694985,3.5370755
-31.164164,2.568196,3.5381947
-31.195242,2.5689094,3.5417137
-31.226315,2.5697038,3.5454087
-31.25906,2.5654368,3.5433874
-31.289951,2.567041,3.5481796
-31.323032,2.562308,3.545805
-31.354622,2.562155,3.5487614
-31.38622,2.5620868,3.5518985
-31.414497,2.571063,3.5654454
-31.419447,2.6408546,3.6484027
-31.44089,2.6652353,3.679574
-31.462927,2.6870975,3.7079115
-31.490326,2.6949716,3.7203832
-31.515997,2.7067325,3.7373362
-31.54283,2.7153692,3.750804
-31.568687,2.7259755,3.7665696
-31.59238,2.741083,3.7874932
-31.615816,2.7562377,3.8085198
-31.640764,2.7676399,3.8253536
-31.668827,2.7721395,3.8344526
-31.693455,2.7836595,3.851541
-31.717577,2.7958636,3.8694563
-31.743399,2.8043385,3.8832307
-31.769407,2.8122444,3.896428
-31.7943,2.822098,3.9118757
-31.819702,2.8307524,3.9260378
-31.84564,2.838212,3.9389262
-31.871462,2.8457341,3.9519482
-31.897861,2.852068,3.9637094
-31.926657,2.8540988,3.9707413
-31.95362,2.8593225,3.9814105
-31.979404,2.8664813,3.9943027
-32.00731,2.869975,4.003192
-32.03328,2.8766441,4.0156794
-32.060295,2.8815184,4.026248
-32.088017,2.8852255,4.0356007
-32.118835,2.8840675,4.0396633
-32.147293,2.8866968,4.0479927
-32.17329,2.8930945,4.0605493
-32.20206,2.8952575,4.0685263
-32.233715,2.893208,4.071971
-33.248928,1.4603138,2.509935
-33.252594,1.5190365,2.582697
-33.272087,1.5538924,2.6293488
-33.287067,1.5942271,2.681963
-33.273098,1.6734271,2.776774
-33.256447,1.7542756,2.873188
-33.268723,1.7943866,2.9253168
-33.299084,1.8096967,2.950624
-33.308846,1.8516014,3.0046692
-33.269268,1.9560452,3.1259499
-33.280884,1.9929323,3.1743746
-33.294758,2.0261931,3.2188826
-33.305668,2.0624282,3.2665524
-33.32135,2.0920672,3.30715
-33.271435,2.2003174,3.4314246
-33.285477,2.2297754,3.4716296
-33.293507,2.265746,3.5187259
-33.314667,2.285699,3.548841
-33.323704,2.3192592,3.59334
-33.28243,2.4093375,3.6972756
-33.282566,2.4509273,3.7499824
-33.29153,2.481885,3.7914681
-33.312252,2.499356,3.8188314
-33.331627,2.518026,3.8474784
-33.326813,2.5623398,3.902804
-33.304295,2.6245606,3.9765778
-33.302307,2.663993,4.0265784
-33.308044,2.694672,4.067459
-33.32228,2.716084,4.0987663
-33.352055,2.721395,4.1135683
-33.350883,2.7577684,4.160222
-33.354313,2.7889159,4.2014623
-33.386887,2.7909064,4.213009
-33.46397,2.7497373,4.180934
-33.5069,2.7423918,4.1834135
-33.555916,2.729538,4.180523
-33.600956,2.7208211,4.182
-33.649178,2.7094524,4.1810145
-33.700638,2.6954556,4.177618
-33.751114,2.6827765,4.175762
-33.81417,2.6591206,4.1632557
-33.865173,2.6468568,4.1623015
-33.90447,2.6453347,4.1721487
-33.9558,2.6334286,4.1719694
-34.01115,2.6184063,4.1689787
-34.05587,2.612955,4.175565
-34.09424,2.613152,4.1878223
-34.135864,2.6107416,4.1977158
-34.22132,2.5719414,4.17275
-34.289646,2.548191,4.162666
-34.352394,2.5296001,4.157854
-34.399456,2.5242276,4.1659265
-34.48014,2.4921029,4.1488605
-34.526928,2.4877,4.1583757
-34.591446,2.4695563,4.155191
-34.641224,2.4634066,4.16355
-34.700043,2.4505334,4.165875
-34.77221,2.4278278,4.1593723
-34.82804,2.4180949,4.1652193
-34.87913,2.4122622,4.1749225
-34.98379,2.3667693,4.1485934
-35.045288,2.354144,4.152771
-35.095592,2.3500957,4.165029
-35.19176,2.3130264,4.1477604
-35.250366,2.3037853,4.155988
-35.309116,2.2947748,4.1647162
-35.4,2.2634082,4.153896
-35.47747,2.2421558,4.1525154
-35.557465,2.2197018,4.150502
-35.65331,2.1869268,4.139915
-35.70806,2.1828976,4.154843
-35.82705,2.1357446,4.132801
-35.911484,2.1127238,4.132188
-35.982693,2.0990653,4.140042
-36.091957,2.0607963,4.1274023
-36.14776,2.0582426,4.1455293
-36.286915,2.0020382,4.1189814
-36.341633,2.0011115,4.139321
-36.45962,1.9601942,4.126856
-36.53944,1.9442226,4.13561
-36.618702,1.9290743,4.145492
-36.73961,1.8885958,4.135293
-36.875214,1.8399854,4.119294
-36.96969,1.8174493,4.12499
-37.104073,1.7714164,4.112608
-37.18579,1.757901,4.126688
-37.333977,1.7053828,4.110761
-37.42031,1.6903689,4.1248794
-37.587357,1.6287284,4.103636
-37.685703,1.6081097,4.1148033
-37.808655,1.5739465,4.116325
-37.992336,1.506026,4.093297
-38.096756,1.4842114,4.1058164
-38.227707,1.4481533,4.1084876
-38.406082,1.3866203,4.093392
-38.49013,1.3782835,4.1180434
-38.639828,1.3345034,4.117776
-38.836708,1.266159,4.101059
-38.99348,1.2207444,4.10185
-39.15919,1.1715906,4.1011057
-39.334747,1.11832,4.098667
-39.52529,1.0583534,4.092885
-39.718246,0.99840736,4.088461
-39.923805,0.9332411,4.0819216
-40.148033,0.8598995,4.0714617
-40.41247,0.767683,4.050314
-40.626495,0.70263195,4.0486255
-30.074375,2.193575,3.0137277
-30.11051,2.3516934,3.1991005
-30.143446,2.34385,3.1898403
-30.176971,2.273822,3.1076994
-30.210026,2.3109062,3.1513224
-30.241598,2.3798542,3.2324114
-30.273415,2.4054246,3.2626863
-30.30423,2.4433954,3.3075852
-30.334797,2.473011,3.3427587
-30.36595,2.4845476,3.356801
-30.396753,2.4981067,3.3732948
-30.427261,2.512391,3.3907142
-30.457685,2.5248067,3.4060173
-30.488266,2.5334108,3.4169292
-30.517859,2.5498629,3.4371114
-30.548513,2.5547328,3.443799
-30.57908,2.55968,3.4506536
-30.609476,2.565351,3.4584332
-30.639956,2.5698054,3.4648643
-30.670559,2.573044,3.4699502
-30.70142,2.5744214,3.4729366
-30.731928,2.5778158,3.4783611
-30.76273,2.579351,3.481689
-30.792894,2.5841923,3.4889584
-30.823107,2.588464,3.4956398
-30.852709,2.595391,3.505496
-30.883312,2.5972364,3.5094967
-30.91374,2.5998034,3.5144181
-30.944433,2.6011622,3.5180087
-30.97479,2.603886,3.5232697
-31.00576,2.6041162,3.5257044
-31.035042,2.6108515,3.53579
-31.069283,2.5990424,3.5243835
-31.099766,2.6014438,3.5295906
-31.130215,2.603924,3.5349674
-31.161972,2.6019983,3.5353088
-31.192188,2.605278,3.5417752
-31.224188,2.6028788,3.5417356
-31.255402,2.603123,3.544845
-31.287912,2.5996187,3.5437007
-31.318726,2.6013062,3.5486498
-31.352695,2.5941517,3.5434628
-31.383545,2.5960085,3.5487795
-31.409842,2.6100307,3.568212
-31.42442,2.6539774,3.6221962
-31.436968,2.7010942,3.6798272
-31.459927,2.7202935,3.7053227
-31.484903,2.7338338,3.7243552
-31.511517,2.7429972,3.7384152
-31.53634,2.7560153,3.7569609
-31.56122,2.7684553,3.774899
-31.58674,2.7790563,3.7907858
-31.612371,2.7890851,3.8060765
-31.63813,2.7985427,3.820775
-31.662529,2.8105736,3.838471
-31.688562,2.8188906,3.851986
-31.71446,2.8272686,3.865634
-31.740221,2.8357074,3.879415
-31.764229,2.847333,3.8968768
-31.79067,2.8540146,3.908783
-31.818678,2.8576427,3.917294
-31.844255,2.8657026,3.9308982
-31.86763,2.877554,3.9488497
-31.89607,2.8801403,3.9563942
-31.923765,2.8840427,3.9654999
-31.947063,2.895446,3.9831257
-31.976418,2.89639,3.9890442
-32.001293,2.9048219,4.003454
-32.030952,2.9053006,4.0090084
-32.05793,2.9101691,4.0195646
-32.08406,2.916335,4.0316424
-32.109306,2.9237928,4.045232
-32.139233,2.9239645,4.050766
-32.168762,2.924832,4.057164
-32.197063,2.927614,4.065777
-32.22117,2.936563,4.0813084
-33.23995,1.5094202,2.5073485
-33.249004,1.5598958,2.571618
-33.28311,1.5739677,2.595675
-33.283775,1.6340742,2.6705003
-33.255997,1.7315056,2.7862449
-33.26056,1.7829106,2.8512373
-33.29187,1.797565,2.8759127
-33.295467,1.8482935,2.940084
-33.263012,1.9444656,3.053742
-33.26966,1.9883742,3.1102252
-33.27841,2.0286477,3.1626983
-33.301327,2.0504224,3.1950688
-33.306957,2.09302,3.25
-33.265438,2.191876,3.3656049
-33.27756,2.2241774,3.409183
-33.287155,2.2588186,3.4552522
-33.30777,2.2798786,3.4867167
-33.320408,2.3097785,3.527669
-33.276012,2.4041624,3.6374502
-33.278297,2.4438272,3.6886034
-33.284645,2.4781709,3.7340288
-33.301006,2.500824,3.7670112
-33.317,2.5234833,3.8000093
-33.332092,2.546729,3.8336315
-33.308754,2.610453,3.9098454
-33.294235,2.663598,3.9747405
-33.291016,2.7039356,4.0260625
-33.299973,2.7309835,4.063412
-33.31018,2.7562895,4.098921
-33.33588,2.7655869,4.1177883
-33.33396,2.802289,4.1651006
-33.3505,2.8201632,4.1928844
-33.3749,2.8301215,4.2125397
-33.45841,2.7830591,4.1737394
-33.502495,2.7746863,4.1749444
-33.54793,2.765348,4.1753473
-33.594734,2.7550547,4.1749716
-33.639908,2.746612,4.176669
-33.68767,2.7361038,4.1764708
-33.738697,2.7229934,4.1738586
-33.78995,2.7100782,4.171667
-33.842052,2.6968057,4.1693487
-33.88936,2.6881423,4.1718597
-33.93619,2.6802027,4.175295
-33.998447,2.6592882,4.1660843
-34.03605,2.659927,4.17844
-34.07688,2.6579673,4.1883883
-34.126858,2.6485496,4.1911993
-34.19532,2.6241663,4.179632
-34.274723,2.5914354,4.160289
-34.314884,2.5913134,4.1729317
-34.39309,2.560771,4.1563973
-34.45635,2.5428524,4.152395
-34.51382,2.5299845,4.153533
-34.565388,2.5221205,4.1597137
-34.622566,2.510219,4.162302
-34.664795,2.510145,4.1763377
-34.757584,2.4718475,4.154607
-34.817543,2.4591026,4.1573024
-34.856697,2.4622574,4.175113
-34.93527,2.4364107,4.166179
-35.03125,2.3984556,4.146481
-35.07011,2.4027696,4.166158
-35.1562,2.3732376,4.155044
-35.226902,2.3553634,4.155007
-35.275425,2.3536253,4.1699514
-35.37787,2.3143845,4.1513376
-35.453827,2.2943718,4.1505375
-35.519787,2.2817552,4.156738
-35.6037,2.2573218,4.152804
-35.691692,2.2307405,4.147441
-35.79204,2.1965456,4.135895
-35.870377,2.1777284,4.138332
-35.94974,2.1587467,4.1410565
-36.05972,2.1203456,4.127488
-36.130646,2.1080189,4.136899
-36.24155,2.070505,4.1252556
-36.312244,2.0593548,4.136571
-36.42327,2.0232205,4.127274
-36.50455,2.006463,4.13482
-36.57203,1.9987268,4.150313
-36.68895,1.9610219,4.1414804
-36.775726,1.9424887,4.1490498
-36.962273,1.8643513,4.108695
-37.03411,1.8563011,4.126087
-37.158623,1.8173981,4.1191745
-37.28687,1.7771816,4.111996
-37.376305,1.7604735,4.1241684
-37.526436,1.7092195,4.109835
-37.604397,1.700393,4.1294165
-37.784054,1.6341939,4.1052656
-37.92625,1.59044,4.099451
-38.03134,1.5683815,4.1109934
-38.217278,1.5021698,4.0900416
-38.33476,1.4749038,4.099326
-38.470802,1.4382422,4.1024365
-38.625587,1.3923275,4.099681
-38.744247,1.3667891,4.1127114
-38.871574,1.3373377,4.1237106
-39.074017,1.2690828,4.1080103
-39.28826,1.1960683,4.090378
-39.466194,1.1433561,4.0883703
-39.664276,1.0814526,4.0812774
-39.853733,1.0252604,4.079469
-40.04727,0.96823645,4.0784397
-40.300587,0.8824997,4.0596805
-40.499054,0.82575274,4.0618315
-40.744717,0.7469964,4.05111
-40.917786,0.7053561,4.0660105
-30.076246,2.2677715,3.0452676
-30.112108,2.4337378,3.2423534
-30.1446,2.4304628,3.2384067
-30.177938,2.3197482,3.106864
-30.210846,2.3584936,3.1530194
-30.24276,2.4082646,3.212356
-30.273779,2.45747,3.2710977
-30.304947,2.482933,3.3017044
-30.335579,2.5097601,3.3340034
-30.366642,2.5218606,3.3488855
-30.39684,2.543047,3.3746338
-30.427326,2.555944,3.3906097
-30.457926,2.5650575,3.4021692
-30.488869,2.569104,3.4077883
-30.518974,2.5802996,3.4219685
-30.549635,2.5851433,3.4286861
-30.580534,2.5874949,3.4325233
-30.610868,2.5937786,3.441101
-30.640999,2.6007807,3.450604
-30.671303,2.6059327,3.4579892
-30.701725,2.6098776,3.4640193
-30.73197,2.6145408,3.4709759
-30.762484,2.6173575,3.475822
-30.792706,2.6215336,3.4823527
-30.8235,2.6225843,3.485262
-30.853743,2.626274,3.4913697
-30.884344,2.6281219,3.4953756
-30.91448,2.6319664,3.5018182
-30.944857,2.6346087,3.506917
-30.975664,2.6354141,3.509924
-31.00892,2.6267288,3.5018167
-31.036407,2.6404517,3.5202155
-31.056639,2.679722,3.5687714
-31.099169,2.63816,3.5221868
-31.129751,2.6400027,3.5268116
-31.159536,2.644466,3.5345979
-31.191435,2.642018,3.534336
-31.222977,2.640925,3.5357513
-31.255177,2.6380143,3.535118
-31.286793,2.6370914,3.536903
-31.31777,2.638153,3.5410962
-31.350103,2.6355004,3.5410233
-31.381794,2.6348321,3.5433588
-31.410402,2.6424556,3.555472
-31.429096,2.6753738,3.5971951
-31.435688,2.7372904,3.672771
-31.459093,2.755107,3.6968918
-31.483757,2.7691965,3.7167158
-31.510586,2.7776854,3.730074
-31.536451,2.7881193,3.745758
-31.561583,2.7998652,3.7630234
-31.587082,2.8104143,3.7789564
-31.613274,2.8191452,3.79284
-31.63784,2.8310592,3.81047
-31.660698,2.8461444,3.8318229
-31.680841,2.8662567,3.8590274
-31.708138,2.8714707,3.8690705
-31.73217,2.8829656,3.886423
-31.754713,2.8969936,3.906745
-31.78163,2.9023924,3.9171882
-31.806118,2.912189,3.9327521
-31.832827,2.9177158,3.9434738
-31.859104,2.923926,3.9550467
-31.883879,2.9326663,3.9695797
-31.911009,2.9371572,3.9793172
-31.939886,2.9386458,3.9856992
-31.966543,2.9438937,3.9964464
-31.994614,2.9467592,4.004552
-32.020752,2.9527574,4.0162945
-32.04834,2.956378,4.025408
-32.080162,2.9533691,4.0270844
-32.10889,2.9553218,4.0344715
-32.134396,2.962212,4.047519
-32.164665,2.9618888,4.052496
-32.192898,2.9646788,4.0610685
-32.221096,2.9675465,4.0698085
-32.2404,2.9831562,4.09293
-33.263504,1.5839622,2.5309997
-33.27787,1.6256666,2.5860934
-33.24467,1.7315264,2.712788
-33.24952,1.783232,2.7788444
-33.27635,1.8043911,2.8108416
-33.295574,1.8351352,2.853528
-33.27345,1.9188588,2.9549375
-33.270763,1.9756422,3.0263243
-33.26242,2.0382483,3.1040273
-33.2938,2.0498405,3.1253762
-33.29719,2.0957494,3.1845398
-33.261036,2.1887195,3.2952747
-33.270306,2.224977,3.343605
-33.27154,2.2699957,3.4014711
-33.294018,2.2891808,3.4310813
-33.301037,2.3259208,3.4798288
-33.30438,2.3661115,3.5322719
-33.266884,2.4515917,3.6337051
-33.2763,2.4828453,3.6762352
-33.294647,2.503651,3.7074661
-33.31848,2.5181224,3.731903
-33.315887,2.5608664,3.7867284
-33.307182,2.609267,3.8475113
-33.287872,2.667867,3.9190507
-33.28077,2.7125669,3.975594
-33.29288,2.7366214,4.0100837
-33.314114,2.7509923,4.0343037
-33.30579,2.7949169,4.089796
-33.336563,2.799098,4.103278
-33.364983,2.805627,4.1193266
-33.327385,2.8764372,4.2028313
-33.367912,2.8705935,4.205933
-33.40561,2.8676925,4.2122593
-33.472996,2.8369849,4.1898403
-33.52658,2.81993,4.1818795
-33.57445,2.808639,4.1801105
-33.63586,2.7853384,4.1661787
-33.678127,2.7799656,4.170932
-33.72665,2.7692332,4.170373
-33.77723,2.7570353,4.1685276
-33.828648,2.7444816,4.166543
-33.88155,2.7310321,4.1638794
-33.92962,2.7221432,4.1660547
-33.97657,2.7145185,4.1697106
-34.024952,2.7059853,4.1726575
-34.069603,2.70087,4.1792297
-34.11891,2.6921504,4.182405
-34.170998,2.6814718,4.183855
-34.249664,2.649613,4.1646147
-34.30761,2.63514,4.162885
-34.36045,2.625146,4.1658187
-34.430283,2.60212,4.156269
-34.49779,2.5814948,4.1494017
-34.55134,2.5721927,4.1538353
-34.612583,2.557331,4.153155
-34.65477,2.557341,4.1670556
-34.729572,2.533031,4.1578746
-34.790813,2.519412,4.1592593
-34.857193,2.5024202,4.157745
-34.9055,2.4990957,4.1694617
-34.9851,2.47336,4.160346
-35.06154,2.4505231,4.154359
-35.113945,2.4453397,4.1651998
-35.204685,2.4134388,4.1515474
-35.271984,2.3986328,4.1541433
-35.32274,2.395698,4.1679673
-35.422684,2.3593028,4.1515093
-35.480434,2.3523722,4.1623473
-35.57164,2.323238,4.153431
-35.678932,2.2840734,4.1360164
-35.720207,2.2894142,4.1589513
-35.852425,2.2352765,4.129259
-35.903816,2.2347527,4.1476793
-35.997757,2.2070463,4.1424913
-36.090584,2.1807256,4.1390452
-36.17307,2.1615992,4.1423664
-36.283573,2.1254396,4.131467
-36.343525,2.1215193,4.148831
-36.4805,2.0704181,4.126353
-36.540127,2.0676446,4.145574
-36.63038,2.0465822,4.1497436
-36.74772,2.0098314,4.1413484
-36.872704,1.9693747,4.130593
-36.97204,1.9449593,4.133802
-37.11241,1.8971745,4.118515
-37.20938,1.8755996,4.125358
-37.37342,1.8160462,4.1022177
-37.414696,1.8277373,4.137029
-37.590416,1.7634475,4.1118207
-37.697815,1.7387872,4.1189146
-37.84722,1.6914315,4.1089725
-37.99152,1.6479347,4.102982
-38.132275,1.6073551,4.100164
-38.252895,1.5786247,4.1072645
-38.431957,1.5192258,4.09203
-38.49189,1.5245724,4.1263328
-38.654507,1.475832,4.1209598
-38.86135,1.4050002,4.1004915
-38.998413,1.3718886,4.108817
-39.133347,1.3407099,4.119442
-39.339817,1.2737787,4.105539
-39.537766,1.2125709,4.097107
-39.750107,1.1454453,4.085937
-39.918777,1.1015062,4.092235
-40.151466,1.0269644,4.078865
-40.360085,0.96577764,4.0761557
-40.619507,0.88123727,4.0594006
-40.801964,0.83553004,4.0700665
-41.074413,0.7479017,4.054817
-30.073044,2.2997646,3.0289974
-30.10905,2.4734623,3.2378416
-30.14147,2.47212,3.2361655
-30.174017,2.456161,3.2169824
-30.208313,2.3520834,3.091858
-30.239786,2.4328048,3.1891632
-30.270813,2.4835637,3.250492
-30.301239,2.5267284,3.3027563
-30.331993,2.548881,3.3298178
-30.362219,2.5730257,3.3593478
-30.392874,2.5851088,3.374443
-30.4232,2.5985446,3.3912396
-30.45363,2.6082249,3.4035935
-30.483944,2.6173432,3.4153452
-30.514372,2.623984,3.4241934
-30.544983,2.6281502,3.430142
-30.575111,2.6355822,3.4400887
-30.605194,2.6424522,3.4494324
-30.635338,2.648122,3.457409
-30.665482,2.6532311,3.464786
-30.69564,2.6577792,3.4715624
-30.725498,2.6636765,3.480031
-30.755718,2.6671028,3.4856105
-30.786495,2.6674268,3.4875464
-30.817142,2.6684663,3.490417
-30.847239,2.6721256,3.4965
-30.877132,2.676496,3.50351
-30.907682,2.6777692,3.506886
-30.937,2.6841938,3.5164995
-30.967943,2.6837213,3.5179405
-30.99874,2.6839616,3.5203123
-31.030046,2.6823847,3.5205936
-31.061392,2.6808906,3.5210547
-31.09114,2.6851676,3.5284777
-31.12194,2.6857307,3.5315485
-31.15216,2.688267,3.5370483
-31.18294,2.6889894,3.5404654
-31.214329,2.687903,3.5418096
-31.245747,2.6869,3.543336
-31.276976,2.6866102,3.5457907
-31.307999,2.6870317,3.5491724
-31.339252,2.6869073,3.5519867
-31.36982,2.6887476,3.5572104
-31.40132,2.6881618,3.559641
-31.428923,2.6976752,3.5740995
-31.429543,2.7741625,3.6677756
-31.45031,2.7981024,3.699328
-31.475368,2.8108406,3.7176962
-31.499403,2.8255038,3.7383852
-31.52373,2.83897,3.7577147
-31.549776,2.8481345,3.7720337
-31.570255,2.8691616,3.8003545
-31.596174,2.8778112,3.8141742
-31.623133,2.8840423,3.8252172
-31.647577,2.8952916,3.842206
-31.674288,2.9016483,3.8535218
-31.699018,2.9117744,3.8693094
-31.726765,2.9157908,3.878018
-31.752182,2.9241886,3.8919086
-31.777792,2.932031,3.905211
-31.802603,2.9411616,3.920073
-31.829306,2.9466696,3.9307828
-31.855927,2.952245,3.941637
-31.8807,2.9609437,3.95618
-31.907831,2.9654257,3.9658985
-31.936712,2.9669302,3.9722443
-31.963371,2.972165,3.9829779
-31.987707,2.9811137,3.998062
-32.010757,2.9919372,4.015362
-32.039402,2.9937253,4.0223217
-32.06725,2.9968004,4.03084
-32.093872,3.001762,4.0415974
-32.12042,3.0067916,4.0525026
-32.148113,3.0100842,4.061492
-32.177,3.0116496,4.0685873
-32.209625,3.0079002,4.069709
-32.238537,3.0096364,4.077173
-32.269142,3.0090644,4.082101
-33.257492,1.690341,2.5927205
-33.266083,1.7382472,2.6552663
-33.26897,1.7926323,2.7250743
-33.299206,1.8095872,2.7525854
-33.291008,1.8763013,2.8361735
-33.26328,1.9664974,2.9460025
-33.275337,2.0040088,2.9964952
-33.296623,2.0291395,3.0330968
-33.30229,2.0730705,3.090723
-33.279842,2.1503227,3.1854415
-33.270622,2.2098367,3.2602034
-33.27215,2.2552211,3.31913
-33.292725,2.277252,3.3520947
-33.31144,2.3010464,3.387032
-33.297905,2.36135,3.4622726
-33.276703,2.4290156,3.5454564
-33.279613,2.468232,3.5971785
-33.292282,2.4958763,3.6361456
-33.316586,2.5103045,3.660643
-33.316246,2.551122,3.7139878
-33.303444,2.604429,3.7808418
-33.29082,2.6564531,3.8461475
-33.293144,2.6918497,3.8932896
-33.295425,2.7266173,3.9396834
-33.326,2.7319078,3.9542375
-33.314507,2.779603,4.014476
-33.318596,2.8108454,4.056927
-33.331284,2.8330564,4.0896654
-33.34821,2.8507843,4.117617
-33.33705,2.895333,4.174116
-33.35085,2.9152517,4.204352
-33.401413,2.9001842,4.197586
-33.448685,2.8886333,4.194746
-33.497967,2.875602,4.190546
-33.550495,2.8600042,4.1838646
-33.594807,2.8522987,4.1856613
-33.64232,2.842016,4.1849527
-33.678314,2.8422863,4.1954083
-33.741642,2.8187165,4.1813097
-33.81226,2.7894335,4.161609
-33.854404,2.7853465,4.1681666
-33.914394,2.766297,4.1595535
-33.956192,2.7630916,4.167407
-34.00578,2.7535968,4.1690235
-34.042583,2.7549841,4.181899
-34.093727,2.7447646,4.18318
-34.141777,2.737398,4.187561
-34.21243,2.7122006,4.1742516
-34.282177,2.688356,4.1626415
-34.334923,2.6784844,4.1652927
-34.392563,2.6651444,4.1647415
-34.452465,2.6504638,4.1631317
-34.51876,2.631333,4.157427
-34.57714,2.6187072,4.158422
-34.63574,2.6063123,4.159919
-34.684826,2.60137,4.1689405
-34.751472,2.5837626,4.1659207
-34.81349,2.570014,4.1669493
-34.87928,2.5539644,4.1660724
-34.963814,2.5249615,4.1531477
-35.017365,2.5186195,4.1622167
-35.091873,2.4978418,4.1578746
-35.166718,2.4773788,4.1542144
-35.246254,2.4542243,4.1484175
-35.299126,2.4498816,4.1605887
-35.37999,2.4268398,4.155655
-35.46417,2.402162,4.149641
-35.527958,2.3916683,4.15711
-35.599373,2.3765156,4.1606455
-35.685276,2.352354,4.156366
-35.777576,2.3246617,4.1493654
-35.88772,2.2861972,4.133197
-35.95889,2.2733946,4.1405926
-36.056244,2.2444985,4.1340685
-36.1333,2.2289922,4.1399207
-36.2268,2.2037725,4.1376643
-36.33075,2.1727734,4.1308966
-36.41803,2.1526656,4.134174
-36.516556,2.1263266,4.1325755
-36.58719,2.1173425,4.146402
-36.704506,2.0810382,4.137382
-36.79699,2.0601752,4.142105
-36.948666,2.0053854,4.118911
-37.06436,1.9725488,4.114943
-37.154045,1.9554086,4.124655
-37.26814,1.9249235,4.1239343
-37.392365,1.8894832,4.1198726
-37.50815,1.8595978,4.1210704
-37.61374,1.836103,4.128105
-37.78432,1.7775745,4.107907
-37.901466,1.749371,4.11275
-38.038784,1.7110105,4.1103745
-38.207245,1.6568882,4.096645
-38.301643,1.64324,4.115161
-38.45375,1.5997257,4.1114783
-38.61563,1.552115,4.1056995
-38.715977,1.5374122,4.1256304
-38.880547,1.4902923,4.1221495
-39.0677,1.4327593,4.1121264
-39.295464,1.3559976,4.0894
-39.45014,1.317374,4.095705
-39.630905,1.2667601,4.0945168
-39.831142,1.207727,4.088643
-40.021782,1.1546757,4.0883374
-40.27169,1.0741715,4.0704494
-40.494034,1.0085609,4.064499
-40.722366,0.9415386,4.05919
-40.943645,0.879303,4.0587068
-41.17088,0.81567574,4.058908
-41.469734,0.72026515,4.0401554
-30.075954,2.3711047,3.0685353
-30.111149,2.5119555,3.2396846
-30.143457,2.509992,3.2372403
-30.175903,2.4947731,3.2187572
-30.209707,2.416128,3.123221
-30.241196,2.4817367,3.2031898
-30.272383,2.5213847,3.2516637
-30.302917,2.559203,3.2979841
-30.334158,2.5710647,3.312818
-30.364613,2.5918918,3.338625
-30.394773,2.611524,3.3630495
-30.42525,2.6229806,3.3776102
-30.455395,2.6357815,3.3938756
-30.485497,2.646754,3.407992
-30.515888,2.6533632,3.4168792
-30.546385,2.6581464,3.4236212
-30.576305,2.6668088,3.4351473
-30.606508,2.6723785,3.4429903
-30.636517,2.6786566,3.451765
-30.66671,2.6831112,3.4584002
-30.696299,2.6908054,3.469036
-30.725748,2.6985734,3.4798307
