x,y,z
-27.146465,3.4110837,1.9808183
-27.180014,3.4003718,1.9576793
-27.212023,3.388212,1.9314446
-27.26574,3.3952403,1.946271
-27.331858,3.4139519,1.9861045
-27.37558,3.4129107,1.9836726
-27.403137,3.396959,1.9493365
-27.439194,3.3887877,1.9316525
-27.492647,3.397378,1.9498439
-27.544563,3.4049797,1.9659262
-27.589529,3.4061272,1.9681964
-27.614372,3.3870912,1.9272699
-27.653688,3.3825817,1.9174385
-27.709087,3.395064,1.9439816
-27.760357,3.4037976,1.9625058
-27.79211,3.3917854,1.936624
-27.820566,3.3758864,1.9024239
-27.865158,3.3778768,1.9065218
-27.919939,3.3919182,1.9364243
-27.966099,3.3965878,1.9462681
-28.001387,3.3886292,1.9290767
-28.038788,3.3831556,1.9172091
-28.072735,3.3733706,1.8961124
-28.131813,3.3953855,1.9431076
-28.179646,3.4039264,1.9612579
-28.216217,3.3981047,1.9486566
-28.24335,3.3794496,1.9085779
-28.283514,3.3782406,1.905859
-28.332516,3.3897085,1.9302897
-28.378033,3.3968635,1.9454889
-28.413942,3.3903236,1.9313645
-28.445679,3.3773522,1.9034662
-28.481403,3.3701625,1.8879547
-28.529856,3.3830967,1.9155426
-28.574862,3.3912675,1.9329338
-28.615652,3.3930101,1.9365606
-28.649405,3.3829536,1.9149175
-28.683859,3.3737967,1.8952055
-28.725105,3.3766696,1.9012609
-28.775276,3.3965728,1.9437971
-28.813421,3.3947408,1.9397812
-28.845924,3.3818388,1.9120574
-28.87997,3.3714943,1.8898125
-28.918604,3.3703525,1.8872828
-28.965435,3.3871672,1.9232192
-29.007847,3.3953958,1.9407678
-29.042463,3.3862655,1.9211345
-29.077477,3.3776348,1.9025726
-29.116867,3.3795145,1.906529
-29.15906,3.389015,1.9268141
-29.198927,3.3932023,1.93572
-29.236553,3.3916428,1.9323173
-29.271767,3.383064,1.9138784
-29.308151,3.3775024,1.9019074
-29.345709,3.3753874,1.8973222
-29.391376,3.4006488,1.9513879
-29.427296,3.394127,1.9373665
-29.461918,3.3822305,1.9118333
-29.497814,3.374202,1.8945885
-29.536615,3.3776243,1.9018779
-29.577827,3.3925185,1.9337492
-29.617182,3.4007864,1.951426
-29.65407,3.3977792,1.9449496
-29.689592,3.386852,1.9215074
-29.725899,3.3789666,1.9045825
-29.764061,3.3821456,1.9113684
-29.804287,3.4014702,1.9527464
-29.841898,3.4040089,1.9581633
-29.877895,3.3922794,1.9330139
-29.91465,3.385289,1.9180202
-29.95228,3.3872683,1.9222465
-29.990269,3.3961096,1.9411778
-30.027668,3.3982842,1.945827
-30.065113,3.403938,1.9579344
-30.101871,3.3826218,1.9122586
-30.139345,3.383392,1.9139075
-30.17676,3.3880649,1.9239197
-30.213675,3.4076357,1.9658537
-30.25068,3.4103844,1.9717488
-30.288109,3.4039254,1.9579182
-30.3261,3.3920684,1.9325233
-30.363533,3.391301,1.9308915
-30.400505,3.3957002,1.9403334
-30.435236,3.4192052,1.9907112
-30.473074,3.412806,1.9770217
-30.513187,3.3917298,1.9318871
-30.551435,3.386803,1.9213567
-30.588192,3.3916793,1.9318314
-30.625132,3.3949616,1.9388938
-30.661156,3.402552,1.9551897
-30.701025,3.3912761,1.9310665
-30.740086,3.3851626,1.9180055
-30.77904,3.3804162,1.907877
-30.814579,3.3896492,1.927701
-30.849415,3.4006493,1.9513125
-30.889982,3.3907378,1.9301262
-30.930481,3.382198,1.9118814
-30.969002,3.3808973,1.9091492
-31.005367,3.3864021,1.9209962
-31.039867,3.3970184,1.9437985
-31.074392,3.40688,1.9649849
-31.117609,3.3930109,1.9353366
-31.158165,3.3871987,1.9229517
-31.195883,3.3890038,1.9268866
-31.230434,3.398403,1.9470925
-31.264389,3.4087155,1.9692564
-31.302576,3.4091337,1.9702287
-31.35219,3.3851652,1.9189653
-31.389593,3.3883028,1.9257684
-31.42613,3.3931923,1.936326
-31.459612,3.4039626,1.9594827
-31.497826,3.405311,1.962461
-31.541628,3.3964517,1.9435763
-31.588028,3.3836038,1.9161539
-31.627329,3.384058,1.9172254
-31.65847,3.3985777,1.9484248
-31.695917,3.4020917,1.9560547
-31.738628,3.3971076,1.9454865
-31.785944,3.3853009,1.9203095
-31.82492,3.387105,1.9242868
-31.86174,3.3922715,1.9354672
-31.901236,3.3934655,1.9381428
-31.942175,3.3927379,1.9367051
-31.992138,3.3795655,1.9086218
-32.031956,3.3811123,1.9120636
-32.062794,3.3948765,1.9416671
-32.09789,3.40266,1.958468
-32.14406,3.3960538,1.944459
-32.193665,3.3855772,1.9221668
-32.23556,3.3852718,1.9216557
-32.272274,3.3914788,1.9350905
-32.304527,3.402961,1.9598246
-32.34198,3.4081478,1.9710813
-32.400852,3.3888187,1.9298553
-32.45508,3.3756394,1.9018006
-32.48148,3.3938613,1.9409728
-32.51544,3.403449,1.9616628
-32.562885,3.3985634,1.9513736
-32.62669,3.376956,1.905294
-32.666073,3.3814118,1.9150095
-32.69923,3.39222,1.9383245
-32.736485,3.398819,1.9526324
-32.795918,3.3837657,1.9205995
-32.847813,3.376669,1.9056029
-32.89019,3.3790147,1.910819
-32.920162,3.3930387,1.9410315
-32.96622,3.3921382,1.9393053
-33.030285,3.37529,1.9034581
-33.083298,3.3689885,1.8901863
-33.113007,3.383431,1.9213037
-33.151253,3.390334,1.9362922
-33.20777,3.3818157,1.9182892
-33.263287,3.3746243,1.9031315
-33.302605,3.3811684,1.9173632
-33.33117,3.3964443,1.9502778
-33.388058,3.3889647,1.9345155
-33.454308,3.3746026,1.904037
-33.49899,3.3775706,1.910635
-33.530586,3.3906672,1.9389014
-33.575684,3.3935,1.9452157
-33.640682,3.3817625,1.9203739
-33.707153,3.3695312,1.8944831
-33.736572,3.3845623,1.926899
-33.78311,3.387279,1.9329858
-33.832294,3.388327,1.9355068
-33.919228,3.3635323,1.8827772
-33.944695,3.3815417,1.9215746
-33.980442,3.392417,1.9451213
-34.04079,3.386957,1.9337482
-34.117744,3.3710425,1.9000349
-34.147007,3.3866005,1.9336047
-34.204765,3.3838668,1.9280777
-34.273933,3.3743062,1.9079671
-34.336193,3.3695555,1.8981428
-34.36402,3.3862853,1.9342318
-34.42138,3.3850174,1.9318628
-34.502094,3.370128,1.9003925
-34.561195,3.368631,1.8975472
-34.599876,3.3793302,1.9207668
-34.669308,3.3723998,1.9063258
-34.737305,3.366749,1.8946266
-34.77845,3.3765585,1.9159598
-34.844444,3.3726919,1.9080858
-34.909492,3.3697383,1.9021692
-34.99211,3.3576934,1.8768444
-35.03661,3.3665376,1.8961396
-35.119343,3.3553832,1.8727345
-35.189285,3.3514543,1.864769
-35.210426,3.3729486,1.9110913
-35.267746,3.3759227,1.9178748
-35.332928,3.375214,1.9168043
-35.4498,3.3493242,1.8619924
-35.49016,3.361712,1.888895
-35.53961,3.3697522,1.9065218
-35.609657,3.368132,1.9035411
-35.683296,3.3652015,1.8977714
-35.7444,3.3685052,1.905314
-35.853153,3.3502204,1.866807
-35.894955,3.3630662,1.8947239
-35.957924,3.366482,1.9025311
-36.017544,3.3716562,1.9140959
-36.0598,3.3846514,1.9423485
-48.476746,2.5757577,0.31288767
-48.521175,2.6235871,0.4165454
-48.5372,2.6764736,0.53084517
-48.610672,2.7190654,0.62350607
-48.741108,2.7519698,0.69583464
-48.597824,2.8318796,0.86689234
-48.782032,2.8560026,0.9208212
-49.208233,2.8412776,0.89332485
-49.36949,2.87146,0.9601197
-49.454525,2.9143777,1.0536509
-49.630287,2.9434595,1.1182327
-49.983162,2.9463434,1.1280494
-51.2731,2.8110669,0.84904814
-51.297684,2.8683195,0.9729552
-51.75408,2.8634453,0.96709967
-52.271263,2.8523743,0.9484916
-52.35315,2.9040236,1.0609097
-53.356457,2.8314323,0.9144182
-53.56209,2.8697515,0.99933195
-53.820152,2.9021933,1.0720987
-10.672705,3.095791,1.1296759
-10.726917,3.0474875,1.0249996
-10.932802,3.0224786,0.97156954
-10.92721,2.9654098,0.8475909
-10.805883,2.8896441,0.6825018
-10.826696,2.8359187,0.56589365
-10.853928,2.783103,0.45128298
-19.562504,3.0340662,1.0323086
-20.15382,3.1606574,1.3098111
-20.08233,3.1028657,1.1838803
-19.948061,3.0261285,1.0165153
-20.39509,3.1177657,1.2174602
-20.511448,3.1146865,1.2112012
-20.660778,3.1220644,1.2278018
-20.81437,3.1315718,1.2490487
-21.014748,3.1563487,1.3036723
-21.179619,3.171325,1.3368492
-21.365204,3.193828,1.3864698
-21.621935,3.2402408,1.4883466
-21.768833,3.252865,1.5163374
-21.716324,3.2009935,1.4033308
-21.276573,3.0197766,1.0076017
-21.26574,2.9787235,0.9182706
-21.368769,2.9759755,0.9126611
-22.64422,3.377982,1.7916093
-22.636553,3.3426945,1.7148256
-22.750814,3.3501093,1.7313561
-22.894135,3.368595,1.7720675
-22.915968,3.3439844,1.7186079
-23.080761,3.3716867,1.7794414
-23.096006,3.3449764,1.7213869
-23.250502,3.3704367,1.7773037
-23.329462,3.3682098,1.7727275
-23.410423,3.3671386,1.7706714
-23.416754,3.3373392,1.7058587
-23.567299,3.3642266,1.7648606
-23.648296,3.36438,1.7654638
-23.721155,3.361657,1.7597804
-23.829464,3.373818,1.7865968
-23.87061,3.3588011,1.7540555
-24.002033,3.3817601,1.80444
-24.05141,3.3707714,1.7806883
-24.139103,3.3764062,1.79323
-24.24987,3.3926327,1.8288941
-24.275541,3.372066,1.7842193
-24.383387,3.3880994,1.8194504
-24.46345,3.3923292,1.8289046
-24.485323,3.3703682,1.7811794
-24.593136,3.3880913,1.8200827
-24.681633,3.3975434,1.8409247
-24.691235,3.3700664,1.7811532
-24.811348,3.3954637,1.8367915
-24.879185,3.3963606,1.8389468
-24.891333,3.3701303,1.7818918
-25.00136,3.392506,1.8309193
-25.085743,3.4028032,1.85358
-25.124846,3.3904834,1.826879
-25.2023,3.3980863,1.8436513
-25.263187,3.3975,1.8425498
-25.302948,3.3859746,1.8175745
-25.359373,3.3834567,1.812253
-25.435099,3.3917298,1.8304753
-25.499565,3.3943048,1.8362589
-25.535725,3.3813994,1.8082643
-25.631866,3.402502,1.8544683
-25.674976,3.3939757,1.8360229
-25.71118,3.381508,1.8089771
-25.754505,3.3732128,1.7910337
-25.842514,3.3917048,1.8315248
-25.913937,3.4009376,1.8518138
-25.930428,3.3770008,1.7997403
-26.00369,3.3880143,1.8239093
-26.071505,3.3961782,1.8418565
-26.118698,3.3916788,1.8321791
-26.148546,3.3761115,1.798358
-26.215696,3.384874,1.8176045
-26.299957,3.4055374,1.8628044
-26.329304,3.3900194,1.8290854
-26.34803,3.367083,1.7791858
-26.435822,3.391652,1.8328962
-26.48143,3.3875334,1.8240347
-26.543674,3.3954256,1.8413668
-26.562098,3.3721237,1.7906647
-26.615656,3.3741865,1.795279
-26.685146,3.3884258,1.826446
-26.73523,3.3886926,1.8271394
-26.7737,3.3803322,1.8090172
-26.817959,3.37648,1.800725
-26.876686,3.3841827,1.817627
-26.923515,3.3828454,1.8148136
-26.974821,3.3853598,1.8203983
-27.014208,3.378365,1.8052464
-27.075502,3.3897643,1.8302002
-27.129744,3.395764,1.8433795
-27.174137,3.3936837,1.8389373
-27.208183,3.3826954,1.8150716
-27.255562,3.3834941,1.8169041
-27.309069,3.39012,1.8314395
-27.355267,3.3904653,1.8322792
-27.399311,3.3890457,1.8292704
-27.434473,3.3793516,1.8082204
-27.490368,3.389656,1.8307681
-27.535337,3.3897815,1.8311224
-27.576363,3.3861907,1.8233743
-27.609072,3.3742223,1.79736
-27.64278,3.3630989,1.7731876
-27.704235,3.3811402,1.8125935
-27.753868,3.3873456,1.8261943
-27.795406,3.3851342,1.821445
-27.822578,3.3670223,1.7820339
-27.862923,3.3634393,1.7742934
-27.930676,3.3917499,1.8360739
-27.96626,3.3833427,1.8178129
-28.00201,3.3750207,1.7997379
-28.036318,3.3648107,1.7775459
-28.078089,3.3637815,1.7753639
-28.131557,3.3779373,1.8062816
-28.178465,3.3843222,1.8202577
-28.218563,3.382091,1.815453
-28.250195,3.3684015,1.7856703
-28.29387,3.3711612,1.7917409
-28.340473,3.3784509,1.8076825
-28.379118,3.3746512,1.7994547
-28.41861,3.3721583,1.7940717
-28.452343,3.3609164,1.76962
-28.489157,3.3541844,1.7549968
-28.538118,3.3669233,1.7828083
-28.579313,3.367683,1.7845101
-28.61804,3.3645053,1.7776308
-28.652151,3.3533165,1.7532887
-28.692875,3.3535793,1.7539034
-28.743675,3.372663,1.7955375
-28.78249,3.37032,1.7904711
-28.821114,3.3676705,1.7847357
-28.85713,3.359812,1.7676468
-28.89372,3.352859,1.7525296
-28.93618,3.3582773,1.7643747
-28.981197,3.3699634,1.7898774
-29.024399,3.378499,1.8085122
-29.057308,3.3633313,1.7754879
-29.095612,3.3605723,1.7695065
-29.133793,3.3575003,1.7628407
-29.18004,3.3759534,1.8030839
-29.21845,3.3743346,1.7995839
-29.254173,3.364972,1.7792058
-29.288233,3.3499098,1.746407
-29.328934,3.3547747,1.7570324
-29.37144,3.3663712,1.7823267
-29.412987,3.3760164,1.8033667
-29.452768,3.380388,1.8129144
-29.485537,3.3579085,1.763946
-29.523014,3.3525152,1.7522111
-29.563704,3.3609195,1.7705431
-29.605082,3.3740036,1.7990723
-29.644672,3.380135,1.8124485
-29.680992,3.3693194,1.7888932
-29.718159,3.3619218,1.7727852
-29.756844,3.363359,1.775929
-29.796827,3.3748899,1.8010674
-29.835398,3.3777802,1.807375
-29.873205,3.3745203,1.8002806
-29.910332,3.3630226,1.7752309
-29.94859,3.3620384,1.7730932
-29.987745,3.3753293,1.8020611
-30.026445,3.387471,1.8285236
-30.064045,3.3771937,1.8061304
-30.101963,3.368263,1.7866712
-30.140171,3.3681884,1.78651
-30.178411,3.365293,1.7801995
-30.216236,3.38168,1.8159089
-30.254126,3.3848186,1.8227448
-30.292273,3.381799,1.8161621
-30.330864,3.3738751,1.7988901
-30.368418,3.3810582,1.814537
-30.406431,3.3816686,1.8158598
-30.443386,3.391541,1.837367
-30.481514,3.3902621,1.8345704
-30.52215,3.3720114,1.7947888
-30.562143,3.3613646,1.7715769
-30.599867,3.3658009,1.7812314
-30.63591,3.378648,1.8092155
-30.673195,3.383686,1.820179
-30.714697,3.3688803,1.7879
-30.755396,3.3595874,1.767632
-30.795055,3.3557997,1.7593589
-30.828537,3.3761625,1.8037167
-30.86765,3.3742266,1.799478
-30.906845,3.372394,1.7954631
-30.950827,3.3553588,1.758317
-30.988409,3.3599463,1.768291
-31.026306,3.3633888,1.7757688
-31.059483,3.380132,1.8122311
-31.099012,3.3783958,1.8084207
-31.141623,3.3689399,1.7877865
-31.183727,3.361663,1.7718983
-31.219978,3.3693006,1.7885127
-31.255167,3.379079,1.809792
-31.293377,3.3815572,1.8151612
-31.335312,3.375943,1.8028917
-31.379972,3.3651268,1.779285
-31.417807,3.3691542,1.7880259
-31.451658,3.3810318,1.8138747
-31.486479,3.3905387,1.8345575
-31.530216,3.3830328,1.8181581
-31.576239,3.3719962,1.7940631
-31.621948,3.3623161,1.7729254
-31.657154,3.3714168,1.7927165
-31.690216,3.3838372,1.8197412
-31.73337,3.3793588,1.809936
-31.785078,3.3616939,1.771388
-31.826729,3.3607094,1.7691936
-31.86343,3.36748,1.7839012
-31.893753,3.3835719,1.8189235
-31.932817,3.3865,1.8252525
-31.98007,3.3779316,1.8065248
-32.025043,3.3731022,1.7959442
-32.064034,3.3767745,1.8038926
-32.10329,3.3801515,1.8111959
-32.14589,3.379266,1.8092074
-32.196087,3.3689957,1.7867603
-32.241573,3.3652108,1.7784486
-32.27882,3.3718185,1.792789
-32.313316,3.3816679,1.8141952
-32.355656,3.38217,1.8152237
-32.411377,3.3675072,1.7831945
-32.457546,3.3643744,1.7762961
-32.494015,3.372304,1.7935119
-32.525314,3.385772,1.8227997
-32.57088,3.383771,1.8183641
-32.640278,3.3571162,1.7601838
-32.677113,3.365111,1.7775359
-32.70694,3.3801332,1.8102074
-32.75229,3.3794491,1.8086367
-32.804436,3.372382,1.793149
-32.861267,3.3612792,1.7688613
-32.89227,3.3751607,1.7990408
-32.933205,3.3795946,1.8086224
-32.984077,3.3750384,1.7986016
-33.04487,3.361948,1.7699714
-33.08995,3.3634024,1.7730522
-33.127327,3.371759,1.7911797
-33.17288,3.373086,1.7939782
-33.22293,3.3708115,1.7889233
-33.283928,3.3597543,1.7647152
-33.32358,3.3667428,1.7798548
-33.358555,3.3775399,1.8032956
-33.413784,3.3721776,1.7915006
-33.47775,3.3603797,1.7656684
-33.51841,3.3671472,1.7803187
-33.547935,3.382431,1.8135386
-33.606316,3.3759153,1.7992187
-33.669445,3.366336,1.7782149
-33.720062,3.3663874,1.7782125
-33.740673,3.3882248,1.8257203
-33.80291,3.3802638,1.8082399
-33.852695,3.3814716,1.8107524
-33.9316,3.3628752,1.7700706
-33.95728,3.3811657,1.8098373
-34.028557,3.3687108,1.7825437
-34.07632,3.372384,1.7904258
-34.148376,3.3604083,1.7641716
-34.180668,3.3745785,1.7949448
-34.22478,3.381155,1.809154
-34.31376,3.3597686,1.7623634
-34.36715,3.3611932,1.7653275
-34.394123,3.3789585,1.803937
-34.460037,3.3731325,1.7910814
-34.536633,3.3614101,1.765358
-34.58127,3.3689973,1.7817588
-34.63462,3.3716452,1.7873802
-34.69042,3.3731236,1.7904477
-34.748722,3.3734505,1.7910008
-34.791,3.3829834,1.8116374
-34.855537,3.3803544,1.8057356
-34.981255,3.344924,1.7282567
-35.013615,3.3606772,1.7624578
-35.07417,3.3614457,1.7639594
-35.159832,3.3494031,1.7375011
-35.203926,3.3594115,1.7591591
-35.24348,3.371804,1.7860184
-35.314762,3.368264,1.7781043
-35.38313,3.3665876,1.7742553
-35.466633,3.3578646,1.755022
-35.507553,3.370314,1.7819948
-35.585087,3.3652859,1.7708192
-35.680824,3.3521242,1.7418838
-35.73387,3.3595521,1.7578869
-35.78959,3.3659177,1.7715693
-35.900013,3.347585,1.7313309
-35.920124,3.3706594,1.7814837
-36.003395,3.3654897,1.7699718
-36.038147,3.3820908,1.8059893
-36.14055,3.3693526,1.7779427
-48.5607,2.737577,0.35613775
-48.59707,2.786859,0.4630456
-48.69841,2.8250809,0.5456457
-48.76407,2.8695667,0.6420026
-48.829117,2.9142697,0.73883057
-49.04463,2.9349666,0.78286505
-49.360245,2.9409132,0.7944293
-49.41783,2.988312,0.8971338
-50.02594,2.952354,0.8164158
-50.523846,2.9360595,0.7788763
-51.137108,2.9055762,0.7100196
-51.272835,2.9466033,0.7985339
-52.129883,2.8871574,0.6657119
-52.258682,2.9322448,0.76306486
-53.297096,2.8556302,0.5921612
-54.26619,2.7937646,0.45358372
-54.333847,2.8530974,0.58212566
-7.5711746,2.9057758,0.35527802
-10.678852,3.1027153,0.8417764
-10.743961,3.0558214,0.7405238
-10.782629,3.0050101,0.6302228
-10.799702,2.9508002,0.51209164
-10.765612,2.8883004,0.37491417
-19.528233,3.097917,0.984725
-19.545273,3.0634165,0.9093094
-19.567884,3.0302672,0.83693695
-19.644514,3.012143,0.7983885
-20.41874,3.1930058,1.2076092
-20.539055,3.1906428,1.2043262
-20.68583,3.196625,1.219769
-20.781136,3.188164,1.2026892
-20.8731,3.1791184,1.1842656
-20.992987,3.1789641,1.1857905
-21.058311,3.162611,1.1508904
-21.119797,3.145247,1.1137013
-21.205128,3.135582,1.093782
-21.268387,3.1191967,1.0587544
-21.78449,3.249974,1.353899
-21.764107,3.2083201,1.2620726
-21.692001,3.1489277,1.1304808
-21.580536,3.0752912,0.9669905
-21.670204,3.06903,0.9545655
-22.635695,3.3661292,1.621902
-22.657524,3.3407588,1.5664539
-22.81259,3.3624997,1.6165257
-22.896168,3.3595974,1.6113644
-22.982525,3.3581097,1.6093459
-23.101294,3.368993,1.634994
-23.133097,3.3481767,1.5896683
-23.265789,3.3653965,1.6294384
-23.363384,3.37008,1.6411271
-23.412683,3.356623,1.6122184
-23.48159,3.3509536,1.6007123
-23.604893,3.3671703,1.6381149
-23.633362,3.3461037,1.5921516
-23.789719,3.3769765,1.662252
-23.830124,3.3612623,1.6282187
-23.933022,3.3716354,1.6524544
-24.031183,3.3806746,1.6736822
-24.05974,3.3605678,1.6297998
-24.198486,3.3880696,1.6922073
-24.246145,3.376712,1.6678329
-24.311523,3.3733203,1.6612258
-24.398975,3.3801465,1.6774063
-24.447895,3.3699806,1.6556525
-24.550657,3.3847468,1.6895084
-24.623087,3.3860965,1.6934123
-24.653362,3.3679218,1.6537576
-24.747005,3.3799708,1.6814914
-24.848457,3.396464,1.719111
-24.882586,3.3806894,1.6847744
-24.95131,3.3820524,1.6886315
-25.050707,3.399231,1.7277174
-25.089258,3.386176,1.6994119
-25.149132,3.3841279,1.6956224
-25.221199,3.388735,1.7066474
-25.29599,3.395233,1.7218661
-25.30848,3.3688107,1.6637535
-25.411884,3.3914175,1.7148209
-25.48874,3.4003232,1.7353573
-25.505917,3.3765085,1.6830316
-25.605259,3.398786,1.7333083
-25.648428,3.3898218,1.714026
-25.706696,3.389682,1.7143741
-25.743618,3.3773043,1.68748
-25.827818,3.3930395,1.7231302
-25.897316,3.40063,1.7406421
-25.925747,3.3836222,1.7034206
-26.004753,3.3977766,1.7355089
-26.059107,3.3971298,1.734663
-26.107899,3.3932168,1.726543
-26.136257,3.3763022,1.6895056
-26.200035,3.3823698,1.7035613
-26.263998,3.3890135,1.7188864
-26.317188,3.3888824,1.7191381
-26.343414,3.3706455,1.6791377
-26.409847,3.3799667,1.7003837
-26.48444,3.3955495,1.7355309
-26.52643,3.3886669,1.7207422
-26.547216,3.366563,1.6721263
-26.619886,3.3820553,1.7070394
-26.689047,3.395665,1.7377548
-26.735653,3.3929486,1.7321911
-26.760447,3.3737345,1.6899762
-26.81701,3.3788638,1.7018256
-26.890852,3.3980198,1.7448158
-26.9343,3.3937118,1.7356863
-26.966469,3.3803673,1.7064843
-27.028776,3.3917186,1.7321119
-27.081375,3.3955462,1.741025
-27.137213,3.4025042,1.7568779
-27.173409,3.3929563,1.7360806
-27.214008,3.3872168,1.7237315
-27.269714,3.3950205,1.741437
-27.315996,3.394778,1.7412753
-27.358917,3.3916721,1.7347536
-27.392189,3.3796573,1.7084532
-27.438372,3.3797894,1.7091031
-27.500435,3.3955705,1.7444706
-27.549234,3.3990533,1.7525387
-27.583435,3.3882356,1.7288737
-27.60592,3.365294,1.678308
-27.647726,3.361864,1.6710243
-27.723526,3.394567,1.743886
-27.761593,3.3879967,1.7296205
-27.79801,3.379598,1.7112961
-27.826664,3.362413,1.6734796
-27.8659,3.3568788,1.6615009
-27.931837,3.3824577,1.718512
-27.974354,3.3814688,1.7165976
-28.008781,3.3708658,1.6933603
-28.043125,3.3599513,1.6694269
-28.089787,3.3643603,1.6794658
-28.142916,3.3775272,1.7089143
-28.189316,3.3826237,1.7204623
-28.22351,3.3717356,1.696568
-28.25681,3.3593488,1.6693468
-28.302456,3.364007,1.6799068
-28.357218,3.382244,1.7205606
-28.39928,3.382836,1.7220931
-28.432066,3.3696573,1.6930966
-28.46723,3.3597274,1.671299
-28.51516,3.3697853,1.6937971
-28.560764,3.3767996,1.7095418
-28.60323,3.3791559,1.7149568
-28.636248,3.3656304,1.6851707
-28.675055,3.3617902,1.6768446
-28.715906,3.3616602,1.6767354
-28.767235,3.3813245,1.7204838
-28.806221,3.3786256,1.7146697
-28.846249,3.3780415,1.7135372
-28.877575,3.3598177,1.6733165
-28.921804,3.3679047,1.6913867
-28.96722,3.3793528,1.7168984
-29.006168,3.3771722,1.7122092
-29.047726,3.3811707,1.7212048
-29.07678,3.355266,1.6639452
-29.116045,3.35337,1.659873
-29.165377,3.377997,1.7145524
-29.206207,3.3816195,1.7226939
-29.244896,3.3796506,1.7184453
-29.279924,3.3667767,1.6900334
-29.316996,3.3592877,1.6735463
-29.359102,3.3678114,1.6925263
-29.400803,3.3760433,1.710854
-29.442677,3.386025,1.7330513
-29.476698,3.3670726,1.691154
-29.515053,3.3637543,1.6838827
-29.556576,3.3740525,1.7067671
-29.596539,3.378726,1.7171879
-29.635769,3.3806343,1.7214785
-29.67326,3.3736176,1.7059965
-29.711565,3.3703897,1.6989026
-29.749441,3.363974,1.6847429
-29.790745,3.381071,1.7226558
-29.829996,3.3859506,1.7335038
-29.868324,3.3839445,1.7290964
-29.905811,3.372579,1.7039552
-29.943205,3.3559608,1.6671767
-29.98314,3.3715227,1.7016644
-30.022425,3.3834865,1.7281799
-30.060835,3.3807395,1.7221084
-30.099155,3.369449,1.6971116
-30.13787,3.3718376,1.7024055
-30.176521,3.3735018,1.7060905
-30.214828,3.3867872,1.7355089
-30.253122,3.3907068,1.7441797
-30.291348,3.3939006,1.7512388
-30.330347,3.384852,1.7311797
-30.36927,3.380019,1.7204509
-30.40699,3.388855,1.7399921
-30.445353,3.389976,1.7424417
-30.483904,3.3895514,1.7414637
-30.524384,3.376082,1.7115884
-30.564095,3.3701134,1.6983223
-30.602781,3.3712273,1.700737
-30.639505,3.3826962,1.7260828
-30.676996,3.3889241,1.7398162
-30.719543,3.3714767,1.7011051
-30.762728,3.3537397,1.6617479
-30.801247,3.3570015,1.6688962
-30.8346,3.379587,1.718843
-30.873257,3.3809865,1.7218595
-30.915516,3.3702326,1.6979485
-30.96015,3.353067,1.6598287
-31.000679,3.3503056,1.6536112
-31.029387,3.3826938,1.7252536
-31.0702,3.3784895,1.7158308
-31.106342,3.3874109,1.7354808
-31.151989,3.3712273,1.6995101
-31.192286,3.369793,1.696209
-31.23351,3.3664396,1.6886501
-31.266642,3.3822343,1.7235103
-31.302969,3.3900087,1.7405953
-31.349031,3.3764524,1.7104173
-31.39477,3.364649,1.6841173
-31.431541,3.3719294,1.7000928
-31.462807,3.3897655,1.7394557
-31.502886,3.389972,1.7397499
-31.55583,3.3665974,1.6877851
-31.598808,3.3626418,1.6788449
-31.634623,3.37162,1.6985588
-31.667404,3.3854785,1.7290869
-31.707546,3.3866334,1.7314568
-31.758835,3.3699622,1.694314
-31.80081,3.368974,1.6919212
-31.840548,3.371677,1.6977057
-31.871529,3.3875713,1.7327228
-31.911577,3.3896697,1.7371573
-31.964361,3.3736978,1.7015309
-32.009212,3.3697324,1.6925116
-32.049923,3.3718038,1.6968694
-32.081226,3.38656,1.7293415
-32.124474,3.385297,1.7262969
-32.17579,3.3739817,1.7009573
-32.225025,3.3659556,1.6829047
-32.263462,3.371728,1.6954389
-32.29695,3.383433,1.7211232
-32.335773,3.3886116,1.7323327
-32.39262,3.3729768,1.6973796
-32.43536,3.3741522,1.6996994
-32.486126,3.366581,1.682612
-32.512894,3.385712,1.7247434
-32.552788,3.3902993,1.7346115
-32.614834,3.3716407,1.6929111
-32.663486,3.3677146,1.6838813
-32.697342,3.3791752,1.7089791
-32.743523,3.3781724,1.7064214
-32.790997,3.3761714,1.7016411
-32.858242,3.355418,1.6552453
-32.89159,3.3677049,1.6821537
-32.92428,3.3804386,1.7100501
-32.978374,3.373373,1.6940022
-33.038597,3.361254,1.666729
-33.093826,3.3541908,1.6506672
-33.12085,3.3722117,1.6902766
-33.164703,3.3754492,1.6970668
-33.214695,3.373642,1.6926489
-33.26397,3.372728,1.690208
-33.319218,3.3671958,1.6775041
-33.355255,3.3775861,1.7001467
-33.400745,3.3804004,1.7059608
-33.474133,3.361532,1.6636124
-33.51721,3.3668618,1.6749973
-33.543148,3.3853183,1.7155304
-33.59846,3.3814883,1.7065554
-33.64722,3.382866,1.7091398
-33.713264,3.3718834,1.6842542
-33.74948,3.382871,1.7081742
-33.808098,3.3779728,1.6967874
-33.875114,3.3676195,1.6732664
-33.94002,3.359274,1.6541929
-33.965458,3.3781893,1.695704
-34.00669,3.386296,1.7131848
-34.086914,3.3687396,1.6736045
-34.142212,3.3681507,1.6717339
-34.17829,3.3801877,1.6979284
-34.23102,3.381641,1.7005796
-34.307472,3.368526,1.6708221
-34.361202,3.370043,1.6735935
-34.404987,3.3778553,1.6903601
-34.470142,3.3729308,1.678781
-34.549843,3.3598158,1.6489658
-34.59392,3.3681526,1.6668692
-34.643143,3.373609,1.6783543
-34.71399,3.3669133,1.6627827
-34.78521,3.3604827,1.6477852
-34.822342,3.3734329,1.6759214
-34.91139,3.3579357,1.6407108
-34.97632,3.356183,1.636086
-35.010433,3.3712356,1.6688757
-35.10505,3.354351,1.6305223
-35.184273,3.34622,1.6116471
-35.21656,3.3627288,1.6476526
-35.28687,3.3598714,1.6404982
-35.34227,3.3648815,1.6508632
-35.43216,3.3530505,1.6236768
-35.502693,3.3513055,1.6189542
-35.53854,3.3666708,1.6523657
-35.62041,3.3600857,1.6368227
-35.71254,3.3491929,1.6116519
-35.724564,3.3761237,1.6708288
-35.819866,3.3645515,1.6441092
-35.913055,3.3545854,1.6209478
-35.96223,3.3649185,1.643064
-36.02423,3.3697023,1.6527843
-36.082893,3.3761961,1.6663089
-48.621212,2.8341603,0.27287722
-48.680878,2.8796923,0.37134743
-48.721397,2.9284332,0.47716045
-49.046947,2.9313867,0.47779417
-49.05043,2.9867501,0.5987129
-49.608643,2.9560907,0.52169466
-49.863914,2.9744005,0.5570998
-50.545605,2.9304962,0.4488926
-51.063282,2.914221,0.4039812
-51.239807,2.949459,0.47773838
-52.12709,2.8858712,0.32276964
-52.224365,2.935536,0.42943573
-53.13067,2.8767743,0.28462458
-53.83093,2.8500159,0.21341848
-54.310463,2.8553739,0.21633244
-10.621183,3.0955105,0.51823807
-10.68429,3.0478957,0.41560888
-19.595795,3.1081445,0.8201833
-19.673138,3.0901022,0.782413
-19.777605,3.0798557,0.7626624
-20.525806,3.2515535,1.1640611
-20.671827,3.2565534,1.1792226
-20.759123,3.2453513,1.1568246
-20.894619,3.2486506,1.1678929
-20.998398,3.2432518,1.1587863
-21.060516,3.225791,1.1217723
-21.112484,3.2053936,1.0779519
-21.16312,3.1846652,1.0333471
-21.204597,3.1611328,0.98225784
-21.23626,3.1344767,0.9239564
-21.282375,3.1123765,0.8761406
-21.43253,3.1242025,0.9064059
-21.606592,3.1448212,0.9568143
-21.70303,3.1405997,0.94999075
-21.810677,3.140634,0.9529004
-21.911144,3.1387682,0.9513874
-22.644184,3.3571777,1.4557867
-22.657394,3.3284369,1.3922563
-22.689835,3.3063097,1.3439088
-22.35976,3.1532745,0.99522686
-22.411194,3.1362772,0.958745
-23.043274,3.334289,1.4151382
-23.181545,3.352728,1.4596395
-23.318226,3.3714962,1.5048223
-23.389854,3.3661895,1.494801
-23.412615,3.3421702,1.4419141
-23.499256,3.3431675,1.44627
-23.598341,3.3495955,1.4630089
-23.682169,3.3504531,1.4669604
-23.81817,3.373115,1.52072
-23.916363,3.3810997,1.5408669
-24.00438,3.3854263,1.5526114
-24.06112,3.3769765,1.5351343
-24.15878,3.3863246,1.5582709
-24.215935,3.3786545,1.5425181
-24.28721,3.377412,1.5414109
-24.367636,3.3806152,1.5504155
-24.44905,3.38473,1.5614638
-24.50835,3.379193,1.5504704
-24.593763,3.3860095,1.5676126
-24.665741,3.3870535,1.5715642
-24.711653,3.3760817,1.5481129
-24.80507,3.3880928,1.5769892
-24.876282,3.389927,1.5826554
-24.896738,3.3670645,1.5320721
-25.022884,3.3968983,1.6014152
-25.084517,3.3951216,1.5987778
-25.100365,3.370115,1.5432763
-25.214043,3.3957171,1.6028714
-25.279392,3.3968422,1.6067615
-25.320425,3.3853405,1.5819249
-25.389673,3.3891332,1.5918365
-25.468084,3.398374,1.6141
-25.506676,3.386067,1.5873818
-25.566414,3.3856516,1.5876617
-25.65368,3.4012387,1.62426
-25.70767,3.3983295,1.6188302
-25.735474,3.380323,1.5791125
-25.815361,3.3930404,1.6091175
-25.884098,3.399704,1.6253533
-25.917685,3.3854277,1.5940633
-25.963562,3.3786554,1.5797834
-26.050636,3.3977947,1.6242518
-26.112818,3.401954,1.6347222
-26.127953,3.3762422,1.5774555
-26.196842,3.3851814,1.5987267
-26.260086,3.390926,1.6127348
-26.320415,3.395165,1.6233096
-26.346779,3.3766916,1.5824118
-26.4089,3.3826547,1.5968604
-26.474184,3.391285,1.6173282
-26.530155,3.3938286,1.62399
-26.54286,3.3655457,1.5608449
-26.60949,3.3761325,1.5856891
-26.679955,3.3901532,1.6182828
-26.73377,3.3923266,1.6240411
-26.74343,3.3610852,1.5541773
-26.80612,3.3703084,1.5758629
-26.889854,3.396658,1.6362681
-26.93746,3.3951874,1.6337194
-26.959574,3.3732243,1.5848174
-27.013039,3.376697,1.5934286
-27.079744,3.391637,1.6279469
-27.131708,3.3947597,1.6357293
-27.171167,3.3874197,1.6198487
-27.205713,3.3757715,1.5942221
-27.26235,3.3837388,1.6129146
-27.316187,3.3896778,1.627006
-27.36732,3.3935673,1.6364527
-27.401999,3.3823776,1.6118193
-27.440805,3.3749928,1.5957751
-27.495865,3.3834062,1.6153998
-27.544127,3.3856297,1.6210303
-27.59333,3.3891275,1.6295257
-27.619919,3.3698008,1.5864749
-27.662178,3.3663707,1.5793071
-27.726143,3.3861456,1.6245127
-27.772606,3.3879354,1.6291013
-27.801353,3.370466,1.5902128
-27.842726,3.3667684,1.5823979
-27.892101,3.3723512,1.5955157
-27.944485,3.381916,1.6176038
-27.984924,3.3778336,1.6088867
-28.020353,3.3677053,1.5865216
-28.069004,3.3738441,1.6008444
-28.118595,3.381676,1.6189723
-28.16906,3.3912091,1.6409249
-28.207472,3.3853934,1.6282473
-28.24026,3.3719058,1.5982623
-28.284307,3.373664,1.6026483
-28.33618,3.3868544,1.6327991
-28.375229,3.3822432,1.6228018
-28.414085,3.3773415,1.6121397
-28.447115,3.3635247,1.5813727
-28.487513,3.3607693,1.5755339
-28.539427,3.3766012,1.6115818
-28.586735,3.3859024,1.632896
-28.621593,3.3748353,1.608293
-28.660805,3.370958,1.5998864
-28.701841,3.3703463,1.5988302
-28.75014,3.3833137,1.6283636
-28.791513,3.3841302,1.6305051
-28.826721,3.373142,1.6060395
-28.863585,3.365019,1.5880222
-28.904266,3.3645513,1.587245
-28.951563,3.3785458,1.6190381
-28.99231,3.379109,1.620563
-29.031954,3.3773832,1.6169229
-29.06727,3.3653584,1.5900736
-29.107082,3.363828,1.5868573
-29.153234,3.3788383,1.6208873
-29.195326,3.384353,1.6335196
-29.234934,3.383556,1.631927
-29.271524,3.3740187,1.6106396
-29.311235,3.3734205,1.6094785
-29.351425,3.3745372,1.6121697
-29.394382,3.3854313,1.6368704
-29.433058,3.38233,1.630044
-29.470633,3.3748877,1.6134353
-29.509,3.3699615,1.6024837
-29.549742,3.3748298,1.6135798
-29.591097,3.383446,1.6331053
-29.630783,3.3852959,1.6373868
-29.670465,3.3876545,1.6428037
-29.705416,3.3629863,1.5873609
-29.746523,3.3732376,1.6105328
-29.7881,3.3892715,1.6467147
-29.827497,3.3920403,1.6530213
-29.866707,3.3940997,1.6577234
-29.903524,3.371924,1.6078529
-29.942982,3.3745866,1.6138959
-29.982561,3.3805976,1.6274695
-30.02201,3.3879285,1.6440063
-30.06109,3.3913026,1.6516252
-30.099697,3.3761048,1.6174245
-30.138826,3.3756196,1.6163397
-30.177942,3.3776717,1.6209564
-30.216734,3.3899708,1.6486359
-30.255636,3.390598,1.6500301
-30.295067,3.3815854,1.6297126
-30.334631,3.3747048,1.6141863
-30.373568,3.3776634,1.6208043
-30.411272,3.3920784,1.6532054
-30.449165,3.401315,1.6739402
-30.48871,3.3960528,1.6620255
-30.530567,3.376308,1.6174936
-30.570345,3.3732862,1.6106038
-30.607718,3.3845387,1.6358452
-30.646948,3.3845506,1.6357698
-30.688128,3.3753617,1.6149697
-30.729155,3.3683066,1.5989637
-30.770128,3.3625731,1.5859251
-30.807615,3.371485,1.6058545
-30.847134,3.372014,1.6069016
-30.885288,3.3774848,1.6190662
-30.927166,3.3701582,1.6024051
-30.969166,3.3633497,1.5868998
-31.00782,3.3675165,1.5961032
-31.044714,3.3766034,1.6163793
-31.082092,3.3837712,1.6323252
-31.124422,3.3773918,1.6177502
-31.171066,3.3607106,1.5799632
-31.206837,3.3721921,1.6055999
-31.241117,3.3865557,1.6377206
-31.280613,3.3882115,1.6412091
-31.320463,3.389172,1.6431236
-31.370255,3.3691154,1.5976787
-31.411808,3.3675249,1.5938258
-31.44768,3.377576,1.6161923
-31.485556,3.3833432,1.6288996
-31.524366,3.3872223,1.6373425
-31.571154,3.376551,1.6129904
-31.61296,3.3755088,1.6103258
-31.65004,3.3828716,1.6265941
-31.689777,3.3855941,1.6323957
-31.731665,3.384878,1.6304383
-31.783274,3.3689525,1.5941877
-31.82733,3.365747,1.5865955
-31.858854,3.3818572,1.6225371
-31.89791,3.3862987,1.6321678
-31.936897,3.3908405,1.6420155
-31.99768,3.3647063,1.582685
-32.038696,3.3671715,1.5878282
-32.072784,3.3790622,1.6142159
-32.113064,3.3825042,1.6215439
-32.152718,3.3868253,1.6308465
-32.20854,3.3708014,1.5942469
-32.258694,3.3626657,1.5754256
-32.289474,3.3785095,1.6106896
-32.320827,3.3932595,1.6434803
-32.37356,3.3828204,1.6194286
-32.426697,3.3725529,1.5957489
-32.474434,3.368933,1.5870562
-32.507122,3.382176,1.6164112
-32.549015,3.3852513,1.6228085
-32.604164,3.3744497,1.5978699
-32.659008,3.3645864,1.5750332
-32.69392,3.3756,1.5993171
-32.738735,3.3765576,1.6008883
-32.77905,3.3821378,1.6128855
-32.848297,3.3598218,1.5618672
-32.89008,3.3645725,1.5719652
-32.92586,3.3750067,1.594892
-32.96668,3.3807094,1.6071215
-33.02094,3.3743348,1.5920515
-33.071358,3.3718212,1.5856905
-33.11188,3.3782778,1.5995874
-33.156162,3.3815472,1.6062713
-33.20693,3.3794692,1.6008534
-33.271427,3.3662722,1.5702834
-33.320076,3.3667274,1.5705624
-33.356747,3.377094,1.5932407
-33.396854,3.3846648,1.6095872
-33.46164,3.3729415,1.5822802
-33.512054,3.3729093,1.5813994
-33.55086,3.3819568,1.601049
-33.599506,3.3836336,1.604011
-33.65977,3.376955,1.5880451
-33.71503,3.3743706,1.5813274
-33.746437,3.3892128,1.6140485
-33.805347,3.3844798,1.6024356
-33.86555,3.379251,1.5896807
-33.939247,3.3651814,1.556881
-33.964836,3.3843327,1.5993147
-34.008633,3.391077,1.6136351
-34.104156,3.3638816,1.5510254
-34.145725,3.372723,1.5700598
-34.19252,3.378263,1.5815988
-34.25277,3.3754423,1.5741658
-34.31327,3.3728306,1.5671878
-34.361942,3.3778472,1.5774913
-34.41451,3.3806634,1.5827861
-34.493435,3.3679335,1.5527892
-34.576305,3.353512,1.5189219
-34.590343,3.3798532,1.5775533
-34.677265,3.363926,1.5402184
-34.735886,3.3647704,1.5409355
-34.795834,3.3651612,1.5406008
-34.842403,3.373245,1.557723
-34.938828,3.354252,1.5133033
-34.99108,3.359838,1.5247059
-35.050613,3.3617406,1.5277157
-35.135242,3.3507535,1.5013971
-35.190334,3.3556716,1.5112162
-35.220734,3.3734183,1.5502009
-35.298798,3.3669956,1.5341821
-35.36219,3.3683844,1.5359106
-35.468784,3.348825,1.4899249
-35.514973,3.3594475,1.512619
-35.554626,3.3732855,1.5426216
-35.678196,3.3473895,1.4820871
-35.712837,3.3640854,1.5185561
-35.784607,3.3635812,1.5158086
-35.89826,3.3443565,1.4703469
-35.931526,3.3621771,1.5093217
-35.987938,3.3696365,1.524651
-36.040985,3.3787649,1.5437684
-48.98638,2.9986894,0.32737684
-49.284737,3.0083039,0.3390751
-2.138361,3.493751,0.7144475
-2.6944141,3.4683409,0.6844835
-2.9601574,3.4185479,0.5874014
-19.651966,3.1503267,0.7366476
-19.740974,3.1354177,0.70688725
-20.116028,3.1996634,0.86542225
-20.049648,3.143113,0.73635006
-20.120323,3.124533,0.6975851
-20.602846,3.2243593,0.9398675
-20.685541,3.2112892,0.91385794
-21.026382,3.2746377,1.0689268
-21.103893,3.2616715,1.0429034
-21.163263,3.2434974,1.0044975
-21.210243,3.2216632,0.95739365
-21.273941,3.2050633,0.92263746
-21.294212,3.1749587,0.8559413
-21.476038,3.1962237,0.91050386
-21.636784,3.2118354,0.9515724
-21.743795,3.2108436,0.9533639
-21.839802,3.206748,0.947762
-21.937088,3.2035444,0.9441891
-22.023556,3.1971333,0.9329963
-22.632732,3.3714058,1.3466668
-22.630997,3.3372822,1.2699728
-22.3436,3.2016854,0.95493174
-22.40989,3.1898787,0.93080616
-22.55032,3.2052064,0.97030973
-22.62136,3.1959257,0.9519925
-22.699617,3.189601,0.9405589
-23.294771,3.3785815,1.386642
-23.356813,3.3692324,1.367796
-23.406742,3.3554103,1.3384457
-23.340664,3.2962317,1.2029634
-23.3395,3.2617488,1.1252995
-23.43076,3.2639787,1.133461
-23.567535,3.2852416,1.1860218
-23.641197,3.2814753,1.1800413
-23.73254,3.2854276,1.1920304
-23.823479,3.289741,1.204803
-23.976997,3.3213801,1.2812405
-24.094276,3.3385315,1.3237953
-24.137926,3.3241954,1.2929025
-24.20831,3.3217838,1.2897639
-24.271263,3.3163633,1.2795792
-24.35442,3.3204138,1.2914014
-24.420958,3.3172808,1.2864609
-24.485413,3.3134782,1.2799263
-24.556786,3.3132389,1.28164
-24.625387,3.3120396,1.2810822
-24.689371,3.308939,1.2760701
-24.7576,3.3082194,1.2765536
-24.832457,3.3111553,1.2854834
-24.897747,3.3096948,1.2841692
-24.962858,3.3084633,1.2833524
-25.030212,3.3087196,1.2859502
-25.089516,3.305104,1.2795362
-25.151701,3.3032763,1.277236
-25.21669,3.3032587,1.2790976
-25.270313,3.297372,1.2673321
-25.354185,3.3084178,1.2947488
-25.410381,3.3045666,1.2876344
-25.469358,3.302525,1.2846804
-25.519125,3.2954516,1.2700567
-25.611628,3.313475,1.313456
-25.665506,3.3094473,1.3058167
-25.727047,3.3102267,1.3092642
-25.787827,3.310884,1.3123994
-25.850025,3.3127499,1.3182969
-25.913057,3.3154995,1.3262072
-25.973167,3.3167844,1.3307033
-26.034115,3.318949,1.3372011
-26.10211,3.3260717,1.3551149
-26.158371,3.3259432,1.3562613
-26.215487,3.3266826,1.3593845
-26.27292,3.3279538,1.363708
-26.331648,3.3304496,1.3708296
-26.392609,3.3348713,1.3823638
-26.453274,3.3395014,1.3943505
-26.51364,3.3443384,1.406786
-26.573223,3.3490317,1.4188623
-26.630146,3.3521724,1.4273338
-26.68916,3.3572624,1.4402695
-26.745562,3.360785,1.4495697
-26.807644,3.3691015,1.469882
-26.858503,3.3690987,1.4710155
-26.912788,3.372108,1.4790611
-26.963324,3.3724303,1.4809003
-27.010237,3.370037,1.476471
-27.061811,3.371744,1.4814544
-27.112356,3.3728902,1.485127
-27.161066,3.372744,1.4858074
-27.206766,3.3702013,1.4809608
-27.255676,3.370707,1.4831014
-27.302843,3.369899,1.4822049
-27.355453,3.3743618,1.4934015
-27.402739,3.3742144,1.4939837
-27.443382,3.3679423,1.4804802
-27.49546,3.3728616,1.4926662
-27.539444,3.3701665,1.4873447
-27.583403,3.3675945,1.4822903
-27.629139,3.3670077,1.4817786
-27.67123,3.36282,1.4729843
-27.725245,3.3714685,1.4936357
-27.76891,3.3694143,1.4897046
-27.819305,3.375001,1.5032887
-27.862112,3.3724537,1.4981937
-27.906862,3.37229,1.4985523
-27.96212,3.384744,1.5278339
-27.99956,3.3765173,1.509665
-28.043972,3.3767433,1.5108685
-28.08677,3.3751917,1.5079784
-28.133995,3.3794818,1.5184679
-28.175455,3.3766465,1.5126057
-28.221785,3.3804364,1.5219145
-28.262873,3.3774512,1.5156803
-28.303698,3.3741913,1.5088015
-28.357428,3.3895333,1.5445366
-28.400373,3.3899953,1.5461555
-28.434254,3.3770437,1.5170298
-28.473972,3.3726852,1.5075798
-28.514734,3.369981,1.5019064
-28.563147,3.379818,1.5249448
-28.609562,3.3870769,1.5420609
-28.644123,3.3745947,1.5139518
-28.68386,3.370776,1.505672
-28.72838,3.3756585,1.517304
-28.779161,3.3928022,1.556992
-28.820436,3.392858,1.5575404
-28.851616,3.3730073,1.512506
-28.892126,3.3712943,1.5089812
-28.934298,3.3732274,1.5137906
-28.983864,3.3918204,1.5567155
-29.022795,3.3876913,1.5476203
-29.056639,3.3714213,1.5107298
-29.096235,3.3682675,1.5038443
-29.13681,3.367589,1.5026102
-29.18716,3.3931541,1.5614128
-29.22743,3.3931088,1.5615997
-29.259893,3.370554,1.5102739
-29.29952,3.3679209,1.5045171
-29.338696,3.3637989,1.4953427
-29.38717,3.3908002,1.5573545
-29.426834,3.3896868,1.5550351
-29.46195,3.3715482,1.5137591
-29.501284,3.3682363,1.5063891
-29.540596,3.364627,1.4983249
-29.586908,3.392642,1.562583
-29.625578,3.3876524,1.5513363
-29.664078,3.3811622,1.5366468
-29.701162,3.3655763,1.5011439
-29.740786,3.363274,1.4960103
-29.78251,3.3754735,1.5240283
-29.824253,3.3909857,1.5596075
-29.863405,3.3877974,1.5524106
-29.900867,3.366293,1.5033154
-29.9405,3.3637016,1.4974599
-29.980938,3.3724267,1.5174694
-30.021748,3.3940754,1.5670199
-30.061184,3.3957996,1.5709958
-30.099962,3.3671753,1.5055604
-30.139738,3.3670979,1.505393
-30.179516,3.3671227,1.5054464
-30.218609,3.3932912,1.5652728
-30.257868,3.3963225,1.5721769
-30.29863,3.3714151,1.5151806
-30.338743,3.366241,1.5032978
-30.378845,3.363173,1.4962187
-30.416292,3.387031,1.5507016
-30.456139,3.3845644,1.5449734
-30.496445,3.3794007,1.5330658
-30.538233,3.3655448,1.5012655
-30.578358,3.3645947,1.4989686
-30.615082,3.3829288,1.540762
-30.653522,3.3897667,1.556253
-30.693535,3.3883169,1.5527773
-30.739473,3.3610392,1.4902139
-30.77982,3.3606112,1.489049
-30.815088,3.3802125,1.5336847
-30.85336,3.3867507,1.5484309
-30.893177,3.387415,1.5497293
-30.94217,3.3579648,1.4821224
-30.982212,3.3596547,1.4857388
-31.020243,3.3674016,1.503201
-31.05321,3.389123,1.5526247
-31.093084,3.3903062,1.555047
-31.144438,3.361507,1.488853
-31.184301,3.3641138,1.4945054
-31.220701,3.3751194,1.5193644
-31.2563,3.3873928,1.5471158
-31.29472,3.3926518,1.5588031
-31.347706,3.3661146,1.4977021
-31.388817,3.3664906,1.4981856
-31.429966,3.366976,1.4989057
-31.460587,3.3883603,1.5474558
-31.50087,3.390212,1.551281
-31.55489,3.3667414,1.4971142
-31.598164,3.364152,1.4907398
-31.636887,3.3698754,1.5033865
-31.671135,3.3830957,1.5331903
-31.706219,3.3944452,1.5587001
-31.768272,3.3619945,1.4838772
-31.810623,3.3623278,1.4841247
-31.853537,3.3620024,1.4828486
-31.876066,3.392318,1.5517612
-31.91946,3.3910193,1.5482321
-31.981928,3.3628914,1.4832091
-32.023464,3.3653443,1.4882426
-32.065002,3.3679087,1.4935169
-32.090958,3.3912578,1.5464225
-32.132175,3.3940036,1.5520911
-32.20251,3.3598707,1.4731917
-32.245506,3.361391,1.4760127
-32.277313,3.3767014,1.5104427
-32.30778,3.393209,1.5476117
-32.368896,3.3734696,1.5016313
-32.429386,3.3554533,1.4595766
-32.467392,3.363621,1.47757
-32.493313,3.3850265,1.5259285
-32.533234,3.3907247,1.5382347
-32.602676,3.3651276,1.4786987
-32.651157,3.3625324,1.4719324
-32.679077,3.3812857,1.5141602
-32.723526,3.3830132,1.5172877
-32.7669,3.3859768,1.5232391
-32.836197,3.363965,1.471807
-32.879982,3.3672385,1.4784298
-32.90652,3.386786,1.5224285
-32.946102,3.393921,1.5378976
-33.027946,3.3628275,1.4654937
-33.072403,3.3662705,1.4724369
-33.09987,3.3847206,1.513864
-33.132774,3.398142,1.5437241
-33.20286,3.3798816,1.5007119
-33.275364,3.3604422,1.4549537
-33.30402,3.377848,1.4939275
-33.34687,3.3835025,1.5058551
-33.388783,3.3899872,1.5196776
-33.47234,3.3639138,1.4585376
-33.514618,3.3707328,1.4730854
-33.537323,3.3924835,1.5220022
-33.577347,3.4008875,1.5401764
-33.679024,3.3638492,1.4536467
-33.71855,3.3733184,1.4742255
-33.749184,3.3891504,1.5094547
-33.80355,3.3880513,1.5056472
-33.89336,3.3626091,1.4456868
-33.93843,3.36884,1.4587202
-33.958103,3.3923383,1.5115695
-34.015133,3.3905656,1.5061102
-34.107582,3.3658535,1.4476848
-34.15127,3.3737035,1.4643731
-34.18273,3.389437,1.4992461
-34.256546,3.378341,1.4721475
-34.336258,3.364176,1.4379196
-34.376884,3.3746524,1.4605865
-34.42614,3.379923,1.4712076
-34.506435,3.3668363,1.4393644
-34.549294,3.3764377,1.4599452
-34.599373,3.381897,1.4709268
-34.65459,3.3845756,1.475451
-34.736897,3.372174,1.4450474
-34.79429,3.374316,1.448267
-34.859985,3.3721461,1.441472
-34.92005,3.3734143,1.442606
-35.010574,3.3586335,1.4065213
-35.06341,3.3645158,1.4182768
-35.1356,3.360466,1.4069786
-35.178284,3.3720732,1.4319549
-35.258865,3.364422,1.412231
-35.30959,3.372317,1.4285412
-35.39207,3.3645945,1.4085665
-35.465588,3.3618088,1.4000087
-35.53751,3.360216,1.3941803
-35.614166,3.3567588,1.3839769
-35.679596,3.359043,1.3870769
-35.766537,3.3516216,1.3675661
-35.82461,3.358021,1.3801584
-35.914883,3.3500228,1.3592062
-35.937565,3.3728848,1.4100571
-35.990395,3.3822155,1.4293857
-36.06864,3.3805923,1.4231591
-3.2550602,3.6167269,0.5789933
-3.2227535,3.5407252,0.40910864
-4.9323425,3.6259265,0.7040658
-5.3308277,3.5950286,0.6605973
-5.646532,3.5579636,0.59827614
-19.606113,3.099295,0.4043312
-20.060688,3.1846528,0.6215949
-20.029682,3.1374428,0.5131798
-20.408646,3.205799,0.6879082
-20.467913,3.1849406,0.64383125
-20.590832,3.1827345,0.6452956
-20.826208,3.214336,0.7291775
-21.163773,3.2780285,0.8910532
-21.238628,3.2644656,0.8641968
-21.27852,3.2404273,0.81175804
-21.511444,3.276453,0.9054241
-21.645027,3.282721,0.92647266
-21.746614,3.2795258,0.92438984
-21.852491,3.2782216,0.92678976
-22.007294,3.2935164,0.9693227
-22.10167,3.2896917,0.9653654
-22.1838,3.2821991,0.9524355
-22.295643,3.2851987,0.9648042
-22.399612,3.286097,0.9719796
-22.476645,3.2781186,0.95761395
-22.591724,3.283957,0.9765191
-22.64793,3.2693062,0.9459019
-22.749222,3.2712004,0.9551096
-22.79173,3.2519715,0.9133539
-22.854588,3.240345,0.8898668
-22.863356,3.208447,0.81758213
-23.160957,3.286917,1.0105414
-23.33892,3.3214564,1.0976696
-23.442049,3.3279283,1.117248
-23.543278,3.334267,1.1364107
-23.607412,3.3262558,1.1210809
-23.67837,3.321269,1.112946
-23.749195,3.316538,1.1053667
-23.815147,3.3100758,1.0935864
-23.876312,3.3018463,1.0775275
-23.927443,3.2895124,1.0516148
-23.972717,3.2747319,1.0198236
-24.01753,3.2597847,0.98760605
-24.056004,3.2420337,0.9486728
-24.083082,3.2190783,0.8973079
-24.245384,3.2579496,0.9933176
-24.301208,3.2487774,0.97470665
-24.364052,3.243071,0.9643097
-24.590782,3.3157327,1.1404047
-24.672256,3.3205404,1.1548448
-24.757063,3.3274806,1.1742921
-24.825386,3.3268082,1.1755748
-24.894716,3.3269932,1.1788445
-24.951073,3.320947,1.1672649
-25.010998,3.3169432,1.1604972
-25.072617,3.314075,1.1563826
-25.125813,3.3070312,1.1423202
-25.167274,3.293859,1.1136975
-25.21999,3.2867997,1.0995393
-25.255981,3.2706904,1.0639105
-25.29913,3.2584875,1.0375166
-25.340752,3.2454352,1.0090895
-25.358418,3.2186387,0.9481201
-25.392307,3.2008808,0.908535
-25.44365,3.1932595,0.8929024
-25.492292,3.184158,0.8737426
-25.53777,3.1732278,0.8502364
-25.582317,3.1617608,0.8254366
-25.590393,3.1276062,0.74704885
-25.601452,3.0947077,0.67163944
-25.570667,3.0344305,0.5316405
-25.534885,2.9695327,0.38079405
-25.567247,2.9479935,0.33224487
-26.368109,3.3274007,1.234427
-26.385883,3.3009665,1.1739888
-26.446869,3.3050857,1.1854692
-26.457937,3.2732184,1.1122322
-26.698803,3.3319607,1.2554703
-26.744637,3.3266392,1.2445703
-26.782026,3.3147862,1.2182965
-26.849552,3.3269353,1.2483997
-26.890491,3.318154,1.2292962
-26.95129,3.3257587,1.2486529
-27.005785,3.328598,1.2567854
-27.054623,3.326981,1.254427
-27.10585,3.3276522,1.2574124
-27.157738,3.3291965,1.2624187
-27.20263,3.3247933,1.2534456
-27.249113,3.321956,1.2481222
-27.298286,3.3217807,1.2490172
-27.347727,3.3221142,1.2510781
-27.39363,3.3193247,1.2457967
-27.440617,3.3177586,1.2433558
-27.492304,3.3210747,1.2523317
-27.540161,3.3208883,1.2530746
-27.586489,3.3193734,1.2506828
-27.633802,3.319094,1.2511606
-27.679981,3.317845,1.2493448
-27.723726,3.314139,1.2417555
-27.770473,3.3138862,1.2422276
-27.816797,3.3133957,1.2421212
-27.862074,3.3119204,1.2396874
-27.907927,3.3113172,1.2392721
-27.95741,3.3153298,1.2496295
-28.001215,3.3127463,1.2445374
-28.046494,3.3121576,1.244091
-28.091114,3.3109436,1.2421594
-28.134542,3.3083446,1.2369709
-28.176563,3.303974,1.2276216
-28.221376,3.3034961,1.2273512
-28.2688,3.3069332,1.2362051
-28.313938,3.3074687,1.2382588
-28.358465,3.3073688,1.2388072
-28.403671,3.3085344,1.2422915
-28.447786,3.3082988,1.2424817
-28.489449,3.30436,1.234005
-28.531162,3.3005288,1.2257619
-28.573153,3.297189,1.2186484
-28.621794,3.3054817,1.2386689
-28.664745,3.3043003,1.2365537
-28.708086,3.304004,1.236484
-28.750565,3.3022802,1.2330661
-28.794409,3.3033721,1.2361984
-28.838161,3.3045826,1.2395878
-28.879604,3.3012648,1.2323942
-28.923595,3.3034809,1.2380915
-28.968325,3.3077574,1.2485752
-29.009872,3.3051624,1.2430129
-29.050652,3.30073,1.2331471
-29.093525,3.3014624,1.2353096
-29.13692,3.3038683,1.2413545
-29.179914,3.3056102,1.2458315
-29.222946,3.3078568,1.2514672
-29.265608,3.3094358,1.2555289
-29.306322,3.3052602,1.2461572
-29.347837,3.3035371,1.2424841
-29.390263,3.305055,1.2463493
-29.432291,3.3055081,1.247714
-29.473576,3.303325,1.2429166
-29.515366,3.3032098,1.2429223
-29.557304,3.3039892,1.2449951
-29.599192,3.3048773,1.2473025
-29.640879,3.305088,1.2480149
-29.682259,3.3038332,1.2452936
-29.72397,3.3046522,1.2473884
-29.765863,3.3071542,1.2533865
-29.807156,3.3058267,1.2504444
-29.848827,3.3077564,1.2550755
-29.89031,3.3086116,1.2571855
-29.93156,3.3072093,1.2540164
-29.972845,3.3059125,1.2510777
-30.014418,3.3098478,1.2603121
-30.055794,3.311919,1.2651844
-30.097069,3.312519,1.2666125
-30.138329,3.315591,1.2737832
-30.179516,3.3167975,1.2765908
-30.220695,3.316926,1.2768693
-30.261824,3.3183439,1.2801342
-30.30291,3.3198667,1.283628
-30.344215,3.3179474,1.2790837
-30.385586,3.316134,1.2747698
-30.426775,3.3167925,1.2761979
-30.468143,3.3159811,1.2741828
-30.508314,3.3243341,1.2935052
-30.549137,3.3268824,1.2992849
-30.589893,3.329535,1.3052907
-30.631163,3.3291442,1.3041902
-30.673164,3.325323,1.2950759
-30.7148,3.3239696,1.2916942
-30.755959,3.325081,1.2940407
-30.797586,3.3243363,1.2920437
-30.83865,3.3260534,1.2957664
-30.881752,3.3204286,1.2823601
-30.92219,3.3247118,1.2920294
-30.96325,3.326749,1.2964458
