x,y,z
-28.987133,3.393748,3.1228046
-29.021364,3.3987825,3.1298256
-29.051176,3.393923,3.1202636
-29.079,3.3841386,3.1024556
-29.109653,3.3809254,3.0957327
-29.14114,3.3797946,3.0925508
-29.180025,3.3983073,3.122467
-29.211649,3.3983638,3.1213741
-29.242714,3.3969967,3.1179233
-29.272245,3.3911846,3.1070242
-29.301561,3.3844383,3.0945873
-29.333094,3.3843124,3.0933414
-29.365685,3.3877988,3.0982237
-29.400679,3.3999512,3.1177583
-29.433382,3.4051342,3.125589
-29.463776,3.4023218,3.1199775
-29.492668,3.3935187,3.1042976
-29.523727,3.3928807,3.102428
-29.554903,3.3928297,3.1015873
-29.587067,3.397419,3.1086178
-29.620472,3.4086838,3.126957
-29.651909,3.411419,3.130941
-29.682617,3.410686,3.129108
-29.710983,3.396326,3.104301
-29.74138,3.3926988,3.0976524
-29.77275,3.3952446,3.101469
-29.804806,3.403462,3.1149054
-29.83678,3.4127817,3.1302452
-29.86728,3.4109993,3.1268673
-29.89736,3.4047167,3.1159225
-29.927052,3.3924053,3.0948262
-29.957912,3.3918722,3.09367
-29.989164,3.3975255,3.1030073
-30.020771,3.4129324,3.1288676
-30.051645,3.4192576,3.1394186
-30.082062,3.4144619,3.1312108
-30.112543,3.4066892,3.1180086
-30.143166,3.3847373,3.0808768
-30.173925,3.4066544,3.1179328
-30.204954,3.3904622,3.0906134
-30.234818,3.4217,3.1434975
-30.265486,3.4183934,3.138031
-30.29609,3.4177115,3.1370397
-30.327587,3.404385,3.1147165
-30.358587,3.4013193,3.1097722
-30.389568,3.399351,3.1067219
-30.419537,3.4076347,3.1210322
-30.448181,3.4256542,3.1518273
-30.478956,3.4239185,3.14928
-30.511068,3.4131162,3.1314573
-30.543058,3.4049408,3.1181116
-30.575085,3.3978672,3.1066685
-30.606571,3.3949392,3.1022668
-30.634972,3.4088328,3.1263075
-30.661419,3.430906,3.164187
-30.691565,3.4332724,3.1688309
-30.721321,3.437235,3.176206
-30.75232,3.435706,3.1743503
-30.78425,3.4307168,3.166697
-30.81883,3.4162097,3.1430316
-30.852802,3.4053392,3.125546
-30.883873,3.4056706,3.126995
-30.912697,3.4136488,3.1413717
-30.940409,3.4247198,3.160996
-30.969498,3.430819,3.1722727
-31.000988,3.4294417,3.1709905
-31.034449,3.4226184,3.1605763
-31.068274,3.4153874,3.1495218
-31.100428,3.4132702,3.1471224
-31.131306,3.4147491,3.150815
-31.156414,3.4308317,3.1791148
-31.186478,3.433957,3.185648
-31.218386,3.432662,3.1847858
-31.254026,3.4229655,3.169847
-31.289257,3.4148717,3.1576514
-31.319683,3.4178386,3.164085
-31.345615,3.4303353,3.1865559
-31.372717,3.4399061,3.2041435
-31.40331,3.4420946,3.2093744
-31.435898,3.440398,3.20813
-31.468039,3.4397817,3.2087412
-31.495474,3.4481504,3.2244515
-31.528406,3.4462166,3.2229366
-42.60143,0.9710381,0.31135702
-42.634857,1.010618,0.3915758
-42.654434,1.0554276,0.47923994
-42.655857,1.1069744,0.57640076
-42.697895,1.1937819,0.7475786
-42.639774,1.266542,0.87418413
-42.710144,1.2905405,0.9325452
-42.607613,1.3783596,1.0796337
-42.680965,1.4008396,1.1359186
-42.62788,1.4690588,1.2553554
-42.703636,1.4905043,1.3103704
-42.602257,1.5746236,1.4511404
-42.640675,1.6087861,1.5235066
-42.630154,1.6597459,1.6186657
-42.60316,1.7158716,1.720644
-42.618755,1.7570441,1.8023686
-42.65117,1.7923503,1.8762422
-42.704086,1.8207662,1.9410148
-42.7698,1.8450365,2.000452
-42.86696,1.8592784,2.0469055
-44.052742,1.6247928,1.8298049
-44.01742,1.7328529,2.0317311
-44.05461,1.769628,2.1104922
-42.60968,2.2486892,2.7481189
-42.662342,2.275688,2.8112803
-42.68835,2.3105311,2.8843927
-42.712925,2.3456793,2.9579225
-42.740616,2.3798254,3.0302534
-42.745872,2.420201,3.110251
-42.77066,2.454908,3.1833105
-42.80503,2.4868777,3.2531133
-42.77632,2.5359561,3.3434634
-42.876064,2.5501018,3.3921413
-42.918293,2.5798998,3.459669
-43.00369,2.5984075,3.5141544
-43.138138,2.604516,3.554656
-43.283768,2.608378,3.5932064
-43.420094,2.61527,3.6358933
-43.63316,2.6036363,3.6583676
-43.832455,2.5964882,3.6869187
-44.04795,2.5864012,3.7132335
-44.291977,2.5705578,3.7343683
-44.459896,2.5740273,3.777666
-44.58338,2.5886939,3.8338013
-44.82897,2.5756679,3.861287
-46.177456,2.312384,3.628716
-46.18973,2.3576796,3.7223005
-46.20896,2.4012659,3.8141265
-46.22564,2.4452927,3.9064198
-46.240715,2.4895358,3.9989405
-46.27238,2.5301046,4.087875
-46.686478,2.490225,4.099482
-47.24066,2.4234931,4.0881596
-47.76992,2.3648582,4.087819
-48.445755,2.2795138,4.0663176
-49.133537,2.1954627,4.050296
-49.821625,2.1150649,4.0419526
-50.63978,2.0132651,4.019573
-51.504044,1.9071121,3.99895
-52.348446,1.8093326,3.9911275
-53.474407,1.6641252,3.950562
-54.31986,1.5759599,3.9630976
-1.1117439,0.65724397,2.7610106
-3.906374,1.0941265,3.0597258
-4.7256393,1.1741266,3.0488334
-4.970915,1.1486413,2.9444642
-4.982771,1.078918,2.7994595
-5.8780975,1.1830986,2.8224907
-6.6272144,1.262892,2.8269138
-7.321102,1.3355124,2.8285751
-7.267023,1.2579334,2.682301
-7.3568726,1.2097769,2.565782
-5.5078125,0.7514372,2.023179
-7.2893314,0.9932568,2.1417875
-7.2693157,0.92071724,1.9995856
-7.3263474,0.86494493,1.875464
-7.45809,0.82609844,1.7702217
-7.469307,0.7600262,1.63519
-16.69652,2.8376188,3.9173384
-16.257381,2.6929924,3.7170668
-18.243744,3.087781,4.1036053
-18.591839,3.1360588,4.129699
-18.814777,3.155256,4.1231213
-19.016758,3.1703832,4.1127462
-19.15144,3.1694624,4.0840235
-19.329592,3.1803882,4.07025
-19.518517,3.1950564,4.0618486
-19.676605,3.202592,4.045521
-19.717575,3.179645,3.9921126
-19.877256,3.1888652,3.9789808
-20.111708,3.219387,3.9933028
-20.12267,3.1893234,3.9320037
-20.328043,3.2136276,3.9399254
-20.440193,3.2126384,3.9163082
-20.52779,3.2051377,3.8847404
-20.745445,3.2357874,3.9029946
-20.784983,3.2153578,3.8555021
-20.958574,3.2348335,3.860494
-21.044823,3.2290163,3.8328047
-21.14891,3.2290025,3.81313
-21.243084,3.2264419,3.7904453
-21.360245,3.231473,3.7782812
-21.48248,3.2387047,3.7695189
-21.561253,3.2327428,3.7433434
-21.688343,3.2426734,3.7390623
-21.789705,3.244917,3.7247367
-21.88042,3.2441602,3.7066493
-21.985813,3.2487218,3.6962094
-22.045914,3.2385762,3.66576
-22.194197,3.2586641,3.6775622
-22.23521,3.2426999,3.639522
-22.371626,3.2600093,3.6482692
-22.428082,3.2499795,3.6189852
-22.534853,3.2580392,3.6154437
-22.611643,3.2558959,3.597776
-22.7137,3.2632918,3.5939379
-22.818842,3.2723765,3.5928478
-22.835632,3.249211,3.5458188
-22.970541,3.270296,3.5625243
-23.033344,3.264834,3.5413156
-23.072943,3.2507167,3.5077367
-23.212547,3.2754655,3.5307865
-23.247978,3.2602522,3.4959745
-23.3507,3.2717454,3.5003343
-23.459566,3.2863026,3.50951
-23.469856,3.2615895,3.461183
-23.617842,3.2930627,3.4958415
-23.660507,3.281969,3.4679055
-23.728107,3.2813978,3.4557028
-23.799583,3.2827835,3.446599
-23.869324,3.2837834,3.4371166
-23.889198,3.2635896,3.3960752
-24.006023,3.2856019,3.418445
-24.072994,3.2864068,3.409226
-24.090813,3.2656238,3.3675914
-24.214266,3.2923112,3.3978128
-24.273846,3.29078,3.3855853
-24.283525,3.2665427,3.338973
-24.418686,3.300474,3.3810182
-24.493807,3.307192,3.3818774
-24.488676,3.276192,3.3251724
-24.63425,3.317227,3.378964
-24.693686,3.3175943,3.3706236
-24.71439,3.299236,3.3335614
-24.793734,3.309856,3.341282
-24.836748,3.3027594,3.3217826
-24.907562,3.309874,3.324418
-24.92801,3.2916038,3.2877736
-25.025284,3.312998,3.3129158
-25.082495,3.314146,3.306725
-25.116034,3.30305,3.2815242
-25.171703,3.3038123,3.2749534
-25.239937,3.311646,3.2796025
-25.313496,3.3228166,3.2896595
-25.329613,3.3027287,3.2506747
-25.423565,3.3259513,3.2800088
-25.469458,3.3227773,3.2678733
-25.531033,3.328736,3.2702851
-25.537415,3.3031871,3.222886
-25.646057,3.337038,3.269781
-25.683529,3.3298516,3.2516875
-25.744343,3.336679,3.2559824
-25.769905,3.3226047,3.227065
-25.847504,3.3402233,3.2488189
-25.889439,3.3364444,3.2365136
-25.950766,3.344919,3.2439241
-25.972004,3.3284895,3.2114997
-26.029219,3.3348918,3.215787
-26.081764,3.3386488,3.2159367
-26.13539,3.3434176,3.217825
-26.15704,3.3273714,3.1862326
-26.20494,3.3287306,3.1827826
-26.251493,3.3294263,3.1783514
-26.302206,3.3331997,3.1789951
-26.367838,3.3476126,3.1969962
-26.386333,3.329535,3.1623697
-26.42655,3.326645,3.1524477
-26.489138,3.3399532,3.1689668
-26.543154,3.3475611,3.1763248
-26.577213,3.3408868,3.160483
-26.617666,3.3390102,3.1525311
-26.664913,3.3424096,3.153277
-26.718208,3.3507059,3.1621265
-26.782415,3.3678317,3.1855536
-26.795158,3.3453546,3.1441283
-26.828669,3.3389456,3.1290908
-26.911757,3.3723078,3.1794958
-26.94818,3.3688364,3.1694565
-26.970736,3.3540661,3.1408582
-26.99885,3.3437347,3.1196008
-27.03237,3.3378837,3.105772
-27.084606,3.348068,3.1184878
-27.124222,3.347781,3.1139822
-27.16885,3.3520727,3.1171203
-27.199741,3.3444512,3.1005955
-27.234722,3.340494,3.0901875
-27.275135,3.3415797,3.088201
-27.326647,3.3531563,3.1037073
-27.365307,3.35317,3.100081
-27.413416,3.3623633,3.1117911
-27.425959,3.3376534,3.0671253
-27.472042,3.3452682,3.0763254
-27.526615,3.3617167,3.1003385
-27.565742,3.363256,3.0995631
-27.615097,3.3754735,3.1166873
-27.630405,3.3528936,3.075726
-27.663706,3.3487651,3.0656323
-27.715204,3.3641486,3.0882497
-27.759447,3.3722997,3.0988417
-27.788692,3.364338,3.0824928
-27.820564,3.359241,3.0709844
-27.859066,3.3616953,3.072195
-27.88936,3.3549128,3.0579457
-27.944105,3.376803,3.0919294
-27.977812,3.3744628,3.085257
-28.006094,3.3656244,3.0676928
-28.036446,3.3592112,3.0542445
-28.06464,3.3500373,3.036182
-28.099308,3.3489823,3.0318384
-28.143448,3.3603673,3.0485282
-28.181873,3.3647637,3.0534906
-28.218374,3.3668942,3.0546842
-28.244682,3.355286,3.032713
-28.278755,3.3542569,3.028654
-28.310785,3.3504465,3.019936
-28.354443,3.3635228,3.039836
-28.392866,3.3695285,3.0478325
-28.424076,3.3650532,3.0381284
-28.450335,3.3529372,3.015514
-28.48115,3.3476431,3.0044923
-28.523222,3.3603396,3.024025
-28.563765,3.3712316,3.0405588
-28.59791,3.3720517,3.040053
-28.630005,3.3695621,3.0339704
-28.657946,3.3598511,3.0156555
-28.689354,3.3560572,3.00743
-28.721085,3.3528323,3.0002103
-28.766947,3.3761065,3.0381079
-28.800226,3.376511,3.037158
-28.834957,3.3799498,3.0414157
-28.86252,3.3692434,3.0216289
-28.89197,3.3620415,3.0078406
-28.925957,3.3642645,3.0101485
-28.958506,3.3636239,3.007617
-28.99938,3.3818235,3.0372548
-29.033594,3.385824,3.0427299
-29.062496,3.3775544,3.0273123
-29.089151,3.3634114,3.001903
-29.121597,3.363204,3.0003104
-29.156296,3.369036,3.0090718
-29.191746,3.3774486,3.022286
-29.224129,3.3780088,3.0221305
-29.256989,3.3801472,3.0247116
-29.284641,3.3669372,3.0010953
-29.315462,3.3627603,2.9929528
-29.347746,3.3631501,2.9926558
-29.38501,3.3805969,3.021574
-29.41745,3.3826678,3.0242367
-29.44928,3.382825,3.023664
-29.481344,3.3840663,3.024984
-29.509666,3.3703742,3.0007796
-29.541935,3.3722749,3.0033026
-29.574587,3.3762658,3.0094428
-29.609226,3.390372,3.032946
-29.640638,3.3900263,3.0317392
-29.671677,3.387753,3.027268
-29.702322,3.383049,3.0186672
-29.733635,3.3819387,3.0162601
-29.76362,3.3718622,2.9985237
-29.795347,3.3729208,2.9999056
-29.829659,3.3951855,3.037671
-29.860552,3.391887,3.0316615
-29.891464,3.3881636,3.024959
-29.921711,3.3759623,3.0037584
-29.953045,3.3744085,3.0008473
-29.984793,3.3789785,3.0084715
-30.016916,3.3931997,3.03268
-30.0481,3.3923945,3.0311627
-30.079256,3.3901577,3.027227
-30.11045,3.3869936,3.0217366
-30.141748,3.3939843,3.0336971
-30.17297,3.3909812,3.0285554
-30.204468,3.3784862,3.0071754
-30.23517,3.3988152,3.0421147
-30.26584,3.409147,3.0599475
-30.297428,3.3994129,3.0434108
-30.329361,3.3882513,3.0244641
-30.361237,3.381201,3.0126047
-30.392433,3.3832936,3.0164566
-30.422619,3.3945236,3.036008
-30.452719,3.404319,3.0531335
-30.48423,3.401617,3.0488744
-30.51567,3.400002,3.0465155
-30.549421,3.3838973,3.0193634
-30.581888,3.3779316,3.0096273
-30.612165,3.3851068,3.0224433
-30.641993,3.3938615,3.0379996
-30.668652,3.4172354,3.0786257
-30.700283,3.4150987,3.075592
-30.731062,3.4170535,3.0796022
-30.763374,3.412578,3.07264
-30.796442,3.405687,3.061583
-30.832342,3.3888862,3.033607
-30.86617,3.3811848,3.0212502
-30.897017,3.384564,3.0278907
-30.92584,3.3945072,3.045795
-30.9535,3.4075096,3.0689611
-30.983307,3.4131017,3.079486
-31.014347,3.4147844,3.0833635
-31.04904,3.406105,3.06957
-31.084326,3.3965316,3.0542955
-31.115566,3.398476,3.0587397
-31.142345,3.4119065,3.0828333
-31.173796,3.41301,3.0859113
-31.204424,3.4161754,3.0925465
-31.237953,3.4124987,3.0875444
-31.27658,3.3975585,3.063375
-31.307577,3.4004934,3.0697384
-31.34013,3.4000592,3.0703964
-31.357943,3.4307113,3.124063
-31.393326,3.4240267,3.1141386
-31.424953,3.4252982,3.1178083
-31.453302,3.4330246,3.132506
-31.484852,3.4344559,3.1365209
-31.518776,3.4315705,3.133235
-31.553614,3.427317,3.127668
-42.62746,1.1008387,0.35660028
-42.646976,1.1454105,0.44433022
-42.66659,1.1896312,0.53152895
-42.687977,1.2328763,0.6172962
-42.63584,1.3032928,0.7421036
-42.589993,1.3705184,0.8620467
-42.646687,1.3994668,0.9270954
-42.634388,1.4533739,1.0277567
-42.641563,1.4998,1.1176796
-42.613846,1.5582087,1.2244468
-42.712685,1.5717287,1.2679229
-42.5906,1.6620445,1.419199
-42.68933,1.6754813,1.4627233
-42.590664,1.7560849,1.5997934
-42.646847,1.7837515,1.6632056
-42.62161,1.8384166,1.7639117
-42.630417,1.8813951,1.8484154
-42.671864,1.913521,1.9180698
-42.70228,1.9491327,1.9925413
-42.852234,1.9467983,2.0158052
-42.853607,1.9916856,2.1030793
-43.988125,1.8783126,2.0962076
-44.06966,1.9018126,2.157668
-42.74453,2.3314958,2.7445889
-42.68641,2.3905513,2.8491025
-42.729156,2.4205058,2.9161043
-42.735912,2.4604957,2.995957
-42.763077,2.4946442,3.0683985
-42.786064,2.5298429,3.142202
-42.819553,2.5621104,3.2123923
-42.852573,2.594466,3.282773
-42.90544,2.6215796,3.3468132
-43.000526,2.63785,3.397853
-43.157627,2.6386204,3.4305897
-43.26925,2.6516366,3.4786854
-43.413395,2.6570048,3.5181928
-43.569714,2.6600416,3.555615
-43.717663,2.6658554,3.5970035
-43.902237,2.66356,3.6297174
-44.091667,2.661022,3.6630478
-44.318016,2.650778,3.688579
-44.510643,2.649477,3.725278
-44.679733,2.6544852,3.7699456
-44.834602,2.6634884,3.819847
-44.93999,2.68418,3.883213
-46.232452,2.4454074,3.6688719
-46.21264,2.497487,3.7699118
-46.205414,2.5465379,3.8675814
-46.20703,2.5934644,3.9629297
-46.20603,2.6407228,4.058542
-46.473297,2.6329803,4.0988626
-46.881233,2.5982633,4.11405
-47.517216,2.5204492,4.0897055
-48.0734,2.46169,4.0874853
-48.824852,2.3682842,4.0560627
-49.4403,2.3047667,4.057005
-50.189583,2.2195072,4.042103
-51.045025,2.1187212,4.0182066
-51.86406,2.0291362,4.009686
-52.83725,1.9164047,3.986845
-53.837402,1.8041501,3.9709773
-54.85962,1.6934183,3.9632082
-1.0084858,0.8908212,2.8436737
-1.8147373,0.9517393,2.8069801
-4.104313,1.2836003,3.0306664
-4.8956413,1.3544612,3.0178814
-4.9616795,1.2949948,2.8825312
-6.515911,1.448214,2.8872395
-7.100643,1.4937351,2.8644347
-7.311245,1.4686527,2.7715483
-7.3358326,1.4073224,2.6415682
-7.2788715,1.329304,2.4938025
-5.481304,0.89261127,1.9576869
-7.2220383,1.1832583,2.207953
-7.259178,1.1233816,2.0792007
-7.2638817,1.056442,1.9426212
-7.272444,0.9900384,1.8065596
-7.34268,0.93694925,1.6856785
-7.452469,0.8927808,1.5753679
-7.4958115,0.8338692,1.4482794
-18.257511,3.1630895,4.077815
-18.407288,3.1620798,4.0473905
-18.498106,3.1475334,4.00109
-18.7326,3.1685638,3.9989867
-18.934948,3.1828828,3.9896026
-19.0701,3.1813812,3.96132
-19.28196,3.20006,3.9590364
-19.390858,3.193344,3.925437
-19.485016,3.1832738,3.8879876
-19.704151,3.2066255,3.8939102
-19.845737,3.2104475,3.8754592
-19.908537,3.193651,3.8306985
-20.112772,3.2158191,3.8372636
-20.1992,3.2064457,3.8030367
-20.310146,3.2043157,3.778739
-20.505037,3.2265625,3.7874002
-20.56418,3.2108796,3.7459097
-20.742096,3.2299314,3.7514944
-20.879175,3.2379594,3.742804
-20.937357,3.223214,3.7035604
-21.12481,3.2475963,3.7181349
-21.163385,3.2276855,3.672398
-21.319033,3.243916,3.676785
-21.372772,3.2292361,3.638753
-21.564705,3.2583067,3.6619964
-21.621826,3.2455077,3.6271873
-21.72274,3.2470238,3.612719
-21.774746,3.2330747,3.5766993
-21.976967,3.268858,3.6115017
-21.988127,3.2421198,3.5578065
-22.158203,3.2688713,3.580727
-22.183386,3.247198,3.5345922
-22.335455,3.2692714,3.5516477
-22.386381,3.2569585,3.5193892
-22.430645,3.242437,3.4840536
-22.599386,3.2724266,3.513781
-22.619934,3.250021,3.4673405
-22.804451,3.2873328,3.5086656
-22.825052,3.265411,3.4632745
-22.92008,3.2711446,3.4588075
-23.012363,3.2763543,3.453845
-23.037525,3.256476,3.4118147
-23.193718,3.2870169,3.4450908
-23.235306,3.273961,3.4135747
-23.3064,3.2725985,3.3997111
-23.443142,3.2976935,3.4258852
-23.457169,3.2743175,3.3792667
-23.5625,3.287914,3.388639
-23.656189,3.2973652,3.3920183
-23.655457,3.2681248,3.3367481
-23.796518,3.2981458,3.371891
-23.856209,3.294602,3.3560786
-23.874187,3.2734046,3.3133283
-23.970757,3.2861683,3.3228197
-24.05913,3.295936,3.3279548
-24.068905,3.271392,3.2803016
-24.166996,3.286202,3.2935877
-24.25006,3.2948368,3.2975488
-24.269463,3.2748227,3.2571492
-24.350697,3.2832892,3.2611742
-24.473911,3.3118782,3.2968493
-24.485924,3.2888048,3.251956
-24.586517,3.3078597,3.2731624
-24.688047,3.328071,3.2964487
-24.69218,3.301439,3.2461934
-24.777653,3.314667,3.2588296
-24.834206,3.3140302,3.2497487
-24.895021,3.3158062,3.2446146
-24.894272,3.286496,3.1902637
-25.00685,3.3152463,3.2282128
-25.05368,3.310628,3.2132807
-25.094118,3.3028069,3.193327
-25.132511,3.2939868,3.1718516
-25.236902,3.3207827,3.207489
-25.307121,3.3298228,3.2148967
-25.317482,3.3063617,3.1702318
-25.387445,3.3158119,3.1785288
-25.455715,3.324773,3.1861935
-25.526392,3.3355517,3.1969428
-25.536,3.3116736,3.1518016
-25.630491,3.3369021,3.18618
-25.681698,3.3374689,3.1807775
-25.721554,3.3315327,3.1649122
-25.7818,3.3379698,3.1692433
-25.832016,3.3386858,3.1643786
-25.89118,3.3451595,3.1690025
-25.93339,3.3414557,3.1571217
-25.960918,3.3286505,3.1304274
-26.025375,3.3393033,3.1421862
-26.077547,3.342512,3.141871
-26.125809,3.3434708,3.1379595
-26.147343,3.3270457,3.105557
-26.213999,3.3405662,3.1224642
-26.25892,3.3399518,3.116212
-26.302557,3.338663,3.1089253
-26.353931,3.342907,3.1108537
-26.377165,3.3277833,3.0808434
-26.44195,3.3419251,3.0993137
-26.508654,3.357996,3.1211085
-26.54242,3.3507805,3.104395
-26.55615,3.3288891,3.0633488
-26.606218,3.333668,3.0666513
-26.659477,3.341173,3.0745807
-26.713596,3.3497238,3.08435
-26.759108,3.3520555,3.0838437
-26.7792,3.3347971,3.0507026
-26.83556,3.3459835,3.0651164
-26.883486,3.3508985,3.0691423
-26.932283,3.3568463,3.0749784
-26.97028,3.354269,3.0666103
-27.001974,3.3465738,3.0497117
-27.04104,3.3450859,3.0432763
-27.095469,3.3568816,3.059226
-27.136837,3.3578742,3.0570989
-27.172575,3.354143,3.0470843
-27.199371,3.342548,3.0238695
-27.232285,3.3363378,3.0097632
-27.280373,3.3440168,3.0191398
-27.325317,3.3491836,3.024353
-27.365303,3.350023,3.0223227
-27.395782,3.3420095,3.0053754
-27.439423,3.346675,3.0099287
-27.481045,3.3496778,3.011735
-27.520254,3.3505518,3.0099926
-27.575104,3.3674233,3.035449
-27.596638,3.3508408,3.0042024
-27.641743,3.3584528,3.0140753
-27.670588,3.3493056,2.9955254
-27.724375,3.3667972,3.022327
-27.768824,3.3748403,3.0331345
-27.801361,3.3701422,3.0223064
-27.83067,3.36184,3.0053754
-27.864172,3.3582323,2.9964833
-27.900501,3.3579597,2.9933267
-27.954115,3.37823,3.0252962
-27.988543,3.376351,3.0195112
-28.012245,3.3615072,2.9916053
-28.046059,3.3588586,2.984579
-28.078768,3.354898,2.9753494
-28.121761,3.3641655,2.9888124
-28.16088,3.36887,2.9945197
-28.19629,3.3689816,2.9924097
-28.226418,3.362113,2.978373
-28.255638,3.3538997,2.962062
-28.290401,3.353337,2.9589171
-28.328777,3.3580933,2.964951
-28.374153,3.3734276,2.989214
-28.410158,3.3755744,2.9908733
-28.435703,3.3620768,2.965673
-28.466156,3.3557997,2.95292
-28.49823,3.3519921,2.94445
-28.539253,3.3626544,2.9609365
-28.581427,3.3758476,2.9818406
-28.61327,3.3723385,2.974018
-28.640694,3.361203,2.9530835
-28.674906,3.3617077,2.9522524
-28.710672,3.3652053,2.9566278
-28.74736,3.3707411,2.9645648
-28.785154,3.3788056,2.9769173
-28.822968,3.3874686,2.9903512
-28.849571,3.374382,2.9662566
-28.877886,3.364271,2.947328
-28.910587,3.3629909,2.943698
-28.948933,3.3739877,2.9613366
-28.986757,3.3846114,2.9783816
-29.022367,3.3909492,2.988058
-29.051971,3.3836877,2.9742403
-29.080313,3.373069,2.9546404
-29.108295,3.361045,2.932633
-29.142626,3.3647897,2.937971
-29.183275,3.3858247,2.9733114
-29.216978,3.389282,2.978241
-29.247993,3.3854485,2.9705696
-29.278084,3.378737,2.9579444
-29.307354,3.369141,2.9403467
-29.341455,3.3744183,2.9485803
-29.375996,3.381765,2.960445
-29.410192,3.388713,2.9716582
-29.442165,3.3883362,2.9701996
-29.479445,3.4083345,3.0041485
-29.501755,3.3704977,2.937726
-29.533672,3.3693678,2.9350634
-29.567606,3.3772466,2.948081
-29.603544,3.3956368,2.9793978
-29.635641,3.3972511,2.981615
-29.667126,3.3959696,2.9788365
-29.697582,3.388807,2.9658732
-29.727068,3.37476,2.940979
-29.759434,3.3776922,2.9456248
-29.79206,3.3831973,2.9547796
-29.826801,3.4067032,2.9952626
-29.857672,3.4014325,2.9857607
-29.888512,3.3947465,2.9738307
-29.919907,3.3926206,2.9698634
-29.950619,3.3811102,2.9496121
-29.982574,3.3846245,2.955521
-30.015352,3.4056637,2.9919395
-30.04657,3.4008722,2.9834757
-30.078125,3.4041362,2.9890552
-30.1094,3.3950195,2.9731388
-30.140902,3.3869798,2.9591303
-30.17254,3.3855014,2.9565668
-30.204058,3.3915815,2.9671826
-30.235092,3.407711,2.9953089
-30.266394,3.409465,2.9984698
-30.297943,3.4063158,2.9931393
-30.330166,3.3947792,2.97326
-30.362183,3.3893044,2.9639573
-30.394243,3.3849103,2.9565692
-30.423487,3.4079843,2.9969707
-30.454903,3.408229,2.9977164
-30.48599,3.4110436,3.002962
-30.51759,3.4099576,3.0014634
-30.553343,3.3826013,2.9543433
-30.585167,3.3826842,2.9549503
-30.61592,3.388811,2.9660964
-30.642982,3.413387,3.0093265
-30.673027,3.4206493,3.0225058
-30.703339,3.4260018,3.0323992
-30.734331,3.4279597,3.0364304
-30.768297,3.4176106,3.019126
-30.80215,3.4088418,3.0046062
-30.8365,3.3991783,2.9885736
-30.870962,3.3901052,2.9736075
-30.903065,3.390022,2.9742827
-30.928562,3.4117458,3.012827
-30.958244,3.4187198,3.0258088
-30.988914,3.4223158,3.0329638
-31.023563,3.4141695,3.019793
-31.063148,3.3928375,2.9838095
-31.094423,3.3957157,2.9898367
-31.125837,3.3981833,2.9951868
-31.151821,3.4144683,3.0245056
-31.182,3.4195335,3.0344186
-31.215559,3.4163506,3.0300841
-31.251749,3.4073913,3.0157933
-31.288616,3.3975616,3.0000424
-31.321968,3.396137,2.9988775
-31.343273,3.4206326,3.0425777
-31.374092,3.4242258,3.0501542
-31.403889,3.4298425,3.0612621
-31.434566,3.43359,3.0691733
-31.468462,3.4311123,3.0663676
-31.498577,3.4359927,3.0763078
-31.531246,3.4361129,3.0780663
-42.587143,1.1984732,0.33670425
-42.64456,1.2283051,0.4028821
-42.642212,1.3314626,0.59980583
-42.601604,1.3968148,0.71839905
-42.636307,1.4340639,0.7955241
-42.640045,1.4822707,0.88870764
-42.719208,1.5032997,0.9422178
-42.621284,1.5867221,1.0865126
-42.640427,1.6283159,1.1698499
-42.620354,1.6831276,1.2722201
-42.66724,1.7146482,1.3409905
-42.64724,1.7686074,1.4419384
-42.617653,1.8252234,1.5465102
-42.620964,1.8704448,1.6347175
-42.63225,1.9127395,1.71872
-42.607864,1.9662163,1.8184099
-42.66945,1.9918764,1.8789654
-42.712204,2.0235496,1.9480653
-42.75715,2.0545144,2.016271
-42.88051,2.061414,2.0513382
-44.028774,1.8066263,1.7553935
-44.063755,1.8444662,1.8357258
-42.789448,2.2655764,2.434959
-43.901703,1.9870036,2.086588
-44.048897,1.9916897,2.1222043
-42.795532,2.392853,2.686317
-42.68854,2.465175,2.8095393
-42.719494,2.4984457,2.8808203
-42.758163,2.529548,2.9493241
-42.773514,2.566919,3.026074
-42.80939,2.59867,3.0955572
-42.854916,2.627862,3.1618443
-42.92031,2.6519394,3.2217493
-43.039917,2.662293,3.2645187
-43.12982,2.6806839,3.3178697
-43.330963,2.6715996,3.3373199
-43.452362,2.6832273,3.3832793
-43.60167,2.6885784,3.4220486
-43.76037,2.6923687,3.4595718
-43.90976,2.699121,3.5013785
-44.071365,2.7037017,3.5412579
-44.2782,2.6985848,3.5703797
-44.408848,2.711894,3.6221237
-44.606487,2.710684,3.657577
-44.78817,2.7139924,3.6991892
-44.89399,2.7347991,3.761629
-45.03474,2.7484694,3.8165102
-46.195595,2.5452552,3.6302452
-46.211983,2.5893376,3.7228284
-46.21624,2.635805,3.8180175
-46.23513,2.6790867,3.90972
-46.22268,2.7285771,4.0080395
-46.22294,2.7752595,4.1032643
-46.78662,2.7115006,4.084387
-47.265617,2.6671157,4.0884767
-47.85742,2.6038508,4.076445
-48.46869,2.5401237,4.0674744
-49.20986,2.455739,4.042167
-49.908752,2.3830128,4.03251
-50.688477,2.2995875,4.017196
-51.580414,2.200613,3.9925556
-52.446594,2.11087,3.9819384
-53.480904,1.9971318,3.9558759
-54.483696,1.8941946,3.94596
-1.0324383,1.048641,2.7683477
-3.6266632,1.4125369,3.031383
-4.646351,1.5159409,3.052967
-4.9562416,1.4989448,2.9596586
-4.918621,1.420814,2.8056731
-6.5326214,1.5769958,2.8255658
-7.3287125,1.6595199,2.8469281
-7.272478,1.5830343,2.7005138
-7.3250217,1.5270944,2.5762234
-7.2074776,1.303406,2.1408815
-7.2446785,1.2435181,2.0120344
-7.2494335,1.1767435,1.8752651
-7.3036613,1.1201665,1.7503939
-7.410799,0.93807745,1.3617988
-7.5428963,0.8987217,1.2584505
-16.030315,2.7582417,3.4941201
-17.090616,2.9591289,3.7100472
-18.093521,3.152923,3.9220078
-18.346771,3.1754518,3.9224029
-18.52298,3.1808949,3.90217
-18.606844,3.1648219,3.8551087
-18.832863,3.1840196,3.8538866
-18.953741,3.178256,3.821169
-19.061655,3.1697822,3.7853794
-19.259863,3.1848512,3.781012
-19.494373,3.2103727,3.7912989
-19.535763,3.1866248,3.7368069
-19.709103,3.1979191,3.7294621
-19.875679,3.2083194,3.72158
-19.97371,3.2009747,3.6902385
-20.104374,3.2030392,3.6720915
-20.304451,3.2250843,3.681849
-20.336258,3.2008352,3.6284719
-20.5275,3.2220497,3.6382298
-20.69754,3.2382243,3.641666
-20.725924,3.2139692,3.589077
-20.931026,3.241909,3.6100135
-20.948029,3.2148027,3.5538454
-21.147797,3.2428777,3.576076
-21.203878,3.228153,3.5379434
-21.34983,3.241421,3.5400825
-21.485706,3.2523432,3.539339
-21.554798,3.2428498,3.5095448
-21.678799,3.2512188,3.505868
-21.769497,3.24946,3.4878392
-21.84711,3.2438393,3.4644408
-21.97726,3.255974,3.467327
-22.034878,3.2445123,3.4358683
-22.19183,3.266932,3.454646
-22.227972,3.2488568,3.4138556
-22.378994,3.270658,3.4324937
-22.377975,3.2400432,3.3733234
-22.49798,3.2520912,3.3780231
-22.631006,3.2694962,3.3911333
-22.661505,3.2505145,3.3497787
-22.833008,3.2832208,3.3866544
-22.824507,3.2503102,3.3245087
-22.990868,3.2826116,3.3615088
-23.024767,3.2658103,3.3240805
-23.09412,3.2626033,3.307517
-23.217228,3.2805278,3.3235564
-23.247227,3.2627504,3.2850118
-23.387436,3.2885873,3.3138018
-23.423101,3.2735026,3.279694
-23.482204,3.2679281,3.2603998
-23.617867,3.2939055,3.290296
-23.649597,3.2778141,3.2550073
-23.764528,3.2965007,3.2741003
-23.815987,3.2891057,3.2526603
-23.84948,3.274205,3.219552
-23.919786,3.275211,3.2115235
-24.00699,3.283947,3.2158475
-24.075357,3.2848804,3.2080617
-24.108273,3.270336,3.1759267
-24.21621,3.289631,3.1975398
-24.279526,3.2893138,3.188243
-24.31477,3.2763567,3.158948
-24.430595,3.3009746,3.1897006
-24.485184,3.2975845,3.1759439
-24.532293,3.290856,3.15695
-24.65189,3.3191738,3.1943235
-24.69939,3.3133147,3.1770144
-24.74545,3.3069012,3.158905
-24.815521,3.3125792,3.1604042
-24.888233,3.3199914,3.164863
-24.890245,3.2918959,3.1119556
-24.989214,3.3133001,3.1393437
-25.0471,3.3140993,3.1334686
-25.107677,3.3165996,3.1304808
-25.114779,3.2910123,3.0818095
-25.222729,3.319299,3.1211176
-25.282806,3.3224773,3.1195993
-25.315859,3.311143,3.0944242
-25.370949,3.312051,3.0893855
-25.43134,3.316214,3.0898027
-25.521889,3.3378525,3.1191
-25.522675,3.308675,3.0648484
-25.612585,3.3308518,3.095312
-25.68798,3.3452532,3.113122
-25.726162,3.3381171,3.095448
-25.770277,3.3346238,3.0838695
-25.837677,3.3454406,3.0961113
-25.87901,3.3407197,3.082672
-25.938856,3.347637,3.0886598
-25.950943,3.3249037,3.0453773
-26.027582,3.3429525,3.070094
-26.07687,3.3440447,3.0666566
-26.112417,3.3364396,3.0487661
-26.147434,3.3285327,3.0304213
-26.200827,3.332916,3.0327168
-26.254019,3.3374925,3.0354314
-26.298014,3.336119,3.0282493
-26.353844,3.343111,3.035201
-26.371662,3.323908,2.9981709
-26.422607,3.3279018,3.0002227
-26.478584,3.335816,3.0089722
-26.541756,3.3493562,3.027319
-26.561768,3.3317542,2.9931598
-26.614882,3.3385315,3.0002456
-26.672224,3.3488708,3.013453
-26.732006,3.3615372,3.030706
-26.766113,3.354915,3.015346
-26.793758,3.3432796,2.9915204
-26.83617,3.3432362,2.9874215
-26.89827,3.35918,3.0105786
-26.937151,3.3568811,3.0027914
-26.971815,3.3512516,2.9893842
-27.00965,3.3483143,2.9806132
-27.043882,3.3424537,2.966906
-27.102068,3.3571382,2.9883327
-27.147247,3.361129,2.9915805
-27.177322,3.3521397,2.972691
-27.211481,3.3467362,2.9599733
-27.24667,3.342307,2.948969
-27.304537,3.3587263,2.9737573
-27.350023,3.3642924,2.98002
-27.377876,3.3535864,2.9584088
-27.404522,3.341607,2.9346375
-27.441053,3.339056,2.927105
-27.487131,3.3460076,2.9359703
-27.541508,3.3616378,2.9598484
-27.579903,3.361722,2.9570284
-27.606392,3.349747,2.9334664
-27.65259,3.3581686,2.9451199
-27.695099,3.3631203,2.950851
-27.744175,3.3754768,2.9694328
-27.785809,3.3802629,2.9750042
-27.814121,3.3705764,2.955605
-27.85112,3.3705611,2.9529686
-27.883665,3.3656113,2.9418359
-27.922182,3.3676393,2.9428296
-27.962145,3.3716254,2.947267
-28.00004,3.3734279,2.9479718
-28.023886,3.3582315,2.9192286
-28.059563,3.357443,2.9155169
-28.09813,3.3604703,2.918477
-28.144127,3.3733857,2.9386706
-28.180546,3.3743327,2.9381208
-28.210615,3.3669767,2.923174
-28.23533,3.3522053,2.895351
-28.274178,3.356704,2.9011002
-28.308891,3.3556824,2.8972845
-28.351719,3.366522,2.9141788
-28.389757,3.3708982,2.9198632
-28.422619,3.367833,2.9126163
-28.450579,3.3572853,2.8923502
-28.48178,3.3515377,2.8804893
-28.520784,3.3582077,2.890346
-28.564526,3.3730755,2.9145737
-28.599882,3.3747547,2.915812
-28.63181,3.3708122,2.9072642
-28.660246,3.3607442,2.8880382
-28.688889,3.3507407,2.8689504
-28.730284,3.363788,2.8902326
-28.772339,3.3788834,2.9151535
-28.807251,3.381146,2.9176574
-28.840609,3.3806212,2.9153185
-28.868006,3.36815,2.8920822
-28.901466,3.3677888,2.8900986
-28.935808,3.3694477,2.8916926
-28.97359,3.3789327,2.9070516
-29.008757,3.3832068,2.9133167
-29.039837,3.3783782,2.903647
-29.073027,3.3784752,2.902656
-29.10305,3.3708951,2.8882232
-29.133804,3.364845,2.8765068
-29.17056,3.374433,2.89229
-29.207767,3.3860738,2.9117236
-29.237787,3.378334,2.8971448
-29.271124,3.3799322,2.8990078
-29.300724,3.3703933,2.8813295
-29.331919,3.3653214,2.8715334
-29.370455,3.3842819,2.9040341
-29.405241,3.3921049,2.9169912
-29.437374,3.391211,2.9146533
-29.467436,3.3825614,2.8987021
-29.497942,3.374965,2.884635
-29.530495,3.3752928,2.8845448
-29.564693,3.3830686,2.8976002
-29.599945,3.3968315,2.9212341
-29.63246,3.3988986,2.924314
-29.664446,3.3985927,2.9232507
-29.695034,3.3904994,2.9085054
-29.72516,3.378545,2.8869905
-29.757442,3.378971,2.8873138
-29.791145,3.3898232,2.9060388
-29.824192,3.3978107,2.9197521
-29.85692,3.4048991,2.9319181
-29.888153,3.3992572,2.9216876
-29.918678,3.384326,2.8951201
-29.950403,3.3803203,2.887837
-29.983025,3.3887272,2.9024615
-30.015587,3.4001796,2.9224863
-30.047644,3.4062893,2.9331307
-30.079065,3.3952112,2.9135156
-30.110826,3.3886545,2.9019022
-30.142803,3.4004385,2.922648
-30.174635,3.3965135,2.915738
-30.206747,3.3842812,2.8942218
-30.238014,3.405685,2.9320207
-30.269604,3.4089122,2.9378166
-30.301552,3.4048207,2.930747
-30.334202,3.392427,2.909081
-30.367205,3.379627,2.886734
-30.3983,3.3900864,2.905408
-30.428179,3.409495,2.9398813
-30.45979,3.4107435,2.942387
-30.492428,3.4041917,2.9311848
-30.525091,3.3987114,2.9219055
-30.55829,3.3908565,2.9084783
-30.590433,3.3904705,2.9082417
-30.621424,3.396561,2.919446
-30.649485,3.4169834,2.9559164
-30.68094,3.418799,2.959653
-30.71193,3.4226587,2.96702
-30.74444,3.4197268,2.9624653
-30.777157,3.4163907,2.9572344
-30.81187,3.4057906,2.9392562
-30.847923,3.391369,2.9145956
-30.87908,3.395651,2.9228783
-30.911451,3.3956091,2.9235888
-30.938713,3.4122677,2.9536996
-30.96825,3.4206824,2.9693422
-30.998253,3.4272165,2.9817076
-31.035713,3.4118888,2.9556818
-31.071651,3.4020302,2.9393125
-31.105322,3.3990874,2.935134
-31.134975,3.40693,2.9499354
-31.165426,3.4124153,2.9606276
-31.19477,3.4204013,2.97574
-31.228247,3.418281,2.9731445
-31.267498,3.4031832,2.9478183
-31.30086,3.4022276,2.947348
-31.329147,3.4124694,2.9665513
-31.356983,3.4232576,2.9867382
-31.386696,3.429772,2.9994612
-31.415075,3.4387639,3.0165544
-31.44795,3.4386911,3.0177984
-31.48086,3.4387083,3.019236
-31.514061,3.4383342,3.0200276
-31.545454,3.441401,3.0268779
-42.63607,1.261478,0.27650404
-42.64069,1.3112173,0.37293434
-42.657745,1.3559439,0.46170187
-42.60647,1.4252701,0.5875859
-42.647736,1.4603655,0.6616769
-42.667442,1.5030441,0.7472038
-42.601162,1.5757716,0.8776612
-42.67254,1.5995536,0.9348302
-42.60835,1.6702328,1.0618482
-42.71621,1.6813397,1.1003451
-42.615776,1.7631159,1.2434139
-42.70993,1.7788606,1.2889624
-42.60541,1.8604319,1.4311867
-42.739334,1.8631289,1.4578567
-42.616966,1.9490466,1.6059012
-42.640404,1.9872539,1.6843362
-42.62823,2.0364976,1.7786918
-42.64157,2.0773675,1.860898
-42.718567,2.098404,1.9147172
-42.743176,2.1355958,1.9917507
-42.882477,2.1381485,2.0197096
-42.909855,2.1746206,2.095985
-43.799637,2.004814,1.9094052
-43.93016,2.0141988,1.9497747
-42.67039,2.5026557,2.703712
-42.7545,2.5214753,2.7553272
-42.7237,2.5716112,2.849616
-42.78427,2.5969062,2.9102669
-42.817963,2.6294174,2.9807568
-42.886047,2.6529415,3.0393682
-42.951073,2.6774385,3.0994892
-43.08404,2.6848655,3.1374154
-43.18374,2.701233,3.1875176
-43.329624,2.706565,3.2237043
-43.474636,2.7127914,3.26163
-43.612236,2.7214782,3.303289
-43.78156,2.7232394,3.3367386
-43.938843,2.7286475,3.3754916
-44.129936,2.7269607,3.4060702
-44.292072,2.7328393,3.446847
-44.455193,2.7392607,3.488998
-44.637207,2.7422407,3.5276928
-44.78621,2.7533464,3.5769992
-44.901035,2.772529,3.636609
-44.955822,2.804999,3.7124162
-45.05677,2.8278599,3.7771978
-46.211613,2.6323137,3.589868
-46.218445,2.6783178,3.6848083
-46.22937,2.7233152,3.778566
-46.192665,2.7776277,3.8827105
-46.213688,2.8202066,3.9736276
-46.215813,2.8663476,4.0684643
-46.440712,2.8699498,4.1175165
-47.07759,2.797513,4.0871944
-47.593056,2.7509074,4.0874524
-48.20034,2.690373,4.076329
-48.897858,2.6169608,4.055704
-49.576263,2.5506506,4.046273
-50.359783,2.4697635,4.026659
-51.1427,2.3931656,4.015946
-51.99021,2.3099165,4.003824
-53.011757,2.2025142,3.9747715
-53.977325,2.1096232,3.9653692
-1.0549679,1.3056014,2.864211
-4.296711,1.6807811,3.0752077
-4.882578,1.7070942,3.0274034
-4.9651947,1.6501887,2.8951306
-5.4158554,1.6575837,2.832059
-6.4389744,1.7685895,2.8839612
-7.1479588,1.8286335,2.8852086
-7.312706,1.7930069,2.7833261
-7.318062,1.7284696,2.6495094
-7.278242,1.655168,2.5055857
-6.5342693,1.377945,2.063655
-7.189459,1.4381857,2.0755162
-7.2018566,1.3733132,1.9406047
-7.2562027,1.2489269,1.6772122
-7.354027,1.1330969,1.424592
-7.4505215,1.0853457,1.3112411
-15.583224,2.7457323,3.329331
-17.056444,3.0314531,3.6644526
-17.108728,3.0031645,3.598487
-17.117455,2.9649515,3.5197096
-18.100737,3.1540031,3.740273
-18.326157,3.1697378,3.735114
-18.504663,3.1754334,3.717451
-18.59674,3.1610599,3.6735039
-18.853416,3.187539,3.6851573
-19.033802,3.1964345,3.6738763
-19.088806,3.1746318,3.621232
-19.297224,3.1921768,3.6229625
-19.456638,3.1981735,3.6094718
-19.614845,3.204676,3.5972643
-19.697247,3.1918817,3.5585938
-19.89495,3.2103913,3.5642676
-20.060436,3.2212293,3.559793
-20.112782,3.2017958,3.5128412
-20.287678,3.216652,3.51504
-20.447742,3.228283,3.5132108
-20.514416,3.21411,3.4747005
-20.732738,3.2439966,3.5002246
-20.8001,3.2310083,3.4640985
-20.939316,3.2395265,3.4595957
-21.013733,3.2293806,3.4281487
-21.164764,3.2427447,3.4315596
-21.277622,3.245243,3.4193764
-21.35617,3.2376685,3.3925786
-21.56802,3.2722592,3.4288592
-21.592276,3.248589,3.3786492
-21.776955,3.2763817,3.405748
-21.78067,3.246498,3.3465133
-21.924915,3.262581,3.3567443
-21.978765,3.2494502,3.3230858
-22.12144,3.2663405,3.3352532
-22.182018,3.2561483,3.3064861
-22.303608,3.2671504,3.3103333
-22.399498,3.2699018,3.3018475
-22.431341,3.2506135,3.2596574
-22.596476,3.2787304,3.2907934
-22.627508,3.2596579,3.2492552
-22.779972,3.2847419,3.2764091
-22.82015,3.2694893,3.2411156
-22.881096,3.2620187,3.2180638
-23.011719,3.2809837,3.2365813
-23.032413,3.2589543,3.19104
-23.179398,3.2853808,3.2218466
-23.254446,3.2848055,3.2104096
-23.286674,3.2677574,3.1730766
-23.435398,3.2970023,3.209251
-23.436459,3.2679195,3.153049
-23.568327,3.2916973,3.181076
-23.663132,3.301131,3.1865249
-23.678879,3.278291,3.1405225
-23.78743,3.2942562,3.156798
-23.852606,3.2925022,3.1448436
-23.874252,3.2723646,3.103405
-23.995003,3.295118,3.1312485
-24.04061,3.2857397,3.1073947
-24.073313,3.2707572,3.0745392
-24.20198,3.2987962,3.11162
-24.260311,3.2958872,3.0986433
-24.284735,3.27769,3.0608563
-24.41267,3.3073628,3.101293
-24.470594,3.3052037,3.0899434
-24.491451,3.2857435,3.050343
-24.627401,3.3212647,3.1010532
-24.689234,3.3219872,3.0948386
-24.702917,3.299449,3.0504174
-24.795107,3.315554,3.069776
-24.865942,3.3216193,3.0727367
-24.899345,3.3091648,3.0451775
-24.913033,3.2866263,3.0009422
-25.025276,3.3148468,3.0410085
-25.098133,3.3233736,3.0485654
-25.105806,3.2978904,2.9996128
-25.185349,3.3105419,3.0142608
-25.26103,3.3216588,3.0265074
-25.315117,3.321483,3.0200129
-25.35618,3.3143613,3.0019789
-25.416878,3.3183227,3.0026007
-25.505539,3.3384483,3.03049
-25.532982,3.3242664,3.000853
-25.602335,3.334263,3.0119677
-25.672651,3.345303,3.0249734
-25.73346,3.3512163,3.0294585
-25.750618,3.3313735,2.990512
-25.824097,3.3454278,3.0089421
-25.88181,3.3503895,3.0121045
-25.936127,3.3536026,3.0124016
-25.960703,3.338475,2.9816403
-26.01675,3.343196,2.984651
-26.079397,3.3524969,2.9955535
-26.125736,3.3516579,2.9892888
-26.151262,3.3373482,2.960116
-26.19821,3.3371723,2.9551024
-26.248062,3.3391752,2.9538875
-26.319792,3.3563533,2.9787202
-26.344376,3.3416674,2.9491014
-26.372734,3.3294773,2.9237833
-26.440178,3.3448198,2.9457483
-26.493345,3.3505511,2.9513197
-26.54628,3.3564737,2.9573069
-26.559406,3.3335786,2.9137797
-26.625107,3.3493428,2.9368434
-26.679785,3.3574333,2.9467897
-26.733625,3.3653042,2.9564443
-26.768656,3.359086,2.9418502
-26.796734,3.3474867,2.9179993
-26.844261,3.3511736,2.92062
-26.903263,3.364356,2.9397535
-26.94403,3.3632886,2.934289
-26.980068,3.358506,2.9224377
-27.007408,3.3465464,2.8981757
-27.054287,3.3509696,2.9023924
-27.116081,3.368477,2.9294214
-27.156445,3.3680682,2.925386
-27.188362,3.3604164,2.9087949
-27.20967,3.3432832,2.875723
-27.245785,3.339256,2.8655095
-27.302423,3.35413,2.8883104
-27.349195,3.3604434,2.8962564
-27.398067,3.369113,2.9083838
-27.425007,3.357233,2.8846645
-27.45672,3.3498294,2.8687973
-27.508781,3.3624477,2.8880043
-27.560463,3.3752494,2.907609
-27.590698,3.366854,2.8901482
-27.612411,3.3496015,2.8571877
-27.657581,3.3565514,2.8666978
-27.705044,3.3663416,2.881256
-27.7597,3.3843896,2.9103832
-27.797405,3.3845994,2.908245
-27.82085,3.3691044,2.87854
-27.854214,3.3645196,2.8680425
-27.899853,3.3740966,2.8825078
-27.941309,3.3792748,2.8892894
-27.984875,3.3873186,2.9011726
-28.015732,3.3804252,2.8867822
-28.04596,3.372692,2.8709416
-28.074127,3.362279,2.8504019
-28.110065,3.3615837,2.8470416
-28.15944,3.3784971,2.8748207
-28.197525,3.3812704,2.877684
-28.227596,3.373519,2.86199
-28.251738,3.3574991,2.8317022
-28.286507,3.355912,2.8269644
-28.323545,3.357676,2.828195
-28.377132,3.3837745,2.8725538
-28.407398,3.3764598,2.8578048
-28.439648,3.3720229,2.848185
-28.46833,3.362049,2.8287845
-28.503746,3.36246,2.8278217
-28.544636,3.3718965,2.8429098
-28.58838,3.3866355,2.8674564
-28.621386,3.384078,2.8613548
-28.649492,3.3731103,2.840355
-28.677298,3.36126,2.8178105
-28.714512,3.3660383,2.8248358
-28.754126,3.3756645,2.8405204
-28.798454,3.3949046,2.873343
-28.831537,3.393374,2.8692832
-28.86058,3.3838396,2.8510194
-28.889826,3.3743722,2.832901
-28.926731,3.380718,2.8429546
-28.964323,3.3890812,2.8566413
-29.002956,3.4004238,2.8756766
-29.035868,3.399433,2.8727865
-29.066751,3.393735,2.8615441
-29.095001,3.381395,2.8384948
-29.126955,3.377765,2.8309937
-29.161545,3.3809474,2.8356714
-29.19959,3.3938506,2.8577194
-29.234707,3.3996391,2.8671207
-29.265501,3.3934708,2.8552284
-29.295307,3.3839998,2.8374734
-29.328096,3.3832943,2.8353872
-29.36295,3.3894413,2.8455658
-29.400038,3.403908,2.870634
-29.43335,3.4063792,2.8743238
-29.464245,3.4002182,2.8626342
-29.494162,3.3897715,2.8433175
-29.526438,3.3881276,2.8397527
-29.561302,3.3977304,2.8563132
-29.59654,3.4103434,2.8782878
-29.628864,3.41042,2.8778977
-29.660427,3.4066916,2.8707395
-29.691633,3.4006102,2.859407
-29.72249,3.3916874,2.8430257
-29.75461,3.3896563,2.8389926
-29.7878,3.3950133,2.8481984
-29.822351,3.4121497,2.878499
-29.85465,3.4137855,2.8811197
-29.886446,3.4111178,2.8760762
-29.917324,3.3978038,2.852026
-29.94868,3.3865185,2.8316326
-29.98083,3.3831153,2.8253665
-30.014334,3.4037008,2.8620324
-30.046719,3.4097369,2.8727112
-30.078936,3.415368,2.882697
-30.110762,3.4054663,2.864934
-30.142792,3.38247,2.823781
-30.175093,3.3922536,2.841288
-30.207275,3.3962634,2.8485007
-30.23889,3.4140182,2.8803272
-30.270884,3.4142878,2.8809114
-30.303076,3.4112246,2.875567
-30.335909,3.4004412,2.8564467
-30.368563,3.3951085,2.847108
-30.399841,3.405462,2.865851
-30.430439,3.419793,2.8917356
-30.461874,3.4244525,2.9003568
-30.49458,3.4189627,2.890862
-30.528435,3.4067426,2.869368
-30.56276,3.3936405,2.8463335
-30.595493,3.3918235,2.8435059
-30.629723,3.3823113,2.8269567
-30.654493,3.4219847,2.8983412
-30.684723,3.4310951,2.9151292
-30.71658,3.4320247,2.9173298
-30.750484,3.4243014,2.9041042
-30.7846,3.4166715,2.8910809
-30.820059,3.4047735,2.8704715
-30.853313,3.4021778,2.8665113
-30.88665,3.3996708,2.862743
-30.917898,3.4045067,2.8721166
-30.94392,3.42585,2.9109817
-30.974915,3.430345,2.9198012
-31.01103,3.4194806,2.901248
-31.045074,3.4154685,2.894958
-31.07959,3.4105868,2.8871512
-31.110996,3.41446,2.8949938
-31.141582,3.4203353,2.9064345
-31.170696,3.4296455,2.9240284
-31.203384,3.4299116,2.925531
-31.241419,3.417807,2.9050298
-31.276411,3.4134746,2.8984141
-31.308502,3.415932,2.9039283
-31.337666,3.4246793,2.920671
-31.36664,3.4334948,2.937561
-31.397774,3.4376144,2.9461222
-31.430523,3.4384832,2.9489317
-31.464516,3.437064,2.9477086
-31.493526,3.4452267,2.963553
-31.534515,3.4311914,2.9399772
-42.587574,1.4162784,0.36217785
-42.636005,1.449209,0.43302202
-42.659313,1.5409265,0.6148367
-42.607536,1.6084659,0.7390437
-42.58491,1.6650908,0.8462539
-42.64437,1.6930459,0.90946007
-42.65153,1.7387457,0.9998379
-42.61435,1.7989316,1.1121755
-42.64468,1.836124,1.1894803
-42.65119,1.8809497,1.2783337
-42.593044,1.946343,1.3980718
-42.650703,1.9739459,1.460885
-42.601013,2.0355113,1.5745454
-42.614796,2.076551,1.6574135
-42.63054,2.1167417,1.7389965
-42.643883,2.1574404,1.8213096
-42.676838,2.1919904,1.8945537
-42.754368,2.213174,1.9482632
-42.68264,2.278512,2.066584
-42.92206,2.2525413,2.0519595
-43.007828,2.2720764,2.1039472
-43.6977,2.120364,1.9096904
-42.59015,2.5613148,2.6139832
-42.66544,2.5825515,2.66818
-42.834038,2.5790954,2.6879191
-42.739677,2.6458557,2.8063602
-42.815834,2.667308,2.861395
-42.92104,2.6815252,2.90667
-43.031654,2.694797,2.951007
-43.132977,2.7108593,2.9995418
-43.265533,2.7195883,3.038476
-43.38607,2.731854,3.0826688
-43.550133,2.734139,3.1139293
-43.685505,2.744046,3.155973
-43.844154,2.7490923,3.1921096
-44.043045,2.7455595,3.2176108
-44.17665,2.7579594,3.2646885
-44.340206,2.7641883,3.304316
-44.552704,2.7602918,3.3316226
-44.67499,2.7772732,3.3864102
-44.8245,2.7888725,3.4349017
-44.93043,2.8104572,3.4965215
-45.014305,2.8371,3.5648465
-45.097836,2.864096,3.6339393
-46.201336,2.6826708,3.4497333
-46.216476,2.727036,3.5429606
-46.207077,2.7761464,3.6418452
-46.199795,2.8245692,3.7397943
-46.18315,2.8745425,3.8394384
-46.256027,2.9072056,3.918964
-46.609375,2.8876119,3.9392834
-46.895737,2.8821914,3.977365
-47.191963,2.8764226,4.016545
-47.43717,2.8812535,4.068886
-47.973824,2.836083,4.068579
-48.591827,2.7796946,4.059327
-49.277874,2.715025,4.0449
-49.968,2.6533258,4.037472
-50.754646,2.5794168,4.0217247
-51.634224,2.49467,3.9998932
-52.44493,2.4255402,3.9985847
-53.550034,2.3147373,3.9624968
-54.623642,2.2146456,3.943336
-1.0421486,1.4723239,2.7798214
-3.7269115,1.8135908,3.0573916
-4.419655,1.8508537,3.0232334
-4.9365788,1.8631027,2.9654942
-4.9201393,1.7896752,2.8154864
-6.6018066,1.935276,2.8484812
-7.2712097,1.984977,2.844698
-7.2505817,1.9161592,2.705536
-7.3109474,1.8615143,2.5829697
-4.015812,1.1941342,1.726224
-4.757427,1.2563319,1.737443
-7.2561913,1.6535611,2.1625738
-7.2799187,1.5914855,2.0310488
-7.1899853,1.5071702,1.8717399
-7.1909943,1.4399526,1.7334938
-7.3233566,1.3987129,1.628242
-7.4268017,1.3520644,1.516542
-7.435169,1.2861123,1.380188
-7.445486,1.2202859,1.2439365
-15.643905,2.8027136,3.2151265
-15.944014,2.824785,3.214275
-16.181725,2.83447,3.1978087
-17.135792,3.008248,3.4063373
-17.16149,2.9737701,3.3324332
-18.094303,3.1511045,3.551567
-18.331032,3.1692953,3.5528607
-18.526516,3.1788707,3.5429692
-18.582382,3.1555362,3.4874377
-18.85376,3.185408,3.5074172
-18.946354,3.1722052,3.46704
-19.07838,3.1693442,3.441763
-19.295135,3.1888037,3.4490442
-19.504005,3.207413,3.4558434
-19.628805,3.2051039,3.4329562
-19.70008,3.1891687,3.390572
-19.915878,3.2123814,3.40582
-20.055412,3.2160304,3.3929558
-20.127407,3.201759,3.3540082
-20.284489,3.2115102,3.3509688
-20.476833,3.232074,3.364561
-20.530777,3.214122,3.3210397
-20.73024,3.23846,3.3412824
-20.830067,3.2347457,3.319776
-20.947403,3.2366915,3.307135
-21.032927,3.229678,3.2811995
-21.170898,3.2389681,3.280395
-21.291924,3.2437978,3.2731566
-21.36663,3.2348523,3.2450752
-21.553879,3.2616239,3.2722974
-21.620468,3.2511067,3.2423415
-21.75329,3.2621694,3.2460623
-21.777802,3.238677,3.196319
-21.992062,3.2776675,3.2442427
-21.979187,3.242287,3.1762176
-22.164227,3.2733092,3.2124848
-22.188137,3.2505243,3.1644454
-22.304813,3.2596767,3.1669192
-22.406889,3.2643836,3.1626496
-22.515356,3.2718892,3.163085
-22.611034,3.2754266,3.1574717
-22.677532,3.2689283,3.1360593
-22.7753,3.2741158,3.133513
-22.840815,3.2679188,3.112924
-22.947943,3.2775254,3.1179156
-23.014862,3.2725627,3.0996618
-23.042088,3.2527218,3.0574946
-23.218653,3.2904923,3.1087346
-23.245813,3.2711542,3.067658
-23.346718,3.2808754,3.0739193
-23.434525,3.2859578,3.0728478
-23.450083,3.2623546,3.0250778
-23.602228,3.2943404,3.0683732
-23.652409,3.2853143,3.044716
-23.717464,3.2826467,3.0316105
-23.781658,3.2799056,3.0185137
-23.869698,3.2876225,3.0228138
-23.915936,3.277819,2.998322
-24.001991,3.285503,3.002891
-24.056555,3.2798016,2.9854207
-24.084642,3.262497,2.9487534
-24.215294,3.2913778,2.9890628
-24.25983,3.281965,2.9657598
-24.287334,3.264812,2.9295902
-24.42241,3.2977257,2.977282
-24.474138,3.292411,2.9611597
-24.544153,3.295997,2.9600787
-24.638681,3.3117778,2.9796505
-24.68351,3.3039987,2.9597187
-24.73846,3.3013284,2.9484787
-24.811216,3.3077605,2.9527178
-24.899319,3.3223581,2.9709148
-24.90713,3.296674,2.9210167
-24.959656,3.2937276,2.90969
-25.06793,3.320037,2.9481702
-25.109589,3.3121297,2.9286427
-25.145805,3.3014193,2.904399
-25.234165,3.3188336,2.9281917
-25.303625,3.326616,2.9356995
-25.331575,3.3119695,2.904965
-25.38995,3.3142111,2.903183
-25.452816,3.319299,2.9063807
-25.526028,3.3306642,2.920464
-25.54627,3.312,2.8830624
-25.647118,3.3401856,2.9262924
-25.709583,3.346627,2.9322553
-25.766632,3.350235,2.9334354
-25.792192,3.335154,2.902441
-25.868084,3.3507223,2.9244447
-25.908257,3.344816,2.9094248
-25.945967,3.3374717,2.8919678
-25.971357,3.3223956,2.8611546
-26.063404,3.3498917,2.9042525
-26.089409,3.335478,2.874703
-26.142286,3.3385785,2.8756356
-26.172176,3.3267274,2.8506212
-26.219519,3.3265457,2.8459702
-26.273848,3.3313417,2.850068
-26.350204,3.3516471,2.8813214
-26.359789,3.3261485,2.8326774
-26.409035,3.3282232,2.8322372
-26.46783,3.3373942,2.8442879
-26.519516,3.3418765,2.848216
-26.555307,3.3350506,2.8323941
-26.598946,3.3340902,2.8269067
-26.646917,3.3365765,2.8275294
-26.708363,3.3495908,2.8467207
-26.772633,3.365333,2.8708043
-26.79043,3.3454254,2.8322396
-26.82558,3.3389275,2.817299
-26.881783,3.3493316,2.8321934
-26.922062,3.3472962,2.8252268
-26.983892,3.3631415,2.8498745
-26.998951,3.3406274,2.806851
-27.030598,3.3317208,2.7878804
-27.10622,3.3604414,2.8355064
-27.143095,3.3565133,2.8254561
-27.180964,3.3535492,2.8171563
-27.20629,3.339504,2.789258
-27.238087,3.3311179,2.7714167
-27.301598,3.3518167,2.8052254
-27.342148,3.3519187,2.8025513
-27.379854,3.3495333,2.795506
