x,y,z
-46.756714,0.8168256,2.4800315
-46.578182,0.92678,2.6367917
-46.702522,0.9432802,2.7041245
-46.401115,1.0880673,2.8918152
-46.486008,1.1158364,2.9695177
-46.478497,1.1709666,3.0725837
-46.5512,1.2024231,3.1541653
-46.603848,1.2397907,3.2413592
-46.69149,1.2672374,3.320078
-46.84529,1.276345,3.3833885
-47.060947,1.2689312,3.4335175
-47.67549,1.20748,3.4992356
-47.698044,1.255605,3.599463
-47.829704,1.2746139,3.6763525
-47.926918,1.3031704,3.7615938
-48.051254,1.3249967,3.8421907
-48.208565,1.3388419,3.917488
-48.40854,1.3425469,3.9862375
-49.584476,1.1029081,3.877945
-49.58013,1.1618829,3.9927778
-49.604645,1.2134941,4.1022787
-50.20997,1.1247697,4.1153803
-50.86629,1.0271616,4.127059
-51.657516,0.9013362,4.125239
-52.565834,0.75259256,4.1148896
-4.958561,0.35042357,3.8505507
-5.042877,0.22421527,3.572297
-16.278196,0.6189339,1.1649728
-16.417978,0.6187115,1.1295724
-16.507282,0.5992687,1.0719352
-16.591705,0.5781307,1.0125985
-16.70095,0.56716466,0.9657631
-18.649166,0.91132736,1.1163926
-18.69357,0.8800266,1.0501742
-18.714928,0.83828545,0.9708719
-25.37505,2.6618881,2.7401037
-25.452972,2.679848,2.7566438
-25.533585,2.700346,2.7770405
-25.614935,2.722063,2.7994208
-25.684587,2.7360318,2.8109307
-25.758175,2.7534213,2.8275528
-25.817276,2.7607074,2.829844
-25.867668,2.7618604,2.82345
-25.938993,2.7791111,2.8404284
-26.001534,2.790248,2.848763
-26.051939,2.7924566,2.8443289
-26.111609,2.8021913,2.8509421
-26.174486,2.8149118,2.862051
-26.220303,2.814453,2.8541384
-26.262632,2.8113587,2.8424883
-26.340652,2.8377233,2.8739576
-26.351212,2.808831,2.8248205
-26.3985,2.8103542,2.8202167
-26.448444,2.814382,2.819397
-26.496052,2.8166945,2.8161755
-26.540836,2.816801,2.8098187
-26.58877,2.8198946,2.8079605
-26.63551,2.8221965,2.8050451
-26.688974,2.8308482,2.8116155
-26.73177,2.830125,2.8044481
-26.780708,2.8352883,2.8060899
-26.830492,2.8415768,2.8095126
-26.878057,2.8461056,2.8104377
-26.926964,2.852241,2.8138585
-26.977161,2.8599946,2.819799
-27.024193,2.8650038,2.821765
-27.068638,2.8677316,2.8204322
-27.113922,2.8715773,2.8208647
-27.158117,2.87459,2.82015
-27.201256,2.876761,2.8182693
-27.246141,2.881035,2.8196292
-27.29225,2.886932,2.823522
-27.335012,2.8895187,2.8225412
-27.375877,2.8902566,2.81887
-27.41976,2.8945942,2.8206983
-27.463497,2.89907,2.8228269
-27.504932,2.9011896,2.8214931
-27.545845,2.9029353,2.8196783
-27.58709,2.9053059,2.8188887
-27.627403,2.9067976,2.816852
-27.667635,2.9084089,2.8150759
-27.711409,2.9146798,2.8204365
-27.753407,2.919067,2.823031
-27.792913,2.9205458,2.8212962
-27.833883,2.9241703,2.8228955
-27.873207,2.9258854,2.8216734
-27.913198,2.9287348,2.8222518
-27.953453,2.9322135,2.8238645
-27.992857,2.9347901,2.8241806
-28.030733,2.9354348,2.8216252
-28.06996,2.9382398,2.8224359
-28.110123,2.942701,2.82585
-28.146057,2.9411054,2.820085
-28.187347,2.9478583,2.8271499
-28.224497,2.9485388,2.8250017
-28.263535,2.9524283,2.827835
-28.300222,2.952805,2.8253574
-28.336866,2.953284,2.8231015
-28.375607,2.9575033,2.8266501
-28.414217,2.9618359,2.8304434
-28.450632,2.962631,2.8288736
-28.48844,2.9661376,2.8315353
-28.525288,2.9681842,2.8320198
-28.560669,2.9677162,2.8286996
-28.597385,2.9699657,2.8296232
-28.63296,2.9702175,2.8275352
-28.668236,2.9700413,2.8248463
-28.704502,2.972065,2.8256102
-28.741438,2.9757695,2.829031
-28.778503,2.9801054,2.8334908
-28.813318,2.979792,2.8308353
-28.84765,2.978515,2.8267488
-28.883108,2.979975,2.8269491
-28.918507,2.9815311,2.8273592
-28.953419,2.982122,2.826334
-28.98912,2.9849305,2.8288002
-29.024734,2.9878366,2.8314776
-29.059483,2.9887123,2.831069
-29.092676,2.98542,2.8242612
-29.12702,2.985411,2.8225942
-29.162756,2.9897594,2.8277397
-29.197178,2.9904685,2.8273015
-29.231894,2.9923372,2.8287177
-29.266388,2.9937642,2.829505
-29.30068,2.994747,2.8296595
-29.334932,2.99582,2.83001
-29.369144,2.9969838,2.8305564
-29.403986,3.0009189,2.835464
-29.43808,3.0022635,2.8364043
-29.472126,3.0036986,2.8375382
-29.505777,3.0036108,2.8363605
-29.538754,3.0003855,2.8303552
-29.573357,3.0053105,2.8370814
-29.607542,3.008714,2.8414955
-29.641174,3.009516,2.841917
-29.674435,3.008251,2.8391738
-29.70771,3.0070717,2.836617
-29.741524,3.0097501,2.840119
-29.775131,3.0114388,2.842133
-29.808567,3.0121362,2.8426566
-29.841812,3.0113013,2.840846
-29.87547,3.0148687,2.8459458
-29.908863,3.0163646,2.8478713
-29.942028,3.0152478,2.8457794
-29.975372,3.0169156,2.8480778
-30.008623,3.017589,2.8488793
-30.041855,3.0183485,2.8498669
-30.074984,3.0159528,2.8459911
-30.108194,3.015803,2.8456655
-30.141397,3.012498,2.840476
-30.174643,3.0130582,2.841361
-30.207811,3.016945,2.8474827
-30.24096,3.018756,2.850422
-30.274021,3.0217326,2.855228
-30.307335,3.0188546,2.850964
-30.340717,3.016062,2.8468866
-30.373835,3.0176744,2.8497233
-30.406921,3.0193715,2.852744
-30.440132,3.0195348,2.8534274
-30.473642,3.017087,2.8500962
-30.50669,3.01904,2.8536716
-30.53977,3.020538,2.8565912
-30.572979,3.0210435,2.8580155
-30.606518,3.01948,2.8562732
-30.6401,3.0180037,2.8547196
-30.673246,3.0193057,2.8575425
-30.706577,3.0196173,2.8588767
-30.740019,3.0194774,2.859561
-30.7737,3.018349,2.8587627
-30.80766,3.016235,2.8564844
-30.841553,3.0147471,2.8552356
-30.875492,3.0133488,2.8541799
-30.908512,3.0157921,2.8591475
-30.94221,3.015641,2.8601375
-30.977123,3.0112958,2.8546696
-31.01106,3.010789,2.8552184
-31.045027,3.0103722,2.8559604
-31.079185,3.00951,2.8560686
-31.113033,3.009806,2.8580275
-31.146353,3.0117903,2.862659
-31.181505,3.0085332,2.85922
-31.211573,3.0197423,2.8782535
-31.243782,3.0246398,2.8875546
-31.272848,3.0375862,2.9093661
-31.303112,3.0468824,2.925568
-31.3347,3.0525386,2.936185
-31.36707,3.0561543,2.943695
-31.398472,3.061969,2.9546552
-31.431168,3.0646906,2.9608855
-31.462631,3.0701358,2.971375
-31.494242,3.0751321,2.9812193
-31.528278,3.0749424,2.9831138
-31.562601,3.0743186,2.9843965
-31.598015,3.071688,2.9826446
-31.633516,3.0691557,2.9811072
-31.667728,3.0693426,2.9838185
-31.701406,3.0706685,2.9883409
-31.737085,3.0684278,2.9874358
-31.771387,3.068896,2.990757
-31.805408,3.0699792,2.995081
-31.841867,3.066992,2.993217
-31.877804,3.0651495,2.9931746
-31.913815,3.0634086,2.9933524
-31.949257,3.0628054,2.9953384
-31.985071,3.0617847,2.9967494
-32.021275,3.060349,2.99759
-32.05586,3.0615933,3.0025926
-32.09251,3.0598462,3.0030875
-32.130283,3.0566642,3.00146
-32.165325,3.057695,3.006329
-32.202187,3.0562644,3.0075097
-32.239483,3.05443,3.0081444
-32.279835,3.0486271,3.00281
-32.319977,3.0434582,2.99852
-32.363342,3.0343504,2.9883256
-32.406166,3.0263968,2.9799752
-32.445663,3.023132,2.978826
-32.49247,3.0109022,2.964168
-32.5623,2.970621,2.9071374
-46.742615,0.6908827,2.0127249
-46.615566,0.78723836,2.1600413
-46.626923,0.839283,2.2616825
-46.632004,0.8929696,2.3649087
-46.643433,0.9989841,2.5697312
-46.605476,1.0645332,2.6841831
-46.393425,1.1807942,2.8469858
-46.413406,1.2277231,2.9424763
-46.42898,1.2757292,3.0389857
-46.49324,1.3096418,3.1223965
-46.585037,1.3358941,3.1990805
-46.675514,1.362787,3.276824
-46.783424,1.3851438,3.3509912
-46.98314,1.3828783,3.4040565
-47.237514,1.3668437,3.446372
-47.561966,1.3334439,3.4754133
-47.800854,1.3242598,3.5269828
-47.791653,1.3807456,3.6346316
-47.869896,1.4144187,3.723452
-48.007538,1.4332001,3.8007379
-48.120125,1.4588196,3.884285
-48.33155,1.4603379,3.9498348
-49.582783,1.208199,3.823812
-49.611954,1.2588744,3.9326963
-49.637505,1.3103039,4.0422277
-49.737213,1.3441021,4.139226
-50.396202,1.2478433,4.145954
-51.23838,1.1129885,4.131259
-52.16415,0.96374965,4.113376
-53.049137,0.82873106,4.1118317
-5.078022,0.5908437,3.949449
-4.82057,0.4631753,3.7675686
-4.435396,0.3055942,3.5630927
-4.447941,0.23417902,3.4161358
-4.951334,0.20002103,3.2020512
-15.000954,0.5690589,1.1833959
-15.1243725,0.5569694,1.1303763
-15.248742,0.54570603,1.0788336
-15.366223,0.5323982,1.0253825
-15.405843,0.4906094,0.93856144
-15.835422,0.59500885,1.0264692
-16.278399,0.7073548,1.1259289
-16.424252,0.70887876,1.0935955
-16.521246,0.69218254,1.0397344
-16.677128,0.69882035,1.0147047
-16.703857,0.65521646,0.92867947
-16.73126,0.611624,0.842679
-16.76355,0.56974006,0.75880575
-18.71063,0.9644892,1.0255747
-18.711597,0.9140072,0.93472815
-18.666557,0.84249616,0.8165779
-18.583363,0.75286174,0.67458725
-18.58105,0.6987722,0.5784416
-18.62191,0.6639745,0.50741005
-25.39922,2.7190669,2.7455082
-25.468754,2.7310357,2.7541146
-25.576385,2.77014,2.8023152
-25.641201,2.7800899,2.808435
-25.71255,2.795165,2.8221984
-25.781033,2.8087378,2.8339658
-25.83387,2.8114042,2.8299708
-25.894455,2.8200846,2.8349142
-25.951166,2.8262887,2.836382
-26.010056,2.8345032,2.8409467
-26.068691,2.842933,2.8459783
-26.131182,2.8547583,2.8561654
-26.18694,2.8618023,2.8594527
-26.236702,2.86447,2.8564072
-26.285763,2.8668492,2.8530498
-26.331865,2.8670914,2.8466363
-26.369461,2.8605556,2.8302588
-26.415485,2.8610768,2.8244505
-26.465845,2.8654652,2.8245049
-26.511118,2.8658304,2.8186731
-26.563358,2.8724198,2.822237
-26.616463,2.880128,2.8275962
-26.664545,2.883789,2.8270192
-26.713535,2.8885539,2.8282046
-26.762878,2.8939567,2.8304577
-26.812553,2.9000006,2.8337855
-26.85539,2.9000292,2.8281708
-26.900692,2.9025762,2.8264403
-26.947876,2.9071832,2.8279123
-26.988956,2.9061906,2.8210306
-27.031467,2.9067647,2.8165994
-27.077297,2.9108462,2.8175635
-27.123936,2.9160426,2.8203154
-27.167084,2.918,2.818252
-27.210598,2.9205785,2.8172202
-27.25539,2.9247546,2.818705
-27.301405,2.9305382,2.8227305
-27.343163,2.9320686,2.8203716
-27.385727,2.934708,2.819786
-27.427734,2.9369879,2.818737
-27.470947,2.9408748,2.820228
-27.510143,2.940453,2.8152137
-27.551424,2.9426215,2.814238
-27.592184,2.944419,2.8127737
-27.632439,2.9458427,2.8108144
-27.674656,2.9498773,2.8129396
-27.718346,2.9560392,2.8184156
-27.75827,2.957837,2.817267
-27.797323,2.9587507,2.8148332
-27.837467,2.961286,2.8149695
-27.877508,2.9639418,2.8153653
-27.918194,2.9677248,2.8175755
-27.95912,2.9721353,2.8208313
-27.997719,2.9736338,2.8196645
-28.035522,2.9742298,2.817173
-28.073624,2.9754422,2.8157015
-28.11339,2.9793084,2.8184075
-28.156097,2.9878798,2.828477
-28.19354,2.9889264,2.826961
-28.232237,2.9921243,2.8288498
-28.270824,2.995436,2.8309832
-28.30707,2.9952674,2.8277798
-28.345469,2.998797,2.8303866
-28.382523,3.000379,2.8300323
-28.416798,2.9974263,2.8226838
-28.45376,2.9992106,2.8227677
-28.490644,3.0010986,2.8230772
-28.526604,3.001537,2.821189
-28.562796,3.0025926,2.8203244
-28.599474,3.0047872,2.8212976
-28.634209,3.0034444,2.8168106
-28.669462,3.0032358,2.8141499
-28.705706,3.0052073,2.8149552
-28.74237,3.008323,2.8176107
-28.778452,3.010496,2.8188524
-28.813982,3.0117218,2.8186731
-28.848993,3.0119972,2.8170624
-28.884197,3.0128908,2.8164768
-28.920229,3.0159795,2.8193893
-28.955313,3.017065,2.81922
-28.990759,3.0192971,2.8209057
-29.025127,3.0189934,2.8186698
-29.060646,3.0219426,2.8215952
-29.096643,3.0265706,2.8272142
-29.130865,3.026546,2.825585
-29.166306,3.0303104,2.8299627
-29.199928,3.0288835,2.8262367
-29.235708,3.034424,2.83352
-29.271027,3.0390034,2.8393483
-29.305302,3.0404975,2.8403807
-29.338348,3.0378394,2.8349319
-29.372425,3.0389814,2.8355165
-29.406054,3.03862,2.8337855
-29.439415,3.0372818,2.8305702
-29.474022,3.0413494,2.8359199
-29.508287,3.0444446,2.8397927
-29.541471,3.042838,2.83631
-29.574677,3.0413172,2.8330112
-29.608498,3.0430794,2.8349404
-29.641802,3.042264,2.8328567
-29.675373,3.0431345,2.8334827
-29.70988,3.0504968,2.8444004
-29.742796,3.0478067,2.8395128
-29.776585,3.0516093,2.8449202
-29.809902,3.0522954,2.8454614
-29.842915,3.0503953,2.8419714
-29.875864,3.0475106,2.836979
-29.909489,3.052195,2.8439827
-29.94285,3.0548284,2.8477993
-29.975729,3.0505948,2.8408275
-30.008831,3.0491195,2.8382597
-30.042002,3.0487998,2.837566
-30.075161,3.0480294,2.8362122
-30.108376,3.0500197,2.8392663
-30.141542,3.0520961,2.842505
-30.174688,3.0510466,2.8408618
-30.207878,3.0490122,2.8377118
-30.241014,3.0502737,2.839816
-30.274076,3.0526905,2.8437939
-30.307087,3.0551918,2.8479552
-30.340462,3.0513587,2.8421688
-30.373762,3.049752,2.8399467
-30.40635,3.0567853,2.8514109
-30.43995,3.0521412,2.8444963
-30.473366,3.0502572,2.8419886
-30.506699,3.0495284,2.841354
-30.539627,3.0520895,2.845961
-30.57297,3.051532,2.8456974
-30.605747,3.054796,2.8515134
-30.639086,3.05441,2.851622
-30.672922,3.0514436,2.847714
-30.706528,3.0501654,2.846519
-30.740067,3.0495076,2.846355
-30.773405,3.0500019,2.8480568
-30.807102,3.0489864,2.8474317
-30.840458,3.049654,2.8495102
-30.87368,3.0509393,2.8526125
-30.908129,3.0475311,2.8483763
-30.94166,3.0479298,2.8501868
-30.975199,3.048416,2.8521867
-31.009678,3.0458097,2.8493748
-31.043585,3.0454137,2.850093
-31.07668,3.0477526,2.8551645
-31.109392,3.0512342,2.862082
-31.142044,3.0547981,2.8691788
-31.17259,3.0642505,2.8855734
-31.202942,3.0737746,2.9021235
-31.235275,3.077576,2.9097347
-31.26734,3.081986,2.9183497
-31.298908,3.0875275,2.9287882
-31.331234,3.0910473,2.9361038
-31.363728,3.0941243,2.9427762
-31.39481,3.1004293,2.954554
-31.427406,3.1031466,2.9607606
-31.461403,3.1028113,2.9622412
-31.49617,3.1010005,2.9614697
-31.529999,3.1013725,2.964168
-31.564102,3.1013138,2.966249
-31.599287,3.099267,2.965279
-31.634546,3.097318,2.9645224
-31.669054,3.0970237,2.9664073
-31.702478,3.0988963,2.9717298
-31.736462,3.099823,2.9756308
-31.771624,3.0987747,2.9765115
-31.806543,3.0983403,2.9784083
-31.842112,3.0969722,2.9789104
-31.878054,3.0951903,2.9788313
-31.913754,3.0940232,2.9797702
-31.949835,3.0924442,2.9801311
-31.98566,3.09148,2.9815102
-32.02154,3.0906177,2.983109
-32.05782,3.0893462,2.984137
-32.09485,3.0871603,2.9838119
-32.132313,3.084573,2.9829335
-32.168808,3.0836184,2.9846482
-32.205364,3.082769,2.98659
-32.24308,3.0805073,2.9864178
-32.283863,3.0743194,2.9802542
-32.324448,3.0687616,2.9751425
-32.363663,3.0653412,2.9734035
-32.40572,3.0585275,2.9665146
-32.447575,3.0523474,2.9606833
-32.495617,3.038803,2.9436169
-32.560642,3.0049756,2.895503
-46.540558,0.8522191,2.0322824
-46.584465,0.8941138,2.1234317
-46.62947,1.0995891,2.5276232
-46.583115,1.1670985,2.6446657
-46.333775,1.2926052,2.8187056
-46.36476,1.3360999,2.9108014
-46.47049,1.3583663,2.9824176
-46.45559,1.4146788,3.0871658
-46.555763,1.4388225,3.161275
-46.60595,1.476938,3.2489614
-46.719418,1.4980006,3.3211198
-46.88809,1.5047591,3.3808713
-47.073643,1.5078256,3.4382954
-47.41406,1.4714203,3.4618578
-47.77774,1.4308343,3.4839244
-49.52906,1.0392966,3.2064562
-47.815372,1.5287664,3.6867967
-47.900673,1.5609758,3.7742944
-48.042694,1.5795152,3.8510728
-48.188244,1.5977771,3.9285135
-48.43203,1.5931349,3.9887757
-49.56494,1.3795612,3.8887033
-49.57603,1.4341974,4.0005417
-49.60939,1.483494,4.1083713
-50.255207,1.3933783,4.114822
-50.969604,1.2913494,4.1175203
-51.712257,1.1869235,4.123851
-52.69494,1.0339828,4.102889
-53.641655,0.8941705,4.0980935
-54.646183,0.7471645,4.0959926
-4.90049,0.6954806,3.8516107
-4.347822,0.43253565,3.4749856
-4.7660255,0.44917202,3.3921962
-4.9633045,0.4192357,3.27734
-5.033024,0.3616476,3.1425476
-5.0680294,0.29628158,3.0020275
-5.056011,0.22000957,2.8529048
-13.755823,0.52450514,1.1741438
-13.832634,0.4916892,1.0936651
-13.968412,0.4789896,1.0369425
-14.007036,0.43353105,0.94229126
-14.6015,0.58045626,1.0751905
-15.055191,0.6820221,1.1569853
-15.147873,0.65878224,1.0915513
-15.276609,0.6486864,1.0422797
-15.4079895,0.6400683,0.9953079
-15.398085,0.58040977,0.88672066
-16.13205,0.79466796,1.1132517
-16.406425,0.8427906,1.138751
-16.491018,0.82110596,1.0790963
-16.572449,0.79843044,1.018497
-16.693333,0.79111433,0.9773588
-16.720013,0.747694,0.8913412
-16.749908,0.70528007,0.806602
-16.788883,0.66623235,0.72615194
-16.83516,0.6299453,0.649281
-16.829336,0.57244706,0.5453782
-18.643448,1.1120095,1.1293731
-18.715897,1.0929713,1.0790687
-18.70051,1.0362632,0.9795866
-18.716133,0.9924216,0.89686775
-18.695292,0.93219304,0.79246044
-18.62801,0.85064864,0.6595907
-18.700817,0.83080864,0.608449
-18.612736,0.7381959,0.46030807
-25.438272,2.7849786,2.7619367
-25.501213,2.7924263,2.7645445
-25.577778,2.8096848,2.7818027
-25.676409,2.8429742,2.8229856
-25.712759,2.8332753,2.800753
-25.794224,2.8557992,2.8264184
-25.845156,2.8570142,2.8206282
-25.905083,2.8650515,2.8251147
-25.97378,2.8799806,2.8400316
-26.02954,2.8858037,2.8415232
-26.086868,2.8931706,2.84546
-26.146896,2.902991,2.8532124
-26.20314,2.9103293,2.8573866
-26.257416,2.9165125,2.8599606
-26.323502,2.9324183,2.877294
-26.3381,2.9076042,2.8334231
-26.385227,2.9088123,2.8288217
-26.42947,2.9078853,2.8210936
-26.479734,2.9121547,2.8213234
-26.529287,2.9161344,2.8212256
-26.575972,2.91797,2.817984
-26.624695,2.9218142,2.817893
-26.673794,2.9262872,2.8188653
-26.724308,2.9323254,2.8223276
-26.772013,2.936197,2.8225975
-26.818016,2.93882,2.821062
-26.859804,2.937828,2.814098
-26.905092,2.9402676,2.8124661
-26.952766,2.945219,2.814777
-26.9963,2.9465337,2.8116083
-27.041214,2.9494116,2.8109288
-27.089396,2.9557738,2.8156939
-27.134495,2.9594264,2.816393
-27.176609,2.960349,2.8129764
-27.221455,2.964285,2.8142886
-27.266153,2.968365,2.8159127
-27.309328,2.9711392,2.815609
-27.350119,2.9716284,2.8118553
-27.393526,2.9751525,2.8128757
-27.438564,2.9807591,2.8172083
-27.480804,2.9835856,2.817318
-27.524649,2.9884973,2.820746
-27.56918,2.9945276,2.8259974
-27.608904,2.9953015,2.8231616
-27.650215,2.9981608,2.8236437
-27.690184,2.9996676,2.8220963
-27.730066,3.001294,2.8208075
-27.77066,3.0040293,2.8213224
-27.81114,3.0068872,2.8221016
-27.85035,3.0083754,2.8208156
-27.887953,3.0079877,2.8166642
-27.927393,3.010202,2.8166509
-27.967476,3.0135334,2.8184571
-28.007076,3.0164833,2.8197384
-28.047638,3.0210567,2.823635
-28.086641,3.0237412,2.8246412
-28.126234,3.0275478,2.8274784
-28.16365,3.0284448,2.8258119
-28.20268,3.0319753,2.828352
-28.240273,3.0335953,2.8279524
-28.27811,3.0358303,2.8285856
-28.31363,3.0346181,2.823851
-28.351011,3.036556,2.8241405
-28.388618,3.0391092,2.8254642
-28.425827,3.0412602,2.8262153
-28.463543,3.0445387,2.8288107
-28.500566,3.0469015,2.8300214
-28.536652,3.0478313,2.8290286
-28.572126,3.0478346,2.8266287
-28.610283,3.0530748,2.8325734
-28.646162,3.0543082,2.8322382
-28.680939,3.0535781,2.8288507
-28.717224,3.0560381,2.830573
-28.752928,3.057566,2.8308764
-28.787838,3.0576396,2.82893
-28.823898,3.060397,2.8312974
-28.8601,3.063773,2.8347054
-28.89552,3.0656917,2.8358564
-28.929775,3.065109,2.8330884
-28.964655,3.0661776,2.8329992
-28.999899,3.0683823,2.8347692
-29.034063,3.068076,2.8326
-29.069183,3.070469,2.8347797
-29.103281,3.0703456,2.8330073
-29.138454,3.0734491,2.8364263
-29.173536,3.076648,2.8400521
-29.208181,3.0788944,2.842215
-29.241598,3.0775647,2.8387299
-29.275183,3.0768461,2.8362699
-29.309225,3.0777907,2.8365116
-29.342785,3.0772479,2.8344336
-29.376621,3.0778449,2.8342233
-29.411102,3.081161,2.8384027
-29.445103,3.0829892,2.8402605
-29.478554,3.0828006,2.8389487
-29.51211,3.0832253,2.838667
-29.545753,3.0842652,2.839417
-29.57915,3.0843377,2.8386707
-29.612629,3.0850246,2.8389573
-29.646358,3.087383,2.8419638
-29.679417,3.086131,2.8392496
-29.712494,3.0849643,2.83672
-29.746033,3.087055,2.8394475
-29.77924,3.0871174,2.8389807
-29.812437,3.0872655,2.8386993
-29.845623,3.0874987,2.8386035
-29.878796,3.0878177,2.8386931
-29.912174,3.0908697,2.843205
-29.945326,3.0918899,2.844514
-29.978289,3.090347,2.8417706
-30.01136,3.090478,2.8417535
-30.044403,3.0901647,2.841074
-30.077465,3.090465,2.8414245
-30.110525,3.091381,2.8428087
-30.143557,3.0902622,2.8409843
-30.1766,3.090818,2.8418884
-30.209564,3.0946379,2.848065
-30.24249,3.096953,2.8518806
-30.275528,3.0956435,2.849944
-30.308739,3.0917706,2.843954
-30.341763,3.0922208,2.8449302
-30.374737,3.0932858,2.8469381
-30.407787,3.0933764,2.8474355
-30.440838,3.0935519,2.8481169
-30.474009,3.0927541,2.84729
-30.50727,3.0915132,2.8458033
-30.539993,3.0945892,2.8512688
-30.572964,3.0956337,2.8535333
-30.606504,3.0930638,2.850068
-30.639935,3.0916383,2.8484826
-30.672735,3.0939958,2.8529916
-30.705593,3.0959094,2.8568392
-30.73885,3.0957966,2.8574982
-30.772577,3.0936625,2.8549767
-30.805885,3.0937247,2.8560128
-30.838953,3.0949254,2.8589187
-30.872139,3.0956855,2.8611693
-30.90615,3.093377,2.85857
-30.939077,3.095363,2.8628755
-30.972425,3.095857,2.86485
-31.006247,3.0948646,2.8645034
-31.040432,3.0929127,2.8626785
-31.076025,3.0868611,2.8543715
-31.10864,3.0903294,2.861292
-31.140835,3.094928,2.870057
-31.172012,3.1022189,2.8831577
-31.202852,3.1101074,2.897253
-31.234524,3.115463,2.9073596
-31.265892,3.1214182,2.918466
-31.297985,3.1253688,2.9264302
-31.33066,3.1278408,2.9320898
-31.364634,3.1272807,2.9329824
-31.39796,3.1283681,2.936544
-31.431055,3.130063,2.9411201
-31.465336,3.129255,2.9417768
-31.50015,3.1275077,2.9409957
-31.533777,3.1284373,2.9445162
-31.56741,3.1294568,2.9482307
-31.601048,3.1305652,2.9521394
-31.636572,3.1281638,2.950543
-31.671907,3.1263754,2.949976
-31.70619,3.1267369,2.952867
-31.740211,3.1277046,2.95677
-31.77541,3.1267178,2.9576402
-31.810368,3.1263406,2.9595294
-31.844757,3.1270795,2.9632378
-31.881645,3.1238391,2.9607258
-31.917692,3.122231,2.9608493
-31.952848,3.1222475,2.9635935
-31.988039,3.1223614,2.9665494
-32.025597,3.1190333,2.964148
-32.06191,3.117835,2.9651604
-32.098633,3.1162367,2.9656067
-32.135433,3.1147442,2.9662824
-32.171593,3.1143625,2.9687653
-32.20889,3.1125803,2.9691129
-32.24773,3.1089046,2.9665604
-32.28707,3.104847,2.96348
-32.326546,3.1009083,2.9606576
-32.36884,3.0936072,2.952651
-32.410954,3.0869374,2.9457126
-32.452473,3.0813918,2.9406095
-32.502975,3.0650976,2.9188218
-46.412758,0.8277993,1.7158823
-46.382355,0.89316773,1.8326364
-46.40637,0.9411216,1.9299879
-46.51258,0.9637244,1.9997578
-46.58471,0.9969864,2.0815039
-46.64904,1.0326996,2.1661587
-47.06523,1.0202403,2.2480736
-47.14534,1.0525539,2.3307724
-47.39891,1.0354414,2.3628788
-46.580963,1.3225632,2.7067676
-46.388508,1.429256,2.863471
-46.403038,1.477211,2.9602227
-46.37951,1.5353432,3.0670056
-46.477676,1.5601737,3.1410046
-46.58768,1.5821662,3.212759
-46.641953,1.6192498,3.2994828
-46.801136,1.6290464,3.3607445
-46.972466,1.6364157,3.4206543
-47.18058,1.6352007,3.4736881
-47.43325,1.6237814,3.5187397
-47.892017,1.5624485,3.5208673
-47.725227,1.6570511,3.6627908
-47.845623,1.6808,3.7422667
-47.962803,1.7057703,3.8234882
-48.12262,1.7211001,3.8973484
-48.302303,1.7324808,3.9689655
-49.57208,1.4935396,3.839974
-49.60137,1.5439284,3.9486237
-49.602036,1.6006496,4.0622773
-49.724228,1.6301811,4.155194
-50.55031,1.5062225,4.13498
-51.353798,1.3916504,4.127596
-52.24579,1.2625895,4.115878
-53.146114,1.1366134,4.112955
-54.20025,0.9836211,4.0986996
-4.8003273,0.9033675,3.917511
-4.80727,0.8329568,3.7725601
-4.2939034,0.65538526,3.5489216
-4.8571415,0.69884825,3.4875016
-4.914465,0.6383853,3.3501244
-4.9582043,0.575027,3.2107544
-5.0510464,0.5222516,3.0800471
-5.0734806,0.4542055,2.937367
-5.0901833,0.3846786,2.7934756
-5.109825,0.3155694,2.6499186
-5.128565,0.24602008,2.5059772
-13.581825,0.6373067,1.1728945
-13.756681,0.63574123,1.12923
-13.83704,0.6039214,1.0502424
-14.013674,0.6042478,1.0101085
-14.01849,0.54768324,0.90203285
-14.910584,0.79205775,1.1594114
-15.074362,0.7924943,1.122942
-15.23271,0.79182196,1.0857854
-15.335004,0.7722354,1.0258951
-15.388752,0.7357693,0.9454026
-15.579236,0.7482462,0.92618656
-16.225819,0.92684317,1.1163483
-16.35701,0.9213846,1.0770946
-16.490711,0.917428,1.0402403
-16.58925,0.9009278,0.9878998
-16.769768,0.9157045,0.9759555
-17.237713,1.0411258,1.1070862
-17.452602,1.0722666,1.1183405
-17.631313,1.0905955,1.113812
-17.793545,1.1034384,1.1028142
-17.96623,1.1213164,1.0990214
-18.116735,1.1312518,1.0854344
-18.338238,1.1708162,1.1115246
-18.471188,1.1754503,1.092155
-18.656555,1.2024822,1.1030674
-18.692879,1.1682,1.0327382
-18.699535,1.1212025,0.9454045
-18.712666,1.0765486,0.8611536
-18.55258,0.95667243,0.6752138
-18.56473,0.91005397,0.5878458
-18.625774,0.884593,0.5292144
-18.525898,0.78744197,0.37283993
-18.51287,0.72793627,0.26752663
-25.422298,2.82041,2.7305832
-25.513956,2.8468256,2.7621517
-25.652906,2.9062755,2.843639
-25.687122,2.8951933,2.819325
-25.728334,2.8889618,2.8023872
-25.794888,2.9006677,2.8126311
-25.838455,2.8964958,2.799015
-25.921497,2.9209044,2.8288026
-26.038258,2.9706833,2.8973184
-26.08273,2.9685326,2.887229
-26.137836,2.9744844,2.8895664
-26.176273,2.9682107,2.8733926
-26.21186,2.9598224,2.854063
-26.2516,2.954659,2.839726
-26.299973,2.956337,2.835939
-26.335735,2.9482846,2.817338
-26.387363,2.952962,2.8183389
-26.43156,2.9519346,2.8106856
-26.481789,2.9560423,2.8110228
-26.532946,2.9612315,2.8131347
-26.580658,2.9638567,2.8114004
-26.6277,2.966182,2.8093023
-26.67249,2.9668243,2.8046975
-26.721413,2.9712977,2.8061147
-26.769644,2.9754746,2.8071733
-26.817713,2.9798117,2.80858
-26.860497,2.9796605,2.803111
-26.90727,2.9833724,2.8037333
-26.953894,2.9872384,2.8046908
-26.998875,2.989851,2.8037858
-27.043732,2.9926085,2.803195
-27.089918,2.996924,2.8051267
-27.132584,2.9980824,2.8022118
-27.178959,3.0031643,2.8055182
-27.227503,3.010773,2.8128762
-27.270708,3.0133066,2.8123713
-27.315174,3.0174081,2.8144097
-27.354954,3.016866,2.8092356
-27.396925,3.0188413,2.808092
-27.440563,3.02287,2.810258
-27.481432,3.0241442,2.8081656
-27.521784,3.0250597,2.8055801
-27.564615,3.0290015,2.8078437
-27.606459,3.0321069,2.8088646
-27.648594,3.0358276,2.8109345
-27.688133,3.0367541,2.808659
-27.7276,3.037798,2.8066378
-27.768585,3.0409167,2.8079734
-27.80866,3.043179,2.808024
-27.848635,3.0455616,2.808333
-27.889267,3.049048,2.8104663
-27.928268,3.050684,2.809729
-27.967924,3.053423,2.810813
-28.005648,3.0538034,2.8082104
-28.044033,3.0552843,2.8074226
-28.083399,3.058368,2.8092537
-28.122648,3.061569,2.8113384
-28.160755,3.0633883,2.8112845
-28.19945,3.0663178,2.813066
-28.236052,3.0663557,2.8102918
-28.274233,3.0690033,2.8117495
-28.312313,3.0717623,2.813447
-28.349976,3.074128,2.814577
-28.387852,3.0771058,2.816749
-28.42562,3.080192,2.8191576
-28.46239,3.0818706,2.8193693
-28.499668,3.084665,2.8214297
-28.53514,3.0845232,2.8188372
-28.570578,3.0844784,2.816455
-28.606256,3.0850387,2.8150992
-28.64215,3.0862064,2.814775
-28.678247,3.0879827,2.8154845
-28.71376,3.0888379,2.8147683
-28.749222,3.0897906,2.8142633
-28.784145,3.0898159,2.8123193
-28.819746,3.0914729,2.8130555
-28.855047,3.092714,2.8131766
-28.890293,3.0940516,2.8135066
-28.925915,3.0965128,2.815701
-28.960815,3.0975282,2.8156176
-28.996284,3.1001825,2.818231
-29.031063,3.1013873,2.8185577
-29.065594,3.1021683,2.8182526
-29.099894,3.102525,2.8173118
-29.134708,3.1045244,2.819077
-29.169277,3.1061006,2.820208
-29.203445,3.1067317,2.8198643
-29.237907,3.1084907,2.8213925
-29.272467,3.110861,2.8239617
-29.306032,3.1102066,2.8216863
-29.339886,3.1106791,2.8212829
-29.37371,3.111241,2.821073
-29.407505,3.1118915,2.821055
-29.441267,3.1126304,2.8212295
-29.475119,3.113979,2.8224397
-29.509274,3.1169813,2.8263788
-29.542788,3.1174645,2.8262835
-29.576069,3.1169906,2.8246841
-29.609444,3.1171253,2.82412
-29.642527,3.1157787,2.8212008
-29.676147,3.117654,2.823553
-29.709553,3.118571,2.8243985
-29.74285,3.1190517,2.8245835
-29.776196,3.1201413,2.8258038
-29.809134,3.1181762,2.8221145
-29.842388,3.118914,2.8228579
-29.875769,3.1213095,2.8263373
-29.909044,3.1232672,2.8291545
-29.94219,3.124263,2.8304558
-29.975245,3.1242952,2.8302412
-30.008188,3.122316,2.8268056
-30.041155,3.1198967,2.822703
-30.074299,3.1222816,2.826445
-30.107391,3.125276,2.8312244
-30.140406,3.1262574,2.8327818
-30.173424,3.1241777,2.8294144
-30.206448,3.1242805,2.829637
-30.239403,3.1265652,2.833449
-30.272465,3.1252644,2.8314853
-30.305443,3.1261458,2.8331103
-30.338543,3.125015,2.8315163
-30.371468,3.1265905,2.8343601
-30.404312,3.1287735,2.8382373
-30.437376,3.128422,2.8380456
-30.470337,3.1292028,2.839738
-30.503546,3.127974,2.8382168
-30.536718,3.1273549,2.8377314
-30.569914,3.1268218,2.8374314
-30.602627,3.1295118,2.8424082
-30.635736,3.1296718,2.843326
-30.669043,3.1288726,2.8427358
-30.702581,3.1271152,2.8406396
-30.735525,3.1285775,2.84381
-30.769472,3.1254296,2.8395548
-30.802784,3.1254997,2.8405638
-30.835855,3.1266985,2.8434486
-30.86931,3.1264203,2.8439875
-30.903063,3.1251886,2.843031
-30.936714,3.1245666,2.84311
-30.970999,3.1219535,2.840015
-31.005203,3.119952,2.8379598
-31.038662,3.1206353,2.8402987
-31.071617,3.1229613,2.8453417
-31.10297,3.1300335,2.8581047
-31.134539,3.1361477,2.8693624
-31.165056,3.1449249,2.884965
-31.197123,3.1491246,2.8932142
-31.2303,3.15031,2.8966403
-31.263884,3.15055,2.8985887
-31.298115,3.149334,2.8982377
-31.331964,3.1492393,2.8997464
-31.367395,3.1456378,2.8956504
-31.401112,3.146242,2.898388
-31.434374,3.1479607,2.9029713
-31.470018,3.1446457,2.899496
-31.505522,3.1419415,2.8970609
-31.538097,3.1454668,2.904704
-31.572166,3.146014,2.9076052
-31.608358,3.1425772,2.904152
-31.643314,3.141787,2.9050088
-31.676668,3.1441417,2.9109716
-31.711405,3.1440475,2.913052
-31.748756,3.139488,2.908021
-31.784199,3.1385787,2.908905
-31.819695,3.1377678,2.9100032
-31.854942,3.1375606,2.9121246
-31.890228,3.1374512,2.9144573
-31.925238,3.1379418,2.9178066
-31.960915,3.1375253,2.9197593
-31.996967,3.136708,2.9211287
-32.035072,3.1329904,2.9179235
-32.070595,3.1333811,2.921341
-32.10718,3.132375,2.9225874
-32.14383,3.131474,2.9240603
-32.183743,3.1262064,2.9186378
-32.22129,3.1245322,2.9190063
-32.258915,3.122968,2.9196124
-32.29811,3.1195376,2.9173155
-32.337807,3.115732,2.9144912
-32.37879,3.110571,2.9095855
-32.42227,3.1025908,2.90028
-32.465195,3.095731,2.8928328
-32.514732,3.0811841,2.8732872
-46.4338,0.8125417,1.4400139
-46.410744,0.8761914,1.5560246
-46.383068,0.9407201,1.6728005
-46.45233,0.9749963,1.7548275
-46.382874,1.0513706,1.8847198
-46.44533,1.0874078,1.9688525
-46.470707,1.1344821,2.0654917
-46.680542,1.1273715,2.1023402
-47.263344,1.1254547,2.2401295
-47.385925,1.1467052,2.3113384
-46.507957,1.4449763,2.675292
-46.31891,1.5490634,2.8312826
-46.367783,1.5873902,2.9180942
-46.460945,1.6139059,2.9930072
-46.43109,1.673152,3.1014705
-46.53452,1.6971879,3.1744337
-46.583084,1.7357068,3.2622333
-46.685738,1.7604852,3.3368068
-46.841866,1.772181,3.3992934
-47.05461,1.7705042,3.4499235
-47.286385,1.7651887,3.4983745
-47.743332,1.7064841,3.4987583
-49.52362,1.3338206,3.2154183
-47.7993,1.7991002,3.6969967
-47.88117,1.8326986,3.7849808
-48.00654,1.8565099,3.8648825
-48.175636,1.8708727,3.9374366
-48.41073,1.8711767,3.9992156
-49.580074,1.6658163,3.8926868
-49.585526,1.7212555,4.005462
-49.60656,1.7731102,4.115322
-50.284405,1.6851687,4.116577
-50.979836,1.5971897,4.1226063
-51.741264,1.4992878,4.126255
-52.68815,1.367631,4.110984
-53.684242,1.2311943,4.099344
-54.716003,1.0930507,4.0939994
-4.8000565,1.0397007,3.8523755
-4.2971573,0.79552174,3.4828587
-4.9113293,0.77424693,3.2844415
-5.0217113,0.7247443,3.1564426
-5.047985,0.65777016,3.0144944
-5.0665703,0.58897734,2.8710518
-5.0842476,0.5197642,2.7272396
-5.1077347,0.45159745,2.5843377
-5.1264725,0.3821652,2.4403229
-5.1490993,0.31337237,2.2968788
-5.13933,0.23693204,2.1463728
-11.537043,0.3446629,0.8393645
-11.876982,0.38498163,0.84003115
-12.037535,0.37178135,0.77850485
-13.385395,0.73015857,1.1633787
-13.645657,0.75394225,1.1507668
-13.798973,0.7449794,1.0995145
-13.908632,0.72258353,1.032465
-13.970579,0.68496895,0.94710255
-14.183565,0.69722366,0.92363405
-14.828588,0.8547461,1.0818768
-14.97072,0.8468921,1.0360212
-15.288203,0.899446,1.0667505
-15.605364,0.95380497,1.1011219
-15.904744,1.0039005,1.1314168
-16.123102,1.0272796,1.1288052
-16.333904,1.0491931,1.1251912
-16.497545,1.0553153,1.1020246
-16.778585,1.1049535,1.1359506
-16.9352,1.1106071,1.1136713
-17.130764,1.131516,1.111958
-17.328281,1.1542621,1.1134124
-17.471836,1.1576655,1.0900621
-17.668282,1.1820548,1.0950785
-17.807772,1.1855199,1.0729499
-17.877556,1.1623833,1.0157137
-17.961803,1.1450884,0.96652365
-18.263115,1.1648781,0.94253063
-18.68836,1.239018,0.9947715
-18.69257,1.1912436,0.9058728
-18.704903,1.1464498,0.8209901
-18.531773,1.0223403,0.6266842
-18.669744,1.029988,0.6138959
-18.725525,1.0026433,0.5529771
-18.504486,0.8537319,0.32284594
-18.521744,0.8079946,0.23591805
-25.434687,2.8664494,2.723568
-25.51485,2.884835,2.7438517
-25.612198,2.9154346,2.783002
-25.72632,2.9583814,2.8413086
-25.786531,2.9654558,2.844953
-25.856373,2.9796247,2.8596287
-25.910503,2.9832895,2.8583288
-25.964466,2.987147,2.8574462
-26.01645,2.9898937,2.8549705
-26.06829,2.9928217,2.8528886
-26.119389,2.9954927,2.850522
-26.16917,2.997463,2.8471794
-26.217075,2.9982831,2.8421583
-26.264881,2.999263,2.8374848
-26.305708,2.9950843,2.8248882
-26.342571,2.9879162,2.807716
-26.391909,2.9906683,2.8060675
-26.436642,2.990006,2.7991924
-26.49625,3.0016115,2.811574
-26.53743,2.998571,2.801175
-26.585121,3.0010793,2.7995424
-26.63268,3.0037453,2.7982526
-26.682772,3.008843,2.8008747
-26.731089,3.0127437,2.8017173
-26.77977,3.017264,2.8036304
-26.824139,3.0182781,2.800119
-26.871998,3.022654,2.801992
-26.917152,3.0248828,2.8005705
-26.961687,3.0267951,2.7987342
-27.004126,3.0269947,2.7942715
-27.048456,3.0291867,2.7930412
-27.094614,3.0333865,2.795075
-27.14061,3.0377364,2.7974367
-27.18454,3.040361,2.797144
-27.229286,3.0440655,2.7986488
-27.272957,3.0469708,2.7989664
-27.31558,3.04907,2.7980785
-27.356281,3.0494072,2.7944584
-27.398256,3.051292,2.7933774
-27.439688,3.0528307,2.791819
-27.482334,3.0559275,2.7928224
-27.523558,3.0577223,2.7918186
-27.565107,3.0601225,2.7918558
-27.607807,3.0640912,2.7944784
-27.65036,3.0681937,2.797389
-27.691126,3.070498,2.797491
-27.730572,3.0714757,2.7955317
-27.770737,3.0735393,2.795382
-27.810804,3.075723,2.7954946
-27.851154,3.078514,2.7966495
-27.892153,3.0824015,2.7996397
-27.931131,3.0839703,2.798962
-27.969284,3.084675,2.796955
-28.008102,3.0864708,2.7967696
-28.04647,3.0878892,2.7960377
-28.085464,3.0904033,2.7971373
-28.124702,3.0935252,2.7992835
-28.162113,3.094293,2.7976851
-28.200134,3.0961573,2.7979188
-28.238728,3.0991223,2.7999969
-28.276886,3.101704,2.8015146
-28.313665,3.1024055,2.8000445
-28.34976,3.102214,2.7971816
-28.387665,3.1051176,2.799397
-28.426062,3.1091297,2.803473
-28.461964,3.109248,2.801283
-28.498692,3.1109698,2.801752
-28.534775,3.1117907,2.8008118
-28.571358,3.113717,2.8017254
-28.607315,3.1147382,2.8012214
-28.642681,3.114851,2.7992892
-28.67827,3.1155648,2.7983894
-28.714573,3.117893,2.8001738
-28.75029,3.1193094,2.8005257
-28.785458,3.11981,2.7994356
-28.820818,3.1209137,2.7993813
-28.856121,3.1221137,2.7995348
-28.890242,3.1208663,2.7957425
-28.925896,3.1232731,2.7979703
-28.961252,3.125269,2.7995768
-28.99695,3.1283805,2.803061
-29.031137,3.1280148,2.8009076
-29.065308,3.127739,2.7989511
-29.100784,3.131137,2.8030543
-29.135424,3.1325822,2.8040128
-29.169828,3.1336076,2.8043313
-29.204185,3.134724,2.8048487
-29.238495,3.1359322,2.8055649
-29.272753,3.137231,2.806478
-29.306501,3.1370773,2.8050566
-29.340527,3.1380422,2.8055162
-29.374512,3.1390963,2.80617
-29.408318,3.139724,2.8061714
-29.441702,3.1388924,2.803825
-29.476076,3.1422782,2.8084464
-29.51047,3.1462715,2.8141131
-29.543978,3.1467385,2.8140368
-29.577147,3.1457405,2.8116016
-29.610226,3.1443112,2.8085022
-29.643509,3.1440017,2.8072882
-29.677223,3.1463683,2.8105154
-29.710707,3.1477866,2.812231
-29.743998,3.148255,2.8124304
-29.777267,3.14881,2.812817
-29.810204,3.1468573,2.8091273
-29.84357,3.1486206,2.8115916
-29.876837,3.1499515,2.8133893
-29.909977,3.1503303,2.8136663
-29.943254,3.1528711,2.817544
-29.976307,3.1529012,2.8173375
-30.009354,3.153017,2.8173165
-30.042374,3.1526983,2.816625
-30.075424,3.1535032,2.8178253
-30.108456,3.154393,2.8192115
-30.141455,3.1527698,2.8165078
-30.174486,3.1517513,2.8148441
-30.20751,3.152376,2.815926
-30.240484,3.1541247,2.818901
-30.273397,3.1564772,2.8229146
-30.306429,3.1557977,2.8219862
-30.33955,3.1541655,2.8195343
-30.372467,3.1557333,2.8223891
-30.405539,3.1553092,2.8220143
-30.438574,3.1554894,2.8226771
-30.47137,3.1578298,2.8269343
-30.504642,3.1561046,2.824555
-30.53782,3.1555035,2.8240666
-30.571096,3.1544693,2.8229122
-30.603903,3.1566298,2.827053
-30.63667,3.1588745,2.8313756
-30.669872,3.1586144,2.8316278
-30.703194,3.1579232,2.8312173
-30.736326,3.1583533,2.8326936
-30.77026,3.1552515,2.8284163
-30.803797,3.1543057,2.8277245
-30.837246,3.153963,2.8280702
-30.87085,3.153193,2.8277588
-30.903933,3.1545722,2.8310218
-30.938442,3.1508853,2.8260193
-30.972303,3.1498656,2.825441
-31.00605,3.1494498,2.8258986
-31.039337,3.1506639,2.8290753
-31.070763,3.157613,2.8416944
-31.102045,3.164639,2.8544803
-31.134087,3.1691785,2.863234
-31.166975,3.1712375,2.8679705
-31.200798,3.170823,2.8687038
-31.234653,3.1704984,2.8696327
-31.26854,3.170264,2.8707552
-31.301403,3.1726704,2.8762445
-31.33683,3.169047,2.8719244
-31.370369,3.1701033,2.8753018
-31.403908,3.1712475,2.878871
-31.437683,3.1719723,2.8818026
-31.473866,3.1677155,2.8766518
-31.509441,3.1650805,2.8742023
-31.543343,3.166087,2.8777428
-31.580086,3.1616244,2.8724198
-31.613539,3.163828,2.8780122
-31.648586,3.1630952,2.878872
-31.682583,3.1644726,2.8832173
-31.720516,3.158905,2.8763132
-31.75488,3.1599727,2.880259
-31.788086,3.1631365,2.887663
-31.823639,3.1623852,2.888754
-31.859552,3.1612337,2.8892474
-31.895218,3.1606817,2.890771
-31.93188,3.1587353,2.8900862
-31.966375,3.1603742,2.8952708
-32.005783,3.1546621,2.888597
-32.04003,3.1569958,2.8950176
-32.076298,3.1564546,2.8968358
-32.113308,3.1550293,2.8972802
-32.150394,3.1537106,2.8979564
-32.18969,3.1495473,2.8940969
-32.22623,3.149431,2.8968358
-32.263184,3.1489282,2.8990088
-32.302807,3.1451087,2.8958945
-32.345215,3.1379924,2.887536
-32.388603,3.1300364,2.877901
-32.42637,3.1295123,2.8802996
-32.4729,3.1184256,2.8657804
-32.531372,3.0934567,2.8290467
-46.449654,0.8470583,1.2833052
-46.388832,0.9225569,1.4143639
-46.37371,0.9832022,1.5273619
-46.42462,1.0233035,1.6159391
-46.488556,1.0594594,1.7000432
-46.4041,1.1943021,1.9410067
-46.4513,1.2347994,2.0301714
-46.49241,1.2770085,2.121417
-47.35746,1.253233,2.276276
-47.43519,1.2874503,2.3613424
-46.41234,1.6162684,2.763713
-46.362545,1.6810408,2.8788586
-46.39215,1.7244608,2.971097
-46.37896,1.7788193,3.0748138
-46.439117,1.8141065,3.1586652
-46.55899,1.8344474,3.2275152
-46.649376,1.862587,3.304843
-46.781883,1.8806584,3.3725796
-46.98327,1.8825569,3.4251032
-47.17804,1.8869975,3.4812346
-47.31292,1.9065189,3.5529299
-47.88262,1.8250275,3.5298934
-47.714455,1.9168217,3.6718102
-47.857346,1.9365563,3.7464151
-47.967415,1.9642549,3.829043
-48.125984,1.9816003,3.903092
-48.297745,1.9967415,3.9761686
-49.592728,1.7701988,3.8428679
-49.599133,1.8253312,3.9556065
-49.61535,1.8781879,4.0664015
-49.80085,1.8958191,4.148685
-50.619884,1.7848387,4.130241
-51.3813,1.6899047,4.13
-52.29338,1.5691335,4.1156197
-53.18369,1.4575427,4.1146183
-54.28553,1.3099062,4.0942035
-4.774887,1.2485764,3.931903
-4.789551,1.1801019,3.7880793
-4.322302,1.0191123,3.5718284
-4.2823677,0.93825936,3.4163814
-4.865713,0.97981405,3.360783
-4.9578857,0.9261131,3.229394
-5.019924,0.866519,3.09348
-5.0490723,0.8002002,2.9520102
-5.0666656,0.7313216,2.8083415
-5.0871925,0.6628418,2.6650238
-5.112568,0.5951903,2.52247
-5.105051,0.44647264,2.2247791
-5.148794,0.38216734,2.0853543
-5.1686897,0.31236386,1.9407129
-5.154398,0.23447251,1.7880759
-8.738289,0.2619846,1.0248737
-8.846533,0.22250438,0.9232869
-9.670877,0.312227,0.9161682
-10.233536,0.33706212,0.84082365
-10.283346,0.28542376,0.7293787
-10.553701,0.29749322,0.6939168
-10.869108,0.324126,0.67713785
-11.060461,0.31572652,0.619473
-11.414583,0.3569262,0.62293196
-11.551249,0.33425093,0.54978514
-13.187435,0.7713566,1.0436602
-13.772154,0.89366436,1.1548977
-14.053919,0.92473984,1.1549711
-14.313498,0.9503603,1.1494064
-14.577732,0.97889876,1.1486211
-14.822613,1.0026441,1.1428576
-15.046532,1.0208709,1.131062
-15.309521,1.053242,1.1383271
-15.553258,1.0806701,1.1402922
-15.7586565,1.0964994,1.1281967
-15.936529,1.1040151,1.10607
-16.092342,1.104809,1.0758166
-16.169165,1.0787342,1.0107727
-16.314472,1.0770197,0.9781742
-16.608358,1.1290617,1.0175171
-16.631159,1.0850439,0.9298148
-17.174469,1.2307479,1.0964217
-17.363424,1.2495432,1.0943666
-17.273075,1.1652517,0.95364046
-17.277096,1.1153643,0.8591428
-17.426556,1.1204557,0.8394966
-17.571531,1.1245763,0.8190341
-17.710392,1.1270428,0.79678917
-17.852337,1.1314015,0.7776165
-18.656834,1.3997502,1.1242685
-18.687527,1.3636568,1.051168
-18.710577,1.3242688,0.97350454
-18.686049,1.2651038,0.8681755
-18.534813,1.1527398,0.6879864
-18.525099,1.0978439,0.58804417
-18.696232,1.1189077,0.5952916
-18.584044,1.0198092,0.43277645
-18.50813,0.93486524,0.28986168
-25.437878,2.9084158,2.7086062
-25.595726,2.9774163,2.8081841
-25.653978,2.9821157,2.8083172
-25.711403,2.986607,2.8082561
-25.770504,2.9925754,2.8106236
-25.836792,3.0038521,2.8214073
-25.894156,3.0094204,2.8234239
-25.949478,3.0139155,2.823886
-26.002201,3.0168927,2.8220887
-26.05417,3.0196238,2.8200169
-26.106586,3.0229678,2.8190155
-26.157074,3.0251944,2.8163657
-26.212095,3.0310755,2.8195753
-26.26285,3.0340972,2.8183908
-26.308865,3.0337887,2.812049
-26.352528,3.0318727,2.8032527
-26.400099,3.0331821,2.7996454
-26.445328,3.03288,2.7935758
-26.49602,3.0371635,2.7948685
-26.546535,3.0416212,2.7965398
-26.593609,3.0435712,2.794321
-26.64164,3.0465734,2.793868
-26.688992,3.049287,2.7930474
-26.737263,3.053059,2.7940059
-26.78485,3.0565417,2.7945933
-26.829176,3.0574603,2.7911706
-26.874947,3.059886,2.7902398
-26.92059,3.0624604,2.7896333
-26.965601,3.0647256,2.7886143
-27.012478,3.0689712,2.7908568
-27.056236,3.0706115,2.7889981
-27.101835,3.0742357,2.7904096
-27.14632,3.0770829,2.7906518
-27.191149,3.0805368,2.7919512
-27.23442,3.0827398,2.7913122
-27.277111,3.084613,2.7902174
-27.320614,3.087555,2.7909212
-27.363531,3.0901656,2.7911668
-27.403635,3.0900927,2.7871408
-27.447666,3.0943775,2.7902427
-27.48891,3.095971,2.7890563
-27.529627,3.0972178,2.787375
-27.571533,3.1000097,2.7882714
-27.615845,3.105783,2.7940845
-27.654976,3.1059823,2.7909055
-27.695278,3.107729,2.7903094
-27.735077,3.1091187,2.7891965
-27.77479,3.110627,2.788341
-27.815199,3.1132147,2.789311
-27.854332,3.1144798,2.788186
-27.89453,3.117308,2.7896762
-27.933481,3.1188066,2.7890568
-27.971603,3.11945,2.7871003
-28.01185,3.123117,2.7901506
-28.050167,3.124473,2.7894812
-28.089464,3.1274023,2.7914486
-28.130035,3.1324003,2.7968688
-28.167706,3.133609,2.7961369
-28.204966,3.1344361,2.794836
-28.243814,3.1378224,2.7977948
-28.280266,3.1378822,2.7953458
-28.31699,3.1385365,2.7939272
-28.35397,3.139787,2.7935448
-28.39334,3.145094,2.7998943
-28.428923,3.1445808,2.7967186
-28.46566,3.1461475,2.7970204
-28.501451,3.1463282,2.795092
-28.538336,3.1485963,2.796657
-28.574017,3.148977,2.7951617
-28.610195,3.1504526,2.795525
-28.645237,3.1500328,2.7928095
-28.681818,3.152706,2.7952533
-28.717281,3.1534803,2.7946124
-28.753937,3.1568575,2.7983236
-28.788778,3.156825,2.7964478
-28.824062,3.157891,2.7964392
-28.859753,3.1600595,2.798304
-28.895136,3.1618223,2.7995467
-28.92957,3.161665,2.7976584
-28.964832,3.1636186,2.799316
-29.000435,3.1666787,2.8028564
-29.03372,3.164273,2.7973819
-29.069384,3.1680288,2.8021736
-29.103603,3.1683352,2.80129
-29.138159,3.1697466,2.802288
-29.172834,3.1717587,2.8043294
-29.206753,3.171831,2.8031964
-29.24048,3.1714838,2.801413
-29.274353,3.171734,2.8006663
-29.308353,3.1725836,2.80096
-29.342606,3.1745415,2.8031425
-29.376652,3.1760802,2.8046741
-29.409967,3.1751568,2.8021555
-29.443672,3.1758518,2.802374
-29.47722,3.176124,2.8019323
-29.511097,3.1780186,2.8042345
-29.545025,3.1805134,2.8075814
-29.578773,3.1825862,2.8102703
-29.611666,3.180648,2.806326
-29.644684,3.179307,2.8034182
-29.67798,3.1795895,2.8032565
-29.711664,3.182523,2.8075552
-29.745192,3.1850324,2.8111897
-29.778374,3.1855745,2.811592
-29.811346,3.1846619,2.8096137
-29.844162,3.182293,2.8052502
-29.877228,3.1820633,2.8044949
-29.910336,3.1824327,2.80478
-29.943504,3.1839159,2.8069634
-29.976568,3.1844559,2.8076186
-30.009562,3.1840525,2.806744
-30.04254,3.1832194,2.8051968
-30.07559,3.184529,2.8072624
-30.108578,3.183866,2.8060827
-30.141586,3.1863742,2.8102312
-30.174562,3.18588,2.8094182
-30.207539,3.1859858,2.8096476
-30.240496,3.1866903,2.810917
-30.27346,3.1869652,2.811513
-30.306393,3.1878395,2.8131504
-30.339304,3.1887975,2.81497
-30.372322,3.1882985,2.8144035
-30.405355,3.187884,2.8140202
-30.438189,3.18961,2.817247
-30.471167,3.1898794,2.8180895
-30.504013,3.1912608,2.8208265
-30.536907,3.1922126,2.8228898
-30.57056,3.1881173,2.8165898
-30.603819,3.187189,2.8156075
-30.63657,3.1894228,2.8199363
-30.669182,3.1922529,2.8252983
-30.702656,3.190556,2.8231664
-30.736506,3.1874104,2.818667
-30.769415,3.1889603,2.8220267
-30.802662,3.18906,2.8230166
-30.836426,3.1872017,2.8207936
-30.869852,3.1869657,2.8213124
-30.903297,3.1868157,2.8220186
-30.936045,3.1893044,2.827156
-30.96905,3.1908567,2.83078
-31.001879,3.1930034,2.835435
-31.034676,3.195235,2.8402734
-31.06845,3.1945,2.8402267
-31.101913,3.1948705,2.842062
-31.13593,3.1938057,2.841559
-31.169434,3.1943538,2.8437777
-31.202755,3.1954958,2.8470273
-31.235874,3.1972315,2.851306
-31.270203,3.196019,2.850741
-31.305006,3.1938896,2.848703
-31.33945,3.1928644,2.8485422
-31.374392,3.1909242,2.8469138
-31.410088,3.1875694,2.8429923
-31.44402,3.1883357,2.845944
-31.477722,3.1896951,2.8499222
-31.511913,3.19014,2.8524342
-31.54688,3.1891742,2.8526607
-31.582674,3.1868038,2.8506155
-31.6175,3.1865308,2.852088
-31.653713,3.1838589,2.8496466
-31.688646,3.1837804,2.8515391
-31.723051,3.1847916,2.855279
-31.757755,3.1853998,2.8584018
-31.792187,3.1865966,2.8625455
-31.827522,3.1864023,2.8644443
-31.865032,3.1828446,2.8608556
-31.9008,3.1823575,2.8623786
-31.93567,3.1834488,2.86655
-31.972164,3.1821754,2.8668833
-32.008728,3.1810057,2.8674421
-32.04536,3.1799407,2.868227
-32.08172,3.1794693,2.8700414
-32.117786,3.1795895,2.8728805
-32.155296,3.1778607,2.8727422
-32.19218,3.1772144,2.8744354
-32.228035,3.1781318,2.878745
-32.266487,3.1757548,2.8777175
-32.30579,3.172524,2.8753538
-32.348244,3.165548,2.8669333
-32.392067,3.1572604,2.8564425
-32.432224,3.1539245,2.8541102
-32.476864,3.145431,2.8434305
-32.541824,3.1131334,2.794032
-46.635773,0.77212286,0.9439726
-46.329575,0.92532015,1.1737585
-46.355614,0.9736016,1.2722521
-46.37552,1.0235395,1.3727903
-46.363045,1.0829816,1.4849086
-46.357784,1.1398106,1.5936837
-46.404305,1.1809855,1.6834731
-46.334568,1.2559493,1.8137736
-46.365875,1.301012,1.9081254
-46.4194,1.3396137,1.994915
-46.47879,1.3765755,2.0799537
-47.455536,1.2710714,2.0894718
-47.39979,1.3416963,2.2155228
-46.4649,1.6445587,2.6014204
-46.45985,1.6977482,2.7048826
-46.33825,1.7807453,2.8409972
-46.364998,1.8247824,2.933899
-46.41454,1.8629498,3.0205197
-46.441917,1.9066653,3.1132398
-46.541145,1.9325864,3.187234
-46.59097,1.9708538,3.2745876
-46.71965,1.9902306,3.3426442
-46.86419,2.0063667,3.4080586
-47.053146,2.0127258,3.4643946
-47.366623,1.9912071,3.4940662
-47.87961,1.925834,3.4825487
-49.54274,1.6045251,3.226591
-47.811268,2.0464118,3.708397
-47.90217,2.0786216,3.7944794
-48.066475,2.095256,3.8666468
-48.182503,2.1229005,3.9497924
-49.533928,1.8912103,3.8017569
-49.60868,1.9318676,3.9017706
-49.62008,1.9856632,4.013509
-49.63553,2.038464,4.124381
-50.24376,1.9732947,4.1375446
-51.0759,1.8674884,4.1219096
-51.83764,1.7797611,4.1263905
-52.775543,1.6625812,4.113431
-53.86489,1.5220487,4.0895486
-54.887817,1.3996401,4.086912
-4.8242683,1.4017558,3.8701372
-4.8077183,1.3278043,3.7219658
-4.316805,1.1653271,3.5008593
-4.9071007,1.1322596,3.2987204
-4.994419,1.0774083,3.1668963
-5.0342007,1.013382,3.0273461
-5.0507812,0.9446378,2.8836498
-5.0645123,0.8751004,2.7392087
-5.089857,0.807714,2.596755
-5.1113853,0.7393544,2.4534063
-5.1291256,0.66998696,2.3090897
-5.3537617,0.6447866,2.2082114
-5.258482,0.550966,2.040081
-5.164631,0.4565463,1.8706493
-5.1512756,0.37919903,1.7180357
-5.1428776,0.30252862,1.5659161
-5.2219734,0.2455113,1.4342618
-7.469282,0.27386904,1.0046425
-7.8299828,0.29436374,0.96828175
-8.696516,0.44686365,1.085742
-8.853342,0.41961145,0.9986677
-9.017876,0.39499164,0.91535425
-9.102249,0.34963036,0.8082423
-9.170658,0.3000896,0.6964483
-9.063194,0.20250344,0.5272107
-10.218664,0.45312452,0.77832127
-10.0343,0.33589768,0.5869417
-12.0985985,0.85387874,1.1736436
-12.422781,0.88656926,1.1707835
-12.708015,0.9097495,1.1575241
