x,y,z
-38.400406,1.4765809,4.130711
-38.505894,1.4569707,4.146916
-38.648315,1.4181681,4.1499004
-38.86488,1.3408945,4.1262608
-39.057217,1.2779324,4.114291
-39.194702,1.2449427,4.124716
-39.33511,1.2112675,4.1355925
-39.508995,1.1612334,4.136166
-39.709866,1.0985687,4.129359
-39.930267,1.0273635,4.118231
-40.10011,0.98297644,4.1265306
-40.345215,0.90221834,4.1121135
-40.54299,0.8464396,4.115719
-40.79846,0.7636957,4.103449
-41.111244,0.65485096,4.076533
-32.77792,1.2025552,1.9759378
-32.826817,1.1982577,1.9779758
-32.850853,1.2378435,2.0303698
-32.86492,1.293437,2.1010695
-32.952705,1.3002453,2.1234012
-32.778267,1.9246945,2.8685474
-32.797684,1.9563975,2.9114203
-32.813717,1.9923513,2.959094
-32.83654,2.0174005,2.9944792
-32.84644,2.0606031,3.0502982
-32.821842,2.1520178,3.1601834
-32.8136,2.217929,3.2412667
-32.86694,2.196571,3.2246099
-32.930305,2.1622071,3.1936321
-32.966377,2.1658027,3.2052126
-32.997025,2.176669,3.2249875
-33.018433,2.1995344,3.2581615
-33.04084,2.2206385,3.2894087
-33.06568,2.2382078,3.3167777
-33.093987,2.2510784,3.3390055
-33.12304,2.2628272,3.3600626
-33.157185,2.268147,3.3741207
-33.193676,2.2706134,3.3851461
-33.22574,2.2784767,3.402195
-33.262142,2.281142,3.413652
-33.299515,2.2827418,3.4240594
-33.334866,2.286788,3.4372473
-33.373734,2.2868547,3.4462242
-33.4085,2.2916906,3.4604955
-33.42085,2.32157,3.5019374
-33.468925,2.3114944,3.5002794
-33.516663,2.3021636,3.4996047
-33.572067,2.284933,3.490633
-33.58677,2.3115828,3.5288587
-33.608116,2.3307738,3.5591135
-33.63905,2.3397002,3.5784678
-33.68482,2.333304,3.5816307
-33.73407,2.3236492,3.5815153
-33.777298,2.3204126,3.588376
-33.825157,2.3127897,3.5907745
-33.873734,2.3047695,3.5929408
-33.92189,2.2974827,3.5960684
-33.973682,2.2869947,3.5960383
-34.032726,2.2699716,3.5894098
-34.14717,2.2012162,3.5292854
-34.19113,2.1998286,3.5395255
-34.24115,2.1930308,3.544342
-34.29797,2.180314,3.5432658
-34.337917,2.1832795,3.558527
-34.219654,2.3279536,3.7189097
-34.258995,2.3302102,3.7332654
-34.28832,2.3413558,3.7568007
-34.319996,2.350391,3.7782822
-34.351543,2.3595119,3.7999501
-34.381683,2.3698041,3.8228965
-34.41296,2.3790932,3.8449297
-34.447983,2.3852293,3.863912
-34.48357,2.390933,3.882587
-34.520397,2.3956723,3.900432
-34.55782,2.3999922,3.9179997
-34.592533,2.406561,3.9379196
-34.63451,2.4073925,3.9523392
-34.674473,2.4099538,3.9686174
-34.708313,2.4173963,3.9898
-34.754993,2.4149477,4.001524
-34.79419,2.4184318,4.0191717
-34.836098,2.4199553,4.035091
-34.87522,2.4237037,4.053313
-36.013844,1.6099279,3.293213
-36.039646,1.6312449,3.331862
-36.056656,1.6587889,3.376442
-36.064022,1.6930072,3.4272914
-36.021618,1.7624731,3.5110364
-36.027676,1.796464,3.5613928
-36.036827,1.8278623,3.6092825
-36.049133,1.8566937,3.6547613
-36.053715,1.8905473,3.7048206
-36.07685,1.9112842,3.7428417
-36.062824,1.9570777,3.8036494
-36.01476,2.02515,3.8843718
-36.026,2.0526743,3.9282775
-36.039078,2.0786946,3.9708161
-36.057034,2.1012568,4.010272
-36.0739,2.124327,4.0501986
-36.077515,2.1557188,4.0974436
-36.07456,2.19095,4.1479664
-36.08872,2.2149396,4.1886244
-36.175716,2.1930504,4.1897397
-36.287025,2.1566286,4.1789026
-36.389538,2.1264563,4.1740437
-36.501076,2.0914922,4.165737
-36.59665,2.067005,4.1668973
-36.683907,2.0481386,4.173305
-36.790417,2.0183477,4.171167
-36.84967,2.0171633,4.1932015
-36.980747,1.974198,4.1814246
-37.122845,1.9257929,4.166055
-37.259174,1.8817482,4.155092
-37.38642,1.8438587,4.1499043
-37.450115,1.8427752,4.1746807
-37.596043,1.7958436,4.163767
-37.73116,1.7559496,4.15928
-37.8545,1.7234604,4.1613846
-38.00627,1.6762264,4.1529694
-38.13882,1.6404512,4.1542583
-38.266026,1.6084037,4.1592145
-38.42694,1.5591855,4.1521726
-38.609383,1.4996793,4.1385984
-38.760723,1.4577351,4.139128
-38.92016,1.4125576,4.1383257
-39.072556,1.3720393,4.1419487
-39.29068,1.2988906,4.1233974
-39.47061,1.2466025,4.121056
-39.664825,1.1883047,4.1157784
-39.883698,1.1189883,4.104275
-40.06221,1.0710807,4.108908
-40.297237,0.996583,4.096895
-40.48824,0.94504213,4.1018534
-40.73613,0.8672633,4.0909257
-40.93106,0.81642914,4.099307
-41.191032,0.7359483,4.090092
-41.504345,0.6320727,4.0680046
-32.789955,1.2188327,1.922584
-32.817635,1.2526119,1.9686852
-32.887665,1.2118356,1.9283829
-32.86158,1.3367429,2.0801678
-32.90586,1.3394985,2.0904589
-32.96375,1.3198562,2.0750103
-32.977516,1.3727133,2.1433558
-32.783413,2.0106082,2.9121218
-32.80781,2.0336645,2.945459
-32.823997,2.068166,2.9918928
-32.8496,2.0882714,3.0219154
-32.83473,2.1652684,3.1166964
-32.869846,2.1704192,3.129715
-32.862015,2.234689,3.2098532
-32.921463,2.205995,3.1846461
-32.962357,2.2030625,3.1887722
-32.986713,2.2221894,3.217907
-33.005756,2.247863,3.2544532
-33.02988,2.2664633,3.2830625
-33.056488,2.2815673,3.3077917
-33.083317,2.2961352,3.331977
-33.10849,2.3125181,3.3582468
-33.136757,2.3248475,3.380045
-33.169678,2.3313951,3.3954744
-33.205452,2.334531,3.407207
-33.2407,2.338351,3.419807
-33.2754,2.3428502,3.4332633
-33.313072,2.3439708,3.4430933
-33.35433,2.3411577,3.4487133
-33.39204,2.3425121,3.4590516
-33.428192,2.345706,3.4715266
-33.465885,2.3472824,3.4823465
-33.507816,2.3443909,3.488412
-33.54875,2.3427773,3.496014
-33.581085,2.3504114,3.513801
-33.61331,2.3581321,3.531774
-33.64818,2.3631024,3.5468674
-33.6852,2.3659093,3.5597377
-33.723877,2.3671343,3.5710287
-33.76651,2.364539,3.5783534
-33.81547,2.355909,3.579379
-33.861732,2.350252,3.583766
-33.904633,2.348103,3.5920606
-33.94701,2.3466535,3.6012526
-34.005325,2.3303473,3.5948849
-34.08233,2.2970917,3.57089
-34.167686,2.2569735,3.540032
-34.213367,2.254119,3.5486455
-34.26276,2.2481236,3.5541496
-34.308605,2.2455885,3.563455
-34.324924,2.2694218,3.6003275
-34.235924,2.3852823,3.7324972
-34.269493,2.392563,3.7519836
-34.29792,2.4042702,3.776133
-34.328075,2.414428,3.7987738
-34.362553,2.4208984,3.8177366
-34.39823,2.4263978,3.8358283
-34.432545,2.4330745,3.855238
-34.463505,2.4425185,3.877565
-34.496956,2.4499207,3.897932
-34.532284,2.4558315,3.916915
-34.569534,2.460266,3.9345484
-34.608063,2.4637663,3.9513888
-34.64992,2.464769,3.9658966
-34.691105,2.466436,3.9812298
-34.72955,2.4703257,3.9989157
-34.774124,2.4696674,4.0122914
-34.818035,2.4696836,4.0265117
-34.857094,2.473464,4.0445747
-36.031578,1.6421854,3.2543354
-36.057495,1.66349,3.293126
-36.06472,1.6981084,3.344748
-36.027332,1.764204,3.4263787
-36.022526,1.8062053,3.484755
-36.035767,1.83497,3.530469
-36.055798,1.8586884,3.5714097
-36.078377,1.8804214,3.6105123
-36.07945,1.9166658,3.6631927
-36.06014,1.9662635,3.7281723
-36.029,2.0231123,3.799622
-36.036327,2.053561,3.8465195
-36.052155,2.0780683,3.8879375
-36.066113,2.1035588,3.9302535
-36.072914,2.133435,3.9765258
-36.076237,2.165213,4.024456
-36.044853,2.2187102,4.0917225
-36.074593,2.2329314,4.1237903
-36.093365,2.2539525,4.161967
-36.10874,2.2769103,4.2018747
-36.225327,2.2375138,4.187386
-36.320694,2.2119212,4.1855536
-36.450855,2.1659777,4.166737
-36.536907,2.1474242,4.1721506
-36.64927,2.1137977,4.165237
-36.72646,2.1016457,4.177129
-36.819736,2.080541,4.1819444
-36.911716,2.0607672,4.188413
-37.101078,1.9857565,4.149748
-37.245575,1.9377401,4.1344543
-37.31065,1.9355065,4.1573653
-37.42286,1.9072249,4.159573
-37.535454,1.8794473,4.1628733
-37.662346,1.8445352,4.1611905
-37.814358,1.7967842,4.1501727
-37.959595,1.7537475,4.1438265
-38.04249,1.7450557,4.1650705
-38.229347,1.6816003,4.1446743
-38.36535,1.6462367,4.1469455
-38.51687,1.6036379,4.144632
-38.68406,1.5539224,4.13799
-38.888973,1.4859693,4.118943
-39.01104,1.4615793,4.13329
-39.163094,1.4227612,4.1379395
-39.328392,1.3782618,4.139522
-39.553177,1.3053074,4.121968
-39.728313,1.2582948,4.1242704
-39.91261,1.2079132,4.125436
-40.15442,1.1308811,4.1095247
-40.343533,1.0807292,4.113655
-40.558388,1.0195074,4.1116705
-40.81051,0.9420788,4.100451
-41.035606,0.87892556,4.100445
-41.28155,0.8075154,4.096724
-41.587994,0.70984745,4.078011
-41.85859,0.6305287,4.073179
-22.458988,0.9694145,2.8164062
-22.493298,0.94676876,2.770934
-32.755188,1.2396407,1.8785043
-32.81026,1.2250745,1.8680868
-32.8139,1.3012965,1.9644151
-32.85673,1.3075895,1.9786644
-32.878338,1.3497677,2.0350418
-32.885746,1.4143472,2.1176167
-32.96769,1.3549387,2.055325
-32.97505,1.417757,2.1358943
-33.00221,1.4473643,2.1777148
-33.042732,1.455348,2.1944208
-32.830463,1.9146957,2.7422957
-32.769787,2.066475,2.925047
-32.806576,2.0708623,2.9369788
-32.828865,2.096224,2.9732218
-32.84362,2.1317306,3.021182
-32.857754,2.1672227,3.0691104
-32.884995,2.1837163,3.0951962
-32.867695,2.2606544,3.190659
-32.941727,2.2127216,3.1429672
-32.9624,2.2370439,3.1781669
-32.98941,2.2525558,3.2033334
-33.009796,2.2763455,3.2379832
-33.031162,2.2983956,3.2706733
-33.051228,2.321641,3.3047466
-33.077023,2.3373132,3.3302622
-33.109222,2.3448763,3.3466606
-33.143234,2.350197,3.3606143
-33.17426,2.3590903,3.3786883
-33.207607,2.365166,3.3936749
-33.24186,2.370176,3.4075603
-33.277054,2.3741271,3.4203606
-33.314224,2.3758774,3.4308057
-33.351387,2.377737,3.4414902
-33.388027,2.3802793,3.4530492
-33.42621,2.381215,3.4629393
-33.476505,2.3691604,3.458571
-33.521725,2.3629687,3.460867
-33.551514,2.3733752,3.481617
-33.576813,2.38838,3.5074973
-33.582752,2.4231849,3.5551462
-33.633865,2.4112182,3.5515728
-33.67631,2.4084191,3.5582027
-33.72051,2.4040797,3.5633059
-33.763676,2.4010048,3.569943
-33.81034,2.3947306,3.5732703
-33.860012,2.3858392,3.5739465
-33.890717,2.3954127,3.5947032
-33.944088,2.3835099,3.5924788
-34.00299,2.3668423,3.5853643
-34.06696,2.3460019,3.5740418
-34.16065,2.298553,3.534656
-34.212315,2.2903154,3.5373545
-34.259274,2.2866242,3.545073
-34.30509,2.2841809,3.5542884
-34.350357,2.2824357,3.5644116
-34.238937,2.4169965,3.717691
-34.264996,2.430775,3.743937
-34.300304,2.4365547,3.7619104
-34.331093,2.4461873,3.7840042
-34.36302,2.4548345,3.805172
-34.395473,2.4630375,3.8259816
-34.427807,2.471333,3.8469906
-34.460026,2.4797196,3.868197
-34.492783,2.4876697,3.889063
-34.528736,2.493087,3.9074602
-34.567287,2.49652,3.923974
-34.60714,2.4990346,3.939705
-34.641575,2.5058424,3.959908
-34.67931,2.5101614,3.977738
-34.72178,2.5109847,3.9922214
-34.765625,2.5109236,4.005996
-34.81087,2.5099897,4.019088
-34.85476,2.5102391,4.0335364
-34.88816,2.5182877,4.0558243
-36.040726,1.7188997,3.2888942
-36.02584,1.7690008,3.3557982
-36.030823,1.8043137,3.4081755
-36.03311,1.8410723,3.461874
-36.052116,1.8657436,3.5038772
-36.071476,1.88993,3.5454316
-36.084644,1.9181063,3.5908012
-36.052017,1.9769554,3.6651845
-36.023632,2.032102,3.7357736
-36.038773,2.0575511,3.7782536
-36.049812,2.085445,3.82301
-36.067905,2.1084428,3.8631983
-36.0819,2.1338835,3.9056602
-36.084953,2.1660886,3.9543219
-36.062492,2.2141242,4.0173526
-36.044647,2.2586112,4.0769234
-36.070538,2.2752292,4.1111383
-36.090797,2.295236,4.148471
-36.10999,2.3157494,4.1862965
-36.218937,2.2815723,4.1756854
-36.29486,2.268082,4.183926
-36.39606,2.2399454,4.1797614
-36.515778,2.201548,4.1672564
-36.62658,2.1692593,4.160741
-36.70293,2.1577804,4.1727386
-36.785828,2.1429455,4.1822977
-36.893753,2.1142826,4.1806192
-37.07925,2.042379,4.143237
-37.153603,2.034379,4.1603594
-37.29208,1.9910357,4.148619
-37.39863,1.9663006,4.1530385
-37.498985,1.9456177,4.161406
-37.611927,1.9187021,4.1653304
-37.791077,1.8568612,4.141905
-37.85955,1.8553766,4.1677117
-38.02505,1.802845,4.1535864
-38.16796,1.7633146,4.1507187
-38.322254,1.7187979,4.144901
-38.451157,1.6883998,4.15095
-38.643536,1.626334,4.133688
-38.83167,1.56775,4.120348
-38.96975,1.535603,4.1280465
-39.09973,1.5083256,4.1402574
-39.293995,1.4500372,4.1305814
-39.479588,1.3972831,4.126253
-39.689865,1.3337309,4.115444
-39.869083,1.28653,4.117715
-40.13178,1.200568,4.0939937
-40.274258,1.1733258,4.1129313
-40.53086,1.0932758,4.096586
-40.76142,1.0270491,4.0914674
-40.991882,0.962332,4.089017
-41.181023,0.91798687,4.1017113
-41.44537,0.8406081,4.0941815
-41.718536,0.760937,4.087123
-42.023552,0.6687789,4.074155
-22.335737,1.1208153,2.9844117
-22.422653,1.1317427,2.969613
-22.502565,1.1387162,2.9515715
-22.546185,1.1229537,2.9126568
-22.572033,1.0957472,2.863144
-22.5871,1.061316,2.8068495
-22.58042,1.0122852,2.7366648
-22.595905,0.9772706,2.679696
-22.586946,0.92558336,2.6067128
-32.76855,1.2521181,1.8283358
-32.7709,1.3314862,1.9293575
-32.813152,1.3388801,1.944797
-32.834118,1.382566,2.0033932
-32.84606,1.440099,2.0783925
-32.884274,1.4524922,2.0999331
-32.920803,1.4673758,2.1245046
-32.96346,1.4721518,2.1372294
-32.97905,1.5195255,2.2002664
-33.010387,1.5411844,2.2330155
-32.77325,2.0926661,2.9016867
-32.806435,2.102419,2.9198718
-32.81593,2.1460104,2.9776702
-32.845573,2.16,3.0008965
-32.872017,2.1781833,3.0290694
-32.820087,2.303612,3.181993
-32.839306,2.3293288,3.218802
-32.87479,2.3327613,3.229797
-32.9654,2.2636738,3.1569862
-32.979855,2.2954993,3.2011194
-33.00423,2.3138971,3.2297578
-33.025993,2.3352458,3.2618327
-33.0488,2.3548782,3.291963
-33.07222,2.373385,3.3208375
-33.100094,2.3861425,3.3431687
-33.128723,2.397806,3.3643117
-33.161064,2.4049253,3.380341
-33.196255,2.4086807,3.3926272
-33.23239,2.4113884,3.4038277
-33.267002,2.4159167,3.4171987
-33.30206,2.4199708,3.4301343
-33.341167,2.4195669,3.4381409
-33.380825,2.4187148,3.4457684
-33.416344,2.422522,3.4587603
-33.453926,2.4241686,3.4694371
-33.50002,2.4169,3.4702568
-33.538746,2.417668,3.480214
-33.57369,2.422486,3.4948053
-33.610214,2.4257236,3.5077462
-33.65222,2.4234817,3.5147285
-33.70543,2.41023,3.5096846
-33.726322,2.4294121,3.5406146
-33.767296,2.428663,3.5496507
-33.818016,2.4186456,3.5486574
-33.86606,2.411568,3.551077
-33.913082,2.4057581,3.5550604
-33.947937,2.4116287,3.5719352
-33.993927,2.4072077,3.577744
-34.049538,2.394217,3.57445
-34.13957,2.3504307,3.5381403
-34.18506,2.3477068,3.5464458
-34.231228,2.344596,3.5545058
-34.252937,2.3632126,3.5859861
-34.18906,2.4560552,3.6966834
-34.226986,2.4595046,3.7118602
-34.25547,2.471089,3.7357926
-34.28694,2.4800792,3.757061
-34.318283,2.4891543,3.7785144
-34.349495,2.4983153,3.8001537
-34.383797,2.5049214,3.8192139
-34.416718,2.5126815,3.8395925
-34.45018,2.5200114,3.8596296
-34.48552,2.5258703,3.8782554
-34.520782,2.531837,3.8971143
-34.555965,2.5379112,3.916205
-34.591072,2.5440927,3.9355288
-34.62677,2.5498657,3.9545593
-34.66783,2.5516353,3.9696484
-34.708885,2.5535433,3.985036
-34.75199,2.5540576,3.999179
-34.79511,2.554722,4.0136485
-34.83545,2.5575655,4.0304713
-34.87576,2.5605443,4.0475903
-36.00696,1.7840743,3.2914143
-36.01948,1.8142228,3.3390164
-36.03724,1.8403487,3.3826337
-36.053165,1.8674757,3.4272385
-36.06435,1.8975763,3.4747362
-36.06058,1.9375381,3.5317717
-36.031418,1.9941437,3.6047583
-36.029945,2.031379,3.6588435
-36.03895,2.0611925,3.705721
-36.048244,2.0904863,3.7520604
-36.06602,2.1139274,3.7928176
-36.07447,2.1431787,3.8390665
-36.050907,2.1926026,3.904181
-36.031876,2.238474,3.9657397
-36.0372,2.2684214,4.012313
-36.051228,2.2926176,4.0535245
-36.069492,2.313973,4.0921273
-36.078197,2.3410048,4.135933
-36.093464,2.363785,4.17585
-36.12316,2.377692,4.207779
-36.271336,2.3209429,4.1765227
-36.36782,2.2959323,4.1744065
-36.458385,2.2750378,4.1764793
-36.589615,2.231113,4.158818
-36.673824,2.2152305,4.166425
-36.773434,2.1910596,4.1673155
-36.829327,2.1922548,4.190633
-36.955208,2.1544185,4.180843
-37.12608,2.0924609,4.1513224
-37.242687,2.0617056,4.149185
-37.36462,2.0288076,4.1459575
-37.44614,2.0186038,4.1623254
-37.59757,1.9712882,4.148564
-37.693634,1.9545019,4.160726
-37.813915,1.9254794,4.163532
-37.972782,1.8770238,4.1514435
-38.075657,1.8587005,4.1644187
-38.238983,1.8098704,4.153887
-38.42899,1.7485428,4.1346154
-38.583607,1.706424,4.131529
-38.69146,1.6887445,4.1482687
-38.877544,1.6327784,4.1364765
-39.074574,1.5726645,4.1227975
-39.255318,1.5218279,4.117391
-39.39731,1.4909265,4.127966
-39.563744,1.449126,4.1314907
-39.788445,1.380609,4.1167655
-39.97424,1.3319471,4.11785
-40.171032,1.2792916,4.117381
-40.40849,1.2090003,4.105915
-40.649418,1.1386483,4.0960937
-40.892944,1.0686584,4.0882416
-41.153984,0.9922993,4.0778317
-41.35256,0.9456222,4.0891414
-41.594902,0.880656,4.0898137
-41.859226,0.8074918,4.086922
-42.177628,0.7123313,4.071871
-42.405464,0.6584468,4.085317
-21.981195,1.1382337,3.018756
-22.106178,1.1696417,3.0215821
-22.184277,1.1736782,2.9997187
-22.265373,1.1798897,2.9802618
-22.34099,1.1831377,2.9584227
-22.408152,1.1814947,2.932333
-22.495037,1.1924028,2.9184375
-22.548521,1.1827571,2.8853931
-22.600632,1.1723344,2.85182
-22.628979,1.1467559,2.8038712
-22.633919,1.1058381,2.741147
-22.61804,1.0508468,2.6646614
-22.631704,1.0145776,2.6062412
-22.635681,0.9714663,2.541072
-22.649055,0.93413496,2.481505
-32.741497,1.263443,1.7595105
-32.785213,1.2701588,1.7740712
-32.754887,1.4065704,1.9450674
-32.795116,1.4169133,1.9640265
-32.83129,1.433934,1.9911094
-32.84671,1.4850724,2.0592422
-32.881992,1.5021927,2.0865421
-32.92179,1.5116475,2.1047325
-32.961067,1.5217957,2.123847
-32.79047,2.1073601,2.856256
-32.809174,2.1383135,2.899685
-32.820713,2.1786675,2.954255
-32.846622,2.1978862,2.9837942
-32.87687,2.2107117,3.005825
-32.86394,2.282008,3.096869
-32.845387,2.3589766,3.1944346
-32.86112,2.388636,3.2362142
-32.922237,2.3584828,3.2078052
-32.98212,2.3308785,3.182611
-33.00604,2.3497655,3.2120094
-33.027332,2.3715765,3.2448587
-33.04872,2.392836,3.27709
-33.073997,2.408949,3.3033605
-33.10187,2.4216664,3.325735
-33.130505,2.4332993,3.3469143
-33.163826,2.4392865,3.361629
-33.19756,2.4447932,3.3758783
-33.232212,2.4492545,3.389017
-33.267815,2.4526777,3.4010606
-33.302876,2.4567688,3.4139743
-33.340454,2.458136,3.42387
-33.38114,2.4562354,3.4301462
-33.41509,2.4617693,3.4450326
-33.451603,2.4645941,3.456934
-33.49129,2.4641702,3.4652567
-33.53585,2.4588497,3.468161
-33.57239,2.4620256,3.4808235
-33.61164,2.4625342,3.490591
-33.65422,2.4598422,3.4968848
-33.698547,2.4556327,3.5016217
-33.749165,2.445513,3.499897
-33.79091,2.4443643,3.508381
-33.83155,2.4444458,3.5183778
-33.87626,2.4408321,3.524406
-33.92106,2.437369,3.5307598
-33.96829,2.4318833,3.53504
-34.01505,2.4271033,3.5402718
-34.070858,2.4143782,3.5369425
-34.137123,2.3927011,3.5240216
-34.180183,2.3922403,3.5345764
-34.224503,2.3908508,3.544271
-34.155804,2.487899,3.6611114
-34.18761,2.496634,3.6817837
-34.21805,2.5065172,3.7037892
-34.252106,2.5133038,3.722548
-34.28671,2.5196614,3.7409534
-34.319317,2.5276992,3.7612686
-34.348602,2.5384517,3.7845812
-34.37967,2.54771,3.8063884
-34.41255,2.5554895,3.8267217
-34.447296,2.5618052,3.845614
-34.481297,2.5687432,3.8652773
-34.516533,2.5747495,3.884077
-34.55169,2.5808635,3.9031086
-34.590134,2.5845218,3.9197044
-34.627182,2.5893264,3.9376311
-34.66826,2.591193,3.9526544
-34.709324,2.593199,3.9679775
-34.749,2.5963552,3.9846401
-34.792114,2.5971236,3.9990153
-34.83454,2.5985448,4.014226
-34.873455,2.602614,4.0322905
-34.901733,2.6142893,4.0581827
-36.028847,1.8571684,3.3113627
-36.052334,1.8792472,3.3511457
-36.06041,1.9117136,3.401322
-36.04993,1.9564147,3.4635835
-36.035847,2.0029335,3.5274768
-36.031258,2.042472,3.584321
-36.036327,2.0751066,3.634284
-36.050484,2.1013975,3.6780019
-36.04941,2.137316,3.7310424
-36.070145,2.158754,3.7700129
-36.040367,2.212241,3.8397717
-36.032345,2.251217,3.8953967
-36.03205,2.2848594,3.9458117
-36.046455,2.3089821,3.9871402
-36.062023,2.3321643,4.027584
-36.07801,2.3548853,4.0676036
-36.080544,2.38554,4.1150064
-36.097343,2.4073153,4.1541314
-36.09747,2.4388123,4.202205
-36.233982,2.3897,4.1765904
-36.31862,2.3719206,4.180209
-36.42484,2.34219,4.1735106
-36.509327,2.3256521,4.179242
-36.645004,2.2805433,4.1599956
-36.740604,2.2590146,4.1624165
-36.78997,2.263891,4.1885867
-36.902138,2.2341666,4.1847897
-37.065735,2.1769862,4.157854
-37.19442,2.1400146,4.149319
-37.300804,2.115944,4.1525836
-37.40672,2.0927863,4.157248
-37.50721,2.0731497,4.1655035
-37.632744,2.0409565,4.1638637
-37.785244,1.995538,4.1520324
-37.92009,1.9602711,4.1495047
-38.01871,1.9444114,4.163639
-38.17785,1.8983991,4.153987
-38.314934,1.8645442,4.155098
-38.472717,1.821229,4.14956
-38.648865,1.769867,4.138707
-38.813816,1.7251632,4.134201
-38.969986,1.685787,4.134894
-39.115555,1.6524913,4.1412616
-39.269276,1.616184,4.146296
-39.481117,1.553299,4.1324077
-39.692055,1.4922385,4.1213217
-39.886444,1.4402456,4.118341
-40.12319,1.3699429,4.1033893
-40.29547,1.3306649,4.1123805
-40.530273,1.2640646,4.1031446
-40.74311,1.208837,4.1035495
-40.99968,1.1354332,4.092847
-41.220993,1.0792365,4.095772
-41.449154,1.021389,4.0991592
-41.729397,0.9423115,4.0900197
-42.019455,0.8607695,4.081313
-42.2855,0.7912884,4.082582
-42.693516,0.6633649,4.048404
-21.73907,1.143508,2.9936953
-21.820374,1.1473839,2.9705443
-21.91097,1.1570575,2.9532037
-21.99673,1.1643507,2.9340806
-22.090094,1.1765907,2.9200497
-22.17939,1.1869023,2.904654
-22.276165,1.2022185,2.894476
-22.349781,1.2039471,2.8717403
-22.408157,1.1965926,2.8405805
-22.494581,1.2068369,2.8267307
-22.583822,1.219316,2.8154726
-22.609241,1.1918626,2.7655277
-22.636566,1.1653938,2.7165904
-22.666508,1.1404011,2.6691637
-22.665152,1.0948334,2.6013556
-22.664505,1.049159,2.5333166
-22.660198,1.0004792,2.4621415
-22.667526,0.95895576,2.3980308
-22.669735,0.91346836,2.329834
-22.659756,0.85908365,2.2524886
-32.7516,1.288347,1.714809
-32.775253,1.3308465,1.7731462
-32.762115,1.435837,1.9078112
-32.779808,1.4847915,1.973948
-32.79697,1.5331342,2.039319
-32.866856,1.493192,1.9972329
-32.877605,1.5505002,2.0735912
-32.914387,1.5646486,2.097506
-32.94566,1.5871327,2.131606
-33.005558,1.5649416,2.1116652
-32.97799,1.676333,2.2534466
-33.04733,1.7062969,2.3037634
-32.87982,2.0136526,2.6811051
-32.788452,2.2033436,2.9160213
-32.81502,2.221817,2.944807
-32.83624,2.2473133,2.9820561
-32.854034,2.2768908,3.02421
-32.857533,2.325004,3.088522
-32.893295,2.329115,3.1002522
-32.85577,2.4290922,3.2263017
-32.89412,2.4286025,3.232565
-32.960518,2.3925989,3.1967635
-32.99058,2.4033043,3.2165942
-33.01539,2.4203749,3.2440267
-33.037567,2.4403443,3.2749271
-33.06036,2.459204,3.3045487
-33.08761,2.4724107,3.327549
-33.11706,2.4828382,3.3473392
-33.144886,2.4950328,3.3692722
-33.177944,2.501075,3.3840628
-33.214905,2.5026968,3.3937778
-33.24985,2.5066772,3.4063525
-33.28526,2.5101953,3.4184875
-33.321144,2.513255,3.4301934
-33.355442,2.518094,3.444065
-33.392303,2.5202436,3.454924
-33.433384,2.5180576,3.4608908
-33.473995,2.5165567,3.4677787
-33.51466,2.515185,3.4749475
-33.556465,2.51284,3.481132
-33.601086,2.5078797,3.4844632
-33.641945,2.5069103,3.492505
-33.682293,2.5066192,3.5014524
-33.720978,2.5080938,3.512539
-33.767624,2.5020664,3.515246
-33.810966,2.4994576,3.5219855
-33.82549,2.5240662,3.559566
-33.914772,2.4790118,3.5187893
-33.95494,2.4801102,3.5301867
-34.001633,2.4754295,3.5352516
-34.05321,2.4666264,3.5358863
-34.10557,2.457476,3.5363317
-34.1557,2.4506454,3.5395527
-34.19742,2.451425,3.551385
-34.23115,2.4592192,3.5711021
-34.17051,2.5473075,3.6792622
-34.198956,2.5587294,3.702901
-34.235413,2.563404,3.7192345
-34.27118,2.5687132,3.7363796
-34.299862,2.5798626,3.7599907
-34.330307,2.589526,3.7820683
-34.3632,2.5971985,3.802085
-34.394688,2.6059985,3.8234181
-34.42933,2.6123128,3.8421803
-34.465874,2.617193,3.8595233
-34.502357,2.6221876,3.8771133
-34.538113,2.6278052,3.895492
-34.575146,2.632519,3.9130378
-34.6128,2.636844,3.9303036
-34.64836,2.6428027,3.9494214
-34.687965,2.6458576,3.9656224
-34.728233,2.6485431,3.9815893
-34.767086,2.652362,3.9988837
-34.810097,2.6533272,4.0133724
-34.856625,2.6519656,4.0256333
-34.892593,2.6581745,4.0458574
-34.93275,2.661548,4.0633125
-36.067863,1.915144,3.3177915
-36.05081,1.9645526,3.385476
-36.03443,2.012815,3.4518013
-36.039097,2.0463808,3.5031657
-36.043243,2.079887,3.5544
-36.071125,2.097474,3.589716
-36.067707,2.1352255,3.645084
-36.084503,2.1595302,3.6870747
-36.018803,2.2360682,3.7803354
-36.03294,2.2611184,3.822816
-36.040665,2.289932,3.868948
-36.054012,2.3149567,3.9113731
-36.073837,2.3357706,3.9497395
-36.083397,2.362657,3.9939485
-36.09794,2.3862782,4.0350184
-36.06576,2.4375663,4.102272
-36.09645,2.4509683,4.133582
-36.10589,2.4767985,4.176627
-36.137657,2.489409,4.207349
-36.29357,2.430521,4.172079
-36.38243,2.4111595,4.174051
-36.492233,2.3805106,4.1661987
-36.569828,2.3686829,4.176053
-36.666824,2.346506,4.176991
-36.781853,2.315014,4.1701283
-36.856186,2.3065252,4.1844034
-36.9647,2.2799208,4.183068
-37.124077,2.2267318,4.159027
-37.240936,2.1973233,4.1566825
-37.36151,2.1667156,4.1539907
-37.44548,2.156021,4.1691194
-37.57673,2.1212785,4.1642237
-37.687737,2.097791,4.1696467
-37.824062,2.0620842,4.165479
-37.996014,2.0092912,4.1479306
-38.0823,2.0005343,4.167824
-38.252052,1.9508166,4.15469
-38.424194,1.9010692,4.142617
-38.57159,1.8645278,4.1422753
-38.77053,1.8040134,4.123763
-38.9003,1.7779684,4.1337814
-39.068954,1.7342198,4.130772
-39.24678,1.6872203,4.126349
-39.343338,1.6792667,4.153054
-39.584396,1.6049426,4.129956
-39.804745,1.5417268,4.116857
-39.97892,1.5009255,4.1219273
-40.188522,1.4452131,4.1172075
-40.40583,1.3873751,4.1123867
-40.64844,1.3196921,4.1019974
-40.89013,1.253953,4.094695
-41.122036,1.19399,4.0931554
-41.32721,1.1469812,4.1022363
-41.57466,1.0831041,4.1012254
-41.85492,1.0068355,4.0936317
-42.186066,0.91092277,4.0750027
-42.452106,0.8442204,4.078008
-42.79428,0.747684,4.0636606
-43.151955,0.6469352,4.0491934
-21.570137,1.141645,2.9488955
-21.651161,1.1442895,2.9242835
-21.744694,1.1544552,2.9071527
-21.85682,1.1758556,2.9011397
-21.949894,1.1868353,2.8857737
-22.051292,1.2032135,2.8760433
-22.13389,1.2090206,2.8566346
-22.234795,1.226197,2.8486362
-22.372076,1.2659729,2.8631544
-22.470665,1.283155,2.8562698
-22.556087,1.292825,2.8424778
-22.585606,1.2682116,2.7951813
-22.604256,1.2366052,2.7409973
-22.633076,1.2111306,2.6929364
-22.64745,1.1762319,2.635477
-22.658674,1.1389301,2.5755653
-22.69322,1.1163876,2.530551
-22.669724,1.0555735,2.4466949
-22.678404,1.0152287,2.3834963
-22.680496,0.969995,2.3152137
-22.681149,0.9232123,2.2452297
-22.666128,0.8651314,2.1634378
-32.763573,1.3036301,1.6708875
-32.761745,1.3909111,1.7850943
-32.77512,1.4491031,1.863265
-32.762997,1.5485661,1.9922981
-32.785896,1.5865672,2.0454497
-32.843754,1.5663288,2.0269485
-32.87058,1.596802,2.0709524
-32.908733,1.6085384,2.0919843
-32.940292,1.6303194,2.1254158
-32.979877,1.6392958,2.1432238
-32.98483,1.7003093,2.2247539
-33.01893,1.7163846,2.2513318
-33.053158,1.7319498,2.2773561
-32.78717,2.2355764,2.9042072
-32.816204,2.2504957,2.928831
-32.83154,2.28395,2.975988
-32.85947,2.2995293,3.00149
-32.88585,2.3168888,3.0291982
-32.87397,2.3842378,3.117292
-32.842327,2.4754999,3.2340617
-32.88231,2.47274,3.2374573
-32.959,2.4238827,3.1855927
-32.99453,2.4277265,3.197238
-33.017525,2.4470124,3.2274666
-33.040657,2.4657648,3.2570906
-33.06347,2.4845524,3.2867904
-33.087402,2.501679,3.314546
-33.1154,2.5137758,3.3363605
-33.1476,2.520875,3.3523045
-33.18266,2.5246928,3.3644438
-33.214684,2.5319674,3.3807683
-33.246605,2.539325,3.397272
-33.282494,2.5423098,3.4087086
-33.320927,2.5426202,3.4171062
-33.356266,2.5463738,3.4296584
-33.39209,2.5496757,3.4417834
-33.429474,2.5514274,3.4522018
-33.47273,2.5472374,3.4558072
-33.513393,2.5459352,3.4629135
-33.556286,2.5425725,3.4677606
-33.593777,2.5448122,3.4792376
-33.634583,2.5438967,3.487183
-33.674873,2.5436552,3.4960384
-33.71463,2.544083,3.505795
-33.74531,2.5532832,3.5257416
-33.779297,2.5593283,3.542159
-33.85428,2.5273113,3.5152225
-33.898945,2.5240068,3.5212994
-33.947227,2.5176473,3.5240612
-33.993282,2.5135887,3.5296068
-34.042427,2.5070312,3.5324917
-34.099545,2.4937599,3.5279927
-34.14661,2.4896848,3.5340533
-34.18827,2.4905133,3.5457811
-34.23488,2.4872766,3.5531068
-34.180378,2.5695422,3.655889
-34.207016,2.5825481,3.6813293
-34.23661,2.593012,3.7040167
-34.267952,2.601996,3.72515
-34.299168,2.6110647,3.746467
-34.3354,2.6160946,3.763443
-34.365746,2.6258602,3.7857199
-34.39399,2.6372433,3.8098483
-34.427975,2.644103,3.8291354
-34.457905,2.6541162,3.8519487
-34.49701,2.6571107,3.8672695
-34.532738,2.6627598,3.8855858
-34.568398,2.6685193,3.9041429
-34.60127,2.6763973,3.925085
-34.64496,2.67637,3.9377155
-34.681118,2.6819768,3.956493
-34.71721,2.687698,3.9755187
-34.761574,2.6875954,3.9885368
-34.804565,2.6886358,4.002931
-34.848972,2.6888442,4.016623
-34.892693,2.6896994,4.031166
-34.934288,2.692171,4.0475607
-36.03196,1.978343,3.3246732
-36.019695,2.0239856,3.3888764
-36.026978,2.0559826,3.438942
-36.047592,2.0788093,3.4796062
-36.066395,2.1026158,3.5212917
-36.066437,2.138346,3.5750365
-36.05186,2.1830091,3.6376677
-36.036587,2.2275162,3.6999607
-36.0378,2.2610395,3.7511277
-36.040752,2.293084,3.8007436
-36.05227,2.319464,3.8446999
-36.07097,2.3411772,3.8840542
-36.075615,2.3712444,3.9315891
-36.071373,2.4063306,3.9839373
-36.064285,2.4426966,4.037407
-36.072105,2.469813,4.0818563
-36.08418,2.4941678,4.123626
-36.082615,2.5262136,4.1726947
-36.12291,2.5338278,4.1985817
-36.241093,2.4971309,4.1830153
-36.332954,2.4761693,4.1828084
-36.432304,2.451607,4.179759
-36.558384,2.4128723,4.1641884
-36.652203,2.3927891,4.1664367
-36.75278,2.3696086,4.1663847
-36.82543,2.3621588,4.181128
-36.903885,2.3519697,4.1937943
-37.06724,2.2971346,4.1670384
-37.219154,2.249527,4.147677
-37.315937,2.2317524,4.1554837
-37.399796,2.2212234,4.1701717
-37.54506,2.179675,4.158431
-37.64441,2.1624296,4.168487
-37.79488,2.120017,4.157632
-37.96103,2.0707893,4.141931
-38.034657,2.0684628,4.166679
-38.227165,2.0081644,4.143526
-38.387543,1.964819,4.135614
-38.48996,1.9504442,4.1524463
-38.665825,1.9015393,4.141859
-38.861164,1.8445649,4.125913
-39.025566,1.8034105,4.123854
-39.15525,1.7794346,4.136421
-39.31028,1.74451,4.141249
-39.519444,1.685772,4.1286526
-39.724182,1.6303964,4.1200347
-39.91919,1.580694,4.1170964
-40.127945,1.5260828,4.1117926
-40.374214,1.4562247,4.0966015
-40.535236,1.4252412,4.11163
-40.775967,1.3606038,4.1033444
-41.017506,1.2971275,4.0975776
-41.21639,1.253325,4.107432
-41.430904,1.2040839,4.114874
-41.744938,1.1144466,4.095971
-42.047543,1.0315385,4.0839334
-42.346657,0.95194983,4.0763345
-42.687126,0.8573382,4.06099
-42.997177,0.7771356,4.057577
-43.35419,0.6800022,4.045593
-43.670673,0.6011512,4.04787
-20.93618,0.98546004,2.802781
-21.063911,1.0103385,2.7970128
-21.40812,1.1551945,2.9050617
-21.50708,1.1667418,2.8886776
-21.584488,1.1667364,2.8617702
-21.687841,1.1817212,2.8496127
-21.809727,1.2078712,2.8487525
-21.91167,1.22332,2.838138
-22.067677,1.2707777,2.85927
-22.180393,1.2940137,2.857472
-22.28655,1.3140898,2.853125
-22.426788,1.3551853,2.8701468
-22.513016,1.3647676,2.856495
-22.581623,1.3640926,2.8329773
-22.632868,1.3530252,2.7992988
-22.562717,1.266808,2.6898255
-22.613377,1.2548292,2.6552467
-22.636724,1.2256677,2.6033154
-22.66421,1.1988797,2.553841
-22.686222,1.1683521,2.5005631
-22.670704,1.1131663,2.421792
-22.699677,1.0863767,2.372315
-22.682796,1.0290298,2.29101
-22.685528,0.9839728,2.2223663
-22.686832,0.9373779,2.1520023
-22.684614,0.8877809,2.0783572
-32.74205,1.299197,1.5846906
-32.78266,1.312973,1.6081047
-32.7544,1.4460592,1.7810044
-32.758343,1.5196564,1.8792534
-32.750786,1.610141,1.998517
-32.773117,1.6484461,2.0525208
-32.833313,1.624305,2.028689
-32.86399,1.6481531,2.064796
-32.903904,1.6569262,2.0822039
-32.9335,1.6814806,2.1193051
-32.99293,1.7284124,2.1909375
-33.02675,1.7450156,2.21833
-32.804356,2.247013,2.8581195
-32.815754,2.2865806,2.913248
-32.82938,2.322108,2.9633808
-32.85472,2.3410401,2.9931326
-32.880596,2.358873,3.021577
-32.87035,2.4234362,3.1072302
-32.833725,2.5202453,3.2321382
-32.87719,2.5130072,3.2298923
-32.971527,2.4425287,3.1507778
-32.99026,2.4673283,3.187873
-33.01273,2.4870675,3.2188358
-33.035797,2.5057125,3.2485037
-33.05807,2.524954,3.2789264
-33.08481,2.5386276,3.3026557
-33.113255,2.5501215,3.3238106
-33.141518,2.5616791,3.3451042
-33.17256,2.569964,3.3625288
-33.205482,2.576107,3.3774624
-33.239834,2.5806777,3.3905997
-33.275658,2.583688,3.401967
-33.30888,2.589556,3.416843
-33.344627,2.5927675,3.428646
-33.38192,2.5944374,3.4387221
-33.418148,2.597313,3.4503365
-33.458103,2.5964766,3.4576674
-33.49594,2.5979428,3.4678392
-33.535965,2.597353,3.4757056
-33.579876,2.5931008,3.4793959
-33.622787,2.590075,3.4846706
-33.667465,2.5855756,3.4883623
-33.71112,2.582301,3.4936352
-33.75487,2.5791721,3.4992232
-33.799282,2.5756552,3.504509
-33.84147,2.5744193,3.5125866
-33.886047,2.5711966,3.5185094
-33.940136,2.5596495,3.5149899
-33.981995,2.5593936,3.5246558
-34.03466,2.5497954,3.523747
-34.08331,2.5440643,3.5274596
-34.132698,2.537982,3.5309482
-34.17917,2.5346851,3.537786
-34.221405,2.5351915,3.5491037
-34.18721,2.5996482,3.6329136
-34.197617,2.6260948,3.6735783
-34.223988,2.6391122,3.699113
-34.260323,2.6439657,3.7155538
-34.293407,2.6514926,3.7350998
-34.32381,2.6611564,3.7571292
-34.353424,2.6714106,3.7799
-34.38681,2.678699,3.7994676
-34.41681,2.6886117,3.8220372
-34.449974,2.6960862,3.842008
-34.48171,2.7046616,3.8632903
-34.516678,2.7108247,3.8820314
-34.558994,2.7116077,3.8950262
-34.59657,2.7160158,3.9121141
-34.632046,2.7220302,3.9310722
-34.672264,2.7247007,3.9465437
-34.713154,2.727014,3.9617805
-34.746376,2.7348566,3.983088
-34.788593,2.7364516,3.9978433
-34.830814,2.7381935,4.0129156
-34.87445,2.7391124,4.0272803
-34.915245,2.7421165,4.044015
-34.950996,2.7486265,4.0645843
-36.013283,2.073078,3.372333
-36.0379,2.0934365,3.4105568
-36.06002,2.115264,3.4503517
-36.07814,2.139488,3.4926538
-36.05094,2.1924887,3.5645332
-36.022896,2.245266,3.63593
-36.032726,2.273495,3.6820736
-36.039127,2.3035586,3.7300434
-36.051075,2.3298647,3.7741694
-36.067158,2.3533835,3.8154798
-36.075283,2.3815079,3.8613958
-36.07305,2.4155529,3.9131575
-36.054947,2.458633,3.9737487
-36.047733,2.4947338,4.0272775
-36.05468,2.5221336,4.072161
-36.077545,2.5400436,4.1077657
-36.142357,2.533801,4.120051
-36.105206,2.5858178,4.1887217
-36.172943,2.578063,4.1998806
-36.31371,2.529917,4.1729527
-36.404316,2.5105898,4.1740813
-36.50803,2.4846506,4.1694818
-36.614567,2.4578686,4.1646676
-36.70541,2.4402423,4.1689453
-36.792492,2.4251714,4.176077
-36.89688,2.4014556,4.175759
-37.000015,2.3790622,4.177232
-37.14363,2.3362799,4.160857
-37.265705,2.305597,4.1561937
-37.37421,2.2826343,4.159122
-37.507927,2.2475834,4.1519804
-37.59725,2.2356694,4.165954
-37.74938,2.1930263,4.153648
-37.85856,2.1725578,4.161446
-38.017666,2.128355,4.1495214
-38.135216,2.1053195,4.1565967
-38.275116,2.0722537,4.1559105
-38.432495,2.0317554,4.1498666
-38.607502,1.9839563,4.138752
-38.821693,1.9190003,4.114645
-38.92605,1.9063454,4.1345444
-39.06588,1.8779478,4.1423655
-39.290787,1.8116782,4.12079
-39.423847,1.788309,4.1346717
-39.623302,1.736017,4.1267257
-39.833923,1.6800406,4.117247
-40.024292,1.6342907,4.11703
-40.244213,1.576844,4.1092052
-40.478085,1.5147588,4.0993915
-40.742767,1.4409716,4.082495
-40.968567,1.3853467,4.0807714
-41.168427,1.3419883,4.0895057
-41.39552,1.2884655,4.0923395
-41.588455,1.2503922,4.107692
-41.840004,1.1894495,4.1084247
-42.208023,1.0828183,4.0794873
-42.509876,1.0050979,4.0728908
-42.793705,0.9363885,4.0745344
-43.177776,0.82982755,4.05328
-43.507812,0.74677444,4.050184
-43.8833,0.6480892,4.0395513
-20.573448,0.99022865,2.8070765
-20.70726,1.0154932,2.8005333
-20.87138,1.0576062,2.8106055
-21.057356,1.1125023,2.8337178
-21.193525,1.1418977,2.8335109
-21.368322,1.1931658,2.8550472
-21.493782,1.2186267,2.8525987
-21.635422,1.2538362,2.8602805
-21.755981,1.27823,2.8581386
-21.878466,1.304471,2.8584309
-22.015331,1.3396859,2.8682218
-22.132935,1.3647959,2.868681
-22.263248,1.3980339,2.8778543
-22.378355,1.4232898,2.8796778
-22.474619,1.4381874,2.871623
-22.556114,1.4448538,2.855678
-22.610144,1.4354217,2.823698
-22.639378,1.4110546,2.7766309
-22.589344,1.3379791,2.679511
-22.601776,1.3024306,2.62078
-22.571636,1.2399433,2.534038
-22.602417,1.2149298,2.4860945
-22.665947,1.2105503,2.4598265
-22.710117,1.14872,2.3519735
-22.698906,1.0955758,2.2744823
-22.72382,1.0655522,2.2214422
-22.72057,1.0164711,2.1480446
-22.69107,0.94907165,2.0548449
-22.712206,0.91505814,1.9973454
-22.656504,0.82797194,1.8824267
-32.767506,1.2108479,1.3907685
-32.74925,1.332145,1.5510359
-32.747665,1.4199731,1.6686115
-32.738323,1.518163,1.7992177
-32.75225,1.5737281,1.8756676
-32.74555,1.6617761,1.9931965
-32.7841,1.6731386,2.0136385
-32.813435,1.6990654,2.052558
-32.856964,1.7019167,2.0624084
-32.9001,1.7054634,2.0732427
-32.940174,1.7137353,2.0901294
-32.974762,1.7301595,2.1173544
-33.03686,1.837075,2.2715974
-32.8003,2.2898824,2.8508477
-32.815334,2.3240478,2.899767
-32.830173,2.3576314,2.9479494
-32.850803,2.3827002,2.9855309
-32.87617,2.4009984,3.0147228
-32.884163,2.4413567,3.0713048
-32.827663,2.5628028,3.2282267
-32.89884,2.520806,3.1827674
-32.971745,2.4779718,3.136541
-32.994576,2.4975846,3.1675344
-33.01521,2.5194652,3.2013483
-33.034992,2.541924,3.2358928
-33.057705,2.5605063,3.2657003
-33.083935,2.574682,3.290145
-33.112354,2.5861397,3.3113194
-33.1401,2.5982144,3.3333058
-33.17161,2.6059387,3.3500533
-33.20301,2.613744,3.3669772
-33.237328,2.6183376,3.3800812
-33.273117,2.621384,3.3914032
-33.308372,2.6250803,3.4036107
-33.343586,2.628878,3.416038
-33.378757,2.6327767,3.4286842
-33.41708,2.633524,3.4376407
-33.455414,2.6343887,3.4468532
-33.49431,2.6348321,3.455676
-33.534317,2.6343195,3.4634757
-33.560043,2.647886,3.488171
-33.575554,2.6711376,3.5244346
-33.60132,2.6842492,3.5486703
-33.677776,2.6495101,3.5163264
-33.716682,2.6506522,3.5266652
-33.77113,2.637625,3.520431
-33.809605,2.6395788,3.5320063
-33.85276,2.6374428,3.5389047
-33.907185,2.6254776,3.5344505
-33.955917,2.6189485,3.536542
-34.00181,2.615201,3.5420432
-34.053833,2.606409,3.5418491
-34.11518,2.590027,3.5330586
-34.12964,2.6137009,3.5707607
-34.203636,2.587363,3.5508676
-34.23768,2.594735,3.5699968
-34.196373,2.6636868,3.6597476
-34.222088,2.6771874,3.685874
-34.253956,2.6856537,3.706327
-34.28955,2.6911626,3.7235131
-34.32121,2.6998148,3.7443686
-34.3508,2.710067,3.7671213
-34.3822,2.71889,3.7883472
-34.414135,2.7272987,3.8091993
-34.445953,2.7357984,3.8302479
-34.47432,2.7468743,3.8542628
-34.511253,2.7515802,3.8712797
-34.552868,2.7529457,3.8847222
-34.59245,2.755929,3.9001002
-34.627216,2.7624772,3.9195385
-34.669476,2.7637568,3.9333196
-34.70551,2.7695637,3.9522004
-34.745655,2.7725742,3.9681616
-34.78788,2.7742705,3.9828448
-34.828697,2.7770762,3.998886
-34.872334,2.778102,4.013165
-34.917408,2.7783265,4.026754
-34.953175,2.7849004,4.0472975
-36.008247,2.122077,3.3565097
-36.042976,2.1357567,3.387742
-36.05999,2.160821,3.4310794
-36.036983,2.211191,3.5009823
-36.026443,2.2529597,3.5616698
-36.020428,2.2913387,3.6186776
-36.035427,2.316184,3.6615396
-36.046295,2.3433313,3.7067738
-36.059753,2.3686209,3.7500744
-36.07131,2.394815,3.79429
-36.068764,2.429184,3.8467946
-36.038925,2.4793231,3.9151487
-36.03518,2.513443,3.9671135
-36.04325,2.5402822,4.0116787
-36.06022,2.5617237,4.0508294
-36.072186,2.5858512,4.092661
-36.082222,2.610855,4.1353445
-36.087944,2.6380472,4.1801496
-36.131958,2.6436791,4.2038918
-36.28618,2.5887096,4.169089
-36.353638,2.5823243,4.1819735
-36.462833,2.553699,4.173892
-36.573296,2.525136,4.16647
-36.66001,2.5099394,4.1723046
-36.764,2.4861562,4.170529
-36.817917,2.489172,4.194362
-36.94779,2.4530895,4.182168
-37.094635,2.409196,4.1635194
-37.242985,2.36557,4.1459737
-37.33332,2.3521943,4.156806
-37.423866,2.3392127,4.1684914
-37.586254,2.291191,4.1492777
-37.663254,2.2861533,4.169276
-37.813343,2.2459674,4.1586657
-37.930344,2.222705,4.163786
-38.048542,2.1995707,4.1697044
-38.235786,2.144473,4.148775
-38.361702,2.1193972,4.1546793
-38.54435,2.0687046,4.139632
-38.694305,2.0342715,4.139399
-38.8439,2.0009298,4.141007
-39.04744,1.9440894,4.124161
-39.151398,1.9332335,4.146221
-39.310192,1.8985333,4.1496015
-39.517357,1.8434812,4.13768
-39.72527,1.7894204,4.1279097
-39.93129,1.737493,4.121192
-40.133614,1.6884344,4.118073
-40.340992,1.6384685,4.1156087
-40.570236,1.5805595,4.1085
-40.77896,1.5326343,4.1104584
-41.020294,1.4724681,4.1047454
-41.223175,1.4295456,4.11336
-41.471268,1.3694324,4.1109066
-41.716526,1.3119619,4.112086
-42.03526,1.2266331,4.095317
-42.355946,1.1425099,4.081685
-42.67675,1.0603113,4.071703
-43.0094,0.9754646,4.0622683
-43.333065,0.89609003,4.058933
-43.681305,0.80928016,4.053103
-44.08799,0.7024708,4.03693
-44.421864,0.6253927,4.0427666
-20.307959,1.014246,2.7953477
-20.463171,1.0481341,2.7964802
-20.69946,1.1245716,2.8389206
-20.814987,1.1402926,2.8246074
-20.937523,1.1603124,2.8150291
-21.132282,1.2190928,2.8436413
-21.27227,1.2501767,2.8463335
-21.411724,1.2818811,2.8503733
-21.547445,1.3124807,2.8540545
-21.666786,1.3350198,2.8504486
-21.788092,1.3593805,2.8492641
-21.923885,1.3925707,2.8575444
-22.057537,1.4254835,2.8662405
-22.185936,1.4563394,2.8735347
-22.30217,1.4811132,2.8752828
-22.40947,1.501493,2.873108
-22.501814,1.5138345,2.8631868
-22.59391,1.5265546,2.854085
-22.635605,1.5098901,2.8148966
-22.632172,1.4661708,2.7476168
-22.623413,1.4187,2.6762776
-22.650589,1.3925555,2.6272345
-22.615622,1.327924,2.5375385
-22.369822,1.0854456,2.2364764
-22.625507,1.2011027,2.3384786
-22.675095,1.1874137,2.3026838
-22.678482,1.1439147,2.2348628
-22.705633,1.1153681,2.1831574
-22.703125,1.0670376,2.1099563
-22.725632,1.0346925,2.0540905
-22.713223,0.9785795,1.9721661
-22.693989,0.9170444,1.8840895
-22.668774,0.8505082,1.7902646
-32.756905,1.2734389,1.3882551
-32.76791,1.3415923,1.4820209
-32.750942,1.4559512,1.6352105
-32.756195,1.5285254,1.7344851
-32.760418,1.6004353,1.832829
-32.753113,1.6889493,1.9524002
-32.790035,1.703165,1.9765983
-32.81948,1.7289407,2.0156732
-32.860207,1.7364266,2.031394
-32.906036,1.7360082,2.0371094
-32.93073,1.7676976,2.0839114
-32.938347,1.8239205,2.1619987
-32.792072,2.389789,2.9181566
-32.82644,2.396623,2.9329734
-32.84105,2.429384,2.9805703
-32.870205,2.44251,3.0034256
-32.878117,2.482554,3.0601892
-32.880856,2.5281343,3.1238637
-32.861668,2.5998313,3.2202177
-32.906975,2.5907154,3.2152271
-32.985565,2.5417993,3.1606226
-33.0075,2.5618627,3.1924071
-33.025795,2.5858223,3.2290726
-33.04842,2.6042798,3.2589011
-33.074566,2.6183698,3.2833376
-33.096107,2.6374512,3.3140106
-33.12321,2.6499908,3.3366137
-33.151596,2.6609497,3.3573174
-33.18281,2.668703,3.3741283
-33.216953,2.6732748,3.3870974
-33.249504,2.679569,3.4022732
-33.28507,2.6827042,3.4136553
-33.320606,2.6859431,3.425263
-33.355064,2.6903617,3.4384093
-33.391598,2.69273,3.4491482
-33.43295,2.6903863,3.454256
-33.45921,2.7031367,3.4778247
-33.498386,2.7031538,3.4860134
-33.51829,2.7218955,3.5169692
-33.571274,2.708858,3.5095901
-33.61667,2.7034166,3.5115476
-33.655403,2.7044566,3.5214443
-33.70215,2.6982584,3.5227795
-33.73637,2.7037563,3.5382657
-33.76762,2.7119656,3.557084
-33.816322,2.7046208,3.5574622
-33.85988,2.702128,3.5637746
-33.896374,2.7059996,3.5777726
-33.935833,2.7073991,3.5889587
-33.988,2.6981063,3.5876613
-34.05926,2.6730852,3.5680552
-34.099083,2.6749785,3.5803103
-34.13519,2.6800613,3.596425
-34.163136,2.6918674,3.6204944
-34.18337,2.7098267,3.6517906
-34.209003,2.7232633,3.6778674
-34.240166,2.7322202,3.6988149
-34.269276,2.7427683,3.721686
-34.295,2.7558947,3.7475996
-34.326378,2.7645874,3.7684846
-34.35698,2.7738652,3.7901278
-34.38613,2.7842178,3.8130832
-34.420444,2.790695,3.8317132
-34.456013,2.796291,3.8494496
-34.488823,2.8039594,3.8696432
-34.520855,2.8122134,3.8905945
-34.555496,2.818611,3.909562
-34.59486,2.8217192,3.9249601
-34.632133,2.8264084,3.9422603
-34.664497,2.8345897,3.9635658
-34.719093,2.8275104,3.9680843
-34.758392,2.831159,3.9846568
-34.80331,2.8311293,3.9973283
-34.842575,2.8350565,4.0145035
-34.896103,2.8296618,4.021658
-34.934654,2.8343608,4.039997
-34.97243,2.8396568,4.0591216
-36.04976,2.1771314,3.3588238
-36.015636,2.23467,3.4372153
-36.030544,2.2604413,3.4813747
-36.036182,2.2917442,3.531414
-36.04207,2.3225353,3.580853
-36.057922,2.346869,3.623424
-36.072647,2.3716602,3.6664767
-36.072655,2.4050703,3.7185369
-36.04636,2.4537637,3.7864122
-36.032234,2.4945972,3.8459058
-36.04349,2.5200524,3.8893805
-36.055122,2.5450454,3.9323616
-36.070236,2.5678039,3.9730458
-36.058598,2.6055942,4.0289984
-36.075233,2.6269732,4.0682197
-36.09233,2.6479292,4.1070323
-36.10124,2.673261,4.150238
-36.102634,2.7024739,4.197275
-36.20846,2.6746185,4.1878242
-36.296402,2.6571252,4.189125
-36.431927,2.614778,4.1665955
-36.51181,2.6028597,4.1743793
-36.626656,2.573067,4.1653147
-36.704662,2.5631878,4.175991
-36.802395,2.5435743,4.1777887
-36.915184,2.5168815,4.1734066
-37.03826,2.4857163,4.1654425
-37.166786,2.4526372,4.156385
-37.249477,2.4431655,4.1699834
-37.397152,2.402157,4.1549406
-37.482067,2.3927507,4.1696997
-37.614025,2.3610535,4.1646566
-37.782608,2.31266,4.14532
-37.88109,2.298687,4.1578183
-38.02295,2.2648454,4.153222
-38.142395,2.242353,4.1594768
-38.27922,2.212529,4.1600237
-38.43274,2.1758983,4.155493
-38.61598,2.1267474,4.141138
-38.773243,2.0904694,4.1389
-38.967316,2.0387614,4.124604
-39.0824,2.0231876,4.141783
-39.264645,1.978836,4.135796
-39.43705,1.939888,4.1354113
-39.615246,1.8994979,4.134956
-39.86419,1.8300517,4.1122594
-40.011127,1.8052751,4.126808
-40.27578,1.732075,4.1041226
-40.411304,1.7141016,4.126288
-40.744118,1.6157949,4.087378
-40.932255,1.5785553,4.0973206
-41.12801,1.5393267,4.107025
-41.35111,1.4902937,4.110757
-41.614307,1.4266908,4.1053157
-41.87381,1.3661313,4.1039233
-42.182774,1.2878819,4.091689
-42.47824,1.2167213,4.086672
-42.780006,1.1449244,4.083333
-43.12626,1.0580947,4.0718546
-43.502705,0.9620373,4.0566707
-43.841934,0.8820822,4.0550027
-44.236084,0.78391695,4.0439105
-44.704754,0.66093826,4.0197735
-19.90871,1.0110867,2.8056483
-20.067883,1.0436316,2.8041105
-20.224863,1.0760782,2.8033557
-20.403545,1.1202984,2.8147016
-20.581495,1.1653364,2.8278217
-20.743982,1.2037358,2.8354979
-20.920475,1.2503626,2.8520613
-21.032137,1.2647545,2.8380175
-21.175018,1.2960169,2.841157
-21.306904,1.3224232,2.8402338
-21.468744,1.3655396,2.8566456
-21.59477,1.3906226,2.855836
-21.74336,1.4286854,2.8687487
-21.857315,1.4488981,2.8643417
-22.001566,1.4864731,2.8781862
-22.09583,1.4973092,2.8653831
-22.222605,1.5268743,2.872302
-22.317041,1.5390103,2.8618188
-22.469128,1.5845842,2.8865423
-22.530521,1.5790567,2.8586464
-22.614899,1.5870876,2.8452296
-22.643557,1.5628588,2.7981677
-22.595367,1.4929364,2.7027512
-22.645481,1.4807785,2.6684341
-22.641054,1.4357569,2.5991635
-22.568768,1.3488202,2.4847584
-22.626213,1.340337,2.4544325
-22.531803,1.2376788,2.322349
-22.52275,1.1868739,2.2460074
-22.541527,1.1530085,2.1879954
-22.637762,1.1682904,2.1838365
-22.669447,1.1425207,2.1349235
-22.697939,1.114469,2.083551
-22.70903,1.074724,2.0192552
-22.717215,1.0325725,1.9522276
-22.722557,0.9879885,1.8824139
-22.67535,0.90724087,1.7719803
-22.663656,0.8494897,1.6870427
-32.750305,1.3241093,1.3849859
-32.803825,1.31705,1.3816142
-32.7377,1.5162709,1.6469841
-32.75832,1.5619609,1.7122359
-32.76013,1.6374092,1.8161511
-32.75173,1.7270412,1.9383893
-32.786495,1.744622,1.9670601
-32.82239,1.7599959,1.9929342
-32.83341,1.8135538,2.068284
-32.898975,1.7824595,2.0341806
-32.93453,1.797512,2.0598564
-32.971355,1.8103788,2.0827804
-33.001347,1.8329322,2.1182556
-33.02619,1.8623018,2.1625414
-32.802162,2.407031,2.8866444
-32.828636,2.4245048,2.9150825
-32.841118,2.459865,2.966391
-32.86854,2.4751701,2.992117
-32.894382,2.4921954,3.0200796
-32.87466,2.5657892,3.1199741
-32.86613,2.6237094,3.1998096
-32.889236,2.6417675,3.2290177
-32.960762,2.6014907,3.1844535
-33.00705,2.5922709,3.179381
-33.032383,2.6078787,3.2057624
-33.05412,2.627363,3.2370682
-33.07792,2.6441462,3.2650046
-33.101433,2.6609695,3.293027
-33.126133,2.676201,3.3190908
-33.15355,2.6882262,3.341185
-33.184788,2.6959853,3.3580084
-33.21743,2.7022057,3.3729863
-33.249985,2.7085137,3.388156
-33.284527,2.7127619,3.400847
-33.32163,2.7144306,3.4104319
-33.35504,2.7199497,3.4248853
-33.39584,2.7181025,3.430327
-33.43294,2.7201056,3.440637
-33.46842,2.7238114,3.453146
-33.500027,2.731321,3.4704232
-33.546436,2.724679,3.4704432
-33.591335,2.7197754,3.4727383
-33.631863,2.7192194,3.4804835
-33.674706,2.7167022,3.4859648
-33.718204,2.7138052,3.4911203
-33.759483,2.7131343,3.499113
-33.79965,2.7136345,3.5086508
-33.845703,2.7090933,3.51223
-33.894245,2.7026498,3.5136738
-33.939365,2.6994617,3.5191922
-33.98758,2.6938655,3.521976
-34.032307,2.6915057,3.5287943
-34.077724,2.6887887,3.5353327
-34.124454,2.685212,3.5410032
