x,y,z
-26.807905,2.6338112,2.315321
-26.779198,2.558638,2.1941586
-26.79946,2.5317624,2.1473217
-26.792446,2.4759872,2.055881
-26.757294,2.3891685,1.9163909
-26.77608,2.357747,1.8624063
-26.791029,2.321467,1.8008966
-26.826166,2.306564,1.7724957
-26.817493,2.2424927,1.6678824
-26.809763,2.1777854,1.5621891
-26.79406,2.1021569,1.4394383
-26.815264,2.0675728,1.3804026
-26.816456,2.0083902,1.2830777
-26.847534,1.9836118,1.239284
-35.682247,1.2814393,0.34003258
-35.671074,1.3481886,0.4504528
-35.70794,1.3739121,0.49870253
-35.669292,1.4609821,0.6396413
-35.65088,1.5299411,0.75304747
-35.705738,1.5391405,0.7763033
-35.666763,1.6223361,0.9109478
-35.710175,1.6397347,0.9465647
-35.64568,1.7400377,1.106565
-35.702965,1.7456985,1.1245551
-35.64069,1.8413787,1.2772422
-35.684956,1.8559921,1.3086252
-35.652245,1.9270933,1.4242687
-35.670486,1.9598682,1.4826922
-35.702236,1.982485,1.5260124
-35.67605,2.045998,1.6300182
-35.68849,2.0812583,1.6920242
-35.665718,2.140452,1.7893724
-35.684177,2.1703165,1.8432913
-35.694435,2.205362,1.9048328
-35.691837,2.2485454,1.9783001
-35.740158,2.2572558,2.0010977
-35.734314,2.3016162,2.0762153
-35.828,2.2806523,2.055737
-35.842293,2.3114214,2.1110153
-35.871323,2.3324401,2.1520743
-36.096775,2.3093593,2.1507783
-35.620567,2.6381724,2.636817
-35.68468,2.6348882,2.642334
-35.726128,2.6454468,2.6679344
-35.779274,2.64915,2.6837873
-35.775,2.6865458,2.7480173
-35.817955,2.6961632,2.7724805
-35.80053,2.7403398,2.8462963
-35.85003,2.746034,2.8652625
-35.88659,2.75912,2.8948393
-35.94967,2.7575254,2.9037185
-35.99182,2.7677004,2.929391
-36.030205,2.779986,2.9581337
-36.06622,2.7935638,2.9887772
-36.116074,2.7997937,3.0092058
-36.16589,2.806195,3.030006
-36.223125,2.8088868,3.0457716
-36.282646,2.81063,3.0603843
-36.341473,2.81298,3.0760112
-36.398067,2.816696,3.093697
-36.4562,2.8198588,3.1107855
-36.512066,2.8243737,3.1299028
-36.56947,2.8283396,3.1484318
-36.637714,2.8272753,3.1602664
-36.69597,2.8313227,3.1792731
-36.754234,2.8355885,3.198752
-36.814075,2.8393342,3.2177067
-36.882607,2.8392754,3.2317214
-36.950443,2.8398526,3.2468143
-37.018356,2.8406975,3.2624884
-37.08315,2.843253,3.2806673
-37.176094,2.8335202,3.2827349
-37.24351,2.8355858,3.3007545
-37.307735,2.839334,3.321219
-37.373608,2.842629,3.341302
-37.478733,2.829384,3.3399673
-37.53087,2.8392124,3.3691006
-37.607628,2.838857,3.385181
-37.67952,2.8408792,3.4046106
-37.744816,2.8459249,3.4281888
-37.815945,2.8488522,3.4492798
-37.87204,2.8581374,3.4787397
-37.932243,2.8659582,3.5065298
-37.979733,2.8790045,3.5411353
-38.02791,2.8918874,3.575688
-38.064022,2.9095416,3.6163726
-38.099037,2.9276323,3.6577024
-38.19203,2.9237857,3.6719298
-39.171253,2.5884058,3.277573
-39.21506,2.6071532,3.3224335
-39.230053,2.6365225,3.3803945
-39.246326,2.665257,3.4375796
-39.25867,2.6952467,3.496283
-39.258312,2.7295718,3.560175
-39.22759,2.7743082,3.6364079
-39.230446,2.8068633,3.6979651
-39.229263,2.8405733,3.7608232
-39.22578,2.8748057,3.8242126
-39.237743,2.9035559,3.8811316
-39.291138,2.9183264,3.921883
-39.470337,2.8917172,3.9153438
-39.53537,2.9034142,3.9533439
-39.714417,2.878506,3.9501915
-39.784008,2.889584,3.9883533
-39.848053,2.902664,4.029051
-39.96904,2.8981524,4.050564
-40.04746,2.9074025,4.0877695
-40.19777,2.894971,4.101739
-40.426926,2.8594794,4.09159
-40.639347,2.8303053,4.0894184
-40.844055,2.8045998,4.092061
-41.037292,2.7833793,4.100516
-41.32045,2.7371953,4.0840335
-41.58963,2.6966312,4.0749226
-41.844692,2.6615777,4.0729437
-42.156147,2.6121812,4.0579205
-42.422806,2.5769277,4.0588183
-42.720886,2.5345612,4.054224
-43.084248,2.4762306,4.0357785
-43.38669,2.4362087,4.037172
-43.745235,2.3830538,4.027841
-44.109352,2.3304443,4.0211997
-44.533745,2.2643323,4.004239
-44.940273,2.2051406,3.9962635
-45.357193,2.145586,3.990511
-45.788307,2.0848029,3.9863086
-46.32016,2.00168,3.9652643
-46.80277,1.9334464,3.9605532
-47.334076,1.8562052,3.9513583
-47.900894,1.7734909,3.941131
-48.540676,1.6768622,3.9233017
-49.13002,1.595376,3.9220538
-49.860695,1.4849505,3.9019947
-50.76696,1.3391137,3.859621
-51.27919,1.2856035,3.893755
-11.958992,1.8615837,3.9618578
-13.384031,2.1338117,4.135967
-13.6333885,2.1418958,4.08752
-14.134451,2.2102752,4.094402
-14.5782585,2.2678034,4.0946107
-15.000241,2.3225074,4.0949764
-15.36631,2.3658988,4.0873814
-15.73734,2.4125004,4.0850315
-16.105696,2.460463,4.0862045
-16.441168,2.502138,4.0834565
-16.774975,2.5452244,4.084052
-17.039455,2.572194,4.0705543
-17.87645,2.6733418,4.0596614
-17.990602,2.6653545,4.0157824
-18.40025,2.7390633,4.0582113
-18.701057,2.7849147,4.073371
-18.939983,2.815078,4.073366
-19.113743,2.8280292,4.056036
-19.347935,2.8592796,4.0595303
-19.56865,2.8879228,4.061371
-19.74942,2.9060414,4.052674
-19.937096,2.927194,4.0482707
-20.105186,2.9434836,4.039319
-20.323769,2.9760535,4.049673
-20.43208,2.9759336,4.0237093
-20.626122,3.0030146,4.0295877
-20.835796,3.0361261,4.0434017
-21.022331,3.0631003,4.0510473
-21.158134,3.0748286,4.041633
-21.257915,3.0755696,4.0198193
-21.441278,3.1042702,4.0317802
-21.580532,3.1193883,4.028288
-21.685791,3.1238577,4.0125594
-21.856146,3.1509662,4.0247803
-21.99337,3.1677136,4.025106
-22.092506,3.1720233,4.010745
-22.194096,3.1776938,3.998477
-22.348583,3.202639,4.010579
-22.457392,3.2121496,4.0040665
-22.595322,3.2327929,4.011982
-22.67073,3.2313802,3.9926395
-22.735773,3.2264786,3.9691594
-22.876957,3.2502913,3.982518
-22.920416,3.238071,3.9503112
-22.992897,3.2370236,3.932617
-23.102531,3.250633,3.934135
-23.118252,3.2282877,3.889399
-23.266977,3.258179,3.9127958
-23.301277,3.2435193,3.8784404
-23.378262,3.2460437,3.866778
-23.504055,3.268775,3.8820763
-23.521051,3.2476618,3.839726
-23.600924,3.252499,3.8319354
-23.724861,3.276216,3.849656
-23.721735,3.2469585,3.7967882
-23.827185,3.263836,3.805964
-23.934628,3.2822332,3.8175764
-23.925606,3.2504702,3.7615614
-24.029415,3.2681155,3.772687
-24.157522,3.2972527,3.7998753
-24.147457,3.265069,3.7435184
-24.232094,3.2755907,3.745768
-24.302252,3.2799616,3.7398224
-24.34872,3.2737036,3.719399
-24.398346,3.2690768,3.7013707
-24.48135,3.280456,3.7057643
-24.558622,3.2896,3.7073107
-24.564152,3.264481,3.6611314
-24.67715,3.291663,3.688364
-24.75907,3.304319,3.6955266
-24.778584,3.286345,3.6596985
-24.850327,3.2946017,3.6610346
-24.909079,3.2966664,3.6538014
-24.97366,3.3020296,3.651435
-25.001001,3.2883775,3.6221209
-25.072746,3.2980373,3.626214
-25.125154,3.2978718,3.6164298
-25.192778,3.3061173,3.6188846
-25.212337,3.2886977,3.5845437
-25.300594,3.3088198,3.6044664
-25.34395,3.3047252,3.589591
-25.403679,3.309947,3.588346
-25.418644,3.2901793,3.550912
-25.508482,3.3130474,3.5756464
-25.551626,3.30964,3.5622602
-25.60865,3.314496,3.5610805
-25.637192,3.3028622,3.5358562
-25.715277,3.3207731,3.5541267
-25.764961,3.322157,3.5482721
-25.813183,3.322897,3.541595
-25.812225,3.293548,3.4905276
-25.899984,3.3190708,3.520732
-25.972519,3.335773,3.538096
-26.014305,3.3334682,3.5273862
-26.05541,3.3308835,3.5163555
-26.104292,3.3335128,3.5132022
-26.122723,3.316357,3.480575
-26.163227,3.3137193,3.4697156
-26.217066,3.3202033,3.4726362
-26.290878,3.3406382,3.4966636
-26.327217,3.3359327,3.4830346
-26.34991,3.3218174,3.4552865
-26.401834,3.328164,3.458479
-26.454157,3.3351378,3.4627461
-26.498966,3.3370547,3.4594774
-26.523182,3.3241963,3.4338822
-26.572708,3.329897,3.4365315
-26.633892,3.3446212,3.4530334
-26.688803,3.3551474,3.4632893
-26.724762,3.351632,3.452241
-26.761885,3.3491218,3.4427986
-26.803009,3.3498645,3.4384122
-26.834963,3.343549,3.4232912
-26.850101,3.323789,3.387588
-26.84888,3.2904558,3.3310242
-26.776464,3.1980214,3.1834474
-26.793695,3.1780066,3.147192
-26.785255,3.1360743,3.0771246
-26.785213,3.100434,3.0167017
-26.793358,3.0711474,2.9660559
-26.7926,3.0335248,2.9024754
-26.785309,2.9893427,2.8286738
-26.789799,2.9547765,2.7697215
-26.790901,2.9164283,2.704855
-26.766462,2.853755,2.6020994
-26.756899,2.8034937,2.5185428
-26.785103,2.7877872,2.4887724
-26.788567,2.74816,2.4217033
-26.789944,2.7056313,2.3500576
-26.814297,2.6847565,2.3122234
-26.792051,2.617005,2.2010274
-26.79521,2.573272,2.1273422
-26.788153,2.5180295,2.0355563
-26.744673,2.4235065,1.8820224
-26.775776,2.4052353,1.8481197
-26.784836,2.3630338,1.7766118
-26.808937,2.336165,1.729209
-26.812172,2.2856963,1.6446319
-26.816055,2.2346568,1.559103
-26.79505,2.1539934,1.4267654
-26.797668,2.0983512,1.333828
-26.810612,2.0533133,1.2575984
-26.80814,1.9887321,1.1504202
-35.672348,1.4028592,0.41565657
-35.699818,1.4361546,0.47585106
-35.661644,1.5218754,0.6165829
-35.70762,1.5388055,0.65157604
-35.683167,1.6110654,0.7714052
-35.65779,1.6826246,0.88999987
-35.708122,1.6946096,0.9174142
-35.74776,1.7147322,0.9573307
-35.679058,1.8160033,1.1209254
-35.729023,1.8271811,1.1471591
-35.67986,1.9110861,1.2839532
-35.70999,1.9358749,1.3308468
-35.677505,2.0052598,1.4452982
-35.75235,1.997323,1.4426556
-35.646667,2.1162887,1.6317635
-35.677,2.138678,1.6748791
-35.67928,2.180054,1.7465973
-35.687725,2.2166162,1.811018
-35.704407,2.2471335,1.866332
-35.780293,2.2380538,1.8623548
-35.72831,2.3131928,1.9844265
-35.74716,2.34109,2.0357733
-35.774696,2.3630948,2.078342
-35.817722,2.3750863,2.1060557
-35.915165,2.352992,2.0832849
-35.991745,2.344593,2.0810695
-35.62786,2.6784635,2.604175
-35.69276,2.675022,2.6089954
-35.732216,2.6868718,2.6364012
-35.772907,2.6980228,2.6628642
-35.806446,2.713324,2.695468
-36.75586,2.2074273,1.969028
-35.903343,2.7269952,2.7362475
-35.883553,2.7720456,2.8122191
-35.92465,2.7828653,2.8385344
-35.967056,2.7930217,2.8639817
-36.011524,2.8021321,2.8880186
-36.111412,2.7817283,2.8697696
-36.16555,2.7862177,2.8874998
-36.21895,2.7912853,2.9061995
-36.27011,2.7976952,2.9269524
-36.32124,2.8042827,2.9480891
-36.385086,2.8045752,2.960434
-36.434692,2.812308,2.9834828
-36.48878,2.81795,3.0037122
-36.54209,2.8241599,3.024888
-36.60917,2.8238475,3.0370631
-36.684055,2.8200872,3.0446186
-36.74286,2.824376,3.0636277
-36.809456,2.8252144,3.0780125
-36.876133,2.8263118,3.0929575
-36.93425,2.8316615,3.1139817
-37.00656,2.8307302,3.1265292
-37.070267,2.8340364,3.1451216
-37.139584,2.8350904,3.16083
-37.20978,2.8360634,3.176649
-37.286488,2.834494,3.1892405
-37.356865,2.8360434,3.206308
-37.434612,2.8347352,3.2197514
-37.500267,2.8389435,3.240872
-37.579025,2.8378983,3.2551708
-37.648052,2.8412848,3.2756505
-37.737724,2.8364415,3.2854276
-37.796955,2.844487,3.3125825
-37.84948,2.8554444,3.3437667
-37.911064,2.862921,3.3705435
-37.96171,2.8749459,3.40347
-38.017265,2.8851755,3.4342175
-38.065964,2.8982313,3.4688082
-38.10518,2.9150364,3.5083857
-38.14672,2.9309967,3.546989
-38.21281,2.9377925,3.5740047
-39.18213,2.6090944,3.1746407
-39.223846,2.6288671,3.2206526
-39.245434,2.6559963,3.2760463
-39.252754,2.6881442,3.3377514
-39.256084,2.7214868,3.4009047
-39.247547,2.7587626,3.4688725
-39.23403,2.797441,3.5384536
-39.22779,2.8332446,3.6043715
-39.228012,2.8665335,3.6671233
-39.237427,2.8964653,3.7257366
-39.288025,2.9124508,3.767537
-39.445965,2.8930655,3.7672048
-39.522327,2.9012456,3.800363
-39.683575,2.8822627,3.8017602
-39.78247,2.8841267,3.8283648
-39.83825,2.9000916,3.8718328
-39.990334,2.8860583,3.8808193
-40.064056,2.8970993,3.9193249
-40.20206,2.8887315,3.9360251
-40.36303,2.8741174,3.9463234
-40.43861,2.8859272,3.9870658
-40.56709,2.8823552,4.0110235
-40.653538,2.8917174,4.049888
-40.760113,2.8956037,4.083161
-40.957893,2.8738708,4.089164
-41.221684,2.8345385,4.077285
-41.489906,2.79546,4.0670986
-41.700394,2.7738514,4.0767975
-42.006172,2.7273378,4.0616293
-42.272697,2.6931515,4.0609083
-42.53704,2.661014,4.0637736
-42.853462,2.6165876,4.055701
-43.2157,2.561982,4.039268
-43.53279,2.5210323,4.038449
-43.93067,2.4612706,4.021117
-44.340874,2.400637,4.0053244
-44.7076,2.353078,4.0044546
-45.053307,2.3126771,4.012537
-45.53546,2.2410998,3.993866
-46.00732,2.1746602,3.9829035
-46.525,2.0999959,3.967535
-47.019943,2.0334852,3.9627032
-47.54075,1.9637208,3.9582434
-48.170845,1.8719614,3.9383693
-48.832012,1.776695,3.9197426
-49.441666,1.6964524,3.917985
-50.207424,1.5854137,3.8954353
-51.149216,1.4406214,3.8513985
-11.897175,1.9469965,3.9023132
-13.39893,2.2285218,4.0949965
-13.959204,2.3057504,4.111237
-14.231872,2.3201687,4.0728807
-14.716767,2.3852358,4.0836935
-15.148278,2.4404218,4.0880404
-15.509558,2.4812498,4.081109
-15.884339,2.5272892,4.081397
-16.194012,2.5594792,4.0701494
-16.54462,2.603456,4.0724936
-16.717365,2.6048374,4.0336075
-17.782495,2.7560368,4.076704
-18.041344,2.7851522,4.0723886
-18.3108,2.8185005,4.073987
-18.508018,2.833898,4.057604
-18.709528,2.8515015,4.0446453
-18.943954,2.8792493,4.043891
-19.183348,2.9096756,4.047313
-19.376078,2.928276,4.0386915
-19.599617,2.9567082,4.0421395
-19.77492,2.9724684,4.032254
-19.967213,2.9941287,4.029996
-20.169043,3.019668,4.0331554
-20.385769,3.05079,4.043796
-20.582802,3.077207,4.0499454
-20.720503,3.0866182,4.0369015
-20.81287,3.0827465,4.008655
-21.018456,3.1146574,4.0237255
-21.176754,3.132836,4.023163
-21.30245,3.1414857,4.01173
-21.460846,3.1613564,4.0145664
-21.585913,3.1712446,4.0058184
-21.737255,3.1904738,4.0091662
-21.8696,3.2042277,4.0063534
-21.984869,3.212955,3.9978087
-22.069183,3.2117407,3.9772282
-22.19625,3.2256541,3.9761202
-22.271555,3.2222447,3.953499
-22.379816,3.2307725,3.9464257
-22.471378,3.2339363,3.9328895
-22.485184,3.2095852,3.8841708
-22.669472,3.2470922,3.9157255
-22.688562,3.2250714,3.8704286
-22.81546,3.2429972,3.8774767
-22.880716,3.2385373,3.8555698
-22.959509,3.2394826,3.8410306
-23.095533,3.2627506,3.8563974
-23.085644,3.2303343,3.7980795
-23.216068,3.2525172,3.812726
-23.297596,3.2561703,3.8029704
-23.320835,3.2369366,3.7626276
-23.476665,3.2712035,3.7947717
-23.522177,3.261485,3.7677188
-23.551384,3.2451649,3.7317896
-23.639624,3.2534335,3.7295928
-23.722715,3.2600284,3.7253995
-23.754566,3.2452703,3.6920404
-23.90189,3.280177,3.7274766
-23.93364,3.2658994,3.6951609
-24.007927,3.2703063,3.688942
-24.080435,3.2743168,3.6824088
-24.15118,3.2779183,3.6755319
-24.198116,3.2711034,3.6542306
-24.29293,3.286353,3.6641784
-24.338945,3.279639,3.6433659
-24.346176,3.254942,3.5971618
-24.48752,3.293343,3.6407166
-24.554913,3.2975395,3.6359468
-24.56321,3.2736065,3.5911264
-24.651842,3.2885823,3.6021123
-24.730219,3.2990937,3.606954
-24.765343,3.2885747,3.5816994
-24.816332,3.2860732,3.5681176
-24.896347,3.2985258,3.5763521
-24.958214,3.3021836,3.5720448
-24.973473,3.2819943,3.5331674
-25.074837,3.3067725,3.559968
-25.131844,3.3088274,3.5538158
-25.185093,3.3091607,3.5452933
-25.182041,3.279284,3.4924808
-25.295597,3.3127785,3.5330129
-25.342821,3.3105729,3.5211601
-25.39567,3.3116996,3.514357
-25.416746,3.2951493,3.4814644
-25.512915,3.3213277,3.512116
-25.56673,3.3238766,3.5078526
-25.60867,3.3197842,3.493813
-25.632084,3.3049164,3.4637518
-25.707552,3.3209581,3.480042
-25.756168,3.3214068,3.4731278
-25.802002,3.3203924,3.4641294
-25.820374,3.3026748,3.430066
-25.882198,3.3118246,3.4365783
-25.975384,3.3411222,3.4737215
-26.025288,3.3437562,3.4707303
-26.058804,3.3361201,3.45227
-26.087889,3.325644,3.429556
-26.111359,3.3114498,3.4012284
-26.17578,3.324376,3.4142985
-26.21268,3.3192966,3.4000216
-26.290356,3.3420408,3.4283938
-26.322042,3.333871,3.409593
-26.336554,3.3137639,3.3725238
-26.398594,3.3268478,3.3864794
-26.45966,3.3397422,3.4002953
-26.498058,3.3368094,3.3898568
-26.535255,3.3331268,3.3783379
-26.57009,3.3278105,3.3643632
-26.624966,3.337516,3.3737135
-26.691801,3.3566737,3.3978443
-26.737316,3.360194,3.397863
-26.77351,3.3567808,3.387199
-26.821077,3.3623724,3.3906202
-26.843666,3.3485012,3.3638086
-26.826862,3.3028898,3.2874875
-26.81932,3.2638538,3.221343
-26.784637,3.201729,3.119007
-26.787674,3.1696239,3.063539
-26.77792,3.1261232,2.9901624
-26.79359,3.1034052,2.949337
-26.778576,3.0537832,2.866222
-26.799623,3.0346425,2.830977
-26.781723,2.9806669,2.740871
-26.780342,2.9403148,2.672145
-26.759027,2.880955,2.5733585
-26.772099,2.8519316,2.5223956
-26.784767,2.8219578,2.4699173
-26.789701,2.7840514,2.404862
-26.785717,2.7367506,2.3248777
-26.800995,2.7071083,2.2728453
-26.815453,2.6760433,2.218545
-26.7803,2.5946581,2.08424
-26.790115,2.5568285,2.0190797
-26.751625,2.4683957,1.873301
-26.779936,2.4473991,1.8348479
-26.786701,2.4031801,1.7593689
-26.80636,2.3717432,1.7042627
-26.79039,2.3007064,1.5858669
-26.819572,2.2777808,1.5443192
-26.791256,2.1897125,1.3985147
-26.805275,2.14751,1.3260493
-26.80525,2.087936,1.225709
-35.673294,1.4559841,0.39208078
-35.688515,1.4989357,0.46780252
-35.69783,1.5458565,0.54968214
-35.69545,1.6011577,0.64456606
-35.68509,1.6616454,0.7474313
-35.672333,1.7228377,0.85127926
-35.698967,1.7529669,0.90681505
-35.73851,1.7730012,0.94671726
-35.675537,1.8688927,1.1040444
-35.762386,1.853034,1.0884242
-35.667183,1.9697287,1.2775307
-35.7329,1.9687953,1.2850251
-35.652332,2.0717266,1.4524484
-35.71961,2.069142,1.4574504
-35.647636,2.1632447,1.6108994
-35.681698,2.182979,1.6501513
-35.687748,2.2215,1.7181702
-35.69305,2.2599442,1.7860227
-35.703358,2.2945073,1.8479075
-35.721367,2.3235505,1.9013605
-35.734955,2.3550947,1.9586043
-35.761658,2.377843,2.0024872
-35.78796,2.4006255,2.046445
-35.888622,2.3766763,2.0198092
-35.939293,2.3844671,2.041325
-35.94564,2.4195063,2.103971
-35.854797,2.5129216,2.2542968
-35.83337,2.563037,2.3392954
-35.635857,2.7166781,2.5791378
-35.70082,2.7134728,2.5838814
-35.738934,2.726176,2.612514
-35.778267,2.738185,2.6401815
-36.76439,2.2128801,1.8699918
-36.794388,2.2358742,1.9157686
-36.78212,2.2821918,1.996068
-36.771828,2.3267705,2.0736861
-36.021355,2.773321,2.743013
-36.010124,2.812956,2.8118176
-36.04684,2.8265114,2.8422947
-36.16232,2.7985654,2.8121614
-36.196163,2.8140595,2.845755
-36.292614,2.797219,2.832358
-36.33378,2.8092527,2.8611684
-36.40917,2.8040411,2.865097
-36.465237,2.8088992,2.883789
-36.512997,2.8180702,2.9088402
-36.568264,2.8236823,2.928895
-36.631912,2.8254251,2.943551
-36.677216,2.8362389,2.9713488
-36.754005,2.8321989,2.9780903
-36.81162,2.8375669,2.9984312
-36.87312,2.8413372,3.0166678
-36.936993,2.8442597,3.0338826
-37.000908,2.847427,3.0516276
-37.08066,2.8437219,3.0599108
-37.152664,2.8438818,3.0738559
-37.21839,2.8471437,3.092349
-37.288963,2.8485625,3.108478
-37.366047,2.8474789,3.1213589
-37.434372,2.850512,3.1401725
-37.508423,2.851409,3.1562586
-37.58175,2.8529463,3.1734614
-37.674793,2.8466346,3.180173
-37.750813,2.8478026,3.19739
-37.811234,2.8556466,3.2239156
-37.861664,2.8677168,3.2563396
-37.928596,2.8733478,3.2802424
-37.992184,2.8805573,3.3064804
-38.04567,2.8919325,3.3384876
-38.086407,2.9083693,3.3773885
-38.116783,2.928804,3.4216938
-38.169758,2.9406743,3.4547734
-39.25532,2.567152,2.9821272
-39.208435,2.6202683,3.0717301
-39.23094,2.6473513,3.1271873
-39.246147,2.6769552,3.185934
-39.260025,2.7068624,3.2450671
-39.264767,2.7398267,3.3081088
-39.236805,2.7840035,3.3853998
-39.22991,2.8203964,3.4526124
-39.22768,2.8548737,3.5173025
-39.23895,2.8844955,3.575817
-39.26914,2.9075944,3.626172
-39.352917,2.9128797,3.654492
-39.516495,2.8923242,3.6512604
-39.5756,2.9066133,3.6914873
-39.744274,2.8858924,3.6892567
-39.791733,2.9046168,3.7355652
-39.91432,2.899832,3.7537456
-40.073097,2.8844209,3.7597637
-40.13386,2.8999763,3.8032813
-40.325684,2.8759031,3.8003101
-40.363724,2.8990908,3.8535748
-40.544327,2.8799667,3.857798
-40.63867,2.887154,3.8932338
-40.76316,2.8859906,3.919538
-40.901516,2.8814483,3.942595
-41.0152,2.8845901,3.9749708
-41.144585,2.883852,4.0035567
-41.248184,2.890882,4.041369
-41.39898,2.8854322,4.065995
-41.665085,2.8495188,4.0582905
-41.896507,2.824367,4.063586
-42.180668,2.7865276,4.056601
-42.468334,2.749349,4.051865
-42.769806,2.710195,4.046653
-43.114246,2.6617503,4.0335355
-43.405907,2.628515,4.037892
-43.758514,2.581698,4.0302076
-44.1365,2.530589,4.020287
-44.575943,2.4666538,3.999961
-44.958595,2.4187691,3.9978485
-45.378155,2.3642383,3.9916582
-45.839546,2.3022308,3.9809513
-46.376328,2.2253695,3.9592519
-46.872276,2.1607642,3.952159
-47.351044,2.102721,3.9541264
-47.91986,2.027298,3.9437037
-48.59256,1.9322464,3.9198203
-49.14451,1.866946,3.9259052
-49.895844,1.7621486,3.9023752
-50.802082,1.6289153,3.8604312
-51.303383,1.5845404,3.8966575
-12.040541,2.1343489,3.9911256
-13.356606,2.3638844,4.143257
-13.616554,2.371212,4.0967407
-14.113661,2.4321127,4.1024294
-14.637456,2.501683,4.1194353
-14.912155,2.517755,4.087495
-15.359766,2.5748942,4.097663
-15.711374,2.6121888,4.090591
-16.012047,2.6393905,4.0753036
-16.388851,2.6863396,4.081945
-16.580624,2.6906881,4.046504
-17.551977,2.8087444,4.0587854
-17.881716,2.8531806,4.071841
-18.02743,2.852181,4.0369234
-18.32692,2.891873,4.0476856
-18.624691,2.9327886,4.061358
-18.901222,2.9697237,4.0720735
-19.115894,2.9915323,4.0670114
-19.307909,3.008326,4.057265
-19.55389,3.0410476,4.066839
-19.719213,3.0526245,4.053002
-19.874147,3.0621324,4.0375147
-20.043436,3.0765512,4.0285506
-20.202326,3.088869,4.017867
-20.393631,3.1115174,4.0202985
-20.60255,3.1404495,4.0311975
-20.748413,3.151699,4.0215487
-20.864199,3.154615,4.0023427
-21.070663,3.1858807,4.0185585
-21.221725,3.2011938,4.015917
-21.272251,3.1858456,3.975677
-21.439747,3.207681,3.9822764
-21.435188,3.1753683,3.9212413
-21.630499,3.2075264,3.9419715
-21.697014,3.1986818,3.911191
-21.840189,3.2154698,3.9135513
-21.88991,3.2017865,3.8771796
-22.046501,3.2244012,3.8880484
-22.085724,3.2077866,3.848415
-22.258963,3.2375774,3.8696842
-22.27566,3.2137012,3.821011
-22.44371,3.2432032,3.8429441
-22.465767,3.2215915,3.7976332
-22.58324,3.2343602,3.798243
-22.680717,3.2404966,3.790402
-22.697172,3.2172585,3.7433696
-22.866493,3.2508988,3.7732444
-22.876345,3.225537,3.723671
-23.027857,3.2539577,3.747385
-23.103306,3.2540677,3.732925
-23.175308,3.2531955,3.7173672
-23.271317,3.2620964,3.7155209
-23.30497,3.246757,3.6804566
-23.405588,3.2583258,3.682848
-23.478777,3.259348,3.6708813
-23.506891,3.24224,3.6337886
-23.631275,3.2650013,3.652711
-23.708897,3.2689857,3.6456194
-23.729055,3.2490551,3.6049852
-23.829033,3.2631621,3.6126218
-23.931007,3.2787452,3.6226845
-23.936253,3.2527194,3.5737348
-24.051262,3.274899,3.5937157
-24.126274,3.2800112,3.5895863
-24.149282,3.2620924,3.5525393
-24.241295,3.2755206,3.5607672
-24.330587,3.2882738,3.568305
-24.336754,3.2629247,3.520821
-24.408003,3.2679148,3.517459
-24.49895,3.2826524,3.5285249
-24.54682,3.277308,3.5104895
-24.601526,3.2754428,3.4976792
-24.696127,3.2933693,3.5141115
-24.766996,3.3001919,3.514464
-24.761543,3.2692199,3.4591742
-24.862,3.2914367,3.4825892
-24.955973,3.311077,3.5024796
-24.974592,3.2924595,3.4657235
-25.018326,3.2868154,3.4483294
-25.100529,3.3016117,3.4615855
-25.170773,3.3105993,3.466374
-25.186958,3.2908833,3.4282684
-25.260498,3.3022456,3.4369154
-25.315983,3.3041549,3.4315138
-25.386824,3.314898,3.4395933
-25.40695,3.2975752,3.405387
-25.451012,3.2937322,3.3916383
-25.54621,3.3194456,3.4228926
-25.59474,3.3188286,3.4143348
-25.617268,3.303151,3.3829212
-25.663778,3.3016071,3.3731275
-25.751982,3.3252983,3.40206
-25.795425,3.3225625,3.3907127
-25.809616,3.3020296,3.3521247
-25.876299,3.3138475,3.3633084
-25.95508,3.333745,3.3871083
-26.001451,3.333738,3.3803892
-26.06195,3.343014,3.3881235
-26.081116,3.3258867,3.3551135
-26.089123,3.301261,3.3104887
-26.153214,3.3135161,3.323135
-26.216318,3.3256023,3.3356733
-26.264751,3.3282137,3.3335986
-26.318605,3.3348155,3.3378549
-26.333618,3.3147855,3.3006167
-26.410423,3.3379312,3.330945
-26.460081,3.3425171,3.3323784
-26.496393,3.3378088,3.3193336
-26.52502,3.3275938,3.297701
-26.56793,3.3278563,3.2925968
-26.643446,3.3526287,3.3261938
-26.693436,3.3589373,3.3308468
-26.728292,3.3540354,3.3178973
-26.770012,3.354511,3.3135138
-26.803194,3.3485096,3.2989545
-26.833088,3.3399472,3.2803898
-26.83487,3.3088236,3.2260594
-26.810959,3.2562578,3.137617
-26.78275,3.1990259,3.0416355
-26.776773,3.1590464,2.9730039
-26.78711,3.1319904,2.9249148
-26.787958,3.09634,2.8630896
-26.80472,3.0737245,2.82205
-26.783617,3.01755,2.7273293
-26.764248,2.9616382,2.6329212
-26.756239,2.9146643,2.5527353
-26.773335,2.8895197,2.5074997
-26.784975,2.8588681,2.4534197
-26.78693,2.8185258,2.3837442
-26.782452,2.7711835,2.3027587
-26.792938,2.7371387,2.2431264
-26.795578,2.694707,2.1699514
-26.824041,2.6768363,2.1363616
-26.766878,2.5727766,1.9636045
-26.75798,2.5150619,1.8655462
-26.775764,2.4834397,1.8096185
-26.803175,2.4611993,1.7688761
-26.813309,2.4201646,1.6976976
-26.790634,2.342738,1.5674729
-26.805542,2.3043559,1.5004997
-26.826387,2.271633,1.4427018
-26.803293,2.1885312,1.3030076
-26.800755,2.126638,1.1976938
-35.672142,1.5107555,0.36777258
-35.687336,1.5533786,0.44368267
-35.72917,1.5742998,0.4851761
-35.678932,1.666642,0.6397476
-35.647274,1.7427957,0.76850224
-35.71251,1.7438626,0.7785506
-35.684288,1.8153243,0.89971113
-35.72019,1.8378608,0.9436755
-35.64874,1.938817,1.1109929
-35.70381,1.9461043,1.130919
-35.657322,2.0262012,1.2651291
-35.696934,2.043838,1.3013053
-35.65875,2.1157584,1.4224291
-35.688564,2.139325,1.4678516
-35.690067,2.181992,1.5430856
-35.683228,2.22962,1.6259785
-35.757248,2.2224548,1.6235952
-35.697742,2.3039165,1.7589593
-35.688267,2.3511772,1.8410573
-35.713238,2.3754323,1.8874574
-35.744904,2.3951602,1.926878
-35.784725,2.409589,1.9581628
-35.79344,2.4434109,2.0193753
-35.859756,2.4412055,2.0251656
-35.898243,2.456336,2.0577135
-35.93919,2.4699426,2.087988
-35.86985,2.549444,2.219102
-35.811096,2.6212542,2.338182
-35.63659,2.7594793,2.5581965
-35.706394,2.7537076,2.5585766
-35.745934,2.7656527,2.5860229
-35.77764,2.7820525,2.6202908
-36.75023,2.271551,1.8579454
-35.999878,2.7266655,2.555901
-36.00621,2.757707,2.6126328
-36.04199,2.7724147,2.6447787
-36.077553,2.7872152,2.677127
-36.12881,2.7936645,2.6970415
-36.16767,2.806782,2.7270293
-36.195385,2.8257117,2.7657504
-37.10616,2.3904843,2.1294804
-37.12117,2.420452,2.1862035
-37.155735,2.4402878,2.2279224
-36.4393,2.834168,2.8217344
-36.50081,2.8366637,2.8366866
-36.587307,2.8272245,2.8342714
-36.65817,2.825844,2.8439136
-36.71237,2.832765,2.8658824
-36.782658,2.832261,2.8771672
-36.83764,2.8392472,2.8995347
-36.905758,2.8403313,2.9134893
-36.967735,2.8445342,2.9321427
-37.02974,2.848971,2.9513025
-37.0894,2.8546994,2.9724908
-37.16407,2.8539858,2.984611
-37.234104,2.8556645,3.00037
-37.301826,2.8586586,3.0182085
-37.374405,2.8598497,3.0336838
-37.4519,2.8592749,3.0468783
-37.522247,2.8620799,3.0650792
-37.617817,2.8546736,3.0691342
-37.724255,2.843304,3.0679493
-37.778637,2.8537872,3.0976405
-37.846077,2.8591533,3.1203642
-37.909393,2.8664336,3.145948
-37.976818,2.8723183,3.1697946
-38.0201,2.8879123,3.2072158
-38.06903,2.901383,3.2418375
-38.102695,2.920809,3.284731
-38.13608,2.9403286,3.327826
-38.230064,2.93711,3.3401875
-39.16954,2.620658,2.9302402
-39.21761,2.6385639,2.9734468
-39.244923,2.6640823,3.0269704
-39.256405,2.6952055,3.0880036
-39.251892,2.731812,3.1562848
-39.23813,2.77135,3.228343
-39.229774,2.8086221,3.2972932
-39.226894,2.843674,3.363235
-39.234795,2.874766,3.423944
-39.229935,2.9099493,3.4899125
-39.30448,2.9183946,3.5213742
-39.48301,2.8928752,3.5096235
-39.578117,2.8955734,3.534556
-39.726517,2.8815312,3.5386648
-39.78451,2.8971045,3.5806813
-39.863743,2.9061484,3.61473
-40.05125,2.8817625,3.6075006
-40.09205,2.9036474,3.6583023
-40.26313,2.8858795,3.6605206
-40.33891,2.897757,3.6996832
-40.448082,2.899969,3.7274299
-40.61362,2.886089,3.7362733
-40.68663,2.9000263,3.7791271
-40.876358,2.8806338,3.782723
-40.964,2.8913095,3.822631
-41.148838,2.875011,3.8313875
-41.233765,2.8874602,3.8743677
-41.444935,2.8655705,3.878222
-41.499382,2.8873553,3.9329333
-41.736145,2.860382,3.9327297
-41.810867,2.8776374,3.9832926
-41.910515,2.8886237,4.0272264
-42.067924,2.8850865,4.055659
-42.368607,2.8457253,4.045871
-42.695347,2.801455,4.032403
-42.96936,2.7721431,4.0366697
-43.291016,2.7325845,4.031611
-43.65492,2.6845198,4.0194564
-43.98187,2.6473327,4.0205727
-44.385273,2.5938,4.006878
-44.735516,2.554927,4.010269
-45.183434,2.4953861,3.9951515
-45.63331,2.4378605,3.9846616
-46.08033,2.3834355,3.9798613
-46.65445,2.3032217,3.9531856
-47.154205,2.2424603,3.9483156
-47.670273,2.1808784,3.9457912
-48.31223,2.0952456,3.9246445
-48.904488,2.0235662,3.920082
-49.57976,1.9378648,3.9070377
-50.51214,1.8032429,3.8562603
-51.201862,1.7226593,3.8574066
-11.960997,2.222128,3.9258404
-13.393312,2.4682524,4.104172
-13.970842,2.5415654,4.1236806
-14.211989,2.5458488,4.078698
-14.67476,2.599547,4.0843954
-15.176649,2.6643875,4.1040297
-15.574525,2.7087467,4.1055393
-15.757684,2.7066348,4.06105
-16.250113,2.7763803,4.093022
-17.186651,2.8731966,4.0826945
-17.406528,2.8865473,4.0617514
-17.65237,2.9073944,4.050248
-17.965221,2.9461603,4.0600734
-18.266998,2.983882,4.0703115
-18.492424,3.00388,4.0618343
-18.709938,3.0230513,4.0535126
-18.916786,3.040611,4.044372
-19.12043,3.0584316,4.036529
-19.325485,3.0777233,4.031388
-19.545753,3.1022334,4.033423
-19.738785,3.1205156,4.0290136
-19.891006,3.128557,4.0131083
-20.151844,3.1677873,4.0358653
-20.24666,3.1615105,4.0040045
-20.388813,3.1692142,3.9898002
-20.503477,3.1696863,3.9672172
-20.597204,3.164574,3.9381247
-20.809147,3.1949525,3.9541013
-20.8485,3.1747634,3.906921
-21.005676,3.1903925,3.9055197
-21.1016,3.1880798,3.8817663
-21.22956,3.1961617,3.87179
-21.35903,3.2053907,3.8638124
-21.431461,3.197194,3.8336296
-21.538403,3.2003696,3.818612
-21.651333,3.206027,3.807272
-21.791248,3.2211332,3.808875
-21.853733,3.2113128,3.7778482
-21.99131,3.2269292,3.7810435
-22.05717,3.218983,3.7531066
-22.187185,3.233307,3.7554464
-22.260677,3.2287555,3.7326808
-22.32726,3.2220967,3.707292
-22.453865,3.236987,3.7115903
-22.48866,3.2196946,3.6721501
-22.649632,3.248148,3.695877
-22.687824,3.232636,3.6593237
-22.79294,3.2419534,3.65738
-22.885967,3.2473297,3.650298
-22.954462,3.2439172,3.6312175
-23.093864,3.2679157,3.6508832
-23.097134,3.2401786,3.5980453
-23.210997,3.2554078,3.6059995
-23.306282,3.263986,3.604885
-23.320793,3.240864,3.5588903
-23.450981,3.2642484,3.579414
-23.514605,3.2613418,3.5626478
-23.555477,3.2493367,3.532968
-23.67317,3.2693958,3.5496902
-23.725235,3.2625942,3.5278864
-23.772532,3.2539458,3.5035372
-23.89157,3.2762694,3.5244389
-23.936302,3.2671096,3.4997115
-24.01899,3.2747297,3.4996839
-24.091194,3.278171,3.4937606
-24.142897,3.2727983,3.4750547
-24.211716,3.2753701,3.4682183
-24.291203,3.2831807,3.4693356
-24.347313,3.2806344,3.455296
-24.378855,3.266835,3.4246469
-24.476902,3.2844677,3.4409752
-24.55171,3.291661,3.4419699
-24.57647,3.2751265,3.4075809
-24.67802,3.295989,3.4294515
-24.751392,3.303679,3.431766
-24.76734,3.2831838,3.3917093
-24.8545,3.2983942,3.4057055
-24.905987,3.296036,3.3932924
-24.97932,3.3051353,3.398419
-25.016064,3.2956605,3.3754425
-25.102707,3.3124747,3.392673
-25.153008,3.3105967,3.381544
-25.188274,3.3008578,3.3584805
-25.228622,3.2939184,3.3397846
-25.30355,3.3060577,3.3505292
-25.376007,3.3173392,3.3601446
-25.399405,3.3015964,3.3282022
-25.445879,3.2988362,3.3163762
-25.531485,3.3186874,3.339705
-25.609722,3.3349447,3.3576746
-25.621714,3.3129835,3.3163872
-25.673183,3.314156,3.311141
-25.739258,3.3243337,3.320067
-25.801023,3.3323586,3.3257847
-25.819605,3.3143485,3.290873
-25.884398,3.3247728,3.3005762
-25.957325,3.3407507,3.3191571
-26.007826,3.343111,3.3164878
-26.04856,3.3394904,3.3045006
-26.086742,3.3343518,3.290196
-26.10978,3.3193924,3.260437
-26.150644,3.3161175,3.2491999
-26.221397,3.3330114,3.27001
-26.276226,3.339715,3.2748098
-26.329592,3.3457813,3.2787151
-26.33832,3.321226,3.233992
-26.408493,3.3394358,3.2574124
-26.465595,3.348996,3.2671895
-26.505173,3.3463955,3.2576575
-26.535896,3.3374958,3.2381177
-26.581932,3.3398528,3.2366571
-26.638258,3.3501315,3.2479925
-26.695993,3.3619204,3.2618709
-26.750534,3.3717563,3.2727332
-26.788977,3.3695953,3.2643962
-26.81342,3.3566248,3.2387075
-26.843628,3.348089,3.220201
-26.794369,3.2758276,3.0988135
-26.800549,3.246939,3.0473719
-26.791164,3.2047176,2.9743247
-26.791758,3.1699197,2.9132357
-26.773535,3.1185572,2.8252354
-26.789394,3.0951753,2.7825694
-26.78293,3.0520663,2.7078419
-26.760986,2.9944537,2.6094546
-26.754015,2.9488168,2.5304604
-26.784698,2.936065,2.505003
-26.790257,2.9002542,2.4419613
-26.783298,2.8521042,2.358736
-26.793928,2.8193316,2.3005772
-26.7836,2.7659452,2.2086759
-26.79062,2.7280002,2.1419792
-26.81774,2.7088432,2.1060414
-26.761072,2.6063082,1.9333744
-26.7628,2.55976,1.852406
-26.777805,2.525629,1.7917876
-26.800264,2.4984386,1.742569
-26.794033,2.4405339,1.642818
-26.789524,2.3829613,1.5435443
-26.80272,2.3430371,1.4732862
-26.813362,2.299322,1.3967566
-26.826641,2.2574334,1.3232131
-26.805914,2.175933,1.1842275
-35.627647,1.6031194,0.40124798
-35.66855,1.6247056,0.44391394
-35.693344,1.6585932,0.5064373
-35.647804,1.7459888,0.65504074
-35.675804,1.7757885,0.7108903
-35.69805,1.809495,0.7730212
-35.672543,1.8780713,0.8910427
-35.713017,1.897044,0.92950153
-35.663292,1.9810984,1.0720778
-35.686283,2.0115156,1.1287799
-35.663013,2.0741982,1.2369428
-35.682056,2.106188,1.296082
-35.68643,2.1478534,1.3706007
-35.676437,2.198663,1.4595928
-35.685867,2.2355063,1.5263333
-35.667694,2.2902029,1.6213179
-35.679256,2.3243575,1.683691
-35.7295,2.3328323,1.7054725
-35.654366,2.4221683,1.8548756
-35.702248,2.4314432,1.8779063
-35.75587,2.4371853,1.8954668
-35.74089,2.4858139,1.9804587
-35.79794,2.4892938,1.9945755
-35.811974,2.5191884,2.0501442
-35.842117,2.539011,2.0899591
-35.8726,2.5584881,2.1292686
-35.8933,2.583598,2.1773834
-35.97546,2.5726326,2.1694279
-35.663536,2.7893755,2.515005
-35.69976,2.803197,2.5452156
-35.742714,2.813201,2.569583
-35.817665,2.805421,2.5665865
-35.932926,2.7758415,2.5301957
-35.983246,2.7826457,2.5500598
-36.026413,2.7934575,2.5761786
-36.068024,2.8051646,2.6037526
-36.103733,2.8200378,2.6362433
-36.896812,2.4387455,2.06458
-36.951015,2.448225,2.0902433
-36.22054,2.8595939,2.726388
-36.280464,2.8621886,2.7405305
-36.413715,2.8282797,2.6996217
-36.44215,2.847373,2.7390714
-36.43512,2.8837788,2.8046207
-36.53648,2.8671062,2.7903748
-36.595974,2.8712108,2.8075485
-36.72619,2.8419333,2.7749772
-37.060402,2.7176526,2.6011558
-36.86215,2.8441,2.801334
-36.89978,2.8596156,2.8361912
-36.961243,2.8642817,2.8550692
-37.072613,2.846687,2.8412566
-37.12965,2.854038,2.8644958
-37.205544,2.8532588,2.8759475
-37.273663,2.8562372,2.8931131
-37.362495,2.8505535,2.8978252
-37.44758,2.8469481,2.9058266
-37.51603,2.8508184,2.9249258
-37.59579,2.8502355,2.9377775
-37.64657,2.8620403,2.9687262
-37.763027,2.8470488,2.961288
-37.80894,2.86136,2.996211
-37.883354,2.8643155,3.0150304
-37.941376,2.874103,3.0437956
-37.996838,2.8850791,3.0744076
-38.050533,2.8969016,3.106369
-38.094112,2.9127617,3.1441631
-38.129955,2.9316263,3.1862822
-38.17057,2.9486976,3.2259727
-38.172188,2.9803345,3.2860484
-39.20888,2.6303966,2.8166804
-39.228638,2.6589823,2.8745213
-39.241123,2.6900392,2.9357753
-39.242844,2.7247343,3.001995
-39.226814,2.765411,3.0763168
-39.220436,2.80231,3.14537
-39.219498,2.8370037,3.2113438
-39.22753,2.8683505,3.272738
-39.219387,2.9049497,3.3411403
-39.27616,2.919542,3.3800793
-39.449356,2.8958385,3.3683538
-39.519363,2.9068475,3.4031749
-39.642212,2.9010365,3.416129
-39.764412,2.8960629,3.4306545
-39.805145,2.9174433,3.4799309
-39.988964,2.8941677,3.4715667
-40.06527,2.9051437,3.5080204
-40.17463,2.9063122,3.5322127
-40.32452,2.8957589,3.5419416
-40.359375,2.9203296,3.5966759
-40.59271,2.8863382,3.5779767
-40.644634,2.9066038,3.6279993
-40.834427,2.8872366,3.6290832
-40.895298,2.9056425,3.6775084
-41.11218,2.880286,3.6726632
-41.17665,2.8985505,3.7217546
-41.36948,2.8817065,3.7287955
-41.45868,2.894059,3.7716403
-41.68806,2.8691196,3.7706199
-41.75792,2.887759,3.8219857
-41.959255,2.872162,3.8336763
-42.05777,2.88425,3.8783808
-42.288498,2.862928,3.8852043
-42.41322,2.869619,3.9250207
-42.554768,2.8726764,3.9613404
-42.710423,2.8729243,3.9952183
-42.821976,2.8846526,4.04255
-43.18496,2.8364623,4.0249443
-43.513924,2.7983537,4.0201945
-43.813343,2.7689536,4.0265393
-44.19296,2.7226272,4.0166264
-44.595264,2.6732025,4.005592
-44.975628,2.6309156,4.0041943
-45.446358,2.570616,3.986617
-45.87134,2.5229187,3.9844403
-46.42248,2.450248,3.9599957
-46.895298,2.3972979,3.9581108
-47.44484,2.3307605,3.945992
-47.998352,2.2663784,3.9392762
-48.65306,2.1842904,3.9194798
-49.25408,2.1165779,3.9169803
-49.952763,2.0326858,3.903739
-50.888786,1.9060802,3.857266
-51.329636,1.8801341,3.9041958
-12.135256,2.4164474,4.0145273
-11.745939,2.2866118,3.8321624
-13.522598,2.5937529,4.0830336
-14.121349,2.6685803,4.109353
-14.462007,2.6928167,4.0872045
-14.895899,2.7385726,4.089328
-15.291693,2.7784963,4.0877132
-15.619052,2.8056617,4.0746555
-15.976285,2.8411517,4.072338
-16.380268,2.889019,4.085435
-16.613712,2.9004662,4.060455
-16.967884,2.9408321,4.068938
-17.282543,2.973948,4.071066
-17.457127,2.9757614,4.039134
-18.1521,3.0283394,4.0035086
-18.606604,3.1036105,4.062087
-18.742,3.1013567,4.0304728
-18.920998,3.1108398,4.013572
-19.08301,3.116877,3.99331
-19.273458,3.1311536,3.9838312
-19.374035,3.1227183,3.947267
-19.585072,3.1442375,3.948238
-19.74968,3.1543589,3.9359171
-19.791304,3.1316762,3.8830824
-19.97841,3.1493573,3.8814425
-20.167782,3.1686954,3.88271
-20.195011,3.1430779,3.8271666
-20.388332,3.1651034,3.8331184
-20.532333,3.1738877,3.8226967
-20.58959,3.157939,3.7805786
-20.807743,3.1899917,3.8016467
-20.855946,3.1722112,3.7578406
-21.019503,3.189633,3.7608929
-21.18436,3.2083707,3.7663403
-21.24316,3.195029,3.7294188
-21.410858,3.2161574,3.7391357
-21.428165,3.1903672,3.6859593
-21.584675,3.2092924,3.6936412
-21.63822,3.1955862,3.657299
-21.79926,3.2174327,3.6699438
-21.830128,3.1968775,3.624692
-22.043312,3.237701,3.664547
-22.054268,3.2110224,3.6112723
-22.251564,3.2483296,3.6473885
-22.269567,3.2244859,3.5984325
-22.385357,3.2349439,3.597807
-22.479515,3.2383504,3.587603
-22.47848,3.207997,3.5297875
-22.650328,3.2402472,3.5611057
-22.678276,3.220702,3.5189562
-22.854076,3.256066,3.5556564
-22.885359,3.238295,3.51644
-23.010885,3.2563055,3.5289917
-23.108564,3.264391,3.527563
-23.101995,3.232567,3.4683852
-23.245514,3.2592857,3.4945636
-23.308157,3.2548785,3.4756422
-23.34226,3.2392924,3.4404783
-23.460121,3.257647,3.4553757
-23.523357,3.254379,3.438696
-23.590563,3.2530243,3.4250221
-23.705698,3.2720249,3.4417763
-23.721508,3.249776,3.3974195
-23.809847,3.2583687,3.399147
-23.919983,3.2768846,3.4159918
-23.924324,3.2499392,3.3648791
-24.029993,3.2674356,3.3806577
-24.155388,3.294419,3.4110646
-24.143814,3.2605588,3.3497562
-24.247654,3.2788494,3.3674836
-24.31112,3.2792463,3.358293
-24.35387,3.270312,3.3350387
-24.432362,3.278291,3.337719
-24.494713,3.2790616,3.3295674
-24.55093,3.277191,3.3175163
-24.595133,3.2697303,3.2969995
-24.718102,3.3010585,3.336371
-24.764935,3.2955654,3.3192067
-24.802233,3.285448,3.2949872
-24.89661,3.3043218,3.315805
-24.954876,3.3053699,3.3091698
-24.972586,3.2857013,3.2704072
-25.030106,3.2867143,3.2639236
-25.108898,3.2992737,3.275621
-25.19085,3.314057,3.2909985
-25.20399,3.2922015,3.249093
-25.274267,3.3013647,3.2559404
-25.332397,3.3042684,3.2530985
-25.389668,3.3070056,3.250125
-25.423405,3.2967534,3.2267542
-25.483225,3.3014238,3.227057
-25.550304,3.310634,3.2346911
-25.61303,3.317748,3.2391515
-25.635994,3.3017786,3.2070398
-25.715084,3.3192065,3.2281504
-25.752735,3.3122354,3.2105227
-25.81209,3.3185964,3.2142634
-25.838644,3.3050745,3.1863165
-25.90486,3.316246,3.1979737
-25.966228,3.3248398,3.2056422
-26.013287,3.3247132,3.1994286
-26.086826,3.3419187,3.2211995
-26.097721,3.3187935,3.178142
-26.129002,3.308831,3.1563134
-26.185774,3.315909,3.1620646
-26.23493,3.318216,3.1602144
-26.302206,3.3331997,3.1789951
-26.325571,3.3183312,3.1494985
-26.379744,3.3249168,3.154869
-26.441402,3.3371794,3.169578
-26.483835,3.3361468,3.1627703
-26.5303,3.3382237,3.1611056
-26.555782,3.3251283,3.1347675
-26.628004,3.3467038,3.1650996
-26.674023,3.3492713,3.1644993
-26.71313,3.3468328,3.1557856
-26.75837,3.349266,3.1551223
-26.799593,3.3488202,3.149815
-26.830866,3.3406842,3.131946
-26.815472,3.2951324,3.0526
-26.819933,3.264733,2.9981108
-26.795147,3.2097054,2.9030147
-26.78162,3.1628325,2.8212595
-26.7843,3.1286116,2.7603116
-26.780455,3.0881205,2.6889672
-26.764664,3.0364208,2.599032
-26.767784,3.000146,2.5345445
-26.784245,2.9749687,2.488408
-26.787302,2.9372406,2.4214559
-26.777403,2.8868575,2.3334603
-26.791483,2.8575103,2.2803392
-26.787897,2.8109732,2.1986265
-26.78914,2.7679484,2.1227026
-26.787092,2.7207472,2.0397787
-26.786087,2.6734385,1.9566221
-26.800375,2.6401844,1.8968568
-26.7804,2.5716498,1.7781873
-26.80057,2.5423875,1.7250199
-26.796087,2.4868972,1.6280084
-26.7981,2.4368162,1.5399833
-26.801659,2.3871033,1.4525275
-26.807604,2.3386922,1.3672094
-26.815044,2.2906682,1.2825017
-26.84351,2.2649248,1.2351375
-35.68955,1.6648667,0.39051628
-35.689228,1.7179546,0.48506165
-35.67078,1.7837961,0.60040474
-35.70126,1.811744,0.65369034
-35.6787,1.8785412,0.7704215
-35.657036,1.9433966,0.8838558
-35.706764,1.9554908,0.9112201
-35.748047,1.9736292,0.9484911
-35.67863,2.0696607,1.1123886
-35.75812,2.0600433,1.1045566
-35.664497,2.170111,1.2908902
-35.722504,2.1747727,1.306253
-35.65175,2.266212,1.4620194
-35.69387,2.280818,1.4934602
-35.68572,2.3284204,1.5781674
-35.694244,2.3644042,1.6440797
-35.719208,2.3893104,1.6921406
-35.792984,2.3829572,1.6900153
-35.69172,2.486926,1.8649554
-35.727108,2.5040398,1.9004607
-35.714497,2.5505238,1.9829707
-35.75558,2.563675,2.0121703
-35.806427,2.5709686,2.0320969
-35.863228,2.574858,2.0466971
-35.88243,2.6010292,2.0968156
-35.90995,2.6220932,2.1388307
-35.952087,2.6345985,2.167316
-35.96733,2.662401,2.220058
-35.85652,2.7606993,2.3840728
-35.88869,2.7777245,2.4196157
-35.915,2.797893,2.4601464
-35.95503,2.8104622,2.488768
-36.044395,2.7965257,2.475913
-36.082253,2.8105838,2.5070791
-36.689648,2.5249667,2.0703301
-36.775837,2.5170882,2.068325
-36.911575,2.4841957,2.0276184
-36.98336,2.4849257,2.0394797
-36.29785,2.8676367,2.643344
-36.35308,2.8731968,2.6617947
-36.40016,2.882971,2.6868696
-36.46055,2.8863556,2.7022033
-36.412403,2.9423866,2.798561
-36.531773,2.9175267,2.7707014
-36.59883,2.9182327,2.7822828
-36.661438,2.9213305,2.7976804
-36.737095,2.9186502,2.804432
-36.992786,2.8339515,2.686808
-37.062756,2.835489,2.7006497
-37.112633,2.8463411,2.7287478
-37.23339,2.825891,2.709765
-37.305344,2.827635,2.7245107
-37.358482,2.837864,2.7521715
-37.40203,2.852355,2.7863317
-37.428703,2.874075,2.8313675
-37.542892,2.858919,2.821579
-37.625443,2.8576093,2.832674
-37.688007,2.8649273,2.8567638
-37.80964,2.848428,2.84589
-37.85452,2.863571,2.8819208
-37.921253,2.8700757,2.9053903
-37.979782,2.8800697,2.9341412
-38.027523,2.8944542,2.96944
-38.0784,2.907723,3.003234
-38.12913,2.9211686,3.0374122
-38.1597,2.9423447,3.0828686
-38.256912,2.9385903,3.092546
-39.166004,2.6354053,2.6736732
-39.222916,2.6506054,2.7125692
-39.239853,2.6803937,2.7723584
-39.24357,2.7147372,2.8385963
-39.241592,2.7508209,2.9072385
-39.220173,2.7933962,2.984929
-39.222073,2.8274503,3.0505404
-39.22255,2.8617234,3.1163988
-39.23111,2.8929868,3.1780152
-39.279984,2.9105515,3.2206678
-39.372204,2.9138665,3.243845
-39.51345,2.9015498,3.2459235
-39.607708,2.905211,3.2703085
-39.753075,2.8929412,3.2734017
-39.795517,2.9140272,3.3220892
-39.94484,2.9017217,3.3260183
-40.060783,2.900548,3.3454037
-40.14034,2.9110665,3.380773
-40.316364,2.8927283,3.3782473
-40.399635,2.9030838,3.4141774
-40.53139,2.899445,3.4321012
-40.632687,2.9053593,3.4629698
-40.808155,2.890314,3.4671273
-40.919655,2.894461,3.4966779
-41.073032,2.8873124,3.5122447
-41.182903,2.8930686,3.544827
-41.349483,2.8837097,3.5588021
-41.468693,2.8880968,3.5906992
-41.624706,2.883143,3.6114821
-41.74684,2.8879657,3.64501
-41.907803,2.8831687,3.6672754
-42.031933,2.8887181,3.702836
-42.2489,2.8710866,3.71098
-42.357452,2.882,3.7542877
-42.563835,2.8689675,3.769662
-42.72944,2.8670554,3.799096
-42.87458,2.8709357,3.836062
-43.09392,2.8576784,3.8539186
-43.252453,2.8599749,3.8906503
-43.41953,2.8610296,3.9267445
-43.549843,2.871382,3.97409
-43.73687,2.8693879,4.008373
-44.019825,2.8467393,4.0209427
-44.4116,2.8014348,4.010433
-44.77566,2.76433,4.010848
-45.180504,2.7203755,4.006008
-45.620564,2.6711063,3.9978657
-46.08162,2.6198065,3.9901195
-46.58867,2.561472,3.977857
-47.142845,2.4962592,3.961646
-47.678886,2.4376976,3.955288
-48.32386,2.3604054,3.9339018
-48.918957,2.2963603,3.9291306
-49.57213,2.2243133,3.9204874
-50.449127,2.113284,3.8798656
-51.176598,2.0349708,3.8745399
-12.005083,2.4977007,3.945983
-13.387575,2.7138245,4.1140323
-13.775541,2.7418306,4.0945377
-14.146614,2.7684972,4.0757747
-14.628334,2.8195503,4.085073
-15.041121,2.8590307,4.084467
-15.41108,2.891792,4.0787067
-15.776538,2.9255776,4.0760207
-16.150803,2.963214,4.079545
-16.421684,2.9803843,4.061798
-16.736698,3.0087051,4.058174
-17.026478,3.0330758,4.051546
-17.836817,3.1017857,4.0347404
-17.941296,3.0885384,3.9882636
-18.07398,3.0824685,3.9509306
-18.286987,3.0964503,3.938677
-18.536877,3.1205938,3.9399
-18.735031,3.1332557,3.9279938
-18.83448,3.1221461,3.8872213
-18.95622,3.1171322,3.8545318
-19.173923,3.137422,3.8544579
-19.337688,3.1448202,3.8388395
-19.443306,3.137699,3.8052168
-19.545265,3.1300697,3.7713485
-19.777884,3.1582718,3.7845793
-19.9688,3.1763582,3.7855039
-20.059258,3.167624,3.7518067
-20.189621,3.1704779,3.7338223
-20.341476,3.1800916,3.7253609
-20.367746,3.1544032,3.6700916
-20.58936,3.185497,3.6915178
-20.672245,3.1770487,3.660152
-20.790888,3.179593,3.644064
-20.978786,3.203599,3.657823
-21.014263,3.1822317,3.6097836
-21.21816,3.2128124,3.6337337
-21.24929,3.190721,3.5851932
-21.429314,3.215592,3.6023254
-21.443943,3.188744,3.5475373
-21.634533,3.2185545,3.5725985
-21.672037,3.1995497,3.5292525
-21.832977,3.2213247,3.54395
-21.870571,3.202874,3.5018063
-22.060009,3.235721,3.5332384
-22.121592,3.226102,3.5042543
-22.26961,3.2465408,3.518835
-22.326742,3.2361412,3.4892268
-22.460354,3.2529223,3.4993005
-22.452251,3.219921,3.4371605
-22.579502,3.2354326,3.4459782
-22.660969,3.234992,3.4317613
-22.71473,3.2247236,3.4032936
-22.886784,3.2587295,3.4404454
-22.901272,3.2344768,3.3917117
-23.054037,3.2627685,3.4211802
-23.087652,3.2461548,3.3840895
-23.21402,3.2656705,3.4011612
-23.29417,3.2677839,3.3924809
-23.31083,3.2450347,3.34658
-23.424032,3.260987,3.3591337
-23.514225,3.2682815,3.3589063
-23.51762,3.240401,3.3055158
-23.658646,3.2694504,3.3387656
-23.72747,3.2691426,3.3276167
-23.733768,3.2426133,3.276515
-23.850601,3.2632813,3.2977967
-23.919899,3.2641044,3.288885
-23.957127,3.2512054,3.2589931
-24.074327,3.2737966,3.2840161
-24.127678,3.268585,3.2662992
-24.219376,3.2809405,3.2759757
-24.29541,3.2867017,3.275632
-24.343863,3.2801266,3.2562432
-24.378748,3.2673647,3.2272897
-24.485174,3.28845,3.2514005
-24.55887,3.2946453,3.2524261
-24.56245,3.26739,3.201033
-24.672224,3.2916937,3.2308378
-24.757072,3.3045068,3.2427897
-24.768429,3.2812037,3.1978269
-24.865953,3.3011415,3.2213755
-24.923893,3.3016033,3.2142491
-24.963036,3.2926564,3.1922832
-25.02155,3.293881,3.1865954
-25.095537,3.3035545,3.194521
-25.160023,3.3086438,3.1952877
-25.182215,3.2913284,3.1603117
-25.261135,3.3047814,3.1747203
-25.327175,3.3116984,3.1788082
-25.384005,3.313897,3.175447
-25.412651,3.3005347,3.1471162
-25.45237,3.2934246,3.1289191
-25.563658,3.327591,3.1775432
-25.588274,3.312335,3.1463904
-25.621132,3.3018262,3.1229649
-25.703707,3.3209114,3.1476588
-25.74701,3.3170311,3.135181
-25.79421,3.3156745,3.126892
-25.809635,3.2949584,3.0871105
-25.91026,3.3270528,3.1335945
-25.969849,3.334275,3.1396265
-26.005749,3.3267992,3.1217065
-26.073776,3.3400824,3.137886
-26.080906,3.3141966,3.089889
-26.116398,3.3066368,3.0720015
-26.182066,3.3192582,3.087388
-26.252829,3.3358386,3.1094327
-26.298931,3.3361855,3.1048374
-26.316158,3.3167965,3.067719
-26.365868,3.3198795,3.067772
-26.438412,3.3394203,3.0951657
-26.47766,3.335788,3.0842953
-26.518066,3.3331192,3.0750866
-26.54063,3.3174958,3.0444212
-26.59881,3.3281631,3.0574965
-26.668516,3.347972,3.0858989
-26.715836,3.3514297,3.0871925
-26.7641,3.3559058,3.0902662
-26.800636,3.3515368,3.0786538
-26.82467,3.337371,3.0507216
-26.82415,3.303377,2.9896374
-26.805128,3.2536983,2.902247
-26.779276,3.1973207,2.8035402
-26.779837,3.1616619,2.7394886
-26.770277,3.1167355,2.6598349
-26.76017,3.0703585,2.5776787
-26.758715,3.0304449,2.5063267
