x,y,z
-32.28027,3.192601,4.048181
-32.31557,3.1861763,4.0455484
-32.341618,3.1917748,4.0576873
-32.385693,3.1748047,4.042409
-32.424152,3.1653357,4.036402
-32.456787,3.163324,4.0395713
-32.498856,3.1501656,4.0293317
-32.520344,3.1618466,4.049279
-32.55122,3.1623726,4.055799
-32.60438,3.137291,4.031541
-32.65265,3.1185482,4.015109
-32.67755,3.1266823,4.031131
-32.719315,3.1160097,4.0246673
-32.743126,3.1254144,4.0423684
-32.77597,3.1249318,4.048316
-32.833565,3.0981045,4.0229626
-32.867756,3.0967906,4.0281816
-32.91302,3.0840693,4.0199656
-32.936813,3.093939,4.038675
-32.971687,3.092405,4.043956
-33.012012,3.0855412,4.0430593
-33.06666,3.064704,4.025853
-33.12227,3.0435395,4.0084743
-33.146656,3.0533724,4.0276413
-33.17761,3.0567987,4.0393744
-33.235065,3.0350726,4.0218544
-33.280983,3.0248232,4.0179214
-33.329407,3.0126054,4.0118713
-33.34738,3.0288005,4.0389166
-33.40247,3.0110228,4.0267296
-33.450836,2.999817,4.022337
-33.495277,2.9924889,4.0225854
-33.537487,2.9874275,4.0255976
-33.570164,2.9909163,4.038541
-33.631363,2.9698982,4.0236316
-33.689907,2.951737,4.012226
-33.72844,2.9509807,4.0208077
-33.782555,2.9373846,4.014997
-33.830673,2.9291692,4.0154743
-33.875813,2.9237106,4.01924
-33.92997,2.91122,4.0152884
-33.9735,2.9076486,4.02153
-34.045467,2.8817625,4.003059
-34.091965,2.8765378,4.007869
-34.119637,2.8861957,4.0293465
-34.187286,2.8650815,4.016919
-34.230835,2.8628926,4.0256214
-34.30644,2.8367507,4.0082097
-34.365753,2.8234425,4.005174
-34.429375,2.807376,3.9993877
-34.49126,2.7930589,3.99578
-34.5418,2.7874098,4.001821
-34.605534,2.7725735,3.9981627
-34.667473,2.7594705,3.9966488
-34.73245,2.744656,3.9935765
-34.7935,2.7330341,3.9941988
-34.84984,2.7250614,3.9989672
-34.894295,2.7255445,4.012924
-34.945183,2.7218413,4.022647
-20.042141,1.5343361,3.905034
-19.674408,1.3317971,3.7064605
-19.584288,1.2499669,3.6034613
-20.319473,1.5388975,3.8043375
-21.529263,2.049149,4.193672
-21.556751,2.026638,4.1453876
-21.677805,2.0473418,4.133674
-21.841179,2.0884962,4.140094
-21.940231,2.1003983,4.1224
-22.108524,2.1457334,4.134216
-22.318317,2.2120874,4.1653996
-22.353115,2.195251,4.124703
-22.465206,2.2161398,4.1175823
-22.631214,2.2642493,4.135414
-22.732468,2.281323,4.126312
-22.852499,2.3083968,4.126837
-23.012526,2.3564694,4.147209
-23.075651,2.3562036,4.1240964
-23.218163,2.3970919,4.1393743
-23.290726,2.402621,4.122535
-23.444384,2.451036,4.146272
-23.496185,2.4466772,4.121098
-23.641447,2.492395,4.1437006
-23.696157,2.490394,4.121545
-23.780422,2.5046673,4.1152797
-23.92406,2.5520155,4.1414185
-23.9664,2.5443769,4.114899
-24.082912,2.578269,4.129159
-24.133743,2.5759807,4.108474
-24.22051,2.5943198,4.1084046
-24.342709,2.6335628,4.129549
-24.393066,2.632122,4.110702
-24.501171,2.6646395,4.1261735
-24.55661,2.6668897,4.111661
-24.630287,2.6802566,4.1086717
-24.740896,2.7162824,4.129131
-24.77538,2.7069979,4.103758
-24.867832,2.733243,4.115065
-24.944874,2.7506542,4.1177006
-24.991852,2.749837,4.101777
-25.079496,2.7748094,4.112945
-25.146828,2.7875352,4.1117115
-25.194157,2.78786,4.0977407
-25.26474,2.8034449,4.1000843
-25.342268,2.8240557,4.1080847
-25.404297,2.8350174,4.106171
-25.452513,2.8371663,4.095106
-25.528414,2.8581681,4.104478
-25.603924,2.8794906,4.1145463
-25.63613,2.8717017,4.0934663
-25.698505,2.8848338,4.0952086
-25.770355,2.9050226,4.1049137
-25.82386,2.9128275,4.1013966
-25.86896,2.9149637,4.091877
-25.91672,2.9192286,4.0848775
-25.990139,2.942409,4.0989733
-26.04089,2.9495678,4.095627
-26.089476,2.9554296,4.0910397
-26.152555,2.9724343,4.099084
-26.204073,2.9811954,4.0981636
-26.248844,2.9851365,4.092033
-26.298727,2.993266,4.090792
-26.336136,2.9919891,4.0791125
-26.414677,3.0232644,4.1044707
-26.458158,3.0274243,4.0993385
-26.4952,3.0266404,4.0887294
-26.54229,3.034165,4.0877476
-26.596085,3.0475082,4.093619
-26.658287,3.0682685,4.1082315
-26.686241,3.0608783,4.0906363
-26.72468,3.06237,4.0833883
-26.772152,3.071785,4.085458
-26.829643,3.0902345,4.0982065
-26.874243,3.097937,4.0986595
-26.9092,3.0974145,4.0896654
-26.952358,3.1043644,4.089534
-26.993029,3.1093597,4.0872626
-27.044552,3.1245418,4.0971184
-27.084312,3.1293178,4.0948954
-27.116009,3.1267893,4.0841713
-27.156727,3.1328855,4.083763
-27.198977,3.1407273,4.085566
-27.253775,3.1610448,4.1023645
-27.292822,3.1665318,4.1016827
-27.326849,3.1673036,4.0954943
-27.359219,3.166564,4.0876
-27.396374,3.1707969,4.0857725
-27.445042,3.187097,4.0985785
-27.48396,3.1937847,4.099975
-27.515474,3.192968,4.092439
-27.543386,3.1884184,4.080478
-27.576433,3.1894279,4.0753293
-27.613457,3.1949363,4.0757427
-27.664284,3.2159905,4.095186
-27.7009,3.2217808,4.0962105
-27.731047,3.2205,4.0887165
-27.758297,3.21598,4.077345
-27.789423,3.2159815,4.071582
-27.829012,3.2261014,4.0783243
-27.874914,3.2441735,4.0949717
-27.906155,3.2450728,4.090632
-27.932795,3.2404609,4.0795836
-27.96175,3.238728,4.072159
-27.991602,3.2382038,4.066305
-28.02672,3.2445354,4.0690265
-28.062126,3.2515454,4.0726953
-28.103815,3.2671657,4.0871706
-28.135012,3.269316,4.085019
-28.159449,3.2624655,4.0717382
-28.188538,3.261939,4.0664053
-28.222095,3.267773,4.0690947
-28.249084,3.2645664,4.0605702
-28.292376,3.2849104,4.0816193
-28.325867,3.291643,4.0857344
-28.35381,3.290436,4.0799723
-28.37529,3.279521,4.0620723
-28.405577,3.2819126,4.0609684
-28.435795,3.2843933,4.060058
-28.464853,3.2852278,4.0571504
-28.504618,3.3035283,4.0763884
-28.536253,3.3091984,4.079773
-28.569149,3.3172908,4.0863113
-28.587538,3.3010361,4.0620756
-28.616625,3.3028836,4.0608406
-28.647306,3.3077345,4.063495
-28.677227,3.3115063,4.0648603
-28.70387,3.3095112,4.0589623
-28.73836,3.3222451,4.0718966
-28.767973,3.326283,4.073838
-28.792063,3.319825,4.062456
-28.81981,3.320489,4.0602274
-28.851011,3.3283024,4.06721
-28.878345,3.328538,4.064576
-28.905659,3.3288484,4.0621047
-28.93459,3.3327832,4.0643463
-28.96316,3.3362079,4.0660067
-28.990864,3.3379345,4.0655575
-29.016983,3.336176,4.060696
-29.042624,3.333297,4.0544543
-29.069283,3.3328643,4.0514197
-29.09808,3.3378615,4.055442
-29.12607,3.3411527,4.0573363
-29.155115,3.347506,4.0632486
-29.18314,3.3515525,4.0662575
-29.209137,3.3502963,4.0624857
-29.235146,3.3491082,4.0588617
-29.261368,3.3485868,4.056159
-29.28759,3.3481348,4.0536065
-29.316109,3.3549504,4.060523
-29.342812,3.3564434,4.0606146
-29.369833,3.3592095,4.062419
-29.396442,3.3608456,4.0628214
-29.423681,3.3649597,4.066501
-29.448559,3.360717,4.0593987
-29.474916,3.361961,4.059474
-29.500637,3.3608618,4.0565677
-29.526663,3.3610358,4.055373
-29.551981,3.3582597,4.0504017
-29.578407,3.3603806,4.0518556
-29.605038,3.36378,4.0550337
-29.630264,3.3605983,4.0497074
-29.656008,3.3599005,4.0476704
-29.682083,3.3610857,4.0481434
-29.708025,3.3617327,4.047974
-29.73453,3.3660836,4.0526896
-29.76067,3.3686857,4.055187
-29.786074,3.3665054,4.051508
-29.811672,3.365603,4.049551
-29.837576,3.3671935,4.0509033
-29.863512,3.3694582,4.0531936
-29.88903,3.3681479,4.0508757
-29.914848,3.3699389,4.0526633
-29.940231,3.366938,4.048253
-29.965889,3.3670394,4.047949
-29.99139,3.3647764,4.0446143
-30.017029,3.3644016,4.043802
-30.042925,3.3701706,4.0510693
-30.06855,3.3711443,4.0521317
-30.09398,3.364281,4.0430164
-30.119642,3.3653858,4.044364
-30.145287,3.3695965,4.0498238
-30.170912,3.3653617,4.044311
-30.196589,3.3630166,4.0413227
-30.222097,3.3686402,4.048799
-30.247675,3.3694663,4.050066
-30.273378,3.367319,4.0475073
-30.299093,3.3658462,4.045885
-30.324715,3.366262,4.0467873
-30.350098,3.369781,4.051797
-30.375675,3.3703284,4.0529833
-30.40148,3.3685122,4.0511427
-30.427128,3.3685842,4.051822
-30.452848,3.368116,4.051855
-30.479038,3.3640738,4.047283
-30.504738,3.3643458,4.048397
-30.530256,3.3658962,4.0512347
-30.556692,3.3614519,4.046317
-30.582418,3.3619242,4.047865
-30.60793,3.363674,4.0511346
-30.634531,3.3594368,4.046664
-30.661339,3.3546655,4.04156
-30.687008,3.3560126,4.0444813
-30.713175,3.3550086,4.0444
-30.74032,3.3498454,4.038971
-30.767288,3.3459632,4.0352707
-30.792717,3.348789,4.040349
-30.818558,3.3498707,4.0432186
-30.843588,3.3540316,4.0501437
-30.870035,3.3528368,4.0501738
-30.897882,3.346899,4.044114
-30.925323,3.3428428,4.04056
-30.952305,3.340664,4.0395045
-30.978771,3.340358,4.0409374
-31.005253,3.3401222,4.0425224
-31.032753,3.3369603,4.0403833
-31.05826,3.3398604,4.046148
-31.084995,3.339237,4.0474167
-31.11219,3.3374896,4.0472965
-31.142118,3.328652,4.038093
-31.170162,3.3252704,4.036002
-31.196634,3.3261375,4.0394554
-31.224552,3.3235035,4.038461
-31.24734,3.3334332,4.0537004
-31.275007,3.3315346,4.0537777
-31.306091,3.322,4.0441103
-31.336317,3.314929,4.03769
-31.363989,3.3138676,4.0390573
-31.39059,3.3152468,4.0436196
-31.41887,3.3131537,4.0437984
-31.444332,3.3170373,4.0516944
-31.471199,3.3180404,4.055966
-31.499557,3.3161745,4.056637
-31.531624,3.3073378,4.0484843
-31.564808,3.2968411,4.0383043
-31.594734,3.2928934,4.0365577
-31.624754,3.289033,4.0350018
-31.650282,3.2934403,4.044034
-31.674076,3.3008294,4.0569096
-31.704182,3.2972064,4.055867
-31.741257,3.2820392,4.040277
-31.772346,3.2774498,4.038189
-31.803186,3.2735343,4.0370374
-31.83376,3.2702901,4.036816
-31.86368,3.2682924,4.03825
-31.889194,3.2733066,4.0485973
-31.91652,3.2755046,4.0554605
-31.955698,3.2599487,4.0400753
-31.988977,3.2537146,4.036516
-32.02003,3.2510228,4.037494
-32.051556,3.2478528,4.0379586
-32.08114,3.2476332,4.0421996
-32.107872,3.2514892,4.051608
-32.138298,3.2502956,4.054785
-32.177193,3.237834,4.044014
-32.220184,3.220406,4.02719
-32.253593,3.2161427,4.0268574
-32.275295,3.2272277,4.0456505
-32.310978,3.2203274,4.0422196
-32.33875,3.223665,4.051553
-32.385067,3.204072,4.0326567
-32.41206,3.2087297,4.043803
-32.451046,3.1989307,4.037232
-32.48555,3.194841,4.037799
-32.519684,3.1914186,4.0392885
-32.552464,3.1897697,4.0430517
-32.599846,3.171606,4.0267296
-32.63583,3.1668825,4.02697
-32.674408,3.1595197,4.02411
-32.70814,3.1577897,4.0282197
-32.736374,3.1622021,4.0398827
-32.767612,3.1634068,4.047737
-32.810715,3.1521437,4.0406117
-32.855618,3.1394002,4.0318494
-32.892895,3.1349735,4.0332575
-32.93028,3.1306708,4.0349355
-32.965626,3.1286561,4.039477
-33.00861,3.119205,4.035232
-33.061077,3.100761,4.0203996
-33.100136,3.0959344,4.021989
-33.142094,3.0885653,4.020686
-33.167953,3.0968218,4.038064
-33.209526,3.09024,4.037945
-33.259804,3.0758412,4.028739
-33.312096,3.0600467,4.018077
-33.342083,3.0650396,4.0320473
-33.390137,3.053801,4.027072
-33.439014,3.0422168,4.0218725
-33.485752,3.0329099,4.019512
-33.526695,3.0289927,4.023598
-33.56472,3.0278194,4.0310125
-33.611313,3.0195117,4.0302954
-33.667282,3.0036187,4.020993
-33.715538,2.9946475,4.019886
-33.76896,2.9817443,4.0144463
-33.82515,2.966998,4.0071077
-33.869003,2.9626875,4.0119123
-33.914867,2.957006,4.015317
-33.96407,2.9489548,4.0162034
-34.008923,2.9446278,4.021497
-34.074028,2.924834,4.0095034
-34.10811,2.9294262,4.025224
-34.150043,2.9281142,4.0344343
-34.201977,2.9194627,4.0355926
-34.25409,2.9110093,4.037181
-34.364147,2.860129,3.9918523
-34.416306,2.8527184,3.9951768
-34.469307,2.845014,3.9983892
-34.52452,2.8360415,4.0004234
-34.59301,2.8179984,3.9927487
-34.659763,2.8016987,3.9872818
-34.703815,2.8016803,3.9998217
-34.779465,2.7800703,3.98913
-34.83011,2.7761135,3.9978456
-34.887238,2.768029,4.00233
-34.929543,2.7702026,4.0180507
-20.25726,1.7343853,4.017433
-19.788788,1.493608,3.7862887
-19.60584,1.3732955,3.6512685
-20.289845,1.632513,3.8311996
-20.066982,1.4943411,3.6814013
-21.541313,2.1140997,4.173325
-21.591953,2.10211,4.1340833
-21.764397,2.1457672,4.1431513
-21.87984,2.1643155,4.131401
-21.97459,2.1739044,4.1124544
-22.178545,2.235137,4.139759
-22.327503,2.271788,4.1463714
-22.403505,2.2746053,4.1234403
-22.519707,2.297115,4.118752
-22.672318,2.338004,4.1314964
-22.808468,2.3718536,4.138659
-22.876076,2.3727055,4.1160517
-23.032871,2.4183497,4.13554
-23.109941,2.4249535,4.11929
-23.242622,2.4601984,4.130496
-23.308603,2.462153,4.1107903
-23.463158,2.510223,4.1355376
-23.551338,2.524776,4.128882
-23.667484,2.5545788,4.137459
-23.723713,2.5533211,4.116391
-23.819914,2.5737271,4.116822
-23.92611,2.600159,4.123694
-23.998562,2.60888,4.113564
-24.101622,2.6348696,4.121004
-24.161026,2.6372802,4.105343
-24.257896,2.6610005,4.111431
-24.337227,2.675445,4.1086154
-24.423264,2.6942146,4.110593
-24.526691,2.7235928,4.123852
-24.566683,2.716776,4.1004105
-24.660975,2.7419734,4.1102114
-24.751015,2.7653308,4.1185684
-24.814926,2.7736828,4.1117134
-24.87265,2.7786553,4.1016064
-24.975163,2.8112607,4.120846
-25.03614,2.819096,4.114398
-25.07992,2.8165817,4.09723
-25.178228,2.8484483,4.116905
-25.215874,2.8426716,4.0967374
-25.29804,2.8654616,4.1074314
-25.35804,2.8745604,4.1037235
-25.425058,2.8885992,4.105633
-25.481768,2.8963075,4.100948
-25.548998,2.911344,4.10451
-25.61452,2.925706,4.107629
-25.674826,2.9369955,4.1076517
-25.718098,2.9370275,4.0954943
-25.798222,2.9627018,4.1119328
-25.839817,2.962171,4.0995746
-25.891699,2.9690537,4.095647
-25.93113,2.9673827,4.082344
-26.009933,2.9941485,4.1011486
-26.0545,2.9967651,4.093066
-26.11105,3.008389,4.095343
-26.156706,3.012345,4.089146
-26.222103,3.0313134,4.100214
-26.268728,3.0366464,4.095984
-26.307394,3.0361724,4.085276
-26.358349,3.0453277,4.0857673
-26.417475,3.0611973,4.0941935
-26.468609,3.0712647,4.096152
-26.510012,3.073954,4.089756
-26.556372,3.0808408,4.0883856
-26.618835,3.101109,4.1027803
-26.66662,3.1099072,4.1040254
-26.698189,3.1055903,4.0900807
-26.737755,3.108036,4.084176
-26.786953,3.1188488,4.0882597
-26.83291,3.1272674,4.0897007
-26.885849,3.1420646,4.098858
-26.911224,3.1331909,4.0801272
-26.950249,3.1363535,4.075777
-27.000847,3.1500912,4.084165
-27.043062,3.1566916,4.0842104
-27.097166,3.1744676,4.097789
-27.125326,3.168762,4.0833793
-27.164833,3.1736937,4.0818453
-27.205334,3.1798196,4.0818825
-27.260645,3.20042,4.099546
-27.299074,3.20527,4.098344
-27.329224,3.2022457,4.0877113
-27.36479,3.2046614,4.0837774
-27.406153,3.213093,4.087285
-27.449444,3.2238226,4.0937357
-27.488838,3.2309332,4.095907
-27.521843,3.2316942,4.0904245
-27.554806,3.232559,4.085167
-27.586706,3.2324405,4.0787964
-27.619083,3.2329636,4.073308
-27.663877,3.24723,4.084881
-27.702457,3.255096,4.0886884
-27.73159,3.2526767,4.0798774
-27.766052,3.2563858,4.0787497
-27.795639,3.2546988,4.0710154
-27.834206,3.263584,4.0765247
-27.874443,3.2748134,4.0850797
-27.906591,3.2767596,4.082166
-27.935936,3.2754717,4.075298
-27.963476,3.2720416,4.0658226
-27.994621,3.2731497,4.0621123
-28.02572,3.274352,4.058605
-28.065908,3.2874098,4.0701056
-28.110977,3.3073418,4.0903955
-28.132723,3.2970738,4.072718
-28.160927,3.2953033,4.0658226
-28.19493,3.3015141,4.0690994
-28.225117,3.302744,4.066161
-28.256464,3.3057623,4.065573
-28.285345,3.30547,4.0608635
-28.315777,3.3075345,4.059226
-28.34769,3.3119674,4.060687
-28.379116,3.3159275,4.061631
-28.410067,3.3194118,4.062053
-28.440187,3.3218436,4.0612125
-28.469513,3.3232174,4.0590963
-28.499147,3.3252501,4.0578995
-28.530134,3.3296704,4.059841
-28.559973,3.3324552,4.0597653
-28.589052,3.3341732,4.0583954
-28.618416,3.3365521,4.0579495
-28.646059,3.336122,4.0539603
-28.67694,3.3415651,4.0576096
-28.706419,3.3447785,4.058463
-28.733622,3.344008,4.054246
-28.764208,3.3497148,4.058468
-28.792246,3.3508496,4.0568523
-28.820244,3.3520622,4.055406
-28.848492,3.3539376,4.054888
-28.88039,3.3634992,4.06441
-28.909292,3.3672998,4.066537
-28.93482,3.364144,4.0596952
-28.961199,3.3628159,4.0552864
-28.987326,3.3609695,4.0502653
-29.013985,3.3603692,4.046925
-29.042643,3.3645544,4.0498853
-29.069492,3.3646908,4.0476346
-29.096802,3.3660808,4.047082
-29.125233,3.370501,4.0505514
-29.151522,3.3696754,4.0472336
-29.178032,3.3695116,4.044841
-29.204319,3.368825,4.0418243
-29.2327,3.3741426,4.04673
-29.257908,3.37063,4.0401335
-29.284758,3.3719373,4.039911
-29.30984,3.367962,4.0328193
-29.33778,3.372981,4.037589
-29.364529,3.3745022,4.03783
-29.391586,3.3772879,4.039794
-29.41723,3.3753717,4.0356393
-29.443388,3.3753133,4.0339847
-29.467974,3.3693466,4.0246143
-29.495527,3.3748035,4.030332
-29.522532,3.37854,4.0338492
-29.54834,3.37756,4.0312133
-29.575357,3.3820379,4.0358276
-29.6005,3.3781962,4.0295367
-29.625952,3.3756175,4.0249643
-29.653748,3.3851056,4.0363655
-29.67786,3.3754575,4.02258
-29.702671,3.3688717,4.012886
-29.731588,3.3869843,4.0358543
-29.75786,3.3901503,4.0391517
-29.783724,3.390979,4.0394216
-29.808773,3.38586,4.0318875
-29.83421,3.3832107,4.027673
-29.85983,3.3818302,4.0251884
-29.885536,3.3811178,4.0236435
-29.91103,3.3780618,4.0190563
-29.936333,3.3720589,4.010626
-29.962143,3.371543,4.009507
-29.988443,3.378928,4.0188956
-30.01422,3.3791485,4.0188646
-30.040142,3.3830523,4.023762
-30.065866,3.3834057,4.0240192
-30.09157,3.3832226,4.023622
-30.117172,3.3746645,4.0121994
-30.14296,3.3734074,4.010493
-30.168716,3.3794518,4.018503
-30.194204,3.3940027,4.0378246
-30.219751,3.395958,4.040536
-30.245598,3.3889363,4.0314255
-30.271328,3.3874066,4.029637
-30.296951,3.3883538,4.031182
-30.322802,3.3857512,4.0280867
-30.348145,3.3904457,4.0346985
-30.374239,3.3855667,4.0287046
-30.399729,3.3879828,4.0324144
-30.425108,3.3910656,4.0370607
-30.450924,3.3899996,4.0362787
-30.478907,3.3721542,4.013379
-30.504112,3.3772428,4.0208464
-30.528957,3.3841982,4.0308332
-30.555367,3.3803973,4.0266666
-30.580452,3.3850765,4.0337553
-30.606724,3.3826127,4.0314703
-30.633839,3.3760166,4.0237913
-30.661325,3.368294,4.01469
-30.687231,3.3690414,4.01682
-30.71261,3.3722532,4.022255
-30.73766,3.3767269,4.029407
-30.76362,3.3770728,4.0311766
-30.790028,3.375692,4.0307293
-30.81647,3.3743806,4.0304327
-30.843582,3.3707495,4.027146
-30.871109,3.3659978,4.0224476
-30.897194,3.3666906,4.024969
-30.922564,3.3698363,4.03077
-30.949348,3.368281,4.030454
-30.975607,3.3685822,4.0326366
-31.00187,3.368953,4.0349684
-31.02773,3.3705812,4.039007
-31.0544,3.3699014,4.0400815
-31.081306,3.3686998,4.0405326
-31.109997,3.3628302,4.0349393
-31.137917,3.3594103,4.0326185
-31.164305,3.360208,4.0358763
-31.192104,3.3575304,4.0346565
-31.217794,3.3602414,4.040534
-31.24493,3.3594813,4.041942
-31.273108,3.3564384,4.0404406
-31.301617,3.3528872,4.038344
-31.331802,3.3458905,4.031835
-31.358889,3.346026,4.0346766
-31.387646,3.342718,4.0331078
-31.420153,3.33188,4.0218363
-31.445976,3.3351777,4.028986
-31.470573,3.3408768,4.0393057
-31.500168,3.3367214,4.0369186
-31.527723,3.3367293,4.0399933
-31.557161,3.333323,4.038721
-31.587631,3.3282595,4.035384
-31.61725,3.3250265,4.0344887
-31.647278,3.3213007,4.033033
-31.673061,3.3251817,4.0414476
-31.704552,3.3193114,4.0373807
-31.738588,3.3095012,4.0283375
-31.76828,3.3072836,4.029134
-31.798746,3.3040032,4.028644
-31.83038,3.2990913,4.026145
-31.858824,3.299432,4.030451
-31.888027,3.2987087,4.0334673
-31.917263,3.298069,4.0366654
-31.946533,3.2975135,4.0400457
-31.981285,3.2890747,4.0334673
-32.01306,3.2852936,4.0329103
-32.046932,3.278774,4.028964
-32.076492,3.278588,4.033146
-32.102375,3.2835722,4.0439525
-32.130684,3.2852392,4.050624
-32.169952,3.2723525,4.0389857
-32.210777,3.2579165,4.025517
-32.244972,3.2525945,4.023657
-32.27623,3.2512977,4.0269594
-32.30133,3.2579117,4.0402813
-32.333054,3.2562299,4.0432577
-32.368923,3.24964,4.0401783
-32.40816,3.239284,4.0324984
-32.448082,3.22851,4.024422
-32.480244,3.2272666,4.028349
-32.511505,3.2272243,4.033862
-32.545677,3.2239754,4.0354786
-32.579445,3.2213845,4.0380125
-32.628998,3.201378,4.01909
-32.66507,3.1968575,4.0194764
-32.697742,3.1962693,4.0248237
-32.733997,3.1919756,4.025704
-32.767292,3.1910558,4.0308423
-32.807343,3.1832063,4.0275784
-32.84966,3.1733365,4.021973
-32.879547,3.1765392,4.032483
-32.933327,3.155661,4.013707
-32.95747,3.1649904,4.031897
-32.986347,3.169567,4.044368
-33.04031,3.1497128,4.027302
-33.085842,3.1385725,4.020979
-33.13551,3.1238887,4.010539
-33.1546,3.1384668,4.035525
-33.189304,3.1383142,4.042835
-33.239464,3.1240785,4.033368
-33.299133,3.101647,4.0142803
-33.33427,3.101932,4.022541
-33.37177,3.100246,4.0285645
-33.401066,3.1059604,4.043502
-33.467194,3.079629,4.020544
-33.527233,3.0592532,4.004897
-33.559856,3.0628152,4.0177145
-33.594276,3.0649362,4.0289354
-33.640354,3.0574374,4.0289803
-33.70145,3.0378585,4.0150585
-33.746727,3.0317545,4.0171084
-33.79842,3.0207438,4.013613
-33.840225,3.0180197,4.019934
-33.890392,3.0088906,4.0189915
-33.941395,2.999449,4.0178804
-33.99131,2.991203,4.018342
-34.047256,2.9786544,4.0140595
-34.096252,2.9717956,4.01651
-34.13617,2.9720588,4.02727
-34.174786,2.9734464,4.039449
-34.24616,2.9508457,4.0245795
-34.32267,2.9251103,4.006481
-34.37123,2.920228,4.0121984
-34.451256,2.8931236,3.9931698
-34.50093,2.8881989,3.9993038
-34.577633,2.8646038,3.984827
-34.62493,2.8620472,3.9940586
-34.687668,2.849106,3.991983
-34.74645,2.8392875,3.9936194
-34.801193,2.8325582,3.9988985
-34.871006,2.8160768,3.993732
-34.903965,2.8244627,4.0159893
-34.954063,2.821649,4.026191
-19.996725,1.679496,3.9018345
-19.653473,1.4939144,3.7122803
-19.54128,1.4047356,3.6014671
-20.278397,1.6830573,3.8021526
-19.655128,1.370872,3.5011935
-21.558979,2.1706283,4.158181
-21.654327,2.1785295,4.136527
-21.791569,2.205766,4.1324315
-21.931812,2.2351878,4.131085
-22.030718,2.2465143,4.1143723
-22.233837,2.3065743,4.14216
-22.348066,2.3265405,4.1347327
-22.472086,2.351786,4.1327834
-22.57639,2.3684154,4.12359
-22.684599,2.3875155,4.117267
-22.852503,2.4361496,4.139178
-22.944067,2.4486637,4.128023
-23.073463,2.480333,4.1355276
-23.152905,2.4880042,4.1208334
-23.288004,2.5240269,4.133798
-23.362839,2.5304441,4.1188726
-23.492088,2.5650594,4.1317697
-23.567251,2.5726624,4.1189165
-23.701202,2.6112664,4.13698
-23.762144,2.6124697,4.118706
-23.851059,2.6287737,4.115768
-23.928522,2.6394925,4.107682
-24.024824,2.6608248,4.1106753
-24.134178,2.6899018,4.1220064
-24.194263,2.6926475,4.1070747
-24.30594,2.724319,4.1220417
-24.363293,2.726365,4.1070857
-24.445398,2.7426727,4.1071396
-24.555765,2.775637,4.1249104
-24.588718,2.7648363,4.0975137
-24.706684,2.8034854,4.122141
-24.761581,2.8060536,4.1093106
-24.845167,2.8258781,4.1150007
-24.917086,2.8393059,4.1142807
-24.9775,2.846249,4.10696
-25.047457,2.8593404,4.1065025
-25.11567,2.871809,4.105691
-25.192486,2.890057,4.1114435
-25.240337,2.8906908,4.0983977
-25.302738,2.90074,4.095822
-25.393959,2.9295905,4.1141205
-25.42619,2.921127,4.091792
-25.495846,2.937069,4.096523
-25.58017,2.9631553,4.112806
-25.630663,2.9674635,4.10524
-25.670465,2.964869,4.090168
-25.74393,2.9851995,4.100932
-25.812122,3.002503,4.108615
-25.846031,2.9966507,4.090457
-25.891026,2.9985867,4.081229
-25.972206,3.026225,4.1013746
-26.029745,3.0377688,4.103531
-26.070831,3.0378923,4.0928583
-26.117249,3.0420556,4.0869684
-26.186892,3.0634987,4.101139
-26.243528,3.0759115,4.1051793
-26.280169,3.0737813,4.0926056
-26.322693,3.0762177,4.0854564
-26.386557,3.0951588,4.097685
-26.436506,3.1039186,4.098279
-26.47282,3.1023908,4.087012
-26.518026,3.1079905,4.0842347
-26.563093,3.1137552,4.0818167
-26.62305,3.1317744,4.0940332
-26.672697,3.141948,4.0971966
-26.699911,3.134059,4.079098
-26.747442,3.1430254,4.0811353
-26.80632,3.1618607,4.0951223
-26.850946,3.1691628,4.09554
-26.892416,3.174061,4.093232
-26.929012,3.1749883,4.0862923
-26.970856,3.1806831,4.0852146
-27.021318,3.1942923,4.0938377
-27.064547,3.2018633,4.095335
-27.101284,3.203861,4.0902195
-27.133398,3.2018042,4.0802894
-27.174547,3.208224,4.080784
-27.22002,3.2189894,4.086722
-27.265259,3.229922,4.093022
-27.302017,3.233101,4.0899696
-27.334328,3.2321677,4.0819793
-27.36986,3.2345183,4.078126
-27.406923,3.2385817,4.076494
-27.458704,3.2577074,4.0935974
-27.49121,3.2577777,4.087285
-27.52005,3.254195,4.0765343
-27.556128,3.2582202,4.0753164
-27.588533,3.2585926,4.0696597
-27.617374,3.2552838,4.059503
-27.67369,3.2818365,4.0867414
-27.704782,3.2814755,4.080489
-27.73341,3.2784886,4.0710287
-27.768349,3.2826707,4.070649
-27.803658,3.287512,4.0712023
-27.837898,3.2913737,4.070624
-27.87952,3.3041272,4.0813694
-27.912085,3.3065767,4.0792217
-27.938175,3.3014097,4.067522
-27.969759,3.3029404,4.064377
-27.99861,3.3012457,4.0572214
-28.032757,3.3062901,4.0587106
-28.067219,3.3119988,4.061144
-28.101112,3.3172617,4.063107
-28.132328,3.3192844,4.061028
-28.161383,3.3186057,4.055578
-28.19788,3.328094,4.0632224
-28.22681,3.3276007,4.058175
-28.254114,3.3249407,4.050419
-28.285025,3.3274252,4.049341
-28.32057,3.3367743,4.057182
-28.353975,3.3434134,4.061631
-28.384941,3.34676,4.0619254
-28.416945,3.3519015,4.06462
-28.445494,3.352027,4.060914
-28.471104,3.3476791,4.051488
-28.503595,3.3542314,4.056246
-28.532051,3.3546014,4.053071
-28.559433,3.3533363,4.047841
-28.587847,3.3538647,4.0450096
-28.617912,3.3573422,4.046084
-28.64855,3.3620563,4.0488477
-28.677124,3.36341,4.047307
-28.70693,3.3671489,4.0489497
-28.73978,3.3767462,4.058322
-28.767492,3.3772004,4.0558257
-28.791245,3.370208,4.0436487
-28.81749,3.3679082,4.0376673
-28.844635,3.3674183,4.0341187
-28.8732,3.369906,4.03454
-28.900578,3.3701472,4.0320807
-28.929853,3.3745406,4.035141
-28.957684,3.376102,4.0345497
-28.982841,3.3719034,4.0264406
-29.008583,3.3689375,4.0200095
-29.037624,3.373643,4.023748
-29.063618,3.3714027,4.0183945
-29.092272,3.3756804,4.021701
-29.120592,3.3794513,4.0244074
-29.149733,3.3856516,4.030392
-29.174969,3.381938,4.0233345
-29.199402,3.3759332,4.013299
-29.220793,3.3611505,3.9916897
-29.247972,3.362334,3.9912722
-29.272541,3.3559177,3.9808414
-29.304531,3.3720098,4.0003166
-29.332645,3.3769646,4.0050936
-29.361553,3.3849568,4.013969
-29.386799,3.3811874,4.007287
-29.411938,3.3768883,3.9999557
-29.437805,3.375025,3.995916
-29.46009,3.359579,3.973862
-29.485994,3.3572454,3.9693003
-29.5173,3.376965,3.9941542
-29.544031,3.3789396,3.9954526
-29.571646,3.3851497,4.002453
-29.597092,3.3819108,3.9969225
-29.620535,3.3686113,3.9780314
-29.644236,3.3553662,3.9592586
-29.67027,3.3535042,3.955718
-29.696337,3.3517084,3.9523222
-29.727005,3.3780248,3.9865077
-29.752388,3.3733892,3.9794407
-29.77914,3.3777757,3.9844754
-29.804846,3.3750634,3.9800875
-29.829573,3.3640509,3.9646635
-29.855053,3.357881,3.9557612
-29.881329,3.3583527,3.9557889
-29.907646,3.3594904,3.9567637
-29.935966,3.385223,3.9906774
-29.961592,3.381116,3.9847572
-29.987747,3.3842556,3.9885807
-30.013615,3.3832736,3.9869483
-30.038837,3.3667936,3.9646435
-30.06478,3.362351,3.9584913
-30.090876,3.3609686,3.9564877
-30.117048,3.3638434,3.9602354
-30.143206,3.3835506,3.9865556
-30.169144,3.3799746,3.9817846
-30.195131,3.3776617,3.9787593
-30.221214,3.3736203,3.9734778
-30.247513,3.366055,3.9635384
-30.273851,3.3609514,3.9569485
-30.299948,3.3619022,3.9585123
-30.325743,3.3671083,3.9658217
-30.350552,3.383747,3.988472
-30.376026,3.3890805,3.996059
-30.402157,3.3867047,3.9933937
-30.427437,3.3927667,4.002061
-30.455133,3.3773756,3.9821162
-30.48215,3.3698277,3.9727135
-30.509401,3.3617558,3.9626698
-30.534521,3.3692806,3.9735157
-30.556097,3.3983536,4.0131803
-30.584524,3.3833225,3.994016
-30.610277,3.3850682,3.9973042
-30.635553,3.3892646,4.0039163
-30.665483,3.3696947,3.9788883
-30.69258,3.365694,3.9746897
-30.719112,3.3647413,3.974613
-30.74363,3.37278,3.986572
-30.766855,3.385632,4.0049906
-30.793238,3.3848743,4.0053368
-30.820875,3.3794372,3.9995139
-30.84815,3.375855,3.9962232
-30.874178,3.37709,3.9993973
-30.90002,3.378984,4.003504
-30.92299,3.3904152,4.020334
-30.948315,3.3936176,4.026283
-30.978506,3.3815184,4.011983
-31.003874,3.3848615,4.018237
-31.030594,3.384139,4.0191565
-31.057753,3.382309,4.018669
-31.084536,3.38173,4.0199003
-31.111776,3.380046,4.0197296
-31.138391,3.3802,4.022052
-31.165476,3.379249,4.022974
-31.194246,3.3742661,4.018634
-31.219498,3.3781548,4.0260706
-31.24419,3.3832774,4.035189
-31.275135,3.3738432,4.0251756
-31.305504,3.366254,4.017672
-31.331793,3.3680902,4.022647
-31.361044,3.3635845,4.019343
-31.388184,3.36382,4.02234
-31.414204,3.3664541,4.0285473
-31.441051,3.3674135,4.0326166
-31.469074,3.366126,4.0338025
-31.498337,3.3626003,4.0321255
-31.527992,3.3585806,4.0298743
-31.555878,3.3581128,4.0323405
-31.586323,3.3531086,4.0289493
-31.615273,3.3510745,4.0295115
-31.64428,3.349123,4.0302525
-31.675346,3.3438096,4.0266876
-31.70518,3.3408833,4.02631
-31.737848,3.3334646,4.02017
-31.764723,3.3358636,4.026863
-31.794062,3.33434,4.028533
-31.824175,3.3317623,4.0289097
-31.857666,3.324154,4.0228558
-31.880138,3.3336856,4.0390477
-31.913042,3.327395,4.0348554
-31.94801,3.3183787,4.02724
-31.980448,3.3134298,4.0249624
-32.010635,3.3119645,4.027256
-32.043274,3.307211,4.025403
-32.070347,3.3104248,4.033862
-32.09779,3.3131497,4.0417595
-32.132294,3.306435,4.0376425
-32.169903,3.2959213,4.0287704
-32.204315,3.2899952,4.0258665
-32.24017,3.2825103,4.021074
-32.274,3.2779202,4.0200725
-32.300842,3.2823036,4.030571
-32.329422,3.2845466,4.0384164
-32.361164,3.2830062,4.0415416
-32.401237,3.2716513,4.032336
-32.44016,3.2620845,4.0255165
-32.478817,3.2531996,4.0196786
-32.50436,3.259765,4.033416
-32.536533,3.2587526,4.0376854
-32.57264,3.2534828,4.036701
-32.615753,3.240725,4.0264435
-32.6641,3.2227023,4.0097427
-32.690746,3.2286558,4.0231485
-32.718323,3.2336001,4.035361
-32.746857,3.237543,4.0463953
-32.7862,3.2302914,4.043601
-32.832497,3.2162137,4.0324707
-32.878033,3.2033768,4.023035
-32.913197,3.2013628,4.0271225
-32.946815,3.2010574,4.0334215
-32.97776,3.203508,4.043209
-33.03222,3.1833181,4.0252905
-33.077145,3.1728325,4.019463
-33.116726,3.167769,4.020417
-33.15362,3.165464,4.024867
-33.187195,3.166418,4.0334
-33.244217,3.1460977,4.0161934
-33.287235,3.1390035,4.015232
-33.33216,3.130508,4.0127234
-33.355587,3.1413043,4.0336456
-33.401302,3.132565,4.031106
-33.457935,3.114742,4.0178223
-33.504116,3.1063666,4.016072
-33.552303,3.0966287,4.012859
-33.58423,3.1008222,4.026426
-33.625946,3.096988,4.0305433
-33.695015,3.0710294,4.0085716
-33.730278,3.07311,4.020044
-33.79193,3.05418,4.006845
-33.841934,3.0450249,4.0053926
-33.883205,3.0430536,4.012555
-33.938038,3.0307672,4.0077944
-33.986008,3.0241551,4.0098686
-34.026314,3.0236578,4.019232
-34.081093,3.012453,4.016319
-34.1328,3.003918,4.0167093
-34.1734,3.0039046,4.027122
-34.220055,2.9996402,4.032793
-34.308567,2.9654024,4.0043054
-34.359093,2.9591672,4.00819
-34.430904,2.9381583,3.9954565
-34.482536,2.931879,3.999743
-34.54329,2.9195669,3.9974127
-34.595955,2.9132268,4.002064
-34.66345,2.8971004,3.9959388
-34.74602,2.8713012,3.9792843
-34.783104,2.8765392,3.9976025
-34.850723,2.861679,3.9937267
-34.905754,2.855528,3.9997826
-34.948692,2.857521,4.015043
-20.24641,1.883012,4.0227923
-19.852098,1.681056,3.8183851
-19.568407,1.5222363,3.6480517
-20.307106,1.794426,3.8471565
-20.132782,1.6813195,3.7159986
-21.531258,2.2458045,4.1781034
-21.591164,2.23763,4.1424937
-21.683916,2.2440903,4.120249
-21.861553,2.2886877,4.132837
-21.96577,2.3015409,4.117685
-22.18233,2.3657477,4.15007
-22.326506,2.3984258,4.1546993
-22.368553,2.3849845,4.117339
-22.49094,2.408935,4.1151304
-22.631424,2.4421163,4.122301
-22.738703,2.4604874,4.116213
-22.859854,2.486114,4.117637
-23.032944,2.5375342,4.1445346
-23.080982,2.5293498,4.114706
-23.210781,2.5614312,4.124325
-23.31293,2.5806756,4.1220636
-23.438469,2.6122398,4.132495
-23.504791,2.6147676,4.114774
-23.653019,2.6593144,4.1393366
-23.70835,2.6571932,4.117819
-23.800705,2.6744914,4.116172
-23.91679,2.7047815,4.128191
-23.967709,2.7014465,4.1064596
-24.096504,2.7398233,4.127795
-24.13684,2.7315383,4.101614
-24.224524,2.7490554,4.1023746
-24.346363,2.785863,4.123691
-24.40514,2.7886846,4.109991
-24.499552,2.8116927,4.117824
-24.557219,2.8146365,4.104871
-24.626337,2.8243737,4.099398
-24.743473,2.8620987,4.124152
-24.778435,2.8530972,4.0993195
-24.862017,2.8725986,4.1053495
-24.955029,2.898253,4.1184354
-24.984549,2.8867269,4.091511
-25.07095,2.9094403,4.102088
-25.162113,2.935687,4.116943
-25.192234,2.9251695,4.0917215
-25.276117,2.947963,4.103437
-25.346416,2.9628918,4.106804
-25.400433,2.9680188,4.099552
-25.462269,2.978423,4.0984254
-25.531067,2.9937034,4.1030374
-25.603844,3.0120559,4.111408
-25.646431,3.0111303,4.0982847
-25.703117,3.0197186,4.0961194
-25.775753,3.0393374,4.106754
-25.822191,3.0418088,4.0980954
-25.861612,3.0397167,4.084375
-25.936869,3.0624733,4.0993958
-25.980175,3.0636053,4.0897646
-26.04452,3.0797343,4.0976667
-26.090954,3.0836332,4.0916185
-26.141312,3.0905962,4.0893154
-26.204853,3.1074305,4.0987453
-26.249487,3.1109247,4.0927873
-26.292704,3.113606,4.086034
-26.344336,3.1228004,4.087117
-26.404858,3.1390631,4.0967584
-26.459885,3.1516304,4.102254
-26.483253,3.1402044,4.079415
-26.53351,3.1496513,4.0815287
-26.583555,3.1592891,4.084057
-26.657207,3.1880767,4.1097374
-26.677399,3.1746294,4.084931
-26.728683,3.1863265,4.090474
-26.772972,3.1926787,4.0897465
-26.826231,3.2067719,4.09855
-26.87195,3.2149894,4.1004157
-26.901314,3.2096486,4.0859356
-26.942621,3.2145915,4.0840845
-26.98439,3.220191,4.0831747
-27.041798,3.2397883,4.0995636
-27.080257,3.2431517,4.096221
-27.1054,3.2347803,4.078553
-27.146622,3.240959,4.078899
-27.185997,3.2457266,4.077635
-27.23197,3.2568736,4.084402
-27.279364,3.2697554,4.093481
-27.308874,3.2660735,4.082114
-27.343874,3.2677228,4.0774727
-27.380972,3.2715898,4.0757065
-27.420637,3.2782178,4.077509
-27.462793,3.2876267,4.082925
-27.502638,3.2950654,4.086003
-27.526192,3.2861695,4.0686483
-27.568933,3.2970405,4.0762663
-27.602259,3.2984512,4.072075
-27.6436,3.3085327,4.078949
-27.680721,3.3144674,4.080699
-27.71078,3.312996,4.0731583
-27.745724,3.3170052,4.072666
-27.777176,3.3173444,4.0676026
-27.811943,3.3215718,4.067583
-27.848963,3.3286257,4.0712767
-27.886288,3.3363478,4.0759354
-27.917416,3.3371072,4.0717807
-27.946672,3.3357744,4.0650244
-27.980448,3.340003,4.065491
-28.015007,3.3454366,4.067605
-28.04899,3.350432,4.069252
-28.079361,3.3511271,4.0654426
-28.106676,3.3480475,4.0568314
-28.139978,3.352789,4.0584106
-28.174421,3.3592982,4.062373
-28.20374,3.3592534,4.057925
-28.233849,3.3604064,4.055108
-28.264717,3.362763,4.053934
-28.2987,3.3696814,4.0587835
-28.330166,3.3733504,4.0594883
-28.358826,3.3731916,4.055276
-28.385939,3.3708677,4.048304
-28.420218,3.3793058,4.0554824
-28.444675,3.3732028,4.0437007
-28.476892,3.379014,4.047599
-28.503942,3.3770084,4.0413175
-28.532423,3.377342,4.0381737
-28.561224,3.378323,4.0359497
-28.583479,3.3685923,4.0196853
-28.608599,3.3634617,4.009528
-28.632475,3.3561149,3.9964993
-28.660381,3.3556724,3.9926395
-28.699787,3.3758802,4.0161524
-28.72715,3.375048,4.0119314
-28.756977,3.3788757,4.0139465
-28.78368,3.3770504,4.008539
-28.805056,3.3649526,3.9895592
-28.83073,3.3609538,3.9813726
-28.860464,3.3650873,3.9840508
-28.890656,3.37046,3.9884496
-28.92127,3.3770764,3.9945774
-28.949856,3.3797355,3.9955084
-28.977324,3.3801582,3.9935248
-28.997066,3.3632665,3.9685016
-29.022902,3.359757,3.9613752
-29.047808,3.3539891,3.951287
-29.076881,3.3581688,3.9545488
-29.114256,3.3833892,3.9860287
-29.140644,3.381926,3.98189
-29.169043,3.3857825,3.9849339
-29.195404,3.3844626,3.9811053
-29.216322,3.3680158,3.9570477
-29.242659,3.3662355,3.9527032
-29.267431,3.3598385,3.9422178
-29.298088,3.371082,3.9554782
-29.328321,3.3818293,3.968145
-29.35688,3.3879683,3.974689
-29.38321,3.3871384,3.9719224
-29.408026,3.3810863,3.9621847
-29.430023,3.3645058,3.9383197
-29.45642,3.3632784,3.9351742
-29.482683,3.3615298,3.931383
-29.512447,3.3739953,3.9468107
-29.541256,3.3835974,3.9584448
-29.567734,3.3838372,3.9575145
-29.5928,3.3776503,3.947967
-29.618828,3.375661,3.9441373
-29.642471,3.3613248,3.923688
-29.669235,3.36242,3.9241297
-29.695763,3.362402,3.9231234
-29.725882,3.384354,3.951869
-29.752539,3.3868513,3.9543822
-29.778372,3.3840861,3.9498367
-29.804968,3.3867202,3.952648
-29.829966,3.3769746,3.9387686
-29.855154,3.3672905,3.9250228
-29.8817,3.3689394,3.9266644
-29.907986,3.3682837,3.9252422
-29.93655,3.3949952,3.9609215
-29.962318,3.3909187,3.954983
-29.988388,3.3904696,3.9540098
-30.01434,3.387713,3.949966
-30.03994,3.3755207,3.9331992
-30.066034,3.371114,3.9270287
-30.092138,3.363211,3.9161773
-30.118559,3.368442,3.9231682
-30.144905,3.3891842,3.951223
-30.170965,3.3933625,3.9568987
-30.197067,3.39048,3.9530656
-30.223263,3.3864772,3.9477704
-30.249632,3.3801663,3.9394047
-30.276272,3.3709555,3.9271674
-30.302437,3.3730946,3.9303555
-30.328196,3.3806438,3.9409232
-30.353615,3.3906314,3.9548442
-30.379469,3.3935614,3.9592633
-30.405678,3.3924053,3.9582062
-30.432884,3.38242,3.945258
-30.460932,3.3671722,3.9252481
-30.488066,3.361485,3.9182343
-30.513908,3.3659427,3.925
-30.539047,3.3746114,3.9375114
-30.563541,3.3863018,3.954158
-30.589415,3.3885822,3.9581347
-30.615782,3.38797,3.9582574
-30.642168,3.3874264,3.9585297
-30.671417,3.3727689,3.9398
-30.698977,3.3676453,3.9340086
-30.726515,3.3631868,3.929175
-30.750875,3.3729615,3.9436018
-30.773766,3.3881009,3.9653077
-30.79873,3.393862,3.9744165
-30.82606,3.3902626,3.9709625
-30.854269,3.3837953,3.9637067
-30.885445,3.3674092,3.9431643
-30.912312,3.366983,3.9441729
-30.938663,3.368388,3.9477034
-30.961504,3.3810089,3.9663658
-30.98638,3.386645,3.9756863
-31.011152,3.392342,3.9851377
-31.037636,3.3928323,3.987652
-31.066612,3.3863769,3.9809058
-31.096794,3.3770828,3.9704218
-31.122355,3.3807168,3.977334
-31.148981,3.3814998,3.980482
-31.175604,3.3823533,3.9837823
-31.200092,3.388513,3.994238
-31.225443,3.392407,4.0017138
-31.25495,3.3864954,3.996147
-31.285099,3.3795094,3.9892175
-31.314884,3.3737707,3.9840257
-31.340546,3.3773766,3.9913595
-31.361805,3.3902934,4.0111485
-31.390034,3.3882458,4.0110598
-31.415771,3.3914657,4.0180407
-31.441463,3.3947515,4.0251646
-31.467104,3.398103,4.0324316
-31.4978,3.391759,4.0268946
-31.525581,3.3912416,4.0291557
-31.55713,3.3839288,4.022485
-31.584084,3.3852906,4.0273714
-31.613934,3.3815856,4.0256224
-31.640919,3.3831003,4.030839
-31.672909,3.3761473,4.024948
-31.704035,3.3709984,4.0215187
-31.731827,3.3716195,4.0257654
-31.761032,3.370051,4.0271974
-31.789932,3.3691318,4.029556
-31.82032,3.3660362,4.029128
-31.851894,3.361339,4.026677
-31.880596,3.361242,4.0303335
-31.910458,3.3595405,4.0319614
-31.942682,3.3545604,4.029381
-31.972687,3.3530402,4.0314016
-32.004723,3.3488133,4.0299716
-32.039673,3.3407784,4.023669
-32.068295,3.3417692,4.0292
-32.10599,3.330611,4.0190253
-32.127224,3.341774,4.037911
-32.16603,3.3297222,4.026765
-32.19996,3.324436,4.0244875
-32.23271,3.320912,4.024582
-32.266876,3.3158395,4.022768
-32.29183,3.322411,4.036049
-32.32028,3.3246598,4.043825
-32.359634,3.3138604,4.034911
-32.39785,3.3048358,4.028395
-32.433002,3.2997532,4.027043
-32.467808,3.2953286,4.0266337
-32.498917,3.2953541,4.0320063
-32.52765,3.298178,4.041029
-32.565598,3.2908282,4.037178
-32.60864,3.2782233,4.026767
-32.647476,3.2706084,4.0228233
-32.68197,3.2679496,4.025276
-32.714005,3.268074,4.031347
-32.742477,3.2720304,4.0423403
-32.776077,3.2707462,4.046808
-32.833263,3.2456899,4.0214834
-32.87301,3.2388577,4.019238
-32.91345,3.231635,4.016629
-32.93469,3.2435093,4.038024
-32.967133,3.2443967,4.045749
-33.020966,3.2249584,4.0282555
-33.083496,3.1978955,4.001481
-33.10807,3.2070305,4.0198374
-33.13757,3.2115493,4.032534
-33.17383,3.2099357,4.037737
-33.213585,3.205343,4.0393796
-33.28407,3.1735888,4.00775
-33.316166,3.1765404,4.0189853
-33.347065,3.180614,4.031684
-33.385616,3.1781416,4.036474
-33.426037,3.174274,4.039688
-33.490623,3.1502464,4.018529
-33.529015,3.148746,4.024943
-33.56747,3.1473756,4.031639
-33.619526,3.1350737,4.025268
-33.672466,3.1224713,4.018729
-33.726925,3.1090748,4.0114346
-33.76781,3.106846,4.017721
-33.818924,3.096819,4.014831
-33.879833,3.0795646,4.003524
-33.919224,3.0793223,4.012665
-33.96837,3.0718417,4.013365
-34.013123,3.0679748,4.0185146
-34.07834,3.0491395,4.0061955
-34.111538,3.0544052,4.0224457
-34.148003,3.057349,4.0360794
-34.220627,3.0343318,4.0195265
-34.27145,3.027502,4.02212
-34.346188,3.0040827,4.005662
-34.413185,2.986713,3.9965203
-34.471596,2.9758067,3.9951096
-34.521244,2.9712973,4.0012836
-34.57936,2.9613059,4.0013714
-34.63839,2.9510732,4.0014205
-34.69764,2.941075,4.001978
-34.75285,2.9341152,4.0062227
-34.838146,2.9078312,3.988872
-34.882374,2.9087932,4.002558
-34.920856,2.9136052,4.0207253
-20.181274,1.917536,3.9703803
-19.636353,1.6562092,3.710824
-19.017319,1.3597269,3.416831
-20.274012,1.8417606,3.8051472
-19.645828,1.5384386,3.5028963
-21.546642,2.3061748,4.157608
-21.639425,2.311977,4.1349773
-21.823524,2.3578176,4.1493897
-21.904612,2.3597744,4.124524
-22.056751,2.3934765,4.12952
-22.25274,2.4476748,4.1545415
-22.321104,2.4457853,4.1279087
-22.464073,2.4780464,4.134006
-22.559208,2.4892945,4.120836
-22.66845,2.5075777,4.114937
-22.85116,2.5607934,4.1434603
-22.940266,2.571193,4.1312666
-23.069954,2.6013687,4.1389465
-23.147728,2.6074758,4.123548
-23.279877,2.6403084,4.13511
-23.368687,2.6528423,4.1270742
-23.487574,2.6807175,4.1349287
-23.569256,2.6908505,4.1254435
-23.689741,2.7209349,4.1366806
-23.726349,2.7092934,4.1058054
-23.847723,2.741085,4.1198053
-23.92601,2.7514572,4.1122465
-24.00249,2.7613292,4.104542
-24.12808,2.7974834,4.124715
-24.188097,2.7997131,4.10983
-24.2843,2.8216293,4.1160336
-24.34243,2.8235812,4.1014857
-24.428606,2.8411274,4.1038475
-24.534658,2.8701963,4.118985
-24.590656,2.8721695,4.1054235
-24.681232,2.8938375,4.1134357
-24.75837,2.9085112,4.1142645
-24.821491,2.9156518,4.107211
-24.892794,2.9278736,4.1060104
-24.982718,2.9514089,4.1176014
-25.02713,2.9487848,4.100644
-25.1231,2.9769897,4.1181345
-25.189552,2.9882097,4.11711
-25.232847,2.9858065,4.101101
-25.294529,2.9948132,4.098093
-25.387459,3.023508,4.1175847
-25.412928,3.010849,4.0906067
-25.491379,3.031527,4.101638
-25.55216,3.0415564,4.100848
-25.613438,3.0522902,4.101116
-25.659554,3.0535831,4.0907726
-25.714794,3.0610666,4.0877495
-25.813421,3.0975947,4.118591
-25.837317,3.0850837,4.092873
-25.900274,3.098868,4.0978765
-25.949833,3.1039715,4.09298
-26.010227,3.1168165,4.097356
-26.046503,3.1133194,4.0827312
-26.11259,3.1308687,4.0930805
-26.156118,3.1329374,4.0853596
-26.2263,3.1543255,4.100746
-26.254892,3.1461983,4.0812483
-26.307991,3.1560035,4.0832577
-26.35825,3.1640778,4.083393
-26.418077,3.179631,4.092701
-26.46272,3.1842115,4.0890174
-26.501469,3.1845522,4.080366
-26.544628,3.1884608,4.076165
-26.61676,3.2151766,4.099817
-26.658228,3.2184815,4.0952444
-26.696482,3.2194543,4.087964
-26.734678,3.2205577,4.080967
-26.780796,3.2282758,4.0822077
-26.834036,3.242169,4.0912037
-26.880331,3.2507472,4.09384
-26.904247,3.2408676,4.073827
-26.94913,3.2487206,4.075832
-26.987925,3.2516727,4.071903
-27.050615,3.2755892,4.09418
-27.09425,3.283454,4.0966783
-27.114681,3.2710345,4.073976
-27.157566,3.2786436,4.0763884
-27.199703,3.2858922,4.0784903
-27.243908,3.295353,4.083509
-27.284563,3.3018737,4.0849705
-27.317348,3.3012803,4.0775814
-27.351202,3.3018293,4.0717297
-27.387173,3.3045712,4.0687532
-27.429487,3.3137012,4.0739946
-27.467876,3.3193152,4.074899
-27.502445,3.3213844,4.0714035
-27.539022,3.3256707,4.070839
-27.576,3.3306074,4.0712137
-27.611828,3.3346095,4.070502
-27.649061,3.3403218,4.0720882
-27.684652,3.3445635,4.0718946
-27.71815,3.3467903,4.069211
-27.75353,3.3512602,4.0695133
-27.788792,3.3558464,4.0700674
-27.819624,3.3557167,4.064621
-27.852795,3.35837,4.0628624
-27.889166,3.3649025,4.066228
-27.922596,3.3683133,4.0656414
-27.95456,3.370205,4.0631704
-27.986454,3.3721957,4.060913
-28.017836,3.3737404,4.058159
-28.054901,3.3824663,4.0648727
-28.08915,3.3880405,4.067567
-28.115067,3.3833244,4.0568733
-28.142326,3.3803217,4.048485
-28.169197,3.3768435,4.0395355
-28.194866,3.3717864,4.02857
-28.219791,3.3656917,4.016295
-28.250061,3.3668447,4.01363
-28.277094,3.3636565,4.005309
-28.32342,3.3877249,4.033081
-28.349094,3.3830638,4.022975
-28.377892,3.3829231,4.0189137
-28.393494,3.3633432,3.989137
-28.425407,3.367802,3.9912922
-28.451365,3.3634033,3.9817557
-28.49105,3.3803735,4.000709
-28.52294,3.3856888,4.0042524
-28.55191,3.3866024,4.0020075
-28.578444,3.383655,3.9946787
-28.59793,3.3689308,3.9716742
-28.624323,3.3655412,3.963855
-28.649458,3.3599563,3.9531546
-28.680763,3.365201,3.957014
-28.71886,3.383024,3.977817
-28.751331,3.391314,3.985932
-28.77998,3.392875,3.9850907
-28.798763,3.3757107,3.9591434
-28.823414,3.3694186,3.9478483
-28.849888,3.3666143,3.9412987
-28.877798,3.3667397,3.9387538
-28.911173,3.378397,3.9518218
-28.939728,3.3804088,3.9519577
-28.968752,3.383648,3.9538171
-28.993582,3.3777714,3.9434235
-29.018011,3.3708048,3.9316049
-29.04379,3.366777,3.9238117
-29.07155,3.3674288,3.9224074
-29.103487,3.3785481,3.9352477
-29.135635,3.3909197,3.9498644
-29.163303,3.392396,3.9497797
-29.187902,3.3858404,3.938852
-29.21262,3.3793445,3.9280536
-29.237453,3.3729076,3.9173841
-29.263199,3.368854,3.9100046
-29.292477,3.375327,3.9169967
-29.324783,3.3917718,3.9376276
-29.351141,3.390267,3.9338949
-29.378914,3.3934908,3.9366605
-29.403234,3.3851295,3.9236956
-29.42755,3.3762422,3.91006
-29.451565,3.3656611,3.894161
-29.477444,3.3615627,3.887153
-29.506733,3.3709779,3.8986456
-29.536795,3.3845696,3.9159086
-29.563906,3.38654,3.9173634
-29.589823,3.3833103,3.9117703
-29.614706,3.3748717,3.899108
-29.640446,3.3700125,3.8913884
-29.666384,3.3658032,3.884611
-29.693743,3.36929,3.888414
-29.72151,3.3757849,3.8963923
-29.750599,3.3917527,3.917398
-29.776625,3.388997,3.912832
-29.803177,3.389835,3.9132402
-29.828606,3.3819213,3.9017153
-29.853989,3.3723059,3.8879101
-29.88085,3.3751094,3.8911715
-29.907484,3.3762174,3.8921654
-29.93572,3.39682,3.919935
-29.96236,3.4016027,3.9260776
-29.98823,3.3958535,3.9178395
-30.014025,3.3866367,3.9048982
-30.040308,3.3845544,3.9017909
-30.066593,3.3813608,3.897214
-30.092995,3.380591,3.8960154
-30.11944,3.3822465,3.8981953
-30.145868,3.3928072,3.9126422
-30.172094,3.4016683,3.924812
-30.198269,3.4035258,3.9274316
-30.224659,3.3966143,3.9180794
-30.251554,3.3803456,3.895952
-30.277975,3.3806403,3.896591
-30.304602,3.3774695,3.8925335
-30.330599,3.384378,3.902348
-30.356033,3.3966503,3.9195669
-30.382174,3.398391,3.9224014
-30.408045,3.402552,3.9286058
-30.435522,3.391483,3.9139967
-30.463158,3.381076,3.9003534
-30.490242,3.3766232,3.8949237
-30.516756,3.376944,3.896089
-30.542826,3.3802705,3.9014235
-30.567408,3.3924723,3.918958
-30.592756,3.3988614,3.9285862
-30.620438,3.3918185,3.9198885
-30.647816,3.3871965,3.914562
-30.677078,3.3738556,3.8973734
-30.703875,3.3734868,3.8979821
-30.730425,3.3743584,3.900342
-30.755598,3.3811502,3.9108427
-30.7795,3.3926826,3.927865
-30.805256,3.3960872,3.9338388
-30.831106,3.3989725,3.939156
-30.859474,3.3925858,3.9318802
-30.88815,3.385694,3.92398
-30.915422,3.3841276,3.923401
-30.942204,3.3843813,3.9253595
-30.967516,3.3893602,3.9338074
-30.991598,3.39789,3.9471374
-31.016499,3.403572,3.9566402
-31.043922,3.4017699,3.9560182
-31.075756,3.3878639,3.939014
-31.103611,3.3856418,3.937952
-31.131084,3.3846536,3.938626
-31.157242,3.3872085,3.9441652
-31.180584,3.3967617,3.9592445
-31.206593,3.3994434,3.9650593
-31.232805,3.401616,3.9702387
-31.261724,3.3975224,3.9669976
-31.294304,3.3854594,3.9530504
-31.32584,3.3763704,3.9432018
-31.350391,3.3828683,3.9544742
-31.377275,3.3842673,3.958916
-31.402481,3.3891718,3.968141
-31.425905,3.3975692,3.9821222
-31.453804,3.3968844,3.9839249
-31.492647,3.3751807,3.9575243
-31.523226,3.3701231,3.9536014
-31.548409,3.375392,3.9636157
-31.571945,3.3835618,3.9775739
-31.5947,3.3929195,3.993168
-31.621492,3.3949668,3.9990156
-31.64991,3.3942583,4.001235
-31.67903,3.3925004,4.002119
-31.710588,3.3868814,3.9979165
-31.730515,3.4004917,4.0194454
-31.753002,3.4096437,4.0350623
-31.783546,3.4059424,4.0336113
-31.816729,3.3984127,4.0271444
-31.847502,3.3949015,4.0261045
-31.87575,3.3953898,4.0304494
-31.906286,3.3926144,4.0305357
-31.939983,3.3854814,4.024928
-31.96994,3.3840065,4.0268955
-32.000343,3.3820667,4.0283237
-32.03081,3.380217,4.0299463
-32.060932,3.3790102,4.0324945
-32.089863,3.3795452,4.0374107
-32.123825,3.3735635,4.033831
-32.16005,3.364946,4.026884
-32.19561,3.3575451,4.021636
-32.226562,3.356275,4.024515
-32.25713,3.355643,4.0283093
-32.288628,3.3540134,4.0308795
-32.320633,3.3519359,4.0329485
-32.35544,3.3467045,4.0309963
-32.3913,3.3405044,4.0278816
-32.42731,3.3344226,4.025024
-32.455917,3.3370764,4.033595
-32.495953,3.3269157,4.025649
-32.51403,3.341555,4.049878
-32.56256,3.3225255,4.0306835
-32.603115,3.3127503,4.023575
-32.6419,3.305247,4.0195136
-32.678844,3.3000014,4.018469
-32.709827,3.3012364,4.0258403
