x,y,z
-19.795113,1.7512369,4.103127
-20.028267,1.8083136,4.1125135
-20.197105,1.8401619,4.1030025
-20.318,1.8529179,4.078946
-20.519402,1.9003037,4.084228
-20.749851,1.9613208,4.1021585
-20.917534,1.9968221,4.100071
-21.069927,2.0266976,4.0942373
-21.17944,2.0386887,4.0739927
-21.32762,2.0683427,4.069669
-21.497726,2.1086633,4.0755444
-21.588324,2.114264,4.0518856
-21.76857,2.1610253,4.065261
-21.931915,2.201219,4.073844
-21.991089,2.1942723,4.040881
-22.213589,2.2637606,4.077676
-22.379385,2.3081145,4.092793
-22.471428,2.3185189,4.0775604
-22.61349,2.3534026,4.0855703
-22.690811,2.3578763,4.0659323
-22.821182,2.3886333,4.0714593
-22.889843,2.3898149,4.049655
-23.034262,2.4289842,4.064471
-23.100895,2.4300966,4.0435123
-23.196095,2.4459722,4.03716
-23.27962,2.4564376,4.0260386
-23.444023,2.5090861,4.056653
-23.47353,2.4927301,4.0201945
-23.602964,2.5288324,4.0358195
-23.688557,2.5426054,4.0298805
-23.766722,2.5529075,4.0208907
-23.888334,2.587111,4.0363755
-23.942993,2.5856953,4.0164013
-24.07,2.624292,4.037432
-24.119612,2.6208725,4.0160956
-24.222242,2.6473303,4.0257254
-24.31897,2.6711724,4.0331655
-24.389019,2.6804585,4.02595
-24.506512,2.717476,4.048033
-24.546894,2.710566,4.0245986
-24.620836,2.7234418,4.0221834
-24.72102,2.7523239,4.0370703
-24.764942,2.7483172,4.0174437
-24.81939,2.7507992,4.004925
-24.934145,2.7902877,4.0323663
-24.971064,2.7828496,4.0097747
-25.040531,2.7956874,4.009267
-25.122213,2.8166318,4.0178814
-25.17358,2.8189883,4.0065813
-25.256804,2.8419428,4.018063
-25.310001,2.8461647,4.009317
-25.3839,2.8641458,4.0159826
-25.439611,2.8707047,4.010313
-25.510067,2.8873732,4.016122
-25.56609,2.8948746,4.011999
-25.618439,2.9002202,4.005689
-25.67693,2.9100542,4.0046344
-25.751139,2.9311202,4.0164967
-25.800846,2.9356935,4.010004
-25.854538,2.9433444,4.0072002
-25.89854,2.9444308,3.9971251
-25.978964,2.9718835,4.0173645
-26.008524,2.9631476,3.9964347
-26.068874,2.9769793,4.001562
-26.12298,2.9866376,4.002116
-26.190691,3.0068402,4.0150905
-26.224018,3.001639,3.9988403
-26.27493,3.0099206,3.9983985
-26.330809,3.022372,4.0030203
-26.395386,3.042026,4.0162954
-26.429703,3.0384178,4.0025053
-26.472252,3.0414455,3.996639
-26.515337,3.0451264,3.9916918
-26.591263,3.0757442,4.018795
-26.628958,3.0757585,4.0098753
-26.65927,3.0697956,3.993963
-26.692087,3.0659602,3.9806755
-26.74363,3.0780869,3.9865806
-26.79671,3.091948,3.9947565
-26.833473,3.0921159,3.9866664
-26.87903,3.1001472,3.9881682
-26.923237,3.107308,3.9887772
-26.964958,3.1125507,3.9872165
-27.003103,3.1148148,3.9821799
-27.054268,3.1292174,3.9920254
-27.118673,3.1563811,4.0176067
-27.15512,3.158077,4.012333
-27.194279,3.162525,4.01054
-27.237715,3.17133,4.0142164
-27.254269,3.1543512,3.9863539
-27.289997,3.1559663,3.981403
-27.32673,3.1587615,3.9780154
-27.375032,3.1734138,3.989398
-27.40152,3.1663165,3.97401
-27.453562,3.1855612,3.9913707
-27.485147,3.1840413,3.9831026
-27.520296,3.1863873,3.9797366
-27.557386,3.1910071,3.9793098
-27.596853,3.1984553,3.982531
-27.634666,3.2044106,3.9840071
-27.67087,3.20886,3.9837089
-27.70406,3.210156,3.9795575
-27.740541,3.2153802,3.9804423
-27.780676,3.2251048,3.9871075
-27.813583,3.2267342,3.9836786
-27.855213,3.2389169,3.9936836
-27.8719,3.2214766,3.9663126
-27.899286,3.2167609,3.9550936
-27.933878,3.2209756,3.9552817
-27.995708,3.2596927,3.999448
-28.008398,3.236959,3.9655714
-27.984062,3.1657672,3.8698897
-27.949184,3.0787587,3.753837
-27.948689,3.0351167,3.693026
-27.952326,2.995883,3.637795
-27.950567,2.9481766,3.571653
-27.93681,2.882394,3.4822297
-27.946178,2.847451,3.432323
-27.94365,2.79442,3.3591104
-27.929752,2.7232072,3.2623897
-27.968298,2.7277362,3.2632585
-27.958267,2.6591973,3.1698484
-27.947327,2.5871177,3.0717435
-27.955633,2.5427916,3.0094504
-27.951138,2.4767594,2.9189882
-27.944729,2.405479,2.8216228
-27.956732,2.3621063,2.7604017
-27.959633,2.3020937,2.6775222
-27.979504,2.2689724,2.6295757
-27.988085,2.2151754,2.5547032
-27.963545,2.1009107,2.4009361
-27.967113,2.0331044,2.307622
-27.975441,1.9715679,2.2224336
-28.000673,1.9394488,2.175665
-27.935152,1.7326024,1.900228
-27.967178,1.7078435,1.8629546
-27.962988,1.6100392,1.729958
-27.988949,1.5696185,1.6721544
-27.988003,1.4716377,1.5387764
-27.975822,1.3455904,1.3684125
-27.980047,1.2496879,1.2375517
-37.149826,0.75843596,1.4205027
-37.134174,0.8225117,1.5126891
-37.142853,0.8678436,1.5831308
-37.15213,0.91212845,1.6522975
-37.15796,0.9582803,1.7235227
-37.123466,1.0323436,1.8264251
-37.189285,1.0349293,1.8479438
-37.124596,1.1283102,1.972342
-37.23687,1.098547,1.9575343
-37.31198,1.0949352,1.9725766
-37.34853,1.11766,2.0173726
-37.364925,1.1536784,2.0770688
-37.402092,1.1755648,2.1210423
-37.45252,1.1886353,2.1553478
-37.50421,1.2009239,2.1889534
-37.53041,1.229634,2.2407594
-37.690063,1.1732175,2.1994882
-37.134735,1.610167,2.7157636
-37.143307,1.6459935,2.7740488
-37.15428,1.6799462,2.8302593
-37.18565,1.7011664,2.8727884
-37.180634,1.7441201,2.9385715
-37.18626,1.7802117,2.996935
-37.18221,1.82161,3.0608373
-37.21563,1.8406181,3.1010547
-37.210453,1.8818865,3.1646757
-37.235428,1.905374,3.2096348
-37.22909,1.9464874,3.2729182
-37.22444,1.9861665,3.3345852
-37.27072,1.996983,3.3664904
-37.295666,2.019661,3.410688
-37.320274,2.042382,3.454978
-37.347706,2.0634274,3.497624
-37.392323,2.0751245,3.5309424
-37.439972,2.085267,3.5628781
-37.49952,2.0892217,3.5888553
-37.544533,2.100986,3.622816
-37.64116,2.0860662,3.630744
-37.699055,2.09159,3.6591282
-37.774834,2.0881982,3.679123
-37.861336,2.0797477,3.6946125
-37.947994,2.0716624,3.710895
-38.06122,2.0508633,3.7155237
-38.144127,2.0456138,3.7354674
-38.245438,2.0318117,3.747807
-38.36785,2.0083933,3.7517285
-38.50322,1.979522,3.751285
-38.591938,1.9735606,3.7726688
-38.739014,1.9406586,3.7699509
-38.80696,1.9454463,3.8022108
-38.890144,1.9434557,3.828724
-39.010063,1.9250724,3.841075
-39.0943,1.9234884,3.8689666
-40.60113,1.284756,3.33884
-40.63326,1.3128068,3.3981671
-40.64855,1.3481627,3.4638858
-40.65898,1.3854003,3.5311985
-40.67061,1.4218516,3.5977998
-40.669483,1.4635105,3.6687298
-40.654617,1.5106511,3.7440891
-40.65136,1.5524609,3.8148494
-40.6704,1.5846269,3.8776307
-40.689854,1.6164451,3.9401531
-40.70176,1.6511829,4.005029
-40.689163,1.6956306,4.077531
-40.846138,1.6715631,4.096454
-41.086514,1.6151493,4.091488
-41.37422,1.5415199,4.075052
-41.613483,1.4886038,4.076177
-41.8291,1.4462576,4.086795
-42.11026,1.3799989,4.0813675
-42.386818,1.3171744,4.0804014
-42.679585,1.2498837,4.078206
-43.06051,1.1514328,4.0561857
-43.433525,1.0582337,4.040579
-43.7775,0.977921,4.036503
-44.146248,0.8906543,4.030277
-44.552742,0.7920003,4.0192533
-44.982475,0.6874912,4.007466
-45.405098,0.5880377,4.002166
-45.86766,0.4771104,3.9928732
-14.617278,0.7083812,4.1272926
-15.02941,0.79837656,4.124235
-15.248225,0.8240261,4.0822062
-16.452328,1.1023097,4.103592
-16.783325,1.1746006,4.1022673
-17.029337,1.2180634,4.0829096
-17.355083,1.2920401,4.087174
-17.690815,1.3716371,4.0978246
-17.957462,1.427531,4.093335
-18.188091,1.4714439,4.0817204
-18.452465,1.5294826,4.082364
-18.65844,1.5667243,4.068853
-18.948357,1.6375878,4.0828023
-19.151316,1.6763048,4.073456
-19.392166,1.7311168,4.0782213
-19.66166,1.7987752,4.094889
-19.866241,1.8420779,4.0935526
-20.09679,1.8971163,4.10316
-20.295639,1.9406283,4.104694
-20.450714,1.9672873,4.0933723
-20.60979,1.996495,4.0851607
-20.749184,2.0183542,4.0716505
-20.927517,2.0575054,4.07388
-21.162674,2.1220663,4.099299
-21.249462,2.1240973,4.0713167
-21.351765,2.1332817,4.0501432
-21.581408,2.198998,4.080003
-21.66323,2.2006454,4.0536056
-21.775822,2.2164402,4.0404797
-21.97939,2.2739909,4.066169
-22.150614,2.3181672,4.0807443
-22.227997,2.3202608,4.057247
-22.421757,2.3767855,4.085061
-22.51458,2.3873174,4.070677
-22.618938,2.4038029,4.0624337
-22.721346,2.4199557,4.0544357
-22.840097,2.4445763,4.0551286
-22.928623,2.4552321,4.042947
-23.044994,2.480039,4.0450106
-23.143688,2.4968226,4.0398307
-23.254358,2.520179,4.0416503
-23.309204,2.5160656,4.0167804
-23.46229,2.5621777,4.04232
-23.532154,2.566629,4.026836
-23.67113,2.6072736,4.048255
-23.722855,2.6032462,4.025022
-23.843235,2.6356735,4.0392585
-23.891546,2.630517,4.01551
-24.000017,2.6578913,4.0255585
-24.09855,2.6806185,4.031331
-24.163752,2.6857305,4.019213
-24.268618,2.7131264,4.030759
-24.327175,2.7153983,4.0163493
-24.451345,2.754939,4.041659
-24.527893,2.7683444,4.039788
-24.572031,2.7636042,4.018877
-24.657341,2.7828717,4.0239162
-24.732431,2.79674,4.0235314
-24.797445,2.805131,4.0175548
-24.875778,2.8218408,4.0209155
-24.945576,2.8339376,4.019593
-25.00028,2.8372977,4.0089917
-25.071133,2.8508399,4.0098343
-25.159338,2.8755977,4.0233946
-25.201052,2.8719475,4.005812
-25.274755,2.888633,4.011053
-25.365465,2.916684,4.029337
-25.396736,2.9071987,4.00587
-25.456707,2.9163823,4.003547
-25.53494,2.9379272,4.015457
-25.588043,2.9434214,4.0094843
-25.641008,2.949118,4.0039506
-25.699415,2.9587915,4.003173
-25.775637,2.981006,4.0170174
-25.803183,2.970274,3.9932659
-25.871288,2.987759,4.0021744
-25.955372,3.0170147,4.0250025
-25.996965,3.0168414,4.0139914
-26.046585,3.0225992,4.0100417
-26.084047,3.0198321,3.9963083
-26.16064,3.0458436,4.0164523
-26.211697,3.0536585,4.0155125
-26.252102,3.053843,4.00576
-26.297016,3.057601,4.0003734
-26.359888,3.0753078,4.011697
-26.40702,3.0814118,4.0094633
-26.439373,3.0762887,3.9940052
-26.483784,3.0807118,3.9900613
-26.543745,3.097769,4.001425
-26.605843,3.1170669,4.0157137
-26.634193,3.1094995,3.9978554
-26.682262,3.1181283,3.9996471
-26.719795,3.1183465,3.9914186
-26.775995,3.1344013,4.0025425
-26.8115,3.1333895,3.9930997
-26.857681,3.1416721,3.9951057
-26.902493,3.1491003,3.996227
-26.943037,3.1530995,3.9932973
-26.976517,3.1510653,3.9830868
-27.026093,3.1635814,3.9908884
-27.094198,3.193358,4.0201626
-27.128376,3.1928031,4.012192
-27.16477,3.194437,4.0070343
-27.20443,3.1993213,4.0060225
-27.244513,3.204864,4.0059566
-27.269737,3.196382,3.988533
-27.312376,3.204793,3.9922676
-27.348398,3.2070267,3.988411
-27.383286,3.2083206,3.9834816
-27.42284,3.2144957,3.9847863
-27.464323,3.222932,3.9890602
-27.49686,3.2224574,3.9822302
-27.540586,3.233831,3.9904544
-27.57599,3.2367952,3.9881818
-27.612804,3.2414837,3.9881968
-27.646532,3.2430658,3.9843762
-27.681664,3.2463717,3.9828432
-27.7138,3.2465477,3.977424
-27.748772,3.250071,3.9763627
-27.78554,3.2558777,3.9783187
-27.843227,3.2862904,4.011872
-27.841063,3.2471325,3.9564564
-27.864788,3.2379537,3.9394565
-27.87465,3.2118526,3.900749
-27.975689,3.2971418,4.00543
-27.997784,3.286638,3.987007
-27.998253,3.2486274,3.933112
-27.984365,3.191226,3.854093
-27.953287,3.1098945,3.7439756
-27.951904,3.0654793,3.681511
-27.951778,3.0215414,3.6195984
-27.944715,2.9669569,3.543787
-27.952013,2.9306624,3.4916801
-27.951239,2.8820415,3.423482
-27.941975,2.8199112,3.337593
-27.915714,2.7313087,3.2170258
-27.934278,2.7059522,3.178968
-27.991282,2.7374282,3.2153106
-27.950598,2.6214726,3.0586395
-27.949387,2.562804,2.976873
-27.950024,2.5051758,2.8963957
-27.952127,2.4480324,2.816486
-27.955334,2.3908126,2.736411
-27.923351,2.2733037,2.5768557
-27.97348,2.2903874,2.5945606
-27.980198,2.233557,2.5148463
-27.964256,2.1350093,2.3799677
-27.97135,2.0740056,2.2945886
-27.970833,1.9969172,2.1878695
-28.0005,1.9730287,2.1515431
-27.937994,1.7735782,1.8824801
-27.967928,1.7449605,1.839767
-27.962582,1.645613,1.7031546
-27.982027,1.5922253,1.627521
-28.000828,1.5353668,1.5472612
-27.980738,1.3941641,1.3547025
-27.975777,1.2793491,1.1971216
-37.166725,0.6999345,1.2213039
-37.15045,0.7658613,1.3168731
-37.12907,0.8344977,1.4154177
-37.144444,0.875273,1.4811072
-37.14172,0.9285636,1.5613651
-37.14281,0.9783523,1.637413
-37.16275,1.0141227,1.6970844
-37.112434,1.0986099,1.8130784
-37.137638,1.1294107,1.8668079
-37.117397,1.1910522,1.9559875
-37.165688,1.2052329,1.9906006
-37.26769,1.1833115,1.9841576
-37.308163,1.2030637,2.025535
-37.298756,1.2556071,2.1041708
-37.328377,1.2819402,2.153048
-37.4013,1.2800527,2.1702242
-37.513947,1.2530499,2.1595316
-37.561172,1.2683499,2.1965718
-37.751755,1.1936002,2.1335926
-38.098312,1.0235269,1.9659271
-38.089085,1.0762441,2.045909
-37.084976,1.7355638,2.7924209
-37.147705,1.7376742,2.8139148
-37.173767,1.761981,2.859849
-37.16786,1.8050742,2.9262142
-37.176376,1.8391554,2.982705
-37.185875,1.872302,3.0381389
-37.19791,1.9036436,3.0915914
-37.21559,1.9314485,3.1412425
-37.235153,1.9579453,3.1895084
-37.243465,1.9905381,3.2442245
-37.25827,2.019193,3.2947512
-37.268723,2.0499902,3.347507
-37.292057,2.0734694,3.3926134
-37.314247,2.0974104,3.4382386
-37.34083,2.1188343,3.4813056
-37.371876,2.1377769,3.5218925
-37.413837,2.1509109,3.556653
-37.464455,2.159577,3.5870442
-37.530293,2.1605134,3.6098595
-37.59128,2.1641927,3.6357212
-37.669327,2.159451,3.6534767
-37.749107,2.1542113,3.6711187
-37.829823,2.148895,3.6890774
-37.912296,2.1431031,3.7069726
-38.002327,2.1340232,3.7220879
-38.07261,2.1349661,3.7473326
-38.20621,2.1058333,3.7441077
-38.3244,2.0848596,3.7493863
-38.43036,2.0703423,3.761414
-38.542454,2.0535412,3.7718735
-38.671738,2.0294216,3.7761335
-38.786983,2.0124965,3.7877727
-38.864193,2.0134761,3.816483
-38.971302,2.0013251,3.833641
-39.064034,1.9961424,3.8576908
-39.192986,1.975405,3.8683167
-40.64533,1.3763261,3.3660083
-40.660606,1.4116008,3.4318562
-40.671024,1.4487317,3.499311
-40.68525,1.483973,3.5650864
-40.638645,1.544642,3.6526399
-40.65428,1.5786004,3.717084
-40.671185,1.6118274,3.780908
-40.691128,1.6436112,3.8435369
-40.70176,1.6790121,3.909175
-40.70655,1.7165325,3.9765077
-40.683212,1.7650068,4.0526047
-40.779636,1.7656515,4.0902557
-41.005775,1.7158895,4.0887055
-41.21105,1.6755731,4.0960336
-41.47802,1.6127143,4.0873556
-41.699818,1.5686765,4.094833
-41.985477,1.5018137,4.0866575
-42.274715,1.4353268,4.0807467
-42.591156,1.3604887,4.070747
-42.916737,1.2841916,4.061935
-43.2734,1.1985376,4.048787
-43.64027,1.1113434,4.037132
-43.98068,1.0357735,4.0361805
-44.370716,0.94465566,4.027137
-44.809757,0.8386929,4.0110426
-45.212173,0.74803257,4.008308
-45.659126,0.64442515,4.00022
-46.217636,0.50550294,3.973085
-14.558904,0.83063674,4.164531
-14.716155,0.8323622,4.104891
-16.080406,1.1475508,4.144605
-16.32248,1.1844356,4.1170645
-16.51632,1.2057841,4.0802517
-16.915422,1.3005152,4.09738
-17.174206,1.3476841,4.0827475
-17.564796,1.4436939,4.105934
-17.807487,1.4884107,4.0934973
-18.055056,1.536293,4.085106
-18.343689,1.6007895,4.091141
-18.60434,1.656564,4.09235
-18.842598,1.7054422,4.0898743
-19.038822,1.739727,4.077354
-19.24893,1.7804549,4.0712914
-19.482616,1.8315487,4.0750275
-19.786938,1.9116931,4.1041927
-20.002945,1.9588891,4.1079288
-20.175705,1.9901435,4.099636
-20.309097,2.0065494,4.079807
-20.520718,2.055446,4.0886393
-20.7404,2.1089594,4.102786
-20.911083,2.1435766,4.1017847
-21.064638,2.172062,4.09641
-21.168987,2.1806989,4.07429
-21.340904,2.218615,4.0790334
-21.48281,2.2447033,4.0740933
-21.594116,2.2583609,4.058634
-21.761925,2.29734,4.0670905
-21.870003,2.311004,4.053054
-21.998339,2.334282,4.0485945
-22.20115,2.3918242,4.0771103
-22.348785,2.4257019,4.084365
-22.451935,2.4401379,4.073881
-22.598595,2.4752717,4.0838594
-22.65327,2.4684262,4.053993
-22.824146,2.5164914,4.077924
-22.87272,2.5075932,4.046893
-23.012598,2.542632,4.059483
-23.056087,2.5319247,4.0273466
-23.222277,2.581276,4.055475
-23.271296,2.574017,4.0275297
-23.413414,2.613253,4.0468717
-23.456535,2.603736,4.0173163
-23.60497,2.6477268,4.0427413
-23.683346,2.656931,4.033121
-23.78159,2.6768317,4.034954
-23.891449,2.7034156,4.0442348
-23.952309,2.7049522,4.0278487
-24.060616,2.7319753,4.038551
-24.09906,2.722281,4.010958
-24.211391,2.7526422,4.026082
-24.31145,2.7771084,4.0354667
-24.372961,2.7810063,4.02326
-24.490074,2.8161669,4.0450335
-24.529543,2.8085809,4.0210752
-24.606651,2.822431,4.020587
-24.705591,2.8492718,4.034649
-24.752436,2.8467207,4.0169115
-24.830235,2.8624053,4.019464
-24.927244,2.8899257,4.035471
-24.950512,2.8743167,4.003975
-25.042393,2.8998256,4.0184364
-25.113823,2.913632,4.0202017
-25.164377,2.9151306,4.0084267
-25.230225,2.926313,4.0077887
-25.306013,2.9441185,4.01494
-25.3677,2.9535837,4.012926
-25.418392,2.9564314,4.003607
-25.481863,2.9677413,4.0041857
-25.574238,2.9982224,4.0270805
-25.601707,2.9869614,4.0021944
-25.653225,2.9915814,3.9957798
-25.751413,3.0276709,4.0261397
-25.789207,3.0238984,4.010448
-25.843586,3.0315397,4.0082364
-25.890244,3.034198,4.0003858
-25.957253,3.0512435,4.009643
-26.00089,3.0523934,4.0003986
-26.0559,3.0618138,4.001105
-26.095999,3.060908,3.9897513
-26.167934,3.0832171,4.006196
-26.216341,3.0889397,4.0031104
-26.269184,3.0982318,4.0044775
-26.303606,3.0941224,3.9899352
-26.372297,3.1159601,4.006766
-26.423223,3.1248746,4.008253
-26.469488,3.1305466,4.0059958
-26.499802,3.1240764,3.9891515
-26.572876,3.1512904,4.0134134
-26.616743,3.1560102,4.010501
-26.644407,3.1479588,3.9921048
-26.690594,3.1549463,3.9922326
-26.728695,3.1555984,3.9847252
-26.789099,3.1749501,4.0003924
-26.825722,3.174907,3.9923172
-26.86647,3.1785195,3.9888818
-26.907703,3.1827793,3.9863808
-26.944721,3.1836262,3.979767
-26.995031,3.1963162,3.9880316
-27.047941,3.2117512,3.9999006
-27.092531,3.2202144,4.0032268
-27.114866,3.2087934,3.9817498
-27.145235,3.2046356,3.9694486
-27.201763,3.2248592,3.9879441
-27.265028,3.2520423,4.0154266
-27.286804,3.2405043,3.9941661
-27.32661,3.2462077,3.9947946
-27.361452,3.2473454,3.9897494
-27.397831,3.2501664,3.9869452
-27.444105,3.2630856,3.9971163
-27.469795,3.255639,3.9814398
-27.51673,3.2699008,3.993582
-27.546515,3.2668715,3.9837282
-27.580364,3.2681725,3.9795065
-27.617659,3.2733023,3.9802997
-27.655313,3.279089,3.9820485
-27.68646,3.2780552,3.975112
-27.72825,3.288897,3.9835954
-27.75686,3.2853918,3.9736476
-27.809675,3.3094063,3.9994245
-27.85496,3.3255358,4.0151463
-27.891094,3.3315616,4.017883
-27.92067,3.3301227,4.011008
-27.953413,3.3325696,4.0092707
-27.986078,3.3351176,4.0077524
-28.011593,3.329045,3.9950552
-27.999657,3.2760594,3.921019
-27.975803,3.2065263,3.8251896
-27.952871,3.1362553,3.7282295
-27.950214,3.0905278,3.6633568
-27.960464,3.0606837,3.6193075
-27.9549,3.008753,3.5461497
-27.953974,2.9616947,3.4793315
-27.95475,2.9156654,3.413804
-27.941084,2.8479278,3.3195205
-27.91324,2.757813,3.1954985
-27.934896,2.7370737,3.1632066
-27.96484,2.728076,3.1465163
-27.98492,2.7040646,3.1099482
-27.968199,2.6229901,2.9975467
-27.961697,2.555202,2.9026828
-27.962185,2.49628,2.8195324
-27.95755,2.4271512,2.722701
-27.920336,2.302146,2.5511994
-27.957064,2.2964633,2.538879
-27.98393,2.2739244,2.504096
-27.956812,2.1569307,2.3429222
-27.971704,2.1099753,2.2753873
-27.972733,2.036326,2.172042
-27.991571,1.9927044,2.1089196
-27.960049,1.8529031,1.916604
-27.977982,1.8023088,1.843997
-27.995735,1.7494192,1.768291
-27.975086,1.6176658,1.5863843
-27.983385,1.5394773,1.4764838
-27.99131,1.457211,1.3610272
-27.984219,1.3393159,1.1974311
-37.145885,0.7214258,1.1319304
-37.148697,0.773406,1.2117686
-37.122997,0.84556794,1.3156447
-37.13708,0.8876209,1.3833499
-37.11514,0.9550526,1.481194
-37.14032,0.98783016,1.5377073
-37.146065,1.0339553,1.610014
-37.10754,1.1103642,1.7179365
-37.11145,1.1561973,1.7896099
-37.118034,1.1995809,1.8583202
-37.10243,1.2574325,1.9438462
-37.14575,1.2748859,1.9821577
-37.200027,1.2850015,2.012073
-37.253483,1.2957511,2.0428896
-37.303967,1.3085148,2.0761976
-37.79969,1.2219932,2.0749912
-37.999405,1.1447506,2.0084558
-38.106857,1.1254594,2.0079446
-37.067413,1.7983725,2.7819505
-37.142746,1.7930427,2.7948093
-37.162766,1.8208134,2.8446918
-37.17105,1.8552134,2.9019055
-37.17197,1.8935177,2.9633598
-37.19282,1.9199209,3.0116854
-37.19185,1.9585354,3.0733438
-37.217922,1.9814456,3.1178522
-37.21894,2.018212,3.1773796
-37.21316,2.0583315,3.2404218
-37.23715,2.0816572,3.2853603
-37.235718,2.1186392,3.3448868
-37.286415,2.1271474,3.374133
-37.30935,2.1505868,3.4193206
-37.331924,2.1740613,3.464582
-37.363716,2.1925585,3.5046873
-37.40004,2.2086444,3.5423827
-37.44257,2.2215292,3.576891
-37.504307,2.224681,3.6015644
-37.56603,2.2280698,3.6267533
-37.632614,2.229254,3.649979
-37.709843,2.2254362,3.6684618
-37.79456,2.2183104,3.683998
-37.869526,2.2163515,3.705103
-37.961937,2.2063277,3.7185817
-38.062016,2.193132,3.7294073
-38.1615,2.1807675,3.7415676
-38.26204,2.1684446,3.7542858
-38.38045,2.1483688,3.760054
-38.4933,2.1315403,3.769578
-38.628445,2.1051843,3.77065
-38.726643,2.0963237,3.7889986
-38.82244,2.089035,3.8093462
-38.91324,2.084437,3.8327093
-39.008415,2.0783434,3.8551784
-39.118347,2.06629,3.872707
-40.63008,1.4503975,3.3425198
-40.64788,1.4844105,3.4073453
-40.638214,1.5298381,3.482367
-40.639214,1.5703716,3.5528793
-40.655373,1.6042788,3.6174755
-40.679817,1.6345701,3.678927
-40.6906,1.67029,3.7451057
-40.69026,1.7102652,3.814878
-40.686684,1.7512212,3.8853664
-40.674515,1.795249,3.9582906
-40.678627,1.832484,4.0254087
-40.684883,1.8686202,4.09155
-40.85276,1.8421886,4.1070123
-41.067703,1.798703,4.1099124
-41.357994,1.7279606,4.0926824
-41.591446,1.6803007,4.095453
-41.81647,1.6371274,4.103255
-42.131004,1.5623195,4.0884786
-42.391922,1.5089438,4.0920014
-42.729225,1.4295127,4.077998
-43.06663,1.3520663,4.0678296
-43.454494,1.2587564,4.0486183
-43.80311,1.181536,4.043635
-44.13793,1.1111462,4.045949
-44.62308,0.9909828,4.0164022
-45.04218,0.8962302,4.0076785
-45.510582,0.7872951,3.992618
-45.94125,0.6937177,3.991137
-46.412064,0.58934236,3.985962
-46.92508,0.47386408,3.9773731
-13.49346,0.6421704,3.995449
-14.557203,0.93227553,4.122378
-14.954714,1.0115726,4.115743
-15.278849,1.0689602,4.097045
-15.820111,1.2004068,4.132145
-16.016628,1.2192516,4.091673
-17.344944,1.4941442,4.0924735
-17.626778,1.5499916,4.08861
-17.936153,1.6172812,4.095471
-18.143635,1.6497531,4.0772758
-18.420565,1.7085948,4.0812683
-18.61884,1.7402337,4.0653553
-18.871754,1.793205,4.0679784
-19.071697,1.8278756,4.0572767
-19.312464,1.8790867,4.061536
-19.651905,1.969332,4.099994
-19.867676,2.014184,4.1022778
-20.065868,2.0534992,4.1011915
-20.213745,2.0742645,4.08533
-20.407352,2.1139345,4.0868306
-20.570343,2.1425347,4.0797787
-20.76986,2.1868045,4.0876155
-20.938862,2.2198808,4.0866337
-21.12834,2.2623777,4.0951715
-21.240412,2.2739487,4.0766406
-21.343594,2.282384,4.0558543
-21.533274,2.3278883,4.0700045
-21.632408,2.3359852,4.0503025
-21.791645,2.370458,4.0559826
-21.960608,2.4101486,4.067524
-22.08361,2.4307613,4.0617814
-22.21989,2.457968,4.063065
-22.402395,2.506666,4.0859575
-22.472443,2.505868,4.061509
-22.619164,2.5402746,4.0720434
-22.70736,2.548739,4.057681
-22.83052,2.5738816,4.060397
-22.942406,2.594513,4.0592403
-23.044786,2.6113324,4.054815
-23.128664,2.6199298,4.0425577
-23.232956,2.6388001,4.0412164
-23.314749,2.6473713,4.029813
-23.43803,2.6767302,4.040308
-23.516031,2.6844935,4.0289707
-23.627895,2.7095952,4.0361404
-23.69008,2.7103715,4.0182867
-23.781939,2.726533,4.0169787
-23.89508,2.7541966,4.0283413
-23.983023,2.7695613,4.0271225
-24.07859,2.7894588,4.0311894
-24.14536,2.7947552,4.019954
-24.231642,2.8108068,4.0206795
-24.31995,2.8284953,4.023591
-24.407131,2.8461437,4.02687
-24.50171,2.868423,4.0356445
-24.565018,2.8740253,4.0264373
-24.61744,2.873874,4.0111156
-24.711819,2.8976405,4.022661
-24.789782,2.9127245,4.0249243
-24.8372,2.9107337,4.00834
-24.933493,2.9373276,4.0241985
-24.984379,2.9380045,4.0111275
-25.042652,2.9432843,4.0034904
-25.134104,2.9687204,4.0191116
-25.173512,2.9634256,3.9999075
-25.256178,2.9846153,4.011318
-25.330408,3.001226,4.0178003
-25.378222,3.0019357,4.006162
-25.446863,3.0159364,4.010165
-25.52953,3.039302,4.0253854
-25.567585,3.034757,4.008261
-25.631163,3.0468168,4.010783
-25.670553,3.0435104,3.9954352
-25.75402,3.0694027,4.0147705
-25.801517,3.0720341,4.0068445
-25.848232,3.0743759,3.9987457
-25.907907,3.0857565,4.0016117
-25.984383,3.1090856,4.019025
-26.021744,3.1059377,4.0049305
-26.066528,3.1081052,3.9973614
-26.12595,3.1208546,4.002741
-26.1944,3.1404958,4.0167027
-26.226124,3.1341815,3.9993758
-26.27104,3.1375375,3.9939294
-26.338648,3.1578708,4.009392
-26.393541,3.169323,4.0142303
-26.441755,3.176152,4.013588
-26.476408,3.172966,4.0007744
-26.524374,3.1801195,4.0008354
-26.583477,3.1962466,4.0121756
-26.627884,3.201333,4.010027
-26.664724,3.2006772,4.0008807
-26.704609,3.2026105,3.9950764
-26.748075,3.2076516,3.9932842
-26.79685,3.2173166,3.9974287
-26.833996,3.2177,3.990081
-26.874668,3.2212043,3.9867752
-26.915234,3.2248502,3.9837747
-26.973267,3.2437177,4.0001473
-27.007072,3.2421427,3.9908257
-27.067953,3.264442,4.0119123
-27.09637,3.2585835,3.9973927
-27.110706,3.2400887,3.966834
-27.14052,3.2353725,3.953883
-27.227154,3.282917,4.0078964
-27.267597,3.2887764,4.008786
-27.29532,3.2829454,3.994781
-27.328537,3.282348,3.9875786
-27.36924,3.2890935,3.9899368
-27.40393,3.2902775,3.9852335
-27.449087,3.3019695,3.9942274
-27.486683,3.3065288,3.994117
-27.52209,3.3091238,3.9915648
-27.557411,3.3118339,3.9892623
-27.592646,3.314658,3.9872067
-27.626787,3.316543,3.9840248
-27.666805,3.32487,3.9893556
-27.702703,3.329102,3.9894445
-27.738485,3.3334517,3.9897883
-27.776068,3.340044,3.9931772
-27.808266,3.3409028,3.9891315
-27.860596,3.364819,4.015543
-27.89061,3.3637857,4.0092125
-27.920156,3.3623033,4.002363
-27.955595,3.3678937,4.004943
-27.984621,3.3660583,3.9977832
-28.003914,3.3524299,3.9750497
-28.009897,3.3220649,3.9301147
-27.963774,3.225534,3.7971506
-27.94343,3.1591172,3.7040367
-27.9488,3.1240935,3.652635
-27.951101,3.084118,3.5945864
-27.952122,3.0413504,3.5327544
-27.949116,2.9919453,3.4619856
-27.946672,2.9419024,3.3902864
-27.93851,2.88243,3.3058686
-27.913279,2.7969666,3.186451
-27.937164,2.7796786,3.1585088
-27.95458,2.7524874,3.1172748
-27.981796,2.7391398,3.0946956
-27.97377,2.6720757,2.9997225
-27.948338,2.5760133,2.8655043
-27.956726,2.5297964,2.7984657
-27.94787,2.454565,2.6921468
-27.917849,2.3423724,2.5356774
-27.946793,2.3238292,2.5059228
-27.975086,2.3036613,2.474009
-27.955456,2.2005785,2.329566
-27.959692,2.1354778,2.236579
-27.958918,2.0590575,2.1281362
-27.979765,2.0191324,2.0692878
-27.997444,1.971884,2.0004687
-27.966919,1.8314662,1.8046103
-27.99237,1.7936845,1.7485919
-27.969604,1.6591249,1.5604377
-27.974516,1.5747893,1.4407401
-28.012705,1.5556352,1.4101152
-37.259712,0.642823,0.9090185
-37.151253,0.77856994,1.0924759
-37.145584,0.8364248,1.1802044
-37.131664,0.89938045,1.2739921
-37.133877,0.9497597,1.3523269
-37.13922,0.99718285,1.4269772
-37.18405,1.0161481,1.4671898
-37.11436,1.1148207,1.6034327
-37.07761,1.189084,1.7099247
-37.10802,1.2162933,1.759831
-37.12973,1.2491331,1.816495
-37.16269,1.2740846,1.8637791
-37.168747,1.3166554,1.9319983
-37.16848,1.362829,2.004395
-37.2842,1.3785648,2.058958
-37.32444,1.3978622,2.0998893
-37.436943,1.3714995,2.0877137
-37.965714,1.2262416,1.9981332
-38.05315,1.2193167,2.0108328
-38.09771,1.2383552,2.0534754
-37.088055,1.8786235,2.8014917
-37.14456,1.884675,2.8268805
-37.169342,1.9092367,2.8733182
-37.165695,1.9498935,2.9378424
-37.190334,1.9740174,2.9837866
-37.196995,2.0080717,3.04081
-37.203876,2.0416405,3.0972366
-37.22569,2.0666308,3.1441512
-37.239346,2.0958874,3.1957712
-37.2463,2.1285048,3.251041
-37.25588,2.1593897,3.3043747
-37.27442,2.1852198,3.352201
-37.300484,2.2068996,3.3955708
-37.32542,2.2290437,3.4394937
-37.354015,2.2491722,3.481319
-37.387928,2.2664962,3.5202436
-37.43125,2.2790172,3.5542068
-37.48896,2.2843747,3.5808163
-37.541744,2.292372,3.610424
-37.605034,2.2953389,3.6350307
-37.695335,2.2853656,3.646575
-37.762817,2.2869074,3.6703649
-37.84187,2.2831829,3.689096
-37.928467,2.2762473,3.704956
-38.028526,2.2634223,3.7153144
-38.117134,2.2564788,3.7320657
-38.21678,2.244885,3.7446399
-38.328426,2.2283413,3.7528443
-38.4353,2.2145894,3.7643743
-38.555977,2.195225,3.7710056
-38.688896,2.17111,3.7736974
-38.785522,2.1637673,3.7932167
-38.88143,2.157218,3.8140035
-38.976604,2.1514568,3.8360424
-39.07275,2.1457386,3.8586307
-39.201015,2.126855,3.869485
-40.625507,1.5637643,3.3787665
-40.643612,1.597256,3.4432044
-40.665585,1.6289518,3.5060196
-40.68008,1.6635389,3.5714679
-40.692307,1.6988275,3.6375294
-40.70137,1.7351558,3.7044826
-40.65861,1.7918274,3.7891898
-40.673546,1.8251567,3.8532748
-40.682663,1.8605635,3.919139
-40.69928,1.8928375,3.9822984
-40.694855,1.9329908,4.0520916
-40.802864,1.9302121,4.0860515
-41.012527,1.8897613,4.089673
-41.218246,1.8519913,4.096836
-41.455227,1.8038828,4.0970316
-41.702827,1.7532806,4.09682
-41.939297,1.7081463,4.102555
-42.22738,1.6458969,4.096626
-42.512627,1.5863476,4.094734
-42.86456,1.5050559,4.0784144
-43.225803,1.4226274,4.0637197
-43.597298,1.3388143,4.0505667
-43.920074,1.2738018,4.0536423
-44.286144,1.1960258,4.049943
-44.728157,1.094986,4.032607
-45.202946,0.98569894,4.012839
-45.6837,0.8772502,3.997161
-46.14803,0.7769363,3.9904861
-46.66394,0.6627331,3.9782333
-47.215767,0.5400915,3.9644952
-47.6715,0.4508958,3.9760218
-13.373419,0.68978024,3.929082
-14.597126,1.0250187,4.092282
-15.189637,1.1651549,4.129988
-15.348097,1.1680546,4.07571
-15.860965,1.2877743,4.1058416
-17.160118,1.5410991,4.0914383
-17.348204,1.5620639,4.060856
-17.802338,1.6764829,4.104252
-17.981934,1.6973429,4.076978
-18.212254,1.7371252,4.065974
-18.530142,1.8095505,4.0828648
-18.794455,1.864539,4.0875907
-19.022743,1.9079473,4.0844483
-19.230576,1.9451458,4.0775695
-19.4963,2.0050738,4.0912356
-19.651775,2.0252106,4.072562
-19.90171,2.0820081,4.086515
-20.101765,2.1212418,4.0867
-20.303001,2.1621156,4.0895586
-20.511585,2.2070627,4.097268
-20.690315,2.2415173,4.096818
-20.837666,2.2645516,4.0870786
-20.941607,2.2709882,4.063016
-21.163643,2.3258033,4.0841637
-21.257362,2.3295355,4.0590987
-21.402338,2.3548827,4.0548167
-21.555567,2.384518,4.055413
-21.716946,2.4185066,4.061025
-21.809696,2.4243293,4.0404925
-21.999352,2.4721754,4.0611196
-22.164251,2.510548,4.073586
-22.278194,2.527706,4.066136
-22.400326,2.5491261,4.0635076
-22.539007,2.578644,4.0695953
-22.646807,2.595149,4.0633836
-22.757662,2.6136632,4.059758
-22.841381,2.6204007,4.0447464
-22.957485,2.6425405,4.045889
-23.057398,2.6578357,4.0405912
-23.160328,2.6751337,4.0378666
-23.246439,2.6850471,4.0279713
-23.347126,2.7024274,4.026311
-23.464653,2.7285771,4.0343785
-23.54586,2.7377284,4.0250435
-23.676346,2.7716582,4.042464
-23.71737,2.7619011,4.013794
-23.853413,2.8000364,4.036796
-23.895075,2.791211,4.0097036
-24.022945,2.8266792,4.0309024
-24.096981,2.835208,4.0233107
-24.172405,2.844872,4.0172973
-24.288515,2.8764286,4.035762
-24.332005,2.8701549,4.0128775
-24.447248,2.9025757,4.033215
-24.523876,2.914894,4.031629
-24.577085,2.9148488,4.0165014
-24.65944,2.9311535,4.0200224
-24.729992,2.9414086,4.0170584
-24.814007,2.9596748,4.023507
-24.869652,2.9623656,4.0125422
-24.954563,2.9821482,4.021394
-25.01511,2.9883895,4.015032
-25.078476,2.9966187,4.0112123
-25.169067,3.021327,4.026766
-25.203148,3.0129647,4.0042143
-25.259327,3.0179765,3.997397
-25.361298,3.0511875,4.023869
-25.398819,3.0456054,4.005135
-25.451534,3.0495524,3.997778
-25.55144,3.0833814,4.0260324
-25.5844,3.0756617,4.0053167
-25.628086,3.074844,3.9929328
-25.718224,3.1042228,4.0168447
-25.765068,3.1061208,4.008138
-25.820877,3.1141548,4.0069895
-25.868195,3.1168804,3.9996371
-25.941528,3.1373487,4.0139546
-25.990536,3.1418827,4.0091963
-26.033304,3.1424074,3.9997246
-26.088154,3.1515002,4.000871
-26.157524,3.1711311,4.015142
-26.1992,3.1717386,4.0062904
-26.244123,3.1748557,4.0006704
-26.285664,3.1757634,3.9924712
-26.351263,3.1944323,4.006424
-26.398338,3.199993,4.0043325
-26.434334,3.1975763,3.9924626
-26.488844,3.209229,3.9982753
-26.531683,3.2124043,3.9936662
-26.579449,3.2196069,3.9942517
-26.636402,3.2342758,4.004394
-26.667002,3.228693,3.9891949
-26.707508,3.231026,3.9840846
-26.77173,3.252636,4.0035315
-26.802792,3.2479262,3.9897828
-26.85313,3.2591105,3.9963486
-26.890097,3.259588,3.9894264
-26.938248,3.2696285,3.994839
-26.980885,3.275363,3.9948947
-27.016392,3.275251,3.9875777
-27.081852,3.3013248,4.01405
-27.11474,3.2995083,4.0048056
-27.154428,3.3038452,4.003598
-27.194553,3.3088245,4.0033426
-27.231758,3.311407,4.0001
-27.261698,3.3075018,3.9885383
-27.301523,3.3128633,3.9891112
-27.340662,3.3178513,3.9893162
-27.37376,3.3173323,3.9824429
-27.413214,3.3230863,3.9838674
-27.450409,3.3269134,3.982881
-27.483318,3.3267293,3.976735
-27.51878,3.3292384,3.9742174
-27.563362,3.3412142,3.9842687
-27.596024,3.3413715,3.978863
-27.631657,3.3447633,3.977817
-27.674625,3.3561223,3.9874136
-27.7031,3.352418,3.977172
-27.73987,3.3577342,3.9789732
-27.77746,3.3642273,3.9824412
-27.811089,3.3666186,3.9805527
-27.856846,3.382887,3.9972568
-27.885065,3.3796813,3.9880962
-27.91974,3.3840027,3.9890673
-27.94976,3.3831038,3.9831386
-27.980665,3.3833609,3.9788332
-27.99957,3.3692508,3.955314
-28.009104,3.3433661,3.9159904
-27.955591,3.238412,3.7702165
-27.954952,3.1972427,3.7101321
-27.933624,3.1284626,3.612729
-27.949839,3.1065729,3.5785313
-27.95333,3.0673466,3.5208898
-27.949888,3.0177443,3.449153
-27.941427,2.959888,3.36615
-27.925049,2.8893733,3.2658696
-27.914728,2.8252523,3.1741476
-27.93975,2.8096993,3.1483836
-27.94657,2.7673333,3.0861468
-27.960165,2.7337072,3.0357852
-27.975876,2.7022684,2.988398
-27.947851,2.603052,2.8484335
-27.939919,2.531757,2.7464623
-27.94563,2.4796846,2.6706944
-27.924538,2.3827002,2.53336
-27.941895,2.3454156,2.4777193
-27.96297,2.3131266,2.4289312
-27.983366,2.2786264,2.3771167
-27.951483,2.1522074,2.1989503
-27.966602,2.1042027,2.1284661
-27.955126,2.0064466,1.9894581
-27.986326,1.9835124,1.9534373
-27.979517,1.8883526,1.8178487
-27.989534,1.8216712,1.7214575
-27.961922,1.6785269,1.5194054
-27.970346,1.6015158,1.4085774
-27.991043,1.5464041,1.3279891
-37.17268,0.7065537,0.8810382
-37.22006,0.72657895,0.922688
-37.14429,0.83683825,1.0764275
-37.12607,0.9033401,1.1755228
-37.138298,0.9468956,1.2460861
-37.14116,0.9965229,1.3240676
-37.144497,1.0451026,1.400661
-37.176575,1.0729716,1.4518013
-37.09249,1.1806736,1.6004381
-37.103176,1.2218146,1.6675348
-37.11522,1.2615056,1.7328143
-37.12108,1.3048339,1.802444
-37.131752,1.3444028,1.8674579
-37.136875,1.3871193,1.9362011
-37.17078,1.4106007,1.9818072
-37.23541,1.4141641,2.0036802
-37.29222,1.4229271,2.0319648
-37.335358,1.4404342,2.0708075
-37.38327,1.454915,2.106182
-37.389767,1.4950023,2.1718793
-38.037525,1.2812073,1.9992247
-38.10429,1.2870977,2.0265841
-37.081615,1.9281278,2.7864804
-37.134346,1.9364495,2.81425
-37.159805,1.9604876,2.8601785
-37.168198,1.9940152,2.9169579
-37.176815,2.0270658,2.9731436
-37.200996,2.0511284,3.0191274
-37.20786,2.0845487,3.0756717
-37.222702,2.113274,3.126903
-37.237873,2.141569,3.17764
-37.251816,2.1702712,3.2288194
-37.256676,2.2035317,3.2850199
-37.276775,2.228457,3.3319879
-37.298077,2.2525773,3.3780951
-37.320602,2.2759037,3.4233675
-37.347565,2.2968178,3.4660597
-37.379032,2.3153548,3.5062513
-37.41426,2.331955,3.5444531
-37.454914,2.3458455,3.579875
-37.526268,2.3446906,3.5994759
-37.591152,2.3470016,3.6230536
-37.665054,2.34522,3.6426215
-37.735737,2.345313,3.6644855
-37.813065,2.342564,3.683723
-37.90624,2.3327475,3.6960382
-37.97213,2.3360925,3.7222996
-38.0681,2.3258564,3.7350307
-38.189438,2.3045666,3.7370572
-38.28927,2.2937088,3.7502084
-38.386765,2.284422,3.765439
-38.535347,2.253008,3.759221
-38.628277,2.2469444,3.7787876
-38.758926,2.2249367,3.783237
-38.84108,2.2245727,3.8094149
-38.924133,2.2241874,3.8359885
-39.052097,2.2051802,3.8451748
-39.135353,2.2056127,3.8735204
-40.63056,1.6207416,3.3512125
-40.65824,1.6502254,3.412044
-40.674995,1.6840358,3.4769511
-40.67984,1.7224431,3.5460777
-40.675323,1.7643039,3.6182728
-40.65694,1.811295,3.6949582
-40.66619,1.8470085,3.7613387
-40.685562,1.8785532,3.823986
-40.703583,1.9104593,3.8869753
-40.705956,1.9481599,3.9550114
-40.699715,1.9888339,4.0255175
-40.691082,2.0300703,4.096357
-40.92313,1.9819129,4.0918536
-41.12066,1.9477762,4.10051
-41.38745,1.889618,4.09068
-41.637814,1.8389552,4.088702
-41.856125,1.8011625,4.098715
-42.140606,1.7412722,4.092644
-42.451492,1.6738341,4.0825887
-42.76602,1.6069703,4.0751038
-43.078682,1.5425911,4.0716796
-43.467667,1.4541559,4.0523496
-43.824577,1.378793,4.0454464
-44.19909,1.2996562,4.0383186
-44.648735,1.1979735,4.017674
-45.03091,1.1209123,4.0176992
-45.496857,1.0190232,4.0032387
-45.986416,0.9123039,3.9889154
-46.473503,0.80920315,3.980669
-47.024536,0.68889666,3.964738
-47.542244,0.5820918,3.961722
-48.104393,0.4646113,3.9558969
-13.325394,0.82565737,3.9727755
-14.517539,1.1404545,4.1252584
-14.802928,1.1796296,4.0937395
-15.26134,1.2748694,4.104143
-15.533342,1.3134067,4.0768075
-16.605368,1.5219002,4.0763025
-17.038067,1.6205008,4.1034117
-17.203413,1.6321583,4.0657477
-17.589018,1.7191374,4.0886393
-17.901962,1.7836068,4.096122
-18.131754,1.8212273,4.083925
-18.405691,1.8755177,4.0868907
-18.610651,1.9071378,4.072816
-18.862324,1.9564974,4.0749393
-19.036377,1.9794762,4.0562572
-19.279568,2.0284529,4.060975
-19.549923,2.088812,4.0770993
-19.862452,2.1664028,4.1100335
-20.038662,2.1951005,4.101611
-20.206396,2.221604,4.0922832
-20.346127,2.2384014,4.0751843
-20.533493,2.2742467,4.0762644
-20.716753,2.3096094,4.0780096
-20.927666,2.3568902,4.0918965
-21.050768,2.3707685,4.075746
-21.178886,2.3873057,4.062792
-21.331184,2.414288,4.0604973
-21.512644,2.4540281,4.071306
-21.594463,2.4539762,4.0446477
-21.775768,2.495537,4.0589767
-21.941713,2.5318184,4.0691376
-22.02022,2.5321922,4.044687
-22.194628,2.5738292,4.0617485
-22.385393,2.6236434,4.0879765
-22.456217,2.622587,4.0638504
-22.60754,2.657166,4.076315
-22.676338,2.6561544,4.0531416
-22.823362,2.690428,4.066654
-22.883434,2.6863976,4.041218
-23.033722,2.723718,4.0591974
-23.088507,2.7180984,4.032884
-23.215433,2.7461812,4.0423937
-23.259308,2.736137,4.012053
-23.420038,2.7815137,4.0410776
-23.468605,2.7744274,4.0145817
-23.605305,2.8100083,4.034355
-23.67639,2.8145814,4.021149
-23.776459,2.8337617,4.0242023
-23.889027,2.8597798,4.0352316
-23.957813,2.8646145,4.0234485
-24.059187,2.8862867,4.03062
-24.106108,2.8808143,4.008051
-24.213188,2.9065104,4.0205207
-24.307959,2.9265375,4.0271235
-24.388218,2.9395685,4.0262613
-24.4916,2.965359,4.040221
-24.5215,2.9525158,4.010662
-24.607208,2.9698462,4.0156984
-24.71793,3.0014033,4.037451
-24.745407,2.9878998,4.007745
-24.82713,3.00456,4.0130396
-24.923653,3.0300856,4.0289936
-24.960129,3.022249,4.0064373
-25.028936,3.0330057,4.005783
-25.112415,3.052678,4.015897
-25.170261,3.057972,4.0093927
-25.207306,3.0513043,3.9889421
-25.331749,3.0967927,4.0306244
-25.36554,3.0888362,4.0090914
-25.40596,3.0849543,3.9925394
-25.478157,3.1006978,3.9997015
-25.57082,3.1296403,4.0230637
-25.618668,3.1313028,4.0138245
-25.661472,3.130005,4.0011635
-25.734566,3.1482182,4.012394
-25.782745,3.1509175,4.0049734
-25.848936,3.1655955,4.0123925
-25.88088,3.1582208,3.9929788
-25.958324,3.1811285,4.0109634
-26.007257,3.1855416,4.006403
-26.047909,3.1846077,3.9953873
-26.110802,3.1990817,4.003648
-26.157953,3.2031302,3.9991531
-26.2183,3.216674,4.0066833
-26.26445,3.2206373,4.002432
-26.297335,3.2153807,3.9867523
-26.374655,3.2422626,4.0116425
-26.412525,3.241105,4.0014257
-26.451658,3.2410235,3.992686
-26.498417,3.246789,3.991486
-26.544386,3.2522497,3.9900532
-26.607836,3.2713015,4.006099
-26.637743,3.2651181,3.9901237
-26.696886,3.281704,4.003392
-26.732882,3.28061,3.9941711
-26.79085,3.2971225,4.0077076
-26.820564,3.2914474,3.9928346
-26.852152,3.2873247,3.9800427
-26.89989,3.2965384,3.9846063
-26.94326,3.3024867,3.985086
-26.987646,3.3095765,3.9871855
-27.028358,3.3138576,3.985764
-27.086264,3.3331738,4.004097
-27.122566,3.3342967,3.9988248
-27.146889,3.325052,3.9800649
-27.184856,3.3278859,3.9772182
-27.220497,3.3288383,3.9720047
-27.266026,3.3389735,3.9789948
-27.300909,3.3396778,3.9736712
-27.352016,3.35569,3.988693
-27.383951,3.3541198,3.9805796
-27.416945,3.353666,3.9740293
-27.466259,3.369145,3.9887514
-27.496944,3.366889,3.9800074
-27.531258,3.368318,3.9762552
-27.56602,3.3703709,3.9734278
-27.59614,3.3678918,3.964627
-27.631792,3.37119,3.963644
-27.668335,3.3756423,3.964305
-27.701313,3.3765755,3.960335
-27.72306,3.3656266,3.9404488
-27.748356,3.358379,3.9255908
-27.804672,3.3852243,3.9568226
-27.843483,3.3933992,3.9629874
-27.866753,3.3843493,3.9459345
-27.89155,3.3769338,3.9311414
-27.916012,3.3690505,3.9157612
-27.965736,3.3908768,3.9408197
-27.990593,3.3837051,3.9265559
-27.998917,3.3563871,3.8848803
-27.965364,3.2768233,3.7718844
-27.947502,3.2146418,3.6824489
-27.936356,3.1592557,3.6021805
-27.947124,3.1305497,3.5583506
-27.956392,3.0991392,3.510799
-27.95046,3.0467112,3.4343743
-27.949966,3.0001101,3.3658752
-27.919243,2.9107463,3.2384825
-27.92414,2.8682437,3.1754441
-27.943674,2.8452106,3.1392045
-27.954582,2.8091571,3.0850115
-27.954662,2.7562065,3.0074544
-27.97632,2.7337058,2.9719415
-27.960155,2.6533413,2.8563538
-27.949875,2.5793748,2.7495008
-27.936539,2.498146,2.6324682
-27.928284,2.4222498,2.5227156
-27.938475,2.373708,2.4508643
-27.956617,2.3366888,2.3950038
-27.98726,2.3195198,2.3667703
-27.956547,2.1963751,2.1909676
-27.957691,2.124417,2.086328
-27.958431,2.0490432,1.9768515
-27.952183,1.9580412,1.845479
-28.001184,1.9663329,1.8527532
-27.994978,1.8702002,1.714109
-27.96578,1.7254753,1.5073586
-27.957817,1.6167455,1.3508205
-27.986757,1.5782235,1.2925601
-28.014305,1.5352623,1.2280993
-37.334312,0.5910106,0.6146741
-37.145443,0.7877295,0.88063765
-37.191967,0.8081386,0.92274714
-37.13927,0.9003799,1.055522
-37.144516,0.94943476,1.1336246
-37.142967,1.0026073,1.2168002
-37.115906,1.0729187,1.3212948
-37.103634,1.1318059,1.4112945
-37.140797,1.1557579,1.4576607
-37.07597,1.2490246,1.5900908
-37.11036,1.2737787,1.6373401
-37.09907,1.3288293,1.7220182
-37.086823,1.383707,1.8063221
-37.101402,1.4202254,1.8679466
-37.121662,1.4526329,1.9245105
-37.158268,1.4742112,1.9678707
-37.193127,1.4967666,2.0124931
-37.256813,1.5010524,2.035058
-37.31548,1.5086777,2.0618658
-37.366154,1.5213776,2.0949674
-37.410873,1.5377653,2.1326404
-37.43643,1.5657158,2.1842499
-37.4059,1.6269839,2.2755594
-38.01669,1.3526759,1.988224
-38.11387,1.3409512,1.9944873
-37.153603,1.938268,2.7158504
-37.136787,1.9867375,2.7905421
-37.157703,2.0132706,2.839507
-37.166805,2.0461874,2.8958907
-37.17919,2.0769446,2.9497352
-37.19262,2.1068337,3.0025501
-37.206345,2.1362822,3.05484
-37.214176,2.1686296,3.110417
-37.22927,2.1967802,3.1611767
-37.243927,2.224922,3.2119174
-37.258137,2.2530522,3.2626333
-37.229275,2.3032405,3.3380542
-37.293957,2.3048003,3.3589907
-37.315643,2.3284612,3.404725
-37.33937,2.350942,3.4491858
-37.368385,2.3706594,3.4906526
-37.404366,2.3868587,3.5283437
-37.44903,2.3988032,3.5615196
-37.50982,2.4030113,3.5864859
-37.57385,2.4058845,3.610269
-37.64854,2.403937,3.6291676
-37.719193,2.4042356,3.650794
-37.79567,2.402119,3.6701808
-37.883026,2.3953285,3.685001
-37.966366,2.390819,3.7026243
-38.058193,2.3828664,3.7170649
-38.155228,2.3730454,3.7300234
-38.250782,2.3643968,3.744667
-38.35667,2.3516874,3.7556458
-38.45346,2.343525,3.771772
-38.573433,2.3258328,3.7787948
-38.706562,2.3031855,3.781498
-38.81691,2.2909794,3.79528
-38.896484,2.2922952,3.8229656
-39.01236,2.278835,3.836596
-39.109406,2.2737598,3.8589878
-39.23266,2.258449,3.8720322
-40.669533,1.7123413,3.3785825
-40.678413,1.7492402,3.446598
-40.649864,1.8007381,3.528285
-40.663696,1.8350351,3.593655
-40.654938,1.8779199,3.6669426
-40.687187,1.9046149,3.7252488
-40.69238,1.9415786,3.7929764
-40.705048,1.9754539,3.8578606
-40.673416,2.025725,3.937315
-40.67779,2.0621192,4.0042357
-40.682533,2.0981293,4.070752
-40.829147,2.082268,4.0924487
-41.054623,2.038755,4.091441
-41.28797,1.993741,4.0906067
-41.516518,1.9517806,4.0938225
-41.724705,1.9182509,4.105469
-42.024654,1.8540858,4.093509
-42.268753,1.8108559,4.1003947
-42.572147,1.7488632,4.0940003
-42.9665,1.6580489,4.0670757
-43.356537,1.5710292,4.045809
-43.660892,1.5145645,4.050544
-44.0206,1.441761,4.045115
-44.370102,1.3743277,4.0461917
-44.822735,1.2759023,4.0271688
-45.298035,1.1729429,4.0081635
-45.750336,1.0799551,3.9996457
-46.24961,0.97499466,3.9861493
-46.76983,0.86647797,3.9739323
-47.331722,0.7482841,3.9591446
-47.969334,0.6105447,3.935803
-48.539715,0.4964795,3.9325352
-13.165264,0.8748853,3.8926134
-14.649539,1.2709377,4.110135
-15.314762,1.4253385,4.164072
-16.591211,1.6411052,4.1174483
-16.887709,1.6922331,4.1090126
-17.068995,1.7075136,4.074214
-17.465702,1.7945812,4.0981374
-17.774776,1.8548921,4.1029844
-18.016968,1.8945496,4.0928726
-18.211935,1.9195546,4.072117
-18.521534,1.9848678,4.086566
-18.799223,2.040989,4.095169
-18.999807,2.0718136,4.0837173
-19.24883,2.1208506,4.089386
-19.460983,2.158217,4.086319
-19.648235,2.1878448,4.0776587
-19.88174,2.23534,4.0861974
-20.086731,2.2737672,4.0879154
-20.305405,2.318472,4.0966177
-20.50555,2.3575585,4.101422
-20.674866,2.3861861,4.097634
-20.774632,2.3892488,4.070724
-20.935242,2.4162302,4.0670924
-21.157015,2.4679399,4.0880833
-21.2621,2.4752054,4.0673866
-21.353918,2.4777336,4.0426316
-21.56076,2.5267663,4.06403
-21.697243,2.5486681,4.059741
-21.777027,2.5482059,4.033887
-21.983696,2.6004088,4.061332
-22.158495,2.6407068,4.077876
-22.26656,2.654081,4.0679383
-22.409397,2.682806,4.0743017
-22.507439,2.6932259,4.0625143
-22.611204,2.7066472,4.0543365
-22.728226,2.7264378,4.0533395
-22.828026,2.7393317,4.0456753
-22.935951,2.7564037,4.0429254
-23.045214,2.7747107,4.042026
-23.15745,2.7950196,4.043811
-23.263483,2.8131752,4.0438256
-23.343544,2.8199623,4.032032
-23.455536,2.8420725,4.0373077
-23.539228,2.8515553,4.029289
-23.665966,2.8819811,4.044724
-23.728725,2.8825326,4.0276947
-23.831894,2.9029639,4.033058
-23.904835,2.909255,4.023088
-24.000084,2.926958,4.026264
-24.103754,2.9494667,4.035304
-24.168797,2.9532008,4.023518
-24.27648,2.978953,4.0371027
-24.320599,2.9728003,4.0146503
-24.432245,3.0017958,4.0327845
-24.505836,3.0116696,4.0293403
-24.555885,3.0095263,4.012266
-24.62835,3.0195441,4.009549
-24.736755,3.049364,4.0302987
-24.794018,3.0521603,4.0197935
-24.85194,3.0556016,4.010272
-24.943869,3.078205,4.0236588
-24.98856,3.0750053,4.0067797
-25.058773,3.0864034,4.0074697
-25.161572,3.1168628,4.031261
-25.190239,3.1053622,4.005084
-25.256,3.1154604,4.0050254
-25.345762,3.1400924,4.0228095
-25.39191,3.1395013,4.0103464
-25.429302,3.1338487,3.991876
-25.529596,3.1664147,4.020236
-25.563147,3.1589718,3.9999573
-25.627493,3.170622,4.0032635
-25.68944,3.1812038,4.005496
-25.752546,3.1929257,4.0093737
-25.78662,3.1865761,3.9910498
-25.865385,3.2090592,4.008731
-25.920113,3.2165568,4.0080056
-25.975338,3.224721,4.0083094
-26.005718,3.216751,3.9885445
-26.074963,3.2348564,4.001706
-26.118137,3.235859,3.9935246
-26.191446,3.2576883,4.011859
-26.215612,3.2461658,3.9881186
-26.275719,3.2596915,3.9963207
-26.311832,3.2567365,3.9837005
-26.389112,3.283269,4.0089197
-26.424309,3.2801876,3.99644
-26.467249,3.282854,3.9914522
-26.50945,3.285203,3.9861898
-26.56807,3.299994,3.9971347
-26.60429,3.2984133,3.9870806
-26.66427,3.3150415,4.000766
-26.697796,3.3118489,3.9888737
-26.738735,3.3145127,3.984708
-26.793642,3.3283782,3.9953034
-26.83488,3.3318458,3.9924664
-26.882027,3.3402977,3.9962943
-26.927767,3.3479538,3.9992247
-26.967978,3.3513942,3.9967446
-27.005138,3.3525324,3.9913414
-27.045149,3.3562443,3.9894493
-27.079262,3.3551803,3.9813426
-27.094444,3.3379555,3.9518666
-27.13322,3.3410149,3.9493876
-27.154434,3.328833,3.926703
-27.2099,3.3470306,3.9446208
-27.235086,3.3385117,3.9269779
-27.265884,3.3350565,3.9161723
-27.296711,3.3316917,3.9055629
-27.339401,3.3394823,3.9100294
-27.380295,3.3459115,3.9127853
-27.437914,3.368666,3.937683
-27.443272,3.3414469,3.895235
-27.489004,3.3533366,3.9056888
-27.518568,3.349591,3.8950818
-27.552734,3.3505282,3.890901
-27.61848,3.3838508,3.9308426
-27.631828,3.3640246,3.8986251
-27.677996,3.3781834,3.9127553
-27.701944,3.3692842,3.8955312
-27.727001,3.3614743,3.8798413
-27.763126,3.365655,3.880621
-27.808073,3.379829,3.8951988
-27.853624,3.3952074,3.91156
-27.880886,3.3903847,3.9002745
-27.914122,3.392439,3.898515
-27.950874,3.3987918,3.902763
-27.979918,3.3963287,3.8949375
-28.003716,3.3876247,3.8785505
-27.97439,3.314034,3.7724266
-27.944408,3.2375813,3.6621666
-27.948479,3.2017293,3.6080432
-27.950336,3.1621082,3.548647
-27.956268,3.126683,3.4950342
-27.956812,3.083214,3.4301944
-27.94461,3.021504,3.3398886
-27.915892,2.9355621,3.215682
-27.927834,2.9030397,3.1658778
