x,y,z
-32.31083,2.5363977,3.0495667
-32.344097,2.5419934,3.061699
-32.375793,2.549962,3.07694
-32.407356,2.5580091,3.0923486
-32.451073,2.547891,3.0846758
-32.501625,2.5282388,3.064993
-32.542324,2.5235317,3.0644665
-32.578735,2.5251863,3.0721292
-32.62407,2.5144901,3.0642219
-32.65073,2.5299306,3.0895476
-32.695446,2.5206106,3.0836053
-32.734886,2.5187523,3.0872183
-32.774815,2.5164502,3.0903783
-32.81439,2.5148284,3.0945053
-32.85928,2.506612,3.090445
-32.903027,2.5002167,3.0888057
-32.944683,2.4967468,3.0909615
-32.991432,2.4872894,3.0857415
-33.035633,2.481317,3.085019
-33.07673,2.4793622,3.0894413
-33.121655,2.4731135,3.0886307
-33.16483,2.4692168,3.090879
-33.209072,2.4643557,3.0920568
-33.25538,2.457442,3.0908222
-33.29891,2.4539666,3.0939856
-33.34452,2.4484441,3.0947495
-33.39378,2.4392555,3.0911298
-33.44375,2.4296925,3.087206
-33.49189,2.4224699,3.0863214
-33.53865,2.4170325,3.0877776
-33.588154,2.4090512,3.0862675
-33.636265,2.4028544,3.0870962
-33.702602,2.37856,3.0660076
-33.91111,2.2131045,2.8733554
-33.96078,2.208389,2.8768873
-34.012768,2.2017076,2.8781943
-34.067123,2.1930778,2.877315
-34.12001,2.1862278,2.8787646
-34.169132,2.1832597,2.885067
-34.217213,2.181508,2.8929863
-34.272793,2.17308,2.893054
-34.280178,2.2088828,2.9462266
-34.31831,2.2164052,2.965592
-34.39324,2.1911952,2.9460864
-35.695133,1.0867977,1.6448641
-35.744057,1.0974779,1.6715865
-35.782036,1.1175947,1.7095985
-35.759827,1.1887884,1.8079195
-35.68153,1.3059745,1.9601059
-35.72458,1.3197315,1.9904437
-35.823734,1.287154,1.9666805
-35.796986,1.3582678,2.0643167
-35.82363,1.385006,2.1100626
-35.855537,1.4072235,2.1505928
-35.910667,1.4108512,2.1696668
-35.199654,2.014417,2.8812127
-35.24872,2.0169256,2.8973503
-35.331608,1.9936478,2.8840704
-35.388752,1.990598,2.894271
-35.476334,1.9649522,2.878913
-35.537853,1.9594228,2.886794
-35.60553,1.9496882,2.8901424
-35.679474,1.9357965,2.889061
-35.74558,1.9280579,2.8952084
-35.821404,1.9137499,2.8942442
-35.895466,1.9011965,2.8955555
-35.987038,1.8768444,2.8840241
-36.04853,1.874068,2.896854
-27.895645,1.3796554,1.4228797
-27.949419,1.3913703,1.433362
-28.031136,1.463228,1.5230284
-28.070118,1.4455953,1.4952402
-28.116764,1.4443939,1.4891543
-28.336264,1.6318884,1.72363
-28.640638,2.2681274,2.5596218
-28.710283,2.347052,2.6606336
-28.758099,2.3739488,2.6930943
-28.80137,2.3904133,2.7118855
-28.847315,2.4152486,2.7418652
-28.887081,2.4243197,2.7510905
-28.93236,2.4500163,2.7824411
-28.975327,2.4705424,2.807055
-29.014408,2.4805648,2.8178468
-29.05588,2.498976,2.8398643
-29.09336,2.5056763,2.8464355
-29.129646,2.5089266,2.8485107
-29.165512,2.5110898,2.8492227
-29.203114,2.519872,2.8588166
-29.238327,2.5204496,2.857583
-29.275932,2.5306215,2.8691955
-29.31071,2.5302024,2.8667946
-29.345903,2.5316577,2.8669662
-29.383184,2.5427232,2.8800197
-29.417816,2.5425825,2.8782234
-29.451107,2.5359805,2.867886
-29.485786,2.536016,2.8664722
-29.521002,2.539123,2.8692298
-29.556147,2.5423222,2.8721876
-29.591703,2.548597,2.8793297
-29.626854,2.553176,2.8842854
-29.661818,2.5572503,2.8886428
-29.695341,2.5512605,2.8796349
-29.728539,2.5417693,2.8660183
-29.76347,2.5461109,2.8709545
-29.797817,2.5457592,2.8696957
-29.832054,2.5443006,2.8670301
-29.867304,2.5548935,2.8805504
-29.89999,2.5332694,2.851068
-29.93453,2.534466,2.8521714
-29.969166,2.538146,2.85667
-30.003344,2.532937,2.8493533
-30.037857,2.5349991,2.8518353
-30.072258,2.5341568,2.8505058
-30.106668,2.5328033,2.848566
-30.141104,2.5321376,2.84762
-30.175552,2.5315602,2.8468652
-30.209991,2.532269,2.8479047
-30.24445,2.5318685,2.8475337
-30.278734,2.5363462,2.8537617
-30.313017,2.5391154,2.8577766
-30.347452,2.5383813,2.8571796
-30.382147,2.534146,2.8519745
-30.416605,2.5341885,2.8525643
-30.450853,2.5367122,2.856544
-30.485405,2.5357356,2.8559184
-30.519787,2.5366414,2.8578825
-30.554226,2.5370386,2.8592405
-30.588966,2.535134,2.8575969
-30.623917,2.5321252,2.8545547
-30.658756,2.5304017,2.853304
-30.693445,2.5299633,2.8538451
-30.72805,2.5302107,2.8553758
-30.762552,2.5311441,2.8578973
-30.797043,2.532166,2.860611
-30.832466,2.5285115,2.857161
-30.867723,2.5261414,2.855503
-30.903036,2.5238647,2.8540478
-30.937315,2.5264392,2.8591318
-30.97141,2.5296953,2.8651972
-31.006191,2.5300682,2.8674974
-31.041437,2.5287504,2.8676248
-31.0764,2.5287125,2.8695307
-31.112371,2.525209,2.8669071
-31.147738,2.5241723,2.867642
-31.182781,2.5244124,2.8701525
-31.217651,2.525336,2.8736467
-31.25403,2.5216234,2.871066
-31.289717,2.5203712,2.871832
-31.328861,2.5091841,2.85951
-31.365553,2.5057738,2.857586
-31.401901,2.5036416,2.857438
-31.438528,2.501019,2.8567247
-31.474548,2.50026,2.8585596
-31.511524,2.4972486,2.8575
-31.548574,2.4943392,2.8566613
-31.584734,2.493876,2.859137
-31.622406,2.4899971,2.857192
-31.65916,2.4885628,2.8585572
-31.697,2.4848924,2.8570633
-31.735462,2.4801612,2.8542638
-31.772682,2.4784527,2.8555322
-31.811064,2.4745195,2.8539648
-31.84898,2.471857,2.8541594
-31.886969,2.469301,2.8545842
-31.927088,2.4627929,2.8499217
-31.96616,2.4587185,2.8485456
-32.005028,2.4553344,2.8481693
-32.043365,2.4532163,2.849544
-32.082085,2.4506297,2.8504004
-32.1212,2.4475777,2.8507442
-32.16073,2.4440627,2.8505812
-32.199017,2.4429588,2.8536572
-32.2309,2.4528553,2.8711371
-32.259514,2.4679782,2.8954735
-32.283997,2.489446,2.9280958
-32.282085,2.5526052,3.0148149
-32.311165,2.5649633,3.035643
-32.344067,2.571129,3.048514
-32.378742,2.574539,3.0578957
-32.416027,2.5740733,3.0623565
-32.45258,2.574847,3.0685086
-32.490704,2.5734632,3.0719733
-32.531647,2.568244,3.070602
-32.571117,2.565402,3.0723948
-32.607834,2.5666103,3.0794897
-32.65278,2.5567071,3.0724387
-32.692116,2.5547862,3.0757318
-32.734047,2.5496306,3.0749965
-32.77697,2.5434916,3.073121
-32.820473,2.5369313,3.0708308
-32.8615,2.5338414,3.073083
-32.90484,2.528107,3.0720854
-32.948772,2.5219564,3.070685
-32.990578,2.5187068,3.0730858
-33.032486,2.5155866,3.0757685
-33.077736,2.5087504,3.073874
-33.11986,2.5058994,3.0771403
-33.16207,2.5031803,3.0806928
-33.204853,2.500047,3.0838432
-33.252098,2.4921467,3.0811343
-33.298058,2.4860344,3.0808105
-33.343674,2.4806154,3.081493
-33.392433,2.4721012,3.0784469
-33.442913,2.462134,3.073741
-33.490547,2.4555705,3.073433
-33.537308,2.4502392,3.0748029
-33.587856,2.441315,3.0718617
-33.634926,2.4363043,3.073926
-33.69117,2.4223917,3.065143
-33.89973,2.258286,2.8714342
-33.954193,2.2488854,2.8689523
-34.00559,2.2428465,2.8707771
-34.05769,2.2364557,2.872334
-34.108837,2.2312942,2.8755622
-34.164055,2.2226348,2.87469
-34.208702,2.224106,2.886331
-34.263657,2.21633,2.8868742
-34.285934,2.2383862,2.923757
-34.307255,2.2609847,2.961319
-35.126694,1.5794513,2.1494412
-35.67333,1.1510372,1.6462021
-35.726852,1.1575792,1.6678448
-35.72565,1.2109122,1.7456894
-35.738655,1.2513518,1.8080101
-35.705826,1.329433,1.9151502
-35.726326,1.3620441,1.9679551
-35.782196,1.3652935,1.985939
-35.8443,1.3636754,1.9983435
-35.85997,1.3994865,2.0551047
-35.9067,1.4102037,2.0823178
-35.93543,1.4350445,2.126233
-35.1667,2.0780025,2.8932571
-35.20584,2.0879622,2.9178348
-35.31128,2.0475695,2.8839579
-35.399128,2.0214353,2.867074
-35.451183,2.0226867,2.882218
-35.51987,2.011873,2.8836336
-35.592815,1.9983938,2.8822546
-35.662003,1.9881158,2.884832
-35.73684,1.974227,2.8835588
-35.79969,1.9693205,2.8928103
-35.864735,1.9632034,2.9009285
-35.963078,1.9343281,2.8835692
-36.027233,1.9297383,2.8940053
-27.83648,1.3964541,1.3722353
-27.900948,1.4285944,1.4100175
-27.967821,1.4672933,1.4567051
-28.067585,1.5772641,1.5984654
-28.075544,1.4944766,1.4837408
-28.161755,1.5806823,1.5942755
-28.60926,2.3141098,2.5618892
-28.649473,2.3189216,2.5650692
-28.725737,2.414081,2.6892176
-28.766853,2.4244523,2.7001052
-28.809958,2.440777,2.7190647
-28.854874,2.4630706,2.746132
-28.897642,2.4808273,2.767231
-28.94024,2.4992986,2.7893944
-28.9769,2.5015035,2.7898254
-29.019073,2.5208015,2.8132987
-29.061214,2.5413992,2.8386226
-29.098593,2.5480366,2.8452802
-29.1346,2.5506656,2.8466306
-29.170708,2.5539794,2.84898
-29.207386,2.5597427,2.8547087
-29.24503,2.5697267,2.8662057
-29.281101,2.5745146,2.8707857
-29.315613,2.5735047,2.8676286
-29.351246,2.5773022,2.8710299
-29.387985,2.5865068,2.8818026
-29.422495,2.5863643,2.8800426
-29.45651,2.5839474,2.8752866
-29.490797,2.5828006,2.872316
-29.525312,2.5829246,2.8711357
-29.56188,2.5949721,2.8861394
-29.597515,2.6029756,2.8957582
-29.63088,2.5974545,2.8871708
-29.664948,2.5961637,2.8843727
-29.699743,2.600295,2.888979
-29.73357,2.5974033,2.8841596
-29.766642,2.5874815,2.8698983
-29.800703,2.585354,2.866252
-29.834969,2.5850937,2.8652039
-29.871355,2.6104403,2.898892
-29.902935,2.577121,2.8532352
-29.937534,2.5812795,2.8583846
-29.971735,2.5795903,2.8556886
-30.00599,2.5785825,2.8539863
-30.040243,2.5770686,2.8516707
-30.074577,2.5780187,2.8527637
-30.108847,2.5754926,2.8492217
-30.143173,2.576025,2.8498917
-30.177486,2.5766459,2.8507543
-30.211798,2.5767603,2.8510027
-30.24609,2.5775573,2.8522472
-30.280573,2.5730972,2.8464441
-30.314886,2.5740707,2.8480716
-30.349112,2.5763197,2.8514977
-30.383295,2.578657,2.855114
-30.417574,2.5793004,2.8565092
-30.452053,2.577658,2.8548822
-30.48645,2.5772917,2.8550558
-30.520666,2.578794,2.8578281
-30.555069,2.5786042,2.8583846
-30.59017,2.5731692,2.8519173
-30.62456,2.573752,2.8536644
-30.659119,2.573239,2.854002
-30.693317,2.5751832,2.8577347
-30.72819,2.5730727,2.856059
-30.76343,2.5692787,2.8521829
-30.798191,2.568534,2.8525023
-30.832623,2.5696533,2.855411
-30.866789,2.572042,2.860108
-30.9017,2.5709765,2.8602147
-30.936779,2.5694127,2.8597236
-30.97247,2.5655823,2.8562527
-31.008543,2.5606694,2.8514004
-31.042723,2.5635083,2.8570728
-31.077017,2.5658464,2.8621426
-31.11277,2.5629807,2.8602786
-31.148596,2.5602107,2.8586235
-31.183777,2.5598848,2.8603344
-31.218979,2.5596519,2.8622465
-31.25477,2.5577538,2.8619976
-31.291786,2.552437,2.8572369
-31.327515,2.551319,2.8581963
-31.36245,2.5526354,2.8625002
-31.399296,2.548785,2.8599534
-31.43711,2.542703,2.8544993
-31.474392,2.5384755,2.8516183
-31.511774,2.5343518,2.8489609
-31.548073,2.533241,2.85042
-31.584896,2.5310662,2.8505373
-31.622032,2.5284116,2.8500986
-31.65924,2.5258594,2.8498826
-31.695219,2.5263066,2.8537526
-31.73174,2.5256927,2.856289
-31.768024,2.5257568,2.8598108
-31.804882,2.5247643,2.8620095
-31.842064,2.5232966,2.8636603
-31.879875,2.5207798,2.864005
-31.917759,2.5183697,2.8645802
-31.957516,2.5126204,2.8608155
-31.996492,2.5087085,2.8595834
-32.034634,2.506626,2.860869
-32.072845,2.504651,2.8623877
-32.112732,2.4999294,2.8603678
-32.15208,2.4964647,2.8601065
-32.190857,2.4942527,2.8615942
-32.22596,2.4984047,2.871563
-32.254444,2.5134327,2.8959289
-32.279144,2.534185,2.9278731
-32.280975,2.5906208,3.006731
-32.314705,2.5955749,3.0179558
-32.348732,2.6000526,3.0286312
-32.378216,2.611375,3.0483475
-32.416225,2.6098382,3.0512981
-32.45352,2.6095335,3.055954
-32.491245,2.6087756,3.060111
-32.530598,2.6058903,3.0615897
-32.570835,2.602007,3.0618706
-32.61118,2.5982451,3.0624151
-32.649982,2.5968297,3.066115
-32.69093,2.5927553,3.0664635
-32.730293,2.591021,3.0699549
-32.768867,2.5905106,3.0751305
-32.812256,2.5840452,3.0727143
-32.853607,2.5804713,3.0741496
-32.895947,2.5759265,3.0744462
-32.93571,2.5748036,3.0792623
-32.9769,2.572159,3.0822296
-33.01955,2.5680044,3.083372
-33.064644,2.561261,3.0813189
-33.10849,2.5562959,3.0816708
-33.1539,2.549844,3.0802503
-33.199947,2.5430002,3.0784621
-33.2447,2.5379272,3.079064
-33.289593,2.5329995,3.0799818
-33.334118,2.5287557,3.0818963
-33.380264,2.523047,3.082088
-33.427574,2.516422,3.0812578
-33.476078,2.5088885,3.0794253
-33.522686,2.5036478,3.0806298
-33.57362,2.4943166,3.0768323
-33.618435,2.4915128,3.081388
-33.6724,2.4798799,3.0750175
-33.88265,2.3157425,2.878169
-33.936413,2.3069992,2.8761296
-33.9871,2.3015852,2.8784099
-34.041245,2.2932093,2.8771672
-34.09336,2.2871053,2.8789177
-34.147324,2.2796218,2.8791275
-34.201466,2.2723267,2.8797445
-34.26553,2.2564392,2.8699493
-34.271603,2.292814,2.9246473
-34.300915,2.3080723,2.9533806
-35.131466,1.6244037,2.126522
-35.165653,1.6428742,2.161252
-35.683506,1.248585,1.6930647
-35.705322,1.2816398,1.7468486
-35.732033,1.3101387,1.7951035
-35.727726,1.3638811,1.8739233
-35.74956,1.3953652,1.9257522
-35.77459,1.4238441,1.9739642
-35.86289,1.4013808,1.9610286
-35.90696,1.4146218,1.9911885
-35.848747,1.507899,2.1170568
-35.938965,1.4845009,2.1035457
-35.115635,2.1621563,2.9231658
-35.204926,2.1336813,2.902029
-35.278477,2.1178205,2.8961596
-35.377975,2.0832121,2.868494
-35.431873,2.0830736,2.8817277
-35.49913,2.073427,2.884015
-35.55924,2.069349,2.8930573
-35.63363,2.055383,2.8908124
-35.708317,2.0417092,2.8892002
-35.77852,2.031673,2.8920922
-35.842075,2.0266669,2.9010568
-35.922363,2.010515,2.8974562
-36.00647,1.9923241,2.89185
-36.084644,1.9787099,2.891818
-27.77494,1.4130895,1.320765
-27.843262,1.4509828,1.3667736
-27.923073,1.5136771,1.4463673
-27.977224,1.5268912,1.4595242
-28.045887,1.5711992,1.5147452
-28.08436,1.553232,1.4861178
-28.16283,1.6220503,1.5747638
-28.301195,1.7277393,1.709549
-28.356834,1.7530026,1.7399101
-28.655191,2.3644347,2.5641851
-28.729048,2.4530199,2.6811342
-28.77057,2.4644408,2.6936908
-28.815836,2.4863975,2.7206388
-28.860203,2.5073364,2.7463202
-28.903706,2.5272536,2.7707238
-28.942085,2.5339582,2.7772799
-28.98785,2.562838,2.8140736
-29.025503,2.5691953,2.8203454
-29.066183,2.5855453,2.8403025
-29.10326,2.591537,2.8462505
-29.139153,2.5941346,2.8476577
-29.174974,2.5968285,2.8492732
-29.21024,2.597868,2.8487096
-29.24798,2.608343,2.861092
-29.28519,2.6177542,2.8721085
-29.319729,2.6173298,2.8697796
-29.353289,2.6128995,2.862052
-29.389725,2.6208477,2.8713036
-29.426748,2.63241,2.8855739
-29.462555,2.6393857,2.8936563
-29.494637,2.6282809,2.8770914
-29.529882,2.6330936,2.8823614
-29.56585,2.6426947,2.894258
-29.600733,2.6471083,2.8991337
-29.63305,2.635755,2.8824978
-29.66824,2.642697,2.8909764
-29.702723,2.6456175,2.8940225
-29.73545,2.6351027,2.8787365
-29.768791,2.6281989,2.8684626
-29.803001,2.6284401,2.8680463
-29.838032,2.6375973,2.87992
-29.872328,2.6403716,2.8831177
-29.90422,2.6114392,2.8429227
-29.938604,2.6126187,2.84407
-29.972864,2.6121194,2.8429885
-30.00703,2.6093519,2.8388662
-30.04131,2.6084392,2.837357
-30.075668,2.6105607,2.8400788
-30.10994,2.6092355,2.8381448
-30.144238,2.6079981,2.836401
-30.178549,2.6080275,2.8364644
-30.212837,2.609323,2.8383346
-30.247084,2.6112964,2.8412037
-30.281425,2.6098225,2.8394175
-30.3158,2.6084368,2.837822
-30.349995,2.6106741,2.8412642
-30.384268,2.6112323,2.8424745
-30.418627,2.6107006,2.8422604
-30.453106,2.6090806,2.8406258
-30.487385,2.6099036,2.84241
-30.521847,2.6090498,2.8419676
-30.55626,2.6088731,2.8425236
-30.590527,2.609961,2.844882
-30.624779,2.6111374,2.8474326
-30.659277,2.610639,2.8477597
-30.69427,2.6072936,2.844263
-30.72873,2.6075623,2.8457847
-30.763727,2.6049864,2.8434854
-30.798784,2.6025023,2.8413858
-30.83331,2.603041,2.8434935
-30.867455,2.6054268,2.8481975
-30.90248,2.6038022,2.8474903
-30.937819,2.601098,2.8453836
-30.973082,2.599073,2.8442798
-31.007505,2.6006474,2.848164
-31.041754,2.6028948,2.853036
-31.077414,2.5999777,2.850937
-31.11248,2.5994892,2.8522243
-31.148775,2.5950124,2.8481526
-31.184282,2.5935469,2.8482614
-31.218363,2.5968308,2.8549109
-31.25524,2.5914805,2.849884
-31.291458,2.5885563,2.8482385
-31.327145,2.587471,2.8491712
-31.362663,2.5870607,2.851099
-31.398846,2.5850072,2.8508716
-31.435966,2.5807364,2.8477154
-31.472513,2.5783029,2.847134
-31.510284,2.5730813,2.842856
-31.547943,2.568543,2.8395886
-31.585468,2.5646863,2.8373299
-31.622099,2.563238,2.8384147
-31.659286,2.5607386,2.8381605
-31.696024,2.5594916,2.8396816
-31.732807,2.5583448,2.8414207
-31.768003,2.5607371,2.8480172
-31.804842,2.559788,2.850184
-31.84257,2.557225,2.8502603
-31.880373,2.5547671,2.850566
-31.917364,2.5541265,2.8534021
-31.955296,2.55188,2.8541646
-31.9936,2.549171,2.854395
-32.0323,2.5460033,2.8540988
-32.07013,2.544647,2.8563232
-32.110603,2.538868,2.852713
-32.15089,2.5337744,2.850119
-32.189964,2.531057,2.850801
-32.22776,2.5307066,2.8547378
-32.255207,2.5473459,2.881424
-32.281647,2.5651612,2.909721
-32.28346,2.6211689,2.9889011
-32.313217,2.632294,3.008329
-32.337624,2.6513143,3.0382996
-32.375896,2.6491647,3.0402117
-32.41234,2.6499128,3.0460591
-32.45111,2.6474266,3.047711
-32.48957,2.6456094,3.050345
-32.528492,2.6433518,3.0524912
-32.569096,2.6389966,3.051969
-32.609005,2.6358695,3.0531707
-32.647766,2.6345165,3.0568094
-32.68826,2.6310782,3.057805
-32.72843,2.6283119,3.0597892
-32.76783,2.626763,3.0634737
-32.809467,2.622599,3.0638342
-32.85254,2.6169271,3.062336
-32.896645,2.6103039,3.059712
-32.936413,2.6092553,3.0644808
-32.9776,2.6067,3.0673914
-33.0198,2.60319,3.0691714
-33.063965,2.597653,3.0684333
-33.108276,2.5922587,3.0680056
-33.152252,2.587545,3.068583
-33.19732,2.5819,3.068081
-33.24351,2.5753326,3.0665183
-33.288883,2.569985,3.0666604
-33.3339,2.565318,3.06781
-33.379547,2.5602667,3.068595
-33.426346,2.5543058,3.0683465
-33.474842,2.546915,3.0664072
-33.520927,2.5423248,3.068191
-33.570282,2.5347314,3.0662818
-33.61665,2.5304532,3.0687442
-33.66581,2.523713,3.0682154
-33.850353,2.386203,2.9019957
-33.935364,2.3473706,2.8614635
-33.981655,2.3462467,2.8688855
-34.032997,2.3406146,2.870759
-34.0884,2.331545,2.868466
-34.14177,2.3247294,2.8691812
-34.192467,2.320665,2.8735137
-34.240993,2.3188179,2.8807778
-34.26416,2.3395796,2.9164028
-34.291058,2.3568096,2.947657
-35.13017,1.6731579,2.1081133
-35.158398,1.6966281,2.1491408
-35.19341,1.714088,2.1827717
-35.713562,1.32653,1.7166619
-35.7397,1.3554139,1.7656727
-35.747,1.3993034,1.8331323
-35.47739,1.6661773,2.1737304
-35.771107,1.4774251,1.9560347
-35.743668,1.5468373,2.054418
-35.812695,1.5395684,2.0593162
-35.944134,1.4843855,2.0063372
-35.964745,1.5154939,2.0582929
-35.11474,2.2061334,2.9059439
-35.196945,2.1834207,2.8909721
-35.271786,2.1668599,2.8837032
-35.3312,2.1621902,2.8909507
-35.428482,2.130292,2.865922
-35.490414,2.124711,2.872602
-35.552498,2.119359,2.879777
-35.61338,2.1151876,2.8885727
-35.68866,2.1012733,2.886104
-35.758083,2.0919116,2.8892798
-35.82773,2.0828156,2.8930326
-35.890663,2.07868,2.9028473
-35.961388,2.0696356,2.9071803
-36.04985,2.0492215,2.8986006
-36.075974,2.0704591,2.9385443
-36.097507,2.0945127,2.9817758
-27.6495,1.4178102,1.2507768
-27.710928,1.4396353,1.2753782
-27.780807,1.4785938,1.3234987
-27.86446,1.5460601,1.4107094
-27.93239,1.5855324,1.4599433
-28.038752,1.7045922,1.6181259
-27.892097,1.3064854,1.0693817
-28.1314,1.7058973,1.6114144
-28.296558,1.7689614,1.6859007
-28.352737,1.7950811,1.7179976
-28.669077,2.4426055,2.6035156
-28.714968,2.4628751,2.6283793
-28.7716,2.5113497,2.6921349
-28.814548,2.5273452,2.7113662
-28.864506,2.56298,2.757732
-28.908237,2.5838463,2.7838907
-28.948452,2.5962234,2.798458
-28.988792,2.6098676,2.814866
-29.025555,2.6138394,2.8180242
-29.065023,2.6265578,2.833332
-29.103127,2.6359289,2.8441086
-29.138393,2.6367466,2.8431554
-29.174303,2.6399693,2.8455997
-29.209316,2.640397,2.8442554
-29.247293,2.6519115,2.858315
-29.284111,2.6600583,2.8678002
-29.319584,2.663671,2.8710904
-29.35469,2.6662195,2.87298
-29.388798,2.664799,2.8694468
-29.424706,2.6715941,2.8773637
-29.461676,2.684294,2.89354
-29.495949,2.6848927,2.8930206
-29.529102,2.679767,2.884633
-29.562868,2.677633,2.8804617
-29.596182,2.6726766,2.8724408
-29.631144,2.6777005,2.878336
-29.666508,2.6863115,2.8892822
-29.701128,2.6909387,2.8947706
-29.735718,2.6962395,2.901266
-29.76972,2.6975505,2.9022908
-29.802948,2.691951,2.8937845
-29.835787,2.6811864,2.878169
-29.870972,2.695592,2.8975902
-29.902721,2.6680744,2.858828
-29.936758,2.6674826,2.857545
-29.970865,2.668146,2.8580742
-30.004778,2.6648102,2.8531137
-30.038815,2.663313,2.8507757
-30.072918,2.663655,2.8510633
-30.106985,2.661749,2.8482938
-30.141094,2.662266,2.8489609
-30.175215,2.6599517,2.8457594
-30.209288,2.6629794,2.8500528
-30.24333,2.664927,2.852913
-30.277424,2.664627,2.852717
-30.311525,2.6644151,2.8527107
-30.345842,2.6607876,2.8480268
-30.37999,2.6607506,2.848402
-30.413813,2.6648872,2.8546433
-30.447767,2.6667757,2.857829
-30.481861,2.6670008,2.8587718
-30.516214,2.6649828,2.856668
-30.550331,2.6653843,2.8579936
-30.584213,2.6676223,2.8619366
-30.618635,2.6658695,2.8604074
-30.653189,2.6636238,2.858265
-30.687796,2.6614685,2.8563185
-30.722454,2.6594036,2.8545675
-30.756735,2.6597555,2.8562388
-30.79113,2.6596146,2.857296
-30.825655,2.658982,2.8577428
-30.859953,2.659601,2.8599935
-30.895035,2.656827,2.857613
-30.930182,2.6541452,2.855435
-30.964968,2.653296,2.8558645
-30.999931,2.651959,2.8556914
-31.034006,2.654187,2.8605223
-31.06853,2.6547673,2.8631434
-31.103886,2.6525471,2.8619652
-31.140165,2.647534,2.8570027
-31.175312,2.6466594,2.857832
-31.20957,2.6487617,2.8628445
-31.24513,2.6469188,2.862483
-31.281528,2.6428688,2.8591552
-31.317825,2.6394935,2.856835
-31.353167,2.6390908,2.8586874
-31.388962,2.6376333,2.8591633
-31.425463,2.6345525,2.8574805
-31.46227,2.6309981,2.855227
-31.49894,2.628118,2.853981
-31.535448,2.6259105,2.8537383
-31.571293,2.6255167,2.8560648
-31.606916,2.6257899,2.859383
-31.643064,2.6250188,2.8613458
-31.681593,2.6192226,2.856503
-31.717867,2.6186543,2.8589058
-31.754717,2.6170487,2.8599682
-31.791344,2.6161122,2.8620267
-31.826597,2.618108,2.8681717
-31.863857,2.6162376,2.8691144
-31.904133,2.6088226,2.862578
-31.94428,2.6020908,2.85707
-31.982445,2.5994217,2.8571897
-32.01944,2.599111,2.8606062
-32.058376,2.595533,2.859662
-32.096764,2.5931883,2.860486
-32.135883,2.589833,2.8600273
-32.173424,2.5893884,2.8636055
-32.212025,2.5873725,2.8651414
-32.24619,2.5927155,2.8767262
-32.266544,2.6198542,2.9178476
-32.287457,2.6453424,2.9567533
-32.305706,2.674179,3.0001936
-32.33336,2.688069,3.0234938
-32.367504,2.6920638,3.0335178
-32.40426,2.6922858,3.0385432
-32.443356,2.6893065,3.0393524
-32.48215,2.6869931,3.041153
-32.518642,2.6880882,3.047617
-32.557156,2.6865473,3.0506363
-32.597366,2.6829321,3.0509768
-32.637676,2.679439,3.0515814
-32.680183,2.6733453,3.04882
-32.72073,2.6701045,3.049971
-32.760082,2.6686146,3.0535564
-32.80211,2.6639943,3.0530796
-32.841183,2.6632876,3.0579085
-32.879414,2.6637757,3.0644193
-32.928493,2.651463,3.0540805
-32.96736,2.6516666,3.0604286
-33.010414,2.6471639,3.0606623
-33.053593,2.642798,3.061192
-33.095005,2.640703,3.064828
-33.140797,2.6339476,3.062449
-33.18338,2.6310592,3.0652738
-33.228012,2.626187,3.0656152
-33.274258,2.6198742,3.0641956
-33.318672,2.6158235,3.0658631
-33.365723,2.6092877,3.0644145
-33.411926,2.603958,3.064672
-33.457764,2.5993047,3.0659413
-33.502174,2.5963676,3.069569
-33.5493,2.590971,3.0701375
-33.597637,2.5846949,3.0697055
-33.643463,2.5811708,3.072969
-33.763283,2.5070539,2.985423
-33.90799,2.4113252,2.8705573
-33.95683,2.4076738,2.8744535
-34.005783,2.404185,2.8787022
-34.059322,2.3967736,2.8780808
-34.121517,2.3819084,2.868116
-34.165264,2.384034,2.8799934
-34.224514,2.3726237,2.8747902
-34.256824,2.385158,2.9001503
-34.24633,2.4345176,2.9721847
-35.136604,1.7148473,2.0729122
-35.153637,1.7477293,2.1260319
-35.180264,1.7721131,2.1684484
-35.715347,1.3768158,1.6844082
-35.75367,1.3956356,1.7211242
-35.439575,1.6986859,2.1128411
-35.485706,1.7078981,2.1369042
-35.57898,1.6799276,2.1148796
-35.885185,1.486429,1.8879914
-35.925034,1.5031734,1.9224787
-35.956997,1.5258465,1.9643683
-35.980274,1.5548744,2.0141282
-35.985012,1.5974338,2.0805054
-35.156616,2.2568018,2.90174
-35.20314,2.2610815,2.919197
-35.27926,2.2440083,2.9108038
-35.377617,2.211525,2.8839936
-35.444607,2.2022314,2.885653
-35.507793,2.196029,2.8912883
-35.575203,2.1872363,2.8940315
-35.64623,2.1763535,2.894518
-35.71477,2.1676164,2.8978376
-35.77801,2.1628675,2.9061704
-35.877445,2.134229,2.886333
-35.93909,2.1314306,2.8975325
-36.032417,2.1081438,2.8847542
-36.074696,2.11872,2.912229
-36.086296,2.149063,2.9630232
-36.11954,2.1652727,2.9972606
-27.646858,1.4499195,1.2231259
-27.718092,1.48943,1.2725391
-27.793543,1.5387108,1.3356237
-27.879929,1.6112654,1.4310427
-27.947884,1.6509967,1.4813776
-28.03941,1.7399039,1.599875
-27.893156,1.3458807,1.0506005
-28.132624,1.7422509,1.5947957
-28.299318,1.8081365,1.6744275
-28.35031,1.8221333,1.6901875
-28.666962,2.4647841,2.5791483
-28.726755,2.5183718,2.6506858
-28.7788,2.5556877,2.6997638
-28.82449,2.5789535,2.7294297
-28.871408,2.6069195,2.7657504
-28.913515,2.623633,2.7865152
-28.954027,2.6370494,2.802784
-28.990067,2.6385894,2.802586
-29.033966,2.663666,2.8352938
-29.069658,2.6654189,2.835559
-29.10584,2.668986,2.8384295
-29.141405,2.6709316,2.8391109
-29.177252,2.674119,2.841601
-29.21318,2.6779766,2.8451028
-29.250114,2.6859522,2.8544374
-29.286413,2.692305,2.8615808
-29.322857,2.6999075,2.8705482
-29.356758,2.6978254,2.866034
-29.390688,2.6958306,2.8617086
-29.426178,2.7008374,2.86726
-29.46216,2.708822,2.8770561
-29.498196,2.7180583,2.888682
-29.531727,2.7152724,2.8835254
-29.564993,2.7108393,2.8761258
-29.599415,2.712846,2.8778234
-29.632963,2.7097406,2.872417
-29.667593,2.713659,2.876933
-29.702848,2.7228727,2.8889542
-29.736948,2.7246597,2.8906178
-29.771072,2.7271142,2.8932867
-29.804152,2.7203946,2.8831377
-29.83703,2.7102847,2.8682904
-29.872692,2.7303746,2.8959346
-29.903881,2.6966848,2.8480873
-29.93783,2.6949372,2.845183
-29.97203,2.697333,2.848167
-30.00605,2.6969197,2.8472705
-30.040016,2.6948547,2.844119
-30.073984,2.6911376,2.8387132
-30.108107,2.6938844,2.8424582
-30.14217,2.6961396,2.8455787
-30.176218,2.6944237,2.8431854
-30.210281,2.6939554,2.8426123
-30.244318,2.6947336,2.8438573
-30.278318,2.6961787,2.846107
-30.312347,2.6965525,2.8469172
-30.346403,2.696434,2.8471017
-30.380466,2.696403,2.847477
-30.414484,2.697039,2.8488555
-30.44865,2.6960251,2.8479838
-30.482903,2.6945202,2.84649
-30.517319,2.6919467,2.8435621
-30.551437,2.6923563,2.8448915
-30.585787,2.6911173,2.8439746
-30.619751,2.6928596,2.8473096
-30.65413,2.6917982,2.846777
-30.688349,2.6919818,2.8480597
-30.722471,2.6928318,2.8503432
-30.757011,2.6914606,2.8495803
-30.791475,2.6907556,2.8498216
-30.826082,2.6895645,2.8494496
-30.86085,2.687888,2.848466
-30.895004,2.689182,2.8517141
-30.92942,2.689413,2.8535419
-30.96427,2.6880083,2.853148
-30.998713,2.6884193,2.8553653
-31.03378,2.6866221,2.8545628
-31.068575,2.6860662,2.855568
-31.10323,2.6861756,2.8575735
-31.139793,2.6800694,2.850965
-31.174713,2.6797922,2.8525748
-31.209837,2.679035,2.8535857
-31.245945,2.6755116,2.850809
-31.281946,2.6726577,2.8490415
-31.31701,2.6727552,2.8514647
-31.352922,2.670665,2.8509111
-31.388897,2.6686716,2.8505678
-31.42603,2.6639297,2.8464751
-31.4626,2.6609967,2.8449793
-31.498093,2.661005,2.84765
-31.53503,2.6577027,2.8457952
-31.570595,2.6579046,2.8488855
-31.607174,2.6559365,2.8490396
-31.64458,2.6523726,2.8470583
-31.681038,2.6511729,2.8484359
-31.718876,2.6472511,2.8461223
-31.753548,2.6502,2.8533998
-31.790407,2.6487358,2.8546462
-31.827606,2.6468115,2.8553371
-31.866028,2.642745,2.8531518
-31.902489,2.6427143,2.8566208
-31.94018,2.6405423,2.8572178
-31.977942,2.638478,2.8580456
-32.017338,2.6337278,2.8552628
-32.055264,2.63188,2.8565612
-32.095524,2.626243,2.8527393
-32.136257,2.6201706,2.8484144
-32.175465,2.616994,2.8481574
-32.214767,2.6139314,2.8481493
-32.25104,2.615962,2.855204
-32.262985,2.6562018,2.9146
-32.29025,2.6716008,2.9400306
-32.31105,2.696411,2.9783497
-32.34135,2.7064037,2.996479
-32.3756,2.7104323,3.0065393
-32.41284,2.71017,3.0108342
-32.449352,2.7111082,3.0168467
-32.48783,2.7094202,3.0193772
-32.525978,2.7083907,3.022891
-32.564182,2.7074723,3.0266466
-32.60407,2.7044954,3.027708
-32.644463,2.7010972,3.0282974
-32.683285,2.6999834,3.032073
-32.72386,2.6968284,3.0331883
-32.773563,2.682493,3.019349
-32.8101,2.6849809,3.0282793
-32.84838,2.6854267,3.0345516
-32.888474,2.6838462,3.038198
-32.926834,2.6845212,3.0449662
-32.967957,2.6821136,3.0477037
-33.011013,2.6777077,3.047876
-33.05466,2.672908,3.047638
-33.09561,2.6714225,3.0519319
-33.137585,2.6690075,3.0550961
-33.183994,2.6619852,3.052248
-33.23254,2.6530156,3.0469475
-33.276367,2.649452,3.0489464
-33.319305,2.6470742,3.0526333
-33.365864,2.6411827,3.051795
-33.41054,2.637526,3.0540347
-33.454304,2.6350524,3.0579548
-33.50284,2.6280615,3.0560598
-33.552597,2.620203,3.0531697
-33.600437,2.6145759,3.0533462
-33.645226,2.61219,3.0578995
-33.755962,2.54748,2.981257
-33.909428,2.4444473,2.855122
-33.95498,2.443968,2.8629236
-34.003365,2.441095,2.8677468
-34.057453,2.4333181,2.8663583
-34.114,2.4237108,2.8627691
-34.161667,2.422362,2.8700128
-34.21228,2.4186592,2.874363
-34.280983,2.3996115,2.8591466
-34.301014,2.422748,2.8982587
-34.302975,2.460824,2.9564996
-34.370182,2.4437635,2.9442654
-35.17607,1.8172691,2.1557612
-35.46659,1.6256685,1.9238029
-35.546734,1.6084287,1.9142747
-35.458076,1.7266803,2.0765018
-35.492607,1.745256,2.1123562
-35.547386,1.7478447,2.128137
-35.897522,1.5221634,1.8572102
-35.93555,1.5403721,1.8935952
-35.963753,1.5658939,1.9392042
-35.98256,1.5981727,1.9932761
-35.965317,1.6567571,2.0800667
-35.167057,2.287332,2.8765326
-35.159332,2.331154,2.942812
-35.270767,2.2886765,2.9024377
-35.36382,2.260366,2.8799582
-35.44009,2.2446668,2.8733282
-35.501247,2.2400417,2.8805418
-35.560516,2.2370408,2.8899508
-35.628075,2.228677,2.8930364
-35.697895,2.219182,2.8949962
-35.764496,2.212263,2.9003296
-35.838226,2.2010014,2.9006696
-35.90384,2.1955228,2.9082417
-35.9956,2.1734214,2.8961315
-36.087822,2.1517022,2.88485
-27.575901,1.4551709,1.1533499
-27.660398,1.5161917,1.2334194
-27.726868,1.5470173,1.2715678
-27.826069,1.6402769,1.3971319
-27.892874,1.6760788,1.4426455
-27.939396,1.6742349,1.4356499
-28.049992,1.799669,1.6069984
-27.903364,1.409025,1.055438
-28.133392,1.7823887,1.5746698
-28.106771,1.6283572,1.3545895
-28.246506,1.8288543,1.6321721
-28.298384,1.8436575,1.649282
-28.628536,2.4945288,2.5608292
-28.676477,2.5182214,2.5912209
-28.736559,2.5724695,2.66474
-28.782686,2.5953712,2.6942725
-28.835217,2.635908,2.7487664
-28.874306,2.6438682,2.7574635
-28.916792,2.6615505,2.7799587
-28.958477,2.6782286,2.801136
-28.996212,2.6848392,2.808189
-29.035913,2.6977894,2.8242798
-29.072704,2.7029128,2.8293939
-29.109007,2.707002,2.8331218
-29.145031,2.7106216,2.8362603
-29.18164,2.7166133,2.8428283
-29.21811,2.7227056,2.849616
-29.25207,2.7203543,2.8445177
-29.288792,2.728349,2.854146
-29.324604,2.733594,2.8599515
-29.358337,2.7309458,2.8546376
-29.395054,2.740947,2.8673306
-29.429886,2.7436209,2.8697028
-29.464773,2.7469594,2.8730884
-29.50085,2.7566814,2.8856049
-29.535286,2.759063,2.8877702
-29.568726,2.7563813,2.8828125
-29.602507,2.7555032,2.8804812
-29.636112,2.7535667,2.8767104
-29.669834,2.7522895,2.8739405
-29.70453,2.757981,2.8811436
-29.738731,2.7608957,2.8844657
-29.77239,2.7598817,2.8822675
-29.805693,2.7555103,2.8753586
-29.83886,2.7489266,2.8653655
-29.874239,2.7665496,2.8898735
-29.90537,2.7331398,2.8418407
-29.939709,2.7383006,2.8487482
-29.973621,2.7378035,2.8476706
-30.00754,2.737394,2.8467827
-30.041443,2.7364964,2.8452654
-30.075352,2.7351122,2.8431191
-30.109293,2.7343886,2.841979
-30.143246,2.732603,2.8393922
-30.1772,2.7349293,2.842723
-30.211184,2.7333176,2.8405137
-30.245232,2.730645,2.8368587
-30.279156,2.7326574,2.8399382
-30.31298,2.7359061,2.844841
-30.347017,2.7346451,2.843391
-30.381289,2.7305984,2.8380432
-30.415272,2.731237,2.839427
-30.449192,2.7325366,2.841817
-30.483383,2.7310529,2.840312
-30.517416,2.731379,2.8414478
-30.551802,2.7289238,2.838694
-30.585629,2.7311473,2.842658
-30.61983,2.7305906,2.8427353
-30.654139,2.729549,2.8421893
-30.688572,2.7280238,2.8410225
-30.72264,2.7288783,2.8433046
-30.756592,2.7303936,2.84659
-30.790974,2.7297075,2.846815
-30.825855,2.7268236,2.8439875
-30.860558,2.7251747,2.8429818
-30.89491,2.7253313,2.8446045
-30.929272,2.7255766,2.8464212
-30.963783,2.7253408,2.8476233
-30.99846,2.724625,2.8482113
-31.032547,2.7262795,2.8522267
-31.067253,2.7257447,2.853208
-31.102654,2.7230256,2.8511653
-31.136915,2.7243805,2.8549595
-31.172953,2.7201438,2.850912
-31.207983,2.7194111,2.8518925
-31.242666,2.7199054,2.8546767
-31.27932,2.7148254,2.849656
-31.315691,2.7109787,2.8464537
-31.350702,2.7111905,2.8490534
-31.38637,2.7098,2.849464
-31.422747,2.7068124,2.8476963
-31.4583,2.7061796,2.8493214
-31.49435,2.7045164,2.8495684
-31.530455,2.7029512,2.8500276
-31.566856,2.7009223,2.8499098
-31.60382,2.69787,2.8484306
-31.641382,2.6937993,2.8455987
-31.678528,2.6909547,2.8445687
-31.714954,2.6898923,2.846119
-31.752247,2.6872525,2.8455338
-31.78878,2.6863923,2.8475213
-31.825926,2.6845174,2.848166
-31.862555,2.683859,2.8505921
-31.901293,2.6794112,2.8477988
-31.938946,2.6772954,2.8483486
-31.97636,2.6758394,2.8499022
-32.014145,2.6739357,2.8509116
-32.05359,2.6693752,2.8483028
-32.090565,2.669345,2.85209
-32.127235,2.669968,2.856866
-32.168625,2.6629906,2.8511577
-32.208824,2.658336,2.848772
-32.24672,2.6576385,2.8519702
-32.27513,2.6718297,2.8758883
-32.300774,2.6899047,2.9052305
-32.3319,2.6992943,2.9225917
-32.366936,2.7027662,2.931831
-32.402306,2.7057877,2.9405236
-32.44336,2.7007644,2.9381948
-32.47605,2.7077842,2.952559
-32.513336,2.7083974,2.9581695
-32.532356,2.7339437,2.9981456
-32.570232,2.733644,3.002633
-32.60325,2.739906,3.016211
-32.64942,2.7290819,3.006442
-32.68788,2.7285852,3.010932
-32.729362,2.724461,3.0105524
-32.771393,2.7199318,3.0097237
-32.81181,2.7176626,3.0120826
-32.850105,2.718172,3.0183253
-32.892,2.714554,3.0190434
-32.9322,2.7131817,3.0229187
-32.97338,2.7108762,3.0256267
-33.01465,2.7086985,3.0286107
-33.05787,2.7045465,3.029028
-33.101692,2.7000084,3.029036
-33.145164,2.6961334,3.0300546
-33.18779,2.693441,3.0327802
-33.23149,2.6898427,3.0343966
-33.2758,2.685865,3.0356197
-33.31923,2.6830657,3.0385423
-33.362762,2.6804059,3.0417666
-33.406387,2.677885,3.0452914
-33.45114,2.6744761,3.047748
-33.496525,2.6707,3.049837
-33.543606,2.6655395,3.0502076
-33.58924,2.662066,3.0529528
-33.634457,2.659251,3.056697
-33.723553,2.615508,3.0063815
-33.889935,2.5013397,2.8633127
-33.934208,2.501917,2.8722715
-33.98852,2.493582,2.8696132
-34.03744,2.4904525,2.8739605
-34.088737,2.4854865,2.876038
-34.148735,2.4732182,2.8687043
-34.195793,2.4726026,2.8767886
-34.243496,2.471645,2.88456
-34.31993,2.446634,2.8611588
-34.35031,2.4608424,2.8889685
-34.395336,2.4628413,2.901009
-34.4044,2.4943557,2.9513545
-34.462456,2.4858127,2.9499588
-34.509766,2.486238,2.960299
-34.585964,2.4640303,2.9416928
-34.648422,2.4532435,2.9379997
-35.84212,1.5684531,1.8164101
-35.90477,1.5677733,1.8286371
-35.940937,1.5874014,1.8669124
-35.95832,1.6209333,1.9229174
-35.9732,1.6558704,1.9806848
-35.958397,1.7120845,2.065318
-35.949093,1.7633963,2.1436033
-35.189934,2.3519626,2.8973722
-35.26603,2.3354445,2.8885307
-35.336525,2.32343,2.885603
-35.419334,2.3033183,2.8728228
-35.47903,2.2997599,2.880951
-35.54698,2.290881,2.882677
-35.617886,2.2804222,2.8826933
-35.68424,2.2734456,2.8872623
-35.750786,2.2667205,2.8923764
-35.817513,2.2602487,2.8980389
-35.88582,2.2531252,2.9031448
-35.979637,2.2300289,2.8890333
-36.03786,2.2302332,2.9036045
-21.75205,0.825773,1.1389494
-21.824123,0.8188262,1.110218
-21.870678,0.79616237,1.0623207
-27.522167,1.4922099,1.127142
-27.599556,1.5386934,1.187748
-27.672516,1.5794144,1.2404165
-27.771976,1.6698723,1.3636441
-27.842928,1.7117198,1.4183407
-27.90535,1.7394795,1.4532628
-27.974329,1.7812476,1.5082016
-28.0258,1.7906389,1.5173802
-28.105415,1.8571954,1.6078396
-28.132898,1.8198512,1.5508943
-28.111528,1.6782136,1.3456941
-28.268042,1.9130473,1.6759186
-28.32451,1.938859,1.7091007
-28.63956,2.5506935,2.5771394
-28.680302,2.5580082,2.584715
-28.749723,2.6340888,2.6904387
-28.787323,2.636681,2.6915035
-28.833984,2.662308,2.7255287
-28.872486,2.6684883,2.7318869
-28.916115,2.6887872,2.7585015
-28.96032,2.7120252,2.7894182
-29.000626,2.7258558,2.8069797
-29.037912,2.731938,2.8135386
-29.076551,2.7426229,2.826765
-29.112225,2.7449744,2.8281355
-29.149937,2.754182,2.8394012
-29.18591,2.7584221,2.8436236
-29.22112,2.7605019,2.84482
-29.255798,2.7609816,2.8437886
-29.291513,2.7655087,2.8486328
-29.326971,2.7695656,2.8528738
-29.363028,2.7765472,2.8613834
-29.39852,2.7819285,2.8676667
-29.432352,2.7806072,2.864387
-29.467783,2.7867417,2.871889
-29.503534,2.7952404,2.8828602
-29.537996,2.7981617,2.88588
-29.572073,2.799471,2.8866477
-29.605232,2.7957566,2.8802514
-29.638735,2.7938318,2.876492
-29.672699,2.7948346,2.8770103
-29.706234,2.793083,2.8736258
-29.740385,2.7959673,2.8769803
-29.774132,2.7960958,2.8764305
-29.80762,2.7940345,2.8727903
-29.840923,2.789782,2.866055
-29.875847,2.803268,2.8849397
-29.906998,2.7712786,2.8383636
-29.940996,2.7724075,2.8395667
-29.974873,2.7719138,2.8384967
-30.00883,2.773217,2.8400793
-30.04264,2.7711878,2.8369226
-30.076506,2.7698157,2.834776
-30.110418,2.77024,2.8352823
-30.144321,2.7707524,2.835978
-30.178213,2.7713509,2.836862
-30.212122,2.770327,2.8354707
-30.246038,2.7699604,2.8350902
-30.279894,2.7713904,2.8373618
-30.313835,2.770628,2.8365374
-30.3479,2.7682443,2.8334403
-30.381977,2.7665176,2.8313532
-30.41595,2.7665875,2.8319187
-30.449875,2.7673147,2.8334956
-30.483788,2.768129,2.8352613
-30.517689,2.7690306,2.837216
-30.551788,2.7683122,2.8369012
-30.585985,2.7671134,2.8359585
-30.6203,2.7654347,2.8343897
-30.654655,2.7638454,2.833015
-30.688862,2.7634816,2.8334694
-30.72278,2.76491,2.836566
-30.756353,2.7681282,2.842301
-30.790777,2.7668934,2.8416953
-30.825474,2.7646153,2.8396544
-30.859978,2.7635615,2.8394408
-30.894648,2.7620316,2.8386087
-30.929224,2.7611587,2.8387876
-30.963829,2.7603767,2.8391628
-30.998615,2.7591205,2.8389244
-31.032974,2.7596502,2.8413153
-31.067335,2.7602696,2.8439007
-31.101864,2.7604144,2.8458724
-31.136753,2.7595224,2.8464236
-31.171854,2.7581596,2.8463683
-31.206999,2.756891,2.8465166
-31.24257,2.7545912,2.8452578
-31.2786,2.751264,2.8426003
-31.314922,2.7474742,2.8393536
-31.350296,2.7465868,2.8403296
-31.385494,2.7463546,2.842311
-31.420717,2.746216,2.8444958
-31.457321,2.7428174,2.8420978
-31.493784,2.7400792,2.8407154
-31.52985,2.7385557,2.8411417
-31.56597,2.7371314,2.8417807
-31.60214,2.7358053,2.8426332
-31.638618,2.734022,2.8429093
-31.67568,2.7312288,2.841823
-31.71309,2.7279844,2.8401737
-31.750593,2.7248452,2.8387523
-31.786514,2.7251303,2.84227
-31.823593,2.7233033,2.842865
-31.861317,2.7204764,2.8421202
-31.900312,2.7155526,2.8384862
-31.938229,2.7129426,2.8382115
-31.975613,2.711539,2.839725
-32.013367,2.709692,2.8406901
-32.05119,2.7079518,2.8418875
-32.0881,2.7079585,2.8456306
-32.126366,2.7058845,2.846518
-32.16605,2.7017388,2.8445702
-32.204483,2.6998866,2.8459396
-32.2409,2.7014058,2.8521333
-32.276257,2.704653,2.8608298
-32.306915,2.715035,2.8796124
-32.33593,2.7276506,2.9015803
-32.36842,2.7349305,2.916122
-32.403046,2.7390583,2.9263134
-32.455162,2.7185378,2.9021177
-32.488007,2.7255788,2.916556
-32.51407,2.741811,2.94388
-32.556942,2.735093,2.9392557
-32.60161,2.7263753,2.9319515
-32.6379,2.7289894,2.9405193
-32.677906,2.726919,2.9426565
-32.70875,2.736642,2.9612527
-32.74667,2.7374353,2.9675293
-32.77082,2.7552476,2.9974518
-32.81646,2.7467332,2.991002
-32.85701,2.744683,2.993599
-32.899433,2.740656,2.9935656
-32.938812,2.7404296,2.9988737
-32.980064,2.73823,3.0015602
-33.020943,2.7366788,3.0052385
-33.062828,2.7342126,3.007762
-33.105755,2.7308393,3.0091453
-33.148315,2.7281194,3.0115318
-33.19049,2.7260501,3.0149155
-33.232258,2.7246284,3.0192895
-33.276077,2.7212803,3.021143
-33.322514,2.715509,3.019812
-33.368603,2.7104032,3.0195117
-33.41229,2.7080014,3.0230017
-33.455555,2.7062476,3.0274844
-33.501507,2.7020946,3.0288339
-33.54601,2.699612,3.0325632
-33.59114,2.6967676,3.0359244
-33.635838,2.694575,3.0402827
-33.72933,2.6473331,2.9842443
-33.886616,2.5428994,2.8518386
-33.93031,2.5440567,2.8613896
-33.979034,2.5408692,2.8652482
-34.030678,2.535362,2.8661475
-34.084187,2.528547,2.8654542
-34.140736,2.5194514,2.861887
-34.191757,2.515479,2.8652873
-34.24001,2.5141346,2.872313
-34.28483,2.5158854,2.8835635
-34.337933,2.510951,2.8861203
-34.394165,2.5037723,2.885881
-34.458996,2.49001,2.8771663
-34.51629,2.4827733,2.877215
-34.568905,2.4795945,2.882749
-34.610577,2.485236,2.8999515
-34.661484,2.483829,2.9080844
-34.74429,2.4582841,2.885007
-34.763542,2.4815366,2.9254818
-34.819756,2.4768658,2.929851
-34.873566,2.4742827,2.9370914
-34.958317,2.4493203,2.9156904
-35.00803,2.4504762,2.9281378
-35.935932,1.8224661,2.1347919
-35.97475,1.8383172,2.1683307
-35.238605,2.3979416,2.8950028
-35.32091,2.3778138,2.8811855
-35.401653,2.3594015,2.869845
-35.462597,2.3550663,2.8765988
-35.52911,2.3473027,2.879233
-35.60334,2.3347886,2.8761244
-35.671,2.3270981,2.8793325
-35.73818,2.3201182,2.8836675
-35.80416,2.3142936,2.889677
-35.87311,2.306928,2.8940034
-35.942265,2.299829,2.8989067
-36.01445,2.2912185,2.9021916
-36.115353,2.2651992,2.8842974
-21.755728,0.89884806,1.1120033
-21.816349,0.8847523,1.0746579
-21.847298,0.85244966,1.0145955
-27.46039,1.5261421,1.0891118
-27.531729,1.5604863,1.1332526
-27.607672,1.6043055,1.1911507
-27.698164,1.6755779,1.2886233
-27.774008,1.7237823,1.3532381
-27.849089,1.7728038,1.4192252
-27.919867,1.8160887,1.4771633
-27.970436,1.8229897,1.4829483
-27.771936,1.3460603,0.7924328
-28.11018,1.9150748,1.6075907
-28.131561,1.8659756,1.5330563
-28.238731,1.9932957,1.7129455
-28.272654,1.9708295,1.6770043
-28.32267,1.9825873,1.690527
-28.371666,1.9928379,1.7019782
-28.680626,2.60014,2.576611
-28.746727,2.6677208,2.6716647
-28.791904,2.6885085,2.6991801
-28.83126,2.696143,2.7077527
-28.8713,2.7061074,2.719781
-28.90751,2.7067518,2.7183847
-28.960115,2.7519424,2.781652
-28.999771,2.7639449,2.7969017
-29.037987,2.7727222,2.8075528
-29.073557,2.7743654,2.8079238
-29.110525,2.7805648,2.8149805
-29.149101,2.7924469,2.8303695
-29.186556,2.8016472,2.841938
-29.22183,2.804245,2.8439798
-29.256718,2.8058188,2.8445978
-29.290491,2.8035665,2.839715
-29.324152,2.800841,2.8342047
-29.360094,2.8071697,2.8419414
-29.396019,2.814157,2.850707
-29.43127,2.8189971,2.856413
-29.46543,2.8194394,2.8557754
-29.500725,2.8255892,2.863522
-29.538181,2.8436372,2.8886886
-29.57057,2.8364842,2.8771696
-29.604763,2.8389766,2.8797812
-29.638525,2.8393073,2.8793006
-29.672613,2.8419776,2.8822975
-29.706236,2.8419201,2.8813753
-29.73963,2.8402596,2.8781738
-29.772715,2.8358657,2.8710408
-29.806007,2.8326838,2.865738
-29.839361,2.829587,2.8606195
-29.874462,2.8457563,2.883707
-29.906033,2.8208277,2.8468146
-29.939556,2.8174217,2.841426
-29.973274,2.81636,2.8395228
-30.007214,2.8199012,2.8444066
-30.041075,2.82353,2.8494816
-30.07476,2.8232932,2.8489685
-30.1084,2.8191903,2.8428655
-30.14213,2.8174329,2.8402524
-30.175877,2.8180203,2.8411274
-30.209633,2.8175657,2.8405404
-30.243399,2.8171978,2.8401413
-30.277126,2.8180456,2.8415813
-30.310867,2.8184156,2.8423834
-30.344566,2.8194368,2.8441992
-30.378328,2.8194158,2.844552
-30.412283,2.8172252,2.8417974
-30.446396,2.8139937,2.837584
-30.480225,2.814235,2.8385062
-30.514118,2.8139992,2.8387928
-30.548094,2.813288,2.8384476
-30.582092,2.812664,2.8382916
-30.615358,2.8171968,2.8457255
-30.64925,2.8173103,2.8467698
-30.683815,2.813572,2.842255
-30.718266,2.8110495,2.839579
-30.751812,2.813678,2.84448
-30.786106,2.812458,2.8438306
-30.820318,2.8118894,2.844194
-30.8543,2.812533,2.8463864
-30.888937,2.8104594,2.8446841
-30.92322,2.810159,2.8456292
-30.957806,2.808828,2.8451371
-30.991985,2.8092675,2.8472872
-31.026482,2.808677,2.8480015
-31.061487,2.8064997,2.8464732
-31.09689,2.8032982,2.8435225
-31.131855,2.8018675,2.8432126
-31.166328,2.8022032,2.8455362
-31.200996,2.802071,2.8472462
-31.236069,2.8009179,2.847538
-31.271378,2.7993019,2.8472257
-31.305117,2.8022265,2.8535676
-31.34132,2.798575,2.850438
-31.376545,2.7977962,2.8515434
-31.411364,2.7982206,2.8544583
-31.447783,2.7948623,2.851965
-31.48313,2.7943692,2.8536897
-31.520657,2.7889998,2.8484316
-31.557096,2.7864957,2.8473911
-31.594114,2.7829895,2.844977
-31.628923,2.7845426,2.8499393
-31.666607,2.7801385,2.8463764
-31.704674,2.7752926,2.8422537
-31.7415,2.7732983,2.842318
-31.779793,2.7686677,2.8386617
-31.815643,2.7690697,2.8423276
-31.852676,2.767384,2.8430624
-31.88918,2.7668934,2.8455887
-31.925116,2.7675927,2.8498988
-31.961681,2.7673018,2.8528595
-32.001106,2.762224,2.849031
-32.03971,2.7588887,2.847785
-32.077766,2.7567484,2.848331
-32.115566,2.7552574,2.849887
-32.152752,2.754953,2.8532176
-32.191006,2.753137,2.854467
-32.23351,2.744973,2.8467412
-32.272324,2.74285,2.847724
-32.308342,2.74513,2.855062
-32.34836,2.741619,2.8542333
-32.391453,2.7339523,2.8475852
-32.42797,2.7360218,2.854865
-32.466007,2.7360625,2.8593426
-32.49672,2.7463095,2.8783674
-32.528824,2.7545054,2.8945413
-32.569164,2.7516608,2.8951578
-32.605965,2.7536936,2.9027572
-32.64563,2.7521377,2.9053683
-32.670837,2.7691202,2.9342093
-32.720543,2.7551563,2.9194946
-32.765465,2.7476532,2.913999
-32.792034,2.7627866,2.9404273
-32.83362,2.7597017,2.94132
-32.86867,2.764558,2.953445
-32.912174,2.7596352,2.9519486
-32.95174,2.7595167,2.9572787
-32.99502,2.7553782,2.9570832
-33.04446,2.7446663,2.947824
-33.082905,2.7464828,2.956152
-33.123253,2.7463565,2.9618626
-33.166527,2.743277,2.9635653
-33.203606,2.7469819,2.9747891
-33.260258,2.73039,2.9579687
-33.29897,2.7328293,2.9676466
-33.34018,2.732845,2.9740639
-33.386497,2.7279246,2.9737706
-33.42887,2.7271972,2.9793754
-33.470276,2.727609,2.986652
-33.52163,2.7186058,2.9810977
-33.561104,2.721303,2.991733
-33.606953,2.718123,2.9944143
-33.652916,2.7150934,2.9974222
-33.73312,2.68092,2.9580412
-33.86273,2.6029866,2.859295
-33.911755,2.5992346,2.8619337
-33.960354,2.59614,2.8655977
-34.01075,2.5917342,2.8676171
-34.06356,2.5855412,2.8673568
-34.11712,2.5790446,2.8668365
-34.171444,2.5722485,2.8660674
-34.22596,2.5656445,2.865714
-34.280663,2.5592327,2.8657784
-34.337914,2.5510857,2.863676
-34.3936,2.544588,2.8639517
-34.44767,2.539726,2.8665771
-34.500076,2.5364864,2.8715243
-34.555046,2.5315247,2.874332
-34.612637,2.5248597,2.8750439
-34.670418,2.5184035,2.8762078
-34.727135,2.5130987,2.8790703
-34.78528,2.5070586,2.8811364
-34.841698,2.5026336,2.885508
-34.91614,2.4853513,2.8731742
-34.964622,2.4874194,2.8864365
-35.037086,2.4725137,2.8776603
-35.109905,2.4578934,2.869502
-35.15352,2.4642472,2.888865
-35.217567,2.4565382,2.8901052
-35.30713,2.4317284,2.869432
-35.353676,2.4368427,2.8877025
-35.429867,2.4221797,2.8806496
-35.495544,2.4150398,2.8835225
-35.56142,2.4081485,2.8869362
-35.629562,2.4001646,2.8891768
-35.695843,2.39378,2.8936892
-35.767883,2.384096,2.894239
-35.837368,2.3764627,2.8976393
-35.919052,2.3616102,2.8921704
-36.003212,2.3457732,2.8857622
-36.063488,2.3451333,2.8987398
-8.337414,0.28150272,3.9283733
-8.371075,0.22524047,3.8067737
-19.393291,0.6445193,1.139771
-19.537079,0.6643028,1.1363139
-19.591562,0.6398692,1.0806336
-21.709606,0.9802072,1.1344633
-21.76566,0.9633045,1.0935669
-21.799753,0.9331901,1.0359998
-21.630344,0.72603774,0.7328663
-27.470522,1.583904,1.0949206
-27.545902,1.6249199,1.1494713
-27.631756,1.6855829,1.2327161
-27.709743,1.7352438,1.3002181
-27.792423,1.7954462,1.3832359
-27.856718,1.825134,1.4221101
-27.920923,1.8561194,1.4630256
-28.00658,1.9290736,1.5651932
-27.719063,1.2867053,0.6255207
-28.117868,1.967212,1.6131201
-28.143383,1.9272029,1.551095
-28.235306,2.022398,1.6864204
-28.283255,2.029538,1.6934042
-28.326468,2.026981,1.6863146
-28.380322,2.048061,1.7138638
-28.681496,2.6323278,2.5654187
-28.72622,2.6494353,2.587832
-28.789581,2.7122383,2.6772614
-28.83526,2.735162,2.7084227
-28.876944,2.749429,2.7269964
-28.922739,2.7753837,2.7627974
-28.962812,2.7877057,2.7786975
-29.002,2.7984898,2.7924232
-29.037252,2.7988966,2.790987
-29.074541,2.8054757,2.7986856
-29.112032,2.8132646,2.8082347
-29.151976,2.829463,2.8302221
-29.18951,2.8391302,2.8426843
-29.224688,2.8416953,2.844769
-29.258211,2.8388062,2.8388906
-29.291477,2.8348916,2.8315625
-29.326563,2.8377295,2.834239
-29.361994,2.842329,2.8395762
-29.398113,2.8503616,2.8500404
-29.431997,2.849586,2.8475862
-29.465517,2.847227,2.8428578
-29.500118,2.84997,2.845715
-29.53586,2.8589377,2.85782
-29.570875,2.8652139,2.8660188
-29.604471,2.864327,2.8637094
-29.638258,2.864643,2.863236
-29.67237,2.8672812,2.866253
-29.705938,2.866656,2.8645105
-29.739365,2.8649986,2.8613038
-29.774105,2.8740528,2.8739815
-29.806293,2.8619416,2.8554478
