x,y,z
-30.214836,1.886806,2.8644238
-30.250877,1.8856878,2.8633919
-30.287159,1.8780091,2.8551006
-30.322762,1.889718,2.868649
-30.358839,1.8882127,2.8674736
-30.395182,1.8828087,2.8620262
-30.431484,1.8794949,2.8590198
-30.467175,1.8849194,2.8659053
-30.503174,1.8857808,2.867773
-30.540678,1.8707838,2.851972
-30.576584,1.8738275,2.856483
-30.611536,1.884934,2.8701153
-30.64751,1.8861666,2.8727875
-30.683464,1.8874912,2.8756595
-30.71838,1.8962076,2.886898
-30.754229,1.8977144,2.8901644
-30.791931,1.8873773,2.8802886
-30.830038,1.8758168,2.8691535
-30.86928,1.8590596,2.8523216
-30.90432,1.8669143,2.8630843
-30.939734,1.8722086,2.8710814
-30.977594,1.8650227,2.865251
-31.012804,1.8711629,2.8743863
-31.048782,1.8734264,2.8792934
-31.086384,1.8685169,2.8763108
-31.121572,1.8742702,2.8853016
-31.164133,1.849766,2.8607292
-31.200743,1.8504407,2.8642817
-31.237522,1.8505526,2.8673086
-31.276102,1.844176,2.863236
-31.314615,1.8385637,2.8601213
-31.352854,1.8343716,2.8586931
-31.390778,1.8315971,2.8589458
-31.42957,1.826299,2.8565135
-31.466171,1.8283219,2.8622928
-31.50617,1.8199546,2.8566885
-31.545446,1.8143196,2.8542209
-31.585054,1.8081396,2.8512683
-31.623161,1.8066454,2.8536005
-31.662014,1.8032944,2.8539968
-31.701178,1.7993977,2.8539062
-31.740171,1.7962613,2.8547673
-31.776945,1.799092,2.8622975
-31.815756,1.7968149,2.864325
-31.856739,1.7894461,2.8608851
-31.89732,1.7834935,2.8591228
-31.936356,1.7815464,2.861866
-31.980513,1.7680485,2.8521028
-31.995285,1.8213205,2.9153676
-32.019703,1.8513103,2.9532275
-32.026585,1.9181225,3.0312252
-32.054546,1.9378166,3.057907
-32.08373,1.9543452,3.0812073
-32.144825,1.9053419,3.0334635
-32.197144,1.8758318,3.007091
-32.228756,1.8881936,3.0262322
-32.247547,1.9249685,3.0718384
-32.279224,1.9361608,3.0898376
-32.33062,1.9103742,3.0680552
-32.4121,1.8305383,2.988287
-32.416367,1.8924568,3.061246
-32.43756,1.9224982,3.0999146
-32.48526,1.9055548,3.0882516
-32.524002,1.9046233,3.093894
-32.56578,1.8987367,3.0943632
-32.60691,1.8942399,3.0964546
-32.648907,1.8886027,3.097466
-32.690617,1.8837233,3.099423
-32.734413,1.8758221,3.098311
-32.77876,1.8674293,3.0968304
-32.82367,1.8585482,3.0949864
-32.871635,1.8454258,3.088822
-32.920677,1.8312101,3.0816808
-32.96531,1.8240225,3.082117
-33.007507,1.8207119,3.0867782
-33.05368,1.8119323,3.0858512
-33.09958,1.8039212,3.0858955
-33.146072,1.7954369,3.085608
-33.19767,1.7802992,3.0785565
-33.248627,1.7665722,3.0731711
-33.293842,1.7610264,3.076469
-33.343357,1.7500887,3.074346
-33.4053,1.7233589,3.0560927
-33.607494,1.516787,2.8526778
-33.662716,1.5024924,2.8481503
-33.707993,1.5011964,2.857182
-33.758705,1.4933424,2.8596535
-33.812042,1.4826162,2.8593822
-33.870583,1.4660072,2.8533201
-33.92486,1.4550488,2.8532414
-33.97831,1.4454815,2.8547854
-34.027294,1.441515,2.8622046
-34.108112,1.4010453,2.8329654
-34.15493,1.4004717,2.8442593
-34.20124,1.4006412,2.8564663
-34.26523,1.3812556,2.8492599
-34.32361,1.3686538,2.8491
-34.38657,1.3515038,2.8446512
-34.438828,1.3464358,2.8524685
-34.493954,1.338584,2.8577323
-34.565445,1.3138139,2.8465114
-34.60915,1.3187368,2.8648462
-34.658478,1.3179176,2.877697
-34.710125,1.3149142,2.8885975
-34.76126,1.3126645,2.900436
-34.811863,1.3111646,2.9132023
-34.86074,1.3115721,2.9280167
-34.911995,1.3098176,2.9409275
-34.963295,1.3082311,2.9542046
-35.012825,1.3085427,2.9695063
-35.066,1.3055649,2.981855
-35.113743,1.3079257,2.9995108
-35.162075,1.3098657,3.0169501
-35.21101,1.3113894,3.034184
-28.5187,1.6600082,2.6401987
-28.586037,1.7355742,2.7201371
-28.630049,1.7504139,2.7325306
-28.67333,1.7640855,2.7437544
-28.722366,1.795429,2.7748775
-28.76737,1.8165221,2.7946901
-28.813046,1.8410065,2.8184452
-28.854176,1.8526013,2.8278966
-28.896084,1.8675742,2.84126
-28.933458,1.8683128,2.8387694
-28.974754,1.8828642,2.8519015
-29.017242,1.9027619,2.8711677
-29.055664,1.9090519,2.8752565
-29.090551,1.9023597,2.8648381
-29.12588,1.8970642,2.8560848
-29.164312,1.9043064,2.8615565
-29.201843,1.9083762,2.8635592
-29.241358,1.92173,2.876142
-29.27992,1.9319124,2.8852582
-29.31585,1.9303796,2.8812513
-29.351017,1.9249959,2.872991
-29.387642,1.9269335,2.8730984
-29.425879,1.9381742,2.8838286
-29.462448,1.9409659,2.8851051
-29.500242,1.9517527,2.895533
-29.537436,1.9600074,2.9031982
-29.571817,1.949914,2.8901825
-29.609045,1.9596779,2.899756
-29.640518,1.92537,2.8594766
-29.675922,1.9194906,2.8515038
-29.711786,1.9169993,2.8474665
-29.747885,1.9165792,2.8458738
-29.78369,1.9129522,2.8407383
-29.819878,1.9133775,2.8402963
-29.85615,1.9152164,2.841555
-29.892471,1.9184699,2.8445163
-29.928442,1.9165337,2.8416824
-29.964567,1.9173319,2.8420486
-30.000675,1.9182227,2.8426166
-30.036783,1.9198675,2.8441358
-30.072796,1.9183013,2.842105
-30.108767,1.9102201,2.832768
-30.14499,1.9729354,2.903943
-30.180586,1.9690037,2.8995113
-30.217112,1.912302,2.835236
-30.253513,1.9006281,2.8222022
-30.311535,1.2600834,2.095057
-30.353155,1.2671587,2.1035762
-30.396498,1.2386713,2.071824
-30.39726,1.9196076,2.8456187
-30.433975,1.9103847,2.8358526
-30.470491,1.905879,2.831542
-30.506916,1.903449,2.8296828
-30.54447,1.8898947,2.8153014
-30.579832,1.8995314,2.8273287
-30.61465,1.9125543,2.8432865
-30.650541,1.9151137,2.8474703
-30.686562,1.9164464,2.85036
-30.72312,1.9139178,2.8489714
-30.760023,1.9095087,2.8455515
-30.796696,1.9071727,2.8445787
-30.834738,1.8970354,2.834876
-30.872616,1.8889742,2.8276305
-30.907955,1.8954799,2.8369617
-30.944208,1.8968172,2.8405428
-30.98138,1.8936493,2.8391323
-31.017635,1.8951757,2.8431234
-31.041656,1.9519114,2.9095192
-31.076473,1.9575276,2.9182863
-31.115124,1.9468467,2.9087706
-31.165693,1.889117,2.8463573
-31.202282,1.8898101,2.8499074
-31.239042,1.8899446,2.8529272
-31.276888,1.8862526,2.8517437
-31.31518,1.8813574,2.8493152
-31.353756,1.8759134,2.8463798
-31.389872,1.8790531,2.853187
-31.427565,1.8770723,2.85435
-31.466347,1.8719375,2.8520842
-31.503727,1.8714631,2.8551478
-31.542446,1.8671877,2.854064
-31.58125,1.8630192,2.8532114
-31.620138,1.8589575,2.85259
-31.658632,1.8562992,2.8536487
-31.697912,1.8518031,2.852768
-31.737284,1.8474166,2.8521242
-31.77725,1.8418465,2.8502798
-31.816027,1.8396177,2.8522692
-31.854053,1.8394306,2.856638
-31.89427,1.8341911,2.8555093
-31.934587,1.8290656,2.854629
-31.973028,1.8285546,2.8589773
-31.99303,1.8692482,2.909008
-32.022038,1.8887832,2.9356751
-32.027946,1.9570656,3.0161924
-32.05099,1.9868925,3.0542583
-32.083782,1.9956567,3.0691686
-32.12561,1.98599,3.0638986
-32.166653,1.9783623,3.0610018
-32.207188,1.9721291,3.0597668
-32.247177,1.967288,3.0601845
-32.27914,1.9778016,3.0775228
-32.315063,1.9807811,3.0867114
-32.372612,1.944601,3.0532866
-32.41377,1.9389768,3.0533714
-32.447464,1.9467335,3.068141
-32.48251,1.9520514,3.0803547
-32.524155,1.94613,3.0804782
-32.565918,1.940335,3.0808716
-32.607033,1.9359195,3.0828958
-32.649788,1.9291215,3.08248
-32.69228,1.9230793,3.083022
-32.73529,1.9165425,3.0831742
-32.777622,1.9113846,3.0849519
-32.821693,1.9038658,3.0843391
-32.863422,1.9002125,3.0880136
-32.910683,1.8886209,3.0833454
-32.953484,1.883995,3.086276
-32.99724,1.8782635,3.0881734
-33.046764,1.8646464,3.0818424
-33.0961,1.8518114,3.0765233
-33.141655,1.8446727,3.077417
-33.189606,1.8346117,3.0753846
-33.234093,1.829607,3.0788574
-33.28744,1.8131268,3.0704122
-33.332226,1.8084235,3.0745387
-33.381348,1.7983804,3.073228
-33.494995,1.7064688,2.9864988
-33.656437,1.5568383,2.8401093
-33.70407,1.552583,2.84589
-33.756714,1.5424387,2.845724
-33.810535,1.5312653,2.8446903
-33.863056,1.5220783,2.8459163
-33.919296,1.5088656,2.8431907
-33.971165,1.5012355,2.8464293
-34.025764,1.4907904,2.8469753
-34.07847,1.4829156,2.8503642
-34.13869,1.4668903,2.8456316
-34.196007,1.4546394,2.8449917
-34.247643,1.4491003,2.8513985
-34.30805,1.4342813,2.8486004
-34.36325,1.4255702,2.8522234
-34.42688,1.4082296,2.8473692
-34.482475,1.3999174,2.8518562
-34.5399,1.3900402,2.854998
-34.591293,1.3867815,2.8649864
-34.666122,1.3598268,2.851564
-34.720715,1.3540628,2.85953
-34.784687,1.3392179,2.8587217
-34.834316,1.339047,2.8726754
-34.885727,1.337306,2.8852725
-34.936592,1.3363085,2.8987985
-34.985695,1.3371959,2.9143653
-35.033592,1.3393834,2.931387
-35.086937,1.336592,2.9437518
-35.137894,1.3362539,2.9587078
-35.186405,1.3383498,2.976213
-35.241104,1.3349483,2.9886189
-35.299625,1.328352,2.9981914
-35.345673,1.3332026,3.01894
-35.41638,1.3163402,3.0192156
-28.445621,1.6199172,2.5405965
-28.534294,1.7467427,2.6791935
-28.58613,1.7812519,2.7139034
-28.62867,1.7920959,2.7220378
-28.67832,1.8236954,2.7537808
-28.723606,1.8444836,2.7734494
-28.771118,1.8731594,2.802197
-28.815992,1.8955204,2.8239374
-28.857784,1.9096074,2.83643
-28.896914,1.9160454,2.8403602
-28.937084,1.9264803,2.8489451
-28.97536,1.9311912,2.8511376
-29.014639,1.9399006,2.857987
-29.054459,1.9513171,2.8680315
-29.09133,1.9524467,2.8664699
-29.128334,1.954324,2.865862
-29.165457,1.9569507,2.866208
-29.207901,1.9824655,2.8927808
-29.242931,1.9774847,2.8846545
-29.279747,1.9804146,2.8856602
-29.315958,1.9808328,2.883893
-29.35424,1.9917872,2.8942728
-29.388956,1.9852178,2.8847084
-29.424969,1.9852676,2.8828106
-29.4612,1.9867177,2.8826118
-29.498575,1.9954543,2.8908582
-29.534777,1.9977505,2.8918257
-29.57093,2.0001416,2.8929992
-29.609627,2.021609,2.9161453
-29.639332,1.97574,2.862153
-29.675135,1.9744737,2.8594074
-29.71117,1.9752648,2.8591175
-29.74699,1.9741831,2.856772
-29.782944,1.9745045,2.8561316
-29.818943,1.9755745,2.8564463
-29.854727,1.9741137,2.8539486
-29.890871,1.9779925,2.857678
-29.926907,1.9813087,2.860857
-29.962635,1.9794695,2.8582058
-29.998518,1.9810023,2.8595238
-30.034353,1.9819717,2.8602877
-30.070156,1.9823768,2.860498
-30.105751,1.9644971,2.8397822
-30.141777,2.0090592,2.8909411
-30.17732,2.0097404,2.891749
-30.21286,2.0098565,2.8920002
-30.248133,2.0205636,2.9045181
-30.308306,1.2964022,2.0724802
-30.34911,1.3231087,2.103643
-30.392271,1.2954631,2.0724497
-30.442581,1.1590414,1.9163885
-30.422878,2.0570672,2.9489012
-30.458338,2.0532238,2.9452472
-30.49398,2.0481608,2.940287
-30.529146,2.04909,2.9423018
-30.56513,2.0422459,2.9354854
-30.601616,2.032222,2.9251165
-30.638042,2.0242598,2.917212
-30.674091,2.020322,2.914023
-30.708168,2.0308762,2.9275465
-30.74552,2.0186183,2.9150076
-30.774826,2.0581217,2.961884
-30.814703,2.031012,2.9325204
-31.017748,1.0906234,1.8576303
-31.036589,1.2254789,2.014306
-31.063906,1.3048337,2.1074743
-31.106815,1.3013647,2.105969
-31.18668,1.1258698,1.9079766
-31.02765,2.0344179,2.948595
-31.062794,2.0367181,2.9535832
-31.109535,1.9909425,2.9038062
-31.15335,1.9602795,2.8714185
-31.191813,1.9525025,2.8652534
-31.230072,1.946132,2.8607993
-31.267733,1.9424615,2.8595285
-31.30435,1.942785,2.8629036
-31.34116,1.9425566,2.8657513
-31.379368,1.9378915,2.8636584
-31.417057,1.9352722,2.8639956
-31.455431,1.9308143,2.8623538
-31.494537,1.9245236,2.8587418
-31.53178,1.9241519,2.8619466
-31.569038,1.9238791,2.865367
-31.608171,1.9185507,2.8631735
-31.646217,1.9165497,2.864852
-31.6848,1.9133658,2.865303
-31.725193,1.9057903,2.8609118
-31.764711,1.9008987,2.8596654
-31.803024,1.899323,2.862266
-31.84138,1.8978529,2.8650947
-31.881674,1.8920078,2.8631177
-31.922918,1.8843601,2.8592396
-31.961195,1.8838549,2.863493
-31.984762,1.9159768,2.9043903
-32.00984,1.9436674,2.940361
-32.030243,1.9803016,2.986364
-32.04207,2.033469,3.0508313
-32.071648,2.0485299,3.0727882
-32.104458,2.0566812,3.0871196
-32.16583,2.0085776,3.03898
-32.213627,1.9885166,3.0222254
-32.243122,2.0039651,3.0450249
-32.277447,2.0100193,3.0574822
-32.3134,2.0130126,3.0666466
-32.36576,1.9865549,3.0433774
-32.433884,1.9332848,2.9907198
-32.459282,1.9561236,3.0221877
-32.457924,2.0240672,3.1033163
-32.50336,2.0112936,3.0956774
-32.545258,2.0049055,3.0951977
-32.587666,1.9980218,3.0943117
-32.629047,1.9931343,3.095749
-32.672493,1.9852657,3.0940652
-32.71769,1.9750519,3.0899706
-32.75742,1.9736483,3.0956182
-32.799644,1.9686525,3.0974894
-32.844463,1.9600844,3.095625
-32.891964,1.9479635,3.0900693
-32.93714,1.9396865,3.0888367
-32.97946,1.9358485,3.0925488
-33.026222,1.9260144,3.0899453
-33.07185,1.9181662,3.0896425
-33.118073,1.9098535,3.0890012
-33.16445,1.901689,3.0886827
-33.21373,1.8900275,3.0847907
-33.262764,1.8791368,3.0819025
-33.308266,1.8732536,3.0845227
-33.36144,1.8578453,3.0771894
-33.412025,1.846241,3.07409
-33.62009,1.6385956,2.8638844
-33.67666,1.6229346,2.8573384
-33.727604,1.6146629,2.8587918
-33.7797,1.6053629,2.859353
-33.83499,1.5926559,2.8565378
-33.89305,1.5771613,2.8510213
-33.94575,1.5684073,2.852766
-34.000687,1.5574586,2.8524265
-34.05269,1.550247,2.8561778
-34.110634,1.5367157,2.853582
-34.164566,1.5280993,2.8562913
-34.22027,1.5179021,2.8575826
-34.281044,1.5026228,2.8538694
-34.338806,1.4910684,2.8542228
-34.39678,1.4797165,2.8550148
-34.45774,1.4656591,2.853282
-34.519516,1.4512398,2.8514347
-34.575317,1.4434109,2.856522
-34.63755,1.4294217,2.855607
-34.698875,1.4168091,2.856338
-34.756947,1.4078639,2.861011
-34.82571,1.388807,2.8557935
-34.887726,1.3768668,2.8579845
-34.95114,1.3640096,2.8595238
-35.015984,1.3502467,2.8604355
-35.06598,1.350894,2.8758788
-35.11841,1.3494408,2.8894415
-35.16721,1.3515446,2.906705
-35.219074,1.3509922,2.9215527
-35.27221,1.3494904,2.935678
-35.326637,1.3470483,2.9491029
-35.375446,1.3498082,2.9677892
-35.426132,1.3510566,2.9852037
-35.48257,1.3474841,2.9981828
-35.541653,1.3418977,3.0094695
-28.545862,1.8041787,2.696106
-28.593388,1.8276169,2.7186584
-28.641186,1.8531251,2.7437272
-28.68714,1.8749366,2.7647257
-28.732914,1.8975308,2.7867637
-28.781097,1.9286141,2.8186617
-28.822996,1.942497,2.8310142
-28.861544,1.9468522,2.8325691
-28.900204,1.951957,2.8350916
-28.939342,1.9591002,2.840063
-28.981173,1.9760242,2.856379
-29.020126,1.9840364,2.8625755
-29.057333,1.9863448,2.8623223
-29.094318,1.988106,2.8615394
-29.132088,1.9931984,2.8646927
-29.171513,2.00551,2.8762684
-29.208092,2.0069263,2.8753948
-29.245523,2.0123253,2.8792133
-29.283703,2.0217142,2.8877382
-29.319933,2.0227766,2.8867545
-29.356136,2.023934,2.8859773
-29.391937,2.0232377,2.883153
-29.428217,2.0252326,2.8835344
-29.464455,2.0273225,2.884121
-29.500328,2.0275564,2.8826575
-29.536898,2.0324366,2.8866653
-29.573372,2.0374134,2.8908815
-29.610199,2.0457404,2.899076
-29.64102,2.0085878,2.8546767
-29.677168,2.0105822,2.8557138
-29.71313,2.0113678,2.8554444
-29.749273,2.0142012,2.8576436
-29.785,2.0132172,2.8555107
-29.82112,2.016889,2.858871
-29.856688,2.0141337,2.8548675
-29.892553,2.0153823,2.8556037
-29.928324,2.015419,2.8550262
-29.964119,2.0162003,2.8554049
-29.999899,2.017073,2.8559828
-30.035566,2.014776,2.852974
-30.071285,2.0132222,2.8509207
-30.10708,2.016329,2.8543696
-30.142977,2.1115484,2.9648514
-30.178093,2.0782914,2.926268
-30.213713,2.0509996,2.8947024
-30.248964,2.0577347,2.9027314
-30.308435,1.3578832,2.0906482
-30.350111,1.3583438,2.0916471
-30.392225,1.3504307,2.083036
-30.38926,2.07709,2.92695
-30.424059,2.0829673,2.934435
-30.459324,2.0817604,2.9337893
-30.494728,2.079341,2.931831
-30.530115,2.0776653,2.9308267
-30.565952,2.0721712,2.9254885
-30.601212,2.0726345,2.9271488
-30.786022,0.8763139,1.542151
-30.673634,2.059511,2.9144716
-30.709562,2.056347,2.9122124
-30.745453,2.0539267,2.9109101
-30.780657,2.0561528,2.9150786
-30.975254,1.1225426,1.8367496
-31.025698,1.08704,1.7978983
-31.036144,1.2672684,2.0085568
-31.061949,1.3533247,2.1103454
-31.104721,1.3498833,2.1088004
-30.99207,2.0668588,2.9389486
-31.02879,2.0619402,2.935515
-31.063631,2.0655391,2.9420033
-31.104557,2.043986,2.9195929
-31.147999,2.0141451,2.8877597
-31.19114,1.98767,2.8599367
-31.227243,1.9890993,2.8643508
-31.2655,1.9828777,2.8600626
-31.303501,1.97805,2.8574839
-31.341022,1.97526,2.8573508
-31.378603,1.9725709,2.8574371
-31.415222,1.9732001,2.8614302
-31.454145,1.9668536,2.8575296
-31.492762,1.9618995,2.8553338
-31.529488,1.9628294,2.8599787
-31.56734,1.9606488,2.8611674
-31.606173,1.9560082,2.8596516
-31.646053,1.9489155,2.8554468
-31.685095,1.944493,2.854404
-31.723728,1.9414573,2.855053
-31.763449,1.9359753,2.853026
-31.802757,1.93188,2.852693
-31.839218,1.9349,2.8605552
-31.87836,1.9316537,2.8614044
-31.917019,1.9297872,2.8639307
-31.955156,1.9292967,2.868126
-31.986662,1.9434912,2.8890424
-32.007313,1.9805508,2.9358702
-32.027023,2.018257,2.9834423
-32.037815,2.0730276,3.0502648
-32.067284,2.0880175,3.0722485
-32.105072,2.0860577,3.0752301
-32.149044,2.0722485,3.065009
-32.194584,2.0560641,3.052267
-32.249443,2.0230813,3.020853
-32.283848,2.0291479,3.033349
-32.327824,2.0177794,3.0264478
-32.390938,1.9728019,2.9821725
-32.40859,2.0091825,3.0288424
-32.431396,2.0355933,3.0644135
-32.462196,2.047722,3.084138
-32.501366,2.0456324,3.088153
-32.542095,2.0411747,3.089662
-32.584072,2.0349813,3.0893793
-32.625393,2.0301514,3.0907397
-32.667606,2.0242112,3.0910072
-32.71034,2.0177846,3.090876
-32.751984,2.013334,3.09306
-32.794136,2.008396,3.0948424
-32.83722,2.0023599,3.0955586
-32.88211,1.9940085,3.093885
-32.927162,1.9858005,3.0925217
-32.97453,1.9746861,3.0881438
-33.02211,1.963727,3.0841026
-33.06945,1.953532,3.0810604
-33.116543,1.9440975,3.07901
-33.1602,1.9396598,3.0825353
-33.204403,1.9347532,3.085701
-33.251026,1.9269702,3.0859165
-33.304348,1.9109135,3.077396
-33.352287,1.9022489,3.077015
-33.39753,1.8973374,3.0808272
-33.563652,1.7430465,2.9250917
-33.670418,1.6653225,2.8518848
-33.72081,1.6577399,2.8538508
-33.772846,1.6485398,2.8542805
-33.827076,1.6371412,2.852572
-33.874905,1.6336198,2.8593988
-33.928978,1.6231649,2.8590813
-33.983246,1.6128948,2.8591628
-34.04085,1.599283,2.8559427
-34.08602,1.599947,2.8679
-34.149334,1.5808573,2.8593764
-34.20976,1.5655015,2.8550048
-34.262856,1.5585139,2.8595743
-34.316093,1.5517049,2.8645306
-34.377754,1.5363832,2.8608904
-34.438572,1.5224397,2.8589234
-34.50077,1.5075622,2.8562465
-34.56153,1.4946346,2.8558254
-34.62081,1.4836457,2.857635
-34.675106,1.4780169,2.865151
-34.74404,1.4583042,2.8585644
-34.81274,1.4394207,2.8531165
-34.87586,1.4264724,2.8539653
-34.94635,1.4069593,2.8484674
-34.999187,1.4046524,2.8605561
-35.075653,1.3805606,2.8510485
-35.126953,1.3803518,2.865714
-35.20834,1.3528728,2.8534627
-35.256195,1.3564272,2.8723435
-35.30712,1.3573482,2.8888016
-35.359936,1.3567696,2.9039798
-35.412777,1.3563664,2.91954
-35.46946,1.352829,2.9322462
-35.52621,1.3494873,2.9453793
-35.574013,1.3540239,2.9663897
-35.636684,1.3461304,2.9755683
-28.480822,1.7702358,2.6095157
-28.563213,1.8809662,2.7327986
-28.605059,1.8902879,2.739459
-28.65072,1.9105494,2.7588677
-28.695543,1.9296768,2.7771091
-28.740007,1.94894,2.7956443
-28.785637,1.9728053,2.8196397
-28.825943,1.9821203,2.82693
-28.86483,1.9877136,2.8300238
-28.90561,1.9998121,2.8407683
-28.946354,2.0126686,2.8525105
-28.984964,2.019233,2.8570628
-29.021246,2.018209,2.8529067
-29.061615,2.0320399,2.8661156
-29.100523,2.0414896,2.8743453
-29.13842,2.0478356,2.8790703
-29.175713,2.0523555,2.8817706
-29.211988,2.0531142,2.8801904
-29.248093,2.0533247,2.878065
-29.28618,2.0626483,2.8866644
-29.322449,2.0643413,2.8864636
-29.358418,2.06484,2.8849635
-29.394869,2.0680132,2.8866816
-29.429945,2.0641813,2.880309
-29.468594,2.0804605,2.8975368
-29.504147,2.0800467,2.895349
-29.540413,2.0842507,2.8986554
-29.576214,2.0859623,2.8991413
-29.61054,2.0774174,2.8877125
-29.643257,2.0553687,2.8605561
-29.679409,2.058644,2.8631406
-29.714848,2.056185,2.8591003
-29.751186,2.0622373,2.8651233
-29.78705,2.0644972,2.8667974
-29.822323,2.0603704,2.8610759
-29.858347,2.0654073,2.8661885
-29.89368,2.0614617,2.8608623
-29.9293,2.0614972,2.860293
-29.964981,2.062921,2.8614445
-30.000854,2.0702739,2.8696432
-30.036366,2.0699358,2.8689103
-30.071724,2.061906,2.8592439
-30.107243,2.0552645,2.8512964
-30.143003,2.113579,2.9196553
-30.178118,2.1142547,2.920475
-30.21306,2.12475,2.9329057
-30.247845,2.1340375,2.9440079
-30.307909,1.4060206,2.090217
-30.349266,1.4110196,2.0965376
-30.39207,1.3869457,2.0688639
-30.388283,2.1234436,2.9332986
-30.423525,2.1208596,2.9309244
-30.458712,2.1196637,2.9302669
-30.492651,2.1328123,2.9465146
-30.52903,2.1188393,2.9310608
-30.564133,2.1192107,2.9325104
-30.599007,2.121615,2.9364328
-30.63506,2.1144004,2.9291792
-30.67055,2.1124566,2.9281912
-30.824915,1.2853391,1.9614902
-30.866299,1.2948866,1.9744477
-30.908459,1.2987206,1.980825
-30.973814,1.1670074,1.828826
-31.029089,1.1046126,1.7580724
-31.036634,1.2998953,1.9885345
-31.059893,1.3983412,2.105832
-31.103647,1.3897727,2.0982237
-30.98974,2.10752,2.9381375
-31.02534,2.1071472,2.9399095
-31.060041,2.110729,2.9463854
-31.09957,2.094459,2.9298239
-31.142994,2.0641613,2.8970432
-31.186468,2.0359247,2.8667955
-31.226786,2.0213017,2.8525143
-31.261772,2.0266807,2.8615956
-31.299282,2.0231733,2.860444
-31.336864,2.0197675,2.8595133
-31.374718,2.0158234,2.8580585
-31.414486,2.0062263,2.8501573
-31.448776,2.0139947,2.862483
-31.487677,2.0078022,2.8587365
-31.524265,2.008734,2.863338
-31.565388,1.9970169,2.8534203
-31.601847,1.9987903,2.859201
-31.643532,1.9866648,2.8490424
-31.677143,1.9962683,2.8640575
-31.715593,1.9932549,2.8646235
-31.753853,1.990983,2.8661494
-31.792429,1.9881814,2.8671732
-31.835339,1.9753618,2.856801
-31.872221,1.97721,2.8633904
-31.909918,1.9772613,2.8680186
-31.949333,1.9736311,2.8685355
-31.984772,1.9789307,2.8793826
-32.00714,2.0120065,2.9220586
-32.01239,2.0796711,3.0042362
-32.033607,2.1121202,3.0461965
-32.061123,2.1307964,3.0724936
-32.098167,2.1301167,3.0768275
-32.147198,2.1064053,3.0551019
-32.18187,2.1109576,3.065617
-32.223164,2.1031282,3.0621924
-32.279903,2.0674016,3.0273218
-32.316574,2.0691888,3.0350685
-32.366558,2.0474806,3.0163941
-32.395565,2.0631416,3.0400248
-32.41237,2.099292,3.0867858
-32.446552,2.10515,3.0994864
-32.490337,2.0950482,3.0943618
-32.52978,2.0924788,3.0978255
-32.573505,2.083257,3.0939636
-32.615074,2.0778582,3.0945177
-32.656757,2.0725846,3.0953465
-32.70655,2.0551934,3.0828042
-32.742886,2.058751,3.0937457
-32.787388,2.0502043,3.0913477
-32.829567,2.0454533,3.0933065
-32.87774,2.0323188,3.0861235
-32.915073,2.035124,3.0967236
-32.957558,2.0307634,3.0995297
-33.00757,2.0162528,3.091299
-33.05431,2.00674,3.0887413
-33.097206,2.0028014,3.0924625
-33.142006,1.9965899,3.0938368
-33.186474,1.9911206,3.0961752
-33.232906,1.9833958,3.0962048
-33.282303,1.9722357,3.0926561
-33.3357,1.9564681,3.0842829
-33.384605,1.9468405,3.0827675
-33.460297,1.904702,3.0462542
-33.644276,1.7324452,2.8695898
-33.702812,1.7148526,2.8604836
-33.7482,1.7134044,2.868959
-33.802704,1.7014942,2.8663669
-33.863037,1.6833069,2.8572636
-33.911873,1.6788232,2.8630285
-33.96133,1.6739113,2.8685112
-34.02137,1.6574857,2.8619366
-34.084354,1.6383643,2.8527431
-34.133274,1.6351593,2.8606362
-34.186577,1.6274748,2.8639789
-34.240574,1.6193924,2.867105
-34.308445,1.5970736,2.855496
-34.356236,1.5962992,2.866723
-34.410763,1.5887887,2.871088
-34.478382,1.568296,2.8621502
-34.53161,1.5629058,2.869175
-34.599255,1.5434539,2.8618479
-34.658592,1.5327783,2.8638673
-34.721035,1.5194798,2.8634267
-34.782547,1.5075383,2.8646383
-34.855515,1.4851093,2.8553715
-34.909206,1.4815104,2.8656368
-34.97379,1.4680028,2.8660336
-35.04104,1.4524956,2.8646774
-35.122585,1.4244187,2.8509083
-35.18495,1.4144537,2.8557606
-35.24441,1.4074862,2.863884
-35.306496,1.3985178,2.8702517
-35.37879,1.3809559,2.868311
-35.429893,1.3823526,2.8855362
-35.486725,1.3789859,2.8982406
-35.547474,1.3725388,2.9081378
-35.61739,1.3586848,2.9110117
-35.682343,1.3494387,2.9187117
-35.725216,1.3588326,2.9448876
-28.449492,1.8264136,2.615716
-28.527756,1.9234812,2.724609
-28.57189,1.9382713,2.7377505
-28.618633,1.9607656,2.760027
-28.664013,1.9808788,2.7796636
-28.712229,2.0099823,2.8099608
-28.753403,2.020889,2.8190975
-28.795238,2.0344465,2.8314614
-28.832565,2.0354488,2.8292184
-28.873995,2.0492404,2.8420868
-28.916565,2.0675964,2.8604383
-28.955667,2.075912,2.8671122
-28.99063,2.0709803,2.8583121
-29.025854,2.0667737,2.8504534
-29.066298,2.081128,2.8645425
-29.105265,2.0911365,2.8736253
-29.143208,2.0980642,2.8791842
-29.179573,2.0993521,2.8781915
-29.215439,2.0988195,2.875145
-29.253534,2.1079662,2.8836203
-29.290598,2.1133807,2.8877897
-29.327005,2.1163354,2.8891492
-29.362564,2.115546,2.886176
-29.400005,2.1244557,2.8947692
-29.437395,2.1341074,2.9043398
-29.473013,2.134885,2.9035034
-29.508394,2.1344738,2.901349
-29.543268,2.1309447,2.8955913
-29.578104,2.1268635,2.8892655
-29.614176,2.1312182,2.8930292
-29.64605,2.1041934,2.8596687
-29.681458,2.1023014,2.8561974
-29.717617,2.1069274,2.86055
-29.753023,2.105219,2.8574762
-29.788456,2.1036017,2.8546004
-29.824568,2.109793,2.8610868
-29.860077,2.1096458,2.8601356
-29.895798,2.112807,2.863205
-29.931091,2.109625,2.8588295
-29.966501,2.107821,2.8561788
-30.001966,2.1067507,2.8544903
-30.037563,2.109635,2.8575897
-30.073,2.1074605,2.8547664
-30.10844,2.1021578,2.8483152
-30.144083,2.1542487,2.910159
-30.179121,2.158142,2.9148154
-30.213747,2.182727,2.9441485
-30.248915,2.1687722,2.9277706
-30.308195,1.4712496,2.099257
-30.350697,1.4453185,2.0688996
-30.393229,1.4278667,2.0487251
-30.458279,1.0553119,1.6068535
-30.503101,1.0606661,1.6140451
-30.548246,1.0609884,1.6153746
-30.593618,1.0588536,1.6139016
-30.63897,1.0574796,1.6134462
-30.68421,1.0575087,1.6147704
-30.729303,1.0589397,1.6178727
-30.77364,1.0662677,1.6280832
-30.81365,1.1045332,1.6750922
-30.825895,1.3290567,1.9429932
-30.865482,1.3500998,1.9696932
-30.908577,1.347503,1.9684782
-30.95772,1.3103952,1.9265037
-31.026365,1.1702502,1.7626939
-31.03769,1.3429508,1.9693341
-31.05936,1.4483671,2.0963273
-30.952038,2.1584988,2.9382997
-30.987484,2.1580467,2.9398422
-31.02499,2.1487384,2.931016
-31.05933,2.1535873,2.939005
-31.097063,2.1444774,2.9306092
-31.13988,2.1163325,2.899867
-31.187119,2.0736542,2.8521228
-31.223047,2.075091,2.8564997
-31.259865,2.0734375,2.8573308
-31.297842,2.0680645,2.8538828
-31.334772,2.0666099,2.855145
-31.371342,2.0665245,2.8581138
-31.409147,2.0627275,2.8568206
-31.447245,2.0583992,2.8550057
-31.48608,2.0522745,2.8511887
-31.523706,2.0500567,2.852058
-31.56002,2.0517352,2.8575902
-31.598883,2.0465581,2.855197
-31.636894,2.044015,2.8559914
-31.676188,2.0384219,2.8533273
-31.714342,2.0360897,2.854579
-31.752554,2.0338619,2.8560581
-31.790558,2.0323677,2.8584957
-31.828066,2.0322337,2.8626204
-31.86969,2.0227911,2.8560257
-31.908987,2.0191097,2.856246
-31.944384,2.0243022,2.8668723
-31.982603,2.0233324,2.8704486
-31.99749,2.0717955,2.9313645
-32.023876,2.0946734,2.9626737
-32.032978,2.151853,3.033658
-32.06201,2.1673112,3.056448
-32.093014,2.178481,3.074359
-32.127064,2.183518,3.0852795
-32.171913,2.1681964,3.072878
-32.211693,2.162918,3.072157
-32.246815,2.1664062,3.0816135
-32.285007,2.1644347,3.0849094
-32.323956,2.1613402,3.087031
-32.3669,2.151592,3.081666
-32.405693,2.149347,3.0850015
-32.448586,2.1404688,3.0808907
-32.48568,2.1415207,3.0882187
-32.526566,2.1365619,3.088822
-32.57063,2.1268427,3.0841508
-32.612545,2.120919,3.0839252
-32.6534,2.1169481,3.08604
-32.696747,2.1094563,3.0843053
-32.73984,2.1027055,3.0835466
-32.781837,2.0979042,3.0851226
-32.82394,2.0932312,3.0869775
-32.86657,2.088084,3.0884333
-32.912296,2.0788536,3.085453
-32.956047,2.0727754,3.086153
-32.999046,2.068033,3.088488
-33.04702,2.0568392,3.083774
-33.09477,2.0464017,3.080069
-33.139996,2.0397,3.0806785
-33.184902,2.0337374,3.082261
-33.231327,2.0261357,3.082181
-33.28119,2.0145347,3.0778465
-33.32558,2.0102015,3.0816984
-33.37199,2.0036466,3.0832572
-33.426773,1.9872258,3.0741491
-33.63612,1.7858064,2.8626494
-33.68569,1.7789721,2.8648648
-33.7434,1.762934,2.8572183
-33.796867,1.7523565,2.8557324
-33.847992,1.7448745,2.8578053
-33.90287,1.7334921,2.8558369
-33.95797,1.7222984,2.8542776
-34.00856,1.7165041,2.858747
-34.06192,1.7079887,2.8604722
-34.121872,1.6927421,2.8551707
-34.178326,1.6817329,2.8546424
-34.234447,1.671494,2.8551526
-34.287468,1.6648805,2.8597393
-34.34894,1.649889,2.8556242
-34.405663,1.6402419,2.857417
-34.455235,1.6381707,2.867435
-34.51681,1.6243715,2.8652744
-34.579216,1.6102307,2.8630018
-34.638416,1.5996959,2.8647647
-34.701897,1.5854397,2.8628736
-34.760345,1.5764577,2.8667393
-34.821342,1.5654473,2.8687315
-34.89329,1.5446274,2.8608108
-34.958996,1.5301955,2.8598003
-35.02617,1.5148985,2.8581758
-35.08324,1.5092449,2.866736
-35.150272,1.4949749,2.8667088
-35.21694,1.4815052,2.867783
-35.295097,1.4584239,2.859375
-35.341576,1.4635019,2.8798475
-35.43614,1.4273419,2.8588543
-35.499416,1.4187169,2.8660188
-35.587265,1.3897562,2.8530626
-35.654915,1.3784175,2.8581295
-35.71365,1.374862,2.8712382
-35.77771,1.3672233,2.8805394
-35.871605,1.3357646,2.8665857
-28.435745,1.8389921,2.5690174
-28.530785,1.9758904,2.7264476
-28.576769,1.9955516,2.7456388
-28.620201,2.0097182,2.7584677
-28.664774,2.0277755,2.7760324
-28.710613,2.0503604,2.7990956
-28.756021,2.0730877,2.8224683
-28.795094,2.0789814,2.825995
-28.838514,2.0981967,2.8454547
-28.877632,2.1055782,2.850974
-28.917206,2.11496,2.8589792
-28.956396,2.1238222,2.8664756
-28.994465,2.1296384,2.870451
-29.029469,2.1254506,2.862605
-29.0665,2.1283066,2.8632464
-29.105017,2.1369565,2.8708987
-29.14253,2.142547,2.8750014
-29.180573,2.1507733,2.8823533
-29.218452,2.1591046,2.8899307
-29.254679,2.1611958,2.8901482
-29.288998,2.155132,2.880702
-29.327536,2.1682067,2.894246
-29.362276,2.1642318,2.8874798
-29.398586,2.1679742,2.8900433
-29.434462,2.1699047,2.8905277
-29.46984,2.1693835,2.888165
-29.504463,2.164498,2.8806548
-29.54029,2.1667054,2.8817415
-29.57607,2.1690073,2.8830304
-29.616129,2.2019975,2.9212537
-29.645716,2.1604993,2.8701353
-29.681469,2.163076,2.8720212
-29.71724,2.1663835,2.8748746
-29.752613,2.1665928,2.8740964
-29.788158,2.168809,2.8758163
-29.823605,2.170478,2.8769689
-29.85887,2.1703234,2.8760166
-29.894049,2.1689816,2.873724
-29.929285,2.1683693,2.8723965
-29.964622,2.169764,2.8735704
-29.99978,2.167416,2.8703294
-30.035097,2.1689925,2.8718972
-30.070328,2.1681032,2.8705869
-30.105457,2.1570785,2.8571672
-30.14091,2.2036688,2.9131594
-30.17581,2.2068863,2.9170518
-30.210608,2.2127497,2.9242134
-30.245312,2.2180629,2.9307995
-30.30498,1.507716,2.076489
-30.347765,1.4762173,2.039033
-30.390074,1.4646397,2.02565
-30.431194,1.4755316,2.0393972
-30.498743,1.1173525,1.609426
-30.54434,1.1106436,1.6022806
-30.59041,1.1002226,1.5907888
-30.636614,1.0905619,1.5803275
-30.682302,1.0874033,1.5777974
-30.726843,1.0945706,1.5877862
-30.771011,1.1037638,1.600317
-30.813528,1.1239054,1.6261015
-30.826921,1.3404305,1.8877144
-30.865595,1.3689802,1.9237113
-30.91079,1.3549547,1.9087205
-30.956474,1.3397794,1.8924708
-31.00806,1.2941923,1.8398871
-31.043669,1.3358784,1.8920298
-31.058311,1.4774182,2.0638409
-30.945335,2.2090456,2.9420867
-30.98021,2.2104993,2.9458556
-31.02779,2.1568408,2.88379
-31.049438,2.2155788,2.9562511
-31.084074,2.2179348,2.9613595
-31.129324,2.1792142,2.9174972
-31.176994,2.1343102,2.866394
-31.212511,2.1363626,2.8714604
-31.248909,2.1353464,2.8729582
-31.286455,2.130638,2.8701496
-31.32352,2.1279247,2.8698182
-31.360647,2.125311,2.8697028
-31.398241,2.1215377,2.8683062
-31.435495,2.1191256,2.868627
-31.471075,2.1218457,2.8751416
-31.50928,2.1171176,2.8729076
-31.547585,2.1124952,2.870904
-31.584585,2.1117415,2.8735876
-31.621134,2.112341,2.8779716
-31.658909,2.1099074,2.878862
-31.697744,2.1050766,2.8770223
-31.737707,2.097855,2.8724675
-31.776506,2.0938687,2.871842
-31.815659,2.0893676,2.870718
-31.854362,2.0862222,2.8712993
-31.89258,2.0844288,2.8735785
-31.92999,2.0846038,2.8782759
-31.967705,2.0842605,2.882465
-31.993595,2.1088068,2.9159493
-32.02298,2.1253495,2.9400983
-32.03148,2.1833677,3.0128493
-32.04896,2.2215836,3.0624032
-32.082336,2.2277403,3.0745182
-32.12696,2.2124314,3.0616798
-32.163303,2.2132516,3.0677748
-32.201996,2.209873,3.0690842
-32.243156,2.2023141,3.0656466
-32.28308,2.1973283,3.0653224
-32.319595,2.1985748,3.0723414
-32.36254,2.1889324,3.0668545
-32.403862,2.1824715,3.0651822
-32.439793,2.1852648,3.0743213
-32.470833,2.1960537,3.09278
-32.5108,2.1923547,3.0946279
-32.55124,2.1881688,3.096037
-32.59294,2.182289,3.0956244
-32.63398,2.1777446,3.0968738
-32.677925,2.1691053,3.0935616
-32.719204,2.1648166,3.0953636
-32.75934,2.1624541,3.099493
-32.80204,2.1566138,3.099783
-32.84698,2.1479142,3.0969558
-32.89167,2.1399555,3.095119
-32.937386,2.1309469,3.0922394
-32.97802,2.1292272,3.097763
-33.023148,2.1216893,3.0968385
-33.06888,2.1137035,3.0955596
-33.113407,2.1076403,3.0965981
-33.16174,2.0969942,3.0926366
-33.205173,2.0929925,3.0962954
-33.25528,2.0808916,3.0910296
-33.309418,2.064267,3.0808873
-33.35811,2.0548606,3.0789967
-33.404564,2.0485384,3.0807085
-33.52275,1.9572263,2.988194
-33.662872,1.8425772,2.8703704
-33.712414,1.8359742,2.872707
-33.762596,1.8289542,2.8747559
-33.81599,1.8186319,2.873345
-33.867012,1.8113756,2.8754978
-33.92183,1.8002605,2.8736024
-33.977913,1.788187,2.870863
-34.02415,1.7871904,2.8804197
-34.084892,1.7709131,2.873499
-34.10648,1.7964594,2.9122348
-34.145653,1.8032622,2.9306846
-34.240314,1.7528958,2.8874764
-34.309772,1.7295127,2.8737836
-34.374615,1.7114725,2.8661242
-34.42624,1.7071798,2.8734698
-34.48821,1.6929548,2.8703828
-34.542984,1.6862345,2.8755474
-34.604267,1.673559,2.874586
-34.662872,1.6638901,2.87706
-34.73697,1.6399889,2.8647113
-34.794884,1.6318846,2.8693428
-34.859535,1.6179078,2.8680267
-34.920834,1.6074746,2.8706932
-34.98476,1.5950654,2.8715425
-35.047085,1.5845346,2.8746138
-35.11639,1.5682228,2.8719358
-35.18289,1.5548964,2.8726459
-35.254013,1.5380168,2.8699703
-35.326073,1.5208676,2.8673282
-35.392094,1.5093915,2.8708167
-35.472385,1.4863234,2.862741
-35.540215,1.474302,2.866282
-35.610855,1.4603956,2.8682008
-35.708485,1.4249015,2.8486047
-35.795563,1.398849,2.838992
-28.387632,1.8463979,2.528306
-28.478767,1.9690864,2.6703558
-28.532654,2.0064454,2.710843
-28.576422,2.0203633,2.7234836
-28.621368,2.0381455,2.7408752
-28.66857,2.0629163,2.7667675
-28.719212,2.098435,2.8056822
-28.75885,2.1054127,2.810532
-28.799,2.1143765,2.8178735
-28.846,2.1440856,2.8502393
-28.884146,2.1489146,2.852848
-28.92259,2.1551006,2.857191
-28.960125,2.1588864,2.8587475
-28.997387,2.1621466,2.8597693
-29.034025,2.163624,2.8587399
-29.070621,2.1651993,2.8579216
-29.108728,2.1725295,2.86414
-29.146688,2.1799638,2.8705854
-29.184017,2.1856148,2.8749762
-29.222004,2.1945162,2.8833914
-29.258175,2.1965888,2.8836522
-29.293154,2.1937108,2.8780174
-29.327904,2.1896613,2.8710508
-29.364426,2.1939075,2.8742113
-29.401487,2.201409,2.8814073
-29.437084,2.2020593,2.8803968
-29.471186,2.1945813,2.8696256
-29.509403,2.2105951,2.887416
-29.54426,2.2077281,2.8824086
-29.579834,2.2093823,2.8829718
-29.617533,2.2263303,2.902182
-29.648432,2.194594,2.8623962
-29.683826,2.194618,2.86124
-29.719503,2.1972692,2.863359
-29.755127,2.2000132,2.8656812
-29.790634,2.2022157,2.867433
-29.826149,2.2051442,2.8701544
-29.861362,2.2049918,2.8692179
-29.896532,2.2042952,2.8677082
-29.931747,2.2043238,2.867166
-29.966991,2.2050781,2.8675919
-30.002043,2.2014778,2.8628101
-30.037254,2.2011425,2.862084
-30.072485,2.2015338,2.8623261
-30.10769,2.2007444,2.86122
-30.142992,2.2470458,2.917467
-30.177732,2.2534237,2.925249
-30.212309,2.2624314,2.9363132
-30.247385,2.2461238,2.9166775
-30.2829,2.226098,2.8926077
-30.349142,1.5312049,2.0480862
-30.394058,1.4682822,1.9721274
-30.458418,1.1185644,1.5476623
-30.505308,1.0978363,1.5232797
-30.551699,1.0880206,1.5122762
-30.597984,1.0814989,1.5053921
-30.644333,1.0757315,1.4995399
-30.68967,1.0802314,1.5062723
-30.735233,1.0823104,1.5101757
-30.783054,1.0667634,1.492794
-30.83047,1.0564139,1.4818425
-30.833948,1.3444412,1.8330193
-30.875393,1.3570151,1.8500023
-30.917135,1.3665268,1.8633695
-30.959599,1.3710833,1.8708296
-31.011251,1.325808,1.818016
-31.054146,1.3299727,1.825232
-31.070768,1.4624431,1.9878864
-30.945654,2.2462552,2.9387307
-30.98397,2.2319436,2.9234219
-31.024616,2.2089128,2.897676
-31.051205,2.2458591,2.9445243
-31.085669,2.2488492,2.9504013
-31.129944,2.2141726,2.9108925
-31.176912,2.1720898,2.8625822
-31.213938,2.16849,2.8608246
-31.250315,2.1675017,2.86231
-31.287844,2.1628458,2.8594708
-31.324116,2.1626801,2.8621354
-31.3614,2.1594787,2.8612404
-31.398958,2.1557515,2.8598118
-31.435543,2.1552544,2.8623614
-31.4728,2.1529796,2.8628716
-31.50922,2.1533031,2.8665962
-31.546787,2.1506045,2.8667917
-31.585121,2.146139,2.8649707
-31.62331,2.1424026,2.8641257
-31.662071,2.1375277,2.862022
-31.698929,2.1377313,2.8660917
-31.735538,2.1386545,2.8711162
-31.774773,2.1334758,2.868957
-31.814655,2.1271696,2.8655639
-31.854666,2.1209779,2.8624196
-31.89341,2.1179903,2.8631973
-31.931366,2.1169622,2.8664107
-31.968487,2.117887,2.872045
-31.991657,2.1478457,2.9122086
-32.019135,2.1679943,2.9407759
-32.02932,2.2219663,3.0094223
-32.05139,2.2507567,3.0482621
-32.08381,2.2587485,3.0625672
-32.119995,2.2594807,3.0683875
-32.155853,2.260922,3.075141
-32.21254,2.2246463,3.0376067
-32.242916,2.23669,3.0570679
-32.280384,2.2360308,3.0616856
-32.31612,2.238513,3.0700912
-32.351112,2.242304,3.080124
-32.398056,2.226209,3.0669956
-32.432022,2.2320297,3.079616
-32.4689,2.2331097,3.0867949
-32.508057,2.230677,3.0899854
-32.547665,2.2277565,3.0927248
-32.58852,2.223152,3.093624
-32.62987,2.21807,3.0940952
-32.67576,2.2065308,3.0872169
-32.719837,2.198128,3.0841146
-32.759964,2.1958287,3.0882006
-32.802658,2.1900766,3.088427
-32.845478,2.1844573,3.088942
-32.887135,2.1807506,3.0917888
-32.93192,2.1730258,3.0901575
-32.975548,2.1672173,3.090867
-33.019745,2.1609564,3.0911994
-33.063625,2.1554244,3.0925074
-33.112633,2.143567,3.0867543
-33.159576,2.1348066,3.0846915
-33.208096,2.1244454,3.0809708
-33.252583,2.1195016,3.0835547
-33.29956,2.1117845,3.0831494
-33.350067,2.100151,3.0784855
-33.394485,2.0962334,3.0826898
-33.46012,2.0675588,3.0592175
-33.659813,1.8837245,2.861992
-33.705803,1.8812611,2.8687449
-33.759464,1.8703146,2.8661757
-33.808228,1.8652909,2.8703985
-33.86692,1.8495467,2.8628697
-33.917046,1.843723,2.866568
-33.966248,1.8392036,2.8718872
-34.025124,1.8246119,2.866252
-34.059063,1.8368859,2.8904438
-34.072243,1.8707383,2.9384441
-34.169,1.8176582,2.8910828
-34.2226,1.8100193,2.8938699
-34.273026,1.8059323,2.9007316
-34.315693,1.8098533,2.9164882
-34.380386,1.7921152,2.908867
-34.475082,1.7456455,2.8703961
-34.544136,1.7251334,2.8603883
-34.599644,1.7181838,2.8652754
-34.65705,1.7097685,2.8687973
-34.71994,1.6965938,2.8674436
-34.780106,1.686398,2.869524
-34.845863,1.6714847,2.866819
-34.90345,1.6644683,2.8727698
-34.970913,1.6489341,2.8699284
-35.031925,1.6396313,2.8739448
-35.10053,1.6240461,2.8715973
-35.16507,1.6125021,2.8737788
-35.22983,1.6011963,2.8764753
-35.299225,1.5863698,2.8757734
-35.370796,1.5702004,2.8739724
-35.444588,1.5527034,2.871107
-35.514828,1.5386841,2.8721557
-35.58468,1.5254633,2.8743281
-35.661957,1.5066895,2.8711152
-35.771793,1.4623902,2.842185
-28.496948,2.0474133,2.7106009
-28.538004,2.0543132,2.714902
-28.592073,2.0940526,2.7590194
-28.631077,2.097512,2.7594132
-28.672129,2.1066463,2.7667832
-28.721773,2.1394305,2.8029246
-28.766737,2.1612186,2.8258877
-28.804695,2.1645339,2.8265624
-28.8492,2.1872027,2.85084
-28.888693,2.1963348,2.8587976
-28.926992,2.2024693,2.8632145
-28.961826,2.1981268,2.8549838
-28.999205,2.201972,2.8568068
-29.035206,2.2015538,2.8535318
-29.073347,2.2087183,2.85959
-29.109266,2.2084942,2.8567367
-29.147684,2.217738,2.8655257
-29.1835,2.217708,2.863093
-29.224586,2.2390463,2.8868546
-29.26018,2.2392173,2.8848577
-29.294754,2.2350962,2.877699
-29.329397,2.2310636,2.87073
-29.366346,2.23778,2.8770037
-29.403034,2.2439687,2.8827233
-29.438997,2.2471166,2.884811
-29.473295,2.2415657,2.8763294
-29.50953,2.2467842,2.8811297
-29.546782,2.2590141,2.894618
-29.581966,2.2593956,2.8936687
-29.615599,2.2491722,2.8797932
-29.650517,2.2472146,2.87614
-29.684443,2.2371614,2.8626342
-29.71986,2.2385297,2.8632321
-29.75558,2.2431388,2.867896
-29.790905,2.2446911,2.8688931
-29.826086,2.2450736,2.8685384
-29.861206,2.2449167,2.8676062
-29.896282,2.2442195,2.866095
-29.931332,2.242982,2.8640037
-29.966368,2.2412043,2.861333
-30.001461,2.240146,2.859631
-30.036612,2.2404408,2.8596773
-30.07186,2.2458723,2.8661246
-30.10687,2.2400386,2.8588057
-30.142159,2.3087459,2.9432282
-30.176636,2.310032,2.9448314
-30.229822,1.1820543,1.557991
-30.273476,1.2378354,1.626823
-30.30515,1.6022041,2.075152
-30.3505,1.5086706,1.9605889
-30.393402,1.4928417,1.9416656
-30.4401,1.4222636,1.8555565
-30.50662,1.098994,1.4590306
-30.552792,1.0961874,1.4564972
-30.599249,1.0909793,1.4511266
-30.644913,1.094713,1.4568543
-30.69121,1.0922642,1.4550977
-30.717173,1.2593267,1.6615753
-30.766632,1.2211821,1.616178
-30.813223,1.2089798,1.6027503
-30.861172,1.1893544,1.5803323
-30.881847,1.3446674,1.7725868
-30.91847,1.3874595,1.8268757
-30.95385,1.4328392,1.8844075
-30.989676,1.4713821,1.933629
-31.02872,1.4899132,1.9584117
-31.06846,1.5035176,1.9772487
-31.110516,1.5053046,1.9817152
-31.167322,1.4414032,1.9059353
-31.309792,1.0169537,1.3895202
-31.043472,2.3036911,2.9648376
-31.0886,2.263498,2.9179606
-31.12579,2.2565792,2.9118404
-31.171959,2.2172801,2.8663096
-31.208673,2.2143335,2.86525
-31.245451,2.2114851,2.8644047
-31.28173,2.2106063,2.8660522
-31.318617,2.2079546,2.8656325
-31.355965,2.2041578,2.8639145
-31.393803,2.1992195,2.8609056
-31.430271,2.198734,2.8634057
-31.46741,2.1964836,2.8638558
-31.504826,2.1937132,2.863771
-31.54162,2.1929035,2.8661609
-31.579382,2.1897166,2.8657646
-31.618652,2.1829233,2.861103
-31.656593,2.1799488,2.8611665
-31.693596,2.179546,2.8644395
-31.73088,2.1786268,2.8671837
-31.769508,2.17473,2.8664331
-31.808495,2.1703262,2.8651752
-31.846207,2.1691046,2.8678555
-31.885077,2.1655312,2.8678064
-31.924887,2.1602285,2.8657851
-31.96219,2.1605496,2.870626
-31.988224,2.1842067,2.9035606
-32.012627,2.2103484,2.939515
-32.02362,2.2621396,3.006209
-32.042778,2.296234,3.0517073
-32.0757,2.3029664,3.0645275
-32.113384,2.3006692,3.0666533
-32.160393,2.281495,3.048767
-32.20306,2.270956,3.0413132
-32.236717,2.2768805,3.053567
-32.30015,2.2309492,3.004314
-32.31717,2.2660694,3.051444
-32.352192,2.2698758,3.0614738
-32.37334,2.2966218,3.0987377
-32.42616,2.2711635,3.0743327
-32.45959,2.2776556,3.0878167
-32.497875,2.2764542,3.092317
-32.53697,2.2741673,3.0956497
-32.57691,2.2708027,3.0978298
-32.61971,2.2633893,3.0953765
-32.662666,2.2561097,3.0932126
-32.706593,2.2477772,3.0899515
-32.748627,2.2425463,3.0904522
-32.793705,2.233306,3.0864062
-32.835587,2.2289314,3.0881739
-32.874565,2.2288084,3.0950136
-32.917046,2.2240958,3.0966387
-32.96491,2.2124732,3.0903893
-33.007668,2.2080383,3.0926166
-33.05053,2.2037358,3.0951314
-33.09668,2.1954834,3.0932274
-33.144382,2.1856356,3.0896406
-33.192287,2.1759455,3.0863962
-33.23898,2.1681542,3.0854926
-33.288692,2.157045,3.0809464
-33.334293,2.1512995,3.0827012
-33.380512,2.145125,3.0841184
-33.441616,2.1218565,3.0662384
-33.641277,1.9393744,2.8677812
-33.687103,1.9369473,2.8743615
-33.73807,1.9289551,2.8747973
-33.795864,1.9137273,2.8672447
-33.844646,1.9089344,2.8716583
-33.89563,1.9020329,2.8738675
-33.94307,1.899261,2.8808846
-34.01879,1.8667345,2.8547745
-34.04248,1.8896694,2.890882
-34.07067,1.9075794,2.9214234
-34.170223,1.8521674,2.8705645
-34.227177,1.8413141,2.8695364
-34.270992,1.8440366,2.883729
-34.3277,1.8341072,2.8841105
-34.376118,1.8326924,2.894071
-34.430866,1.8253527,2.8976984
-34.481743,1.822062,2.90596
-34.535606,1.816191,2.9115887
-34.60248,1.7984383,2.9044828
-34.69507,1.7574186,2.8723946
-34.77411,1.7298737,2.8553085
-34.828472,1.7254865,2.8635616
-34.895027,1.7104385,2.8605437
-34.9576,1.699425,2.8621278
-35.024075,1.6854041,2.8607454
-35.084633,1.6770084,2.8656373
-35.15159,1.6634698,2.8653002
-35.21065,1.6571302,2.8728728
-35.273006,1.6483359,2.8780842
-35.341263,1.6349885,2.8787532
-35.411057,1.6208394,2.8788686
-35.484985,1.6037877,2.876244
-35.552734,1.5922849,2.8797283
-35.620045,1.5815618,2.8843102
-35.727062,1.5397177,2.8569484
-35.80896,1.5186567,2.8515525
-28.400684,1.9490788,2.5315604
-28.496687,2.0815375,2.6893635
-28.547447,2.1115987,2.7221951
-28.596382,2.138764,2.7516346
-28.637987,2.1489193,2.7603679
-28.703331,2.2211838,2.8454227
-28.730747,2.196624,2.8118129
-28.76876,2.199787,2.8123164
-28.810875,2.2147477,2.8274255
-28.851833,2.2273698,2.8397722
-28.892958,2.2413435,2.853897
-28.931374,2.2480319,2.859158
-28.9669,2.246181,2.8539877
-29.005878,2.2555485,2.8627458
-29.043373,2.260696,2.866397
-29.079145,2.260373,2.863387
-29.116125,2.2644813,2.8659396
-29.15569,2.2786088,2.8809752
-29.187714,2.2649312,2.8617172
-29.227604,2.2817485,2.8802738
-29.263126,2.281908,2.8783088
-29.297915,2.2790518,2.8726935
-29.333988,2.2818825,2.87421
-29.370525,2.2872975,2.8790197
-29.408337,2.2996597,2.892537
-29.443502,2.2996674,2.8908205
-29.478088,2.29665,2.8854332
-29.512182,2.2906039,2.876367
-29.54853,2.2977421,2.883759
-29.583775,2.2987373,2.883606
-29.618265,2.2948298,2.8774447
-29.650963,2.2772713,2.854392
-29.686348,2.2785327,2.8548164
-29.721193,2.2755117,2.8499994
-29.75676,2.2788308,2.8531518
-29.791893,2.27849,2.8518367
-29.82719,2.2801166,2.8530521
-29.862503,2.2824597,2.8552446
-29.897594,2.2823915,2.8545184
-29.93261,2.2811623,2.8524313
-29.967583,2.2787714,2.8489795
-30.002573,2.2758436,2.8449426
-30.037731,2.2767615,2.8457785
-30.072924,2.2802744,2.8499284
-30.108128,2.2907643,2.862853
-30.143253,2.3564382,2.944594
-30.17769,2.345196,2.930616
-30.225046,1.5784173,1.9757047
-30.266254,1.5993221,2.0019684
-30.304823,1.6829259,2.10641
-30.346342,1.6664774,2.0863428
-30.389412,1.6276085,2.0384598
-30.464924,1.0964236,1.3777456
-30.505693,1.172365,1.4730821
-30.55024,1.1858463,1.4907608
-30.595173,1.1925616,1.5001216
-30.639406,1.2050169,1.5167294
-30.686207,1.1925831,1.5024791
-30.71882,1.2989879,1.6361403
-30.77316,1.2243044,1.5446849
-30.814615,1.2515631,1.5801044
-30.855743,1.2776711,1.6141825
-30.879541,1.4093158,1.7794642
-30.867699,1.73679,2.1879616
-30.906958,1.7436728,2.1982632
-30.988358,1.5263467,1.9303894
-31.027151,1.5453706,1.9560399
-31.047375,1.6522481,2.0907278
-31.088009,1.6558514,2.097384
-31.13761,1.6197662,2.0549583
-31.309532,1.0693324,1.3756146
-31.047155,2.3273942,2.9359179
-31.081934,2.328503,2.939477
-31.121637,2.3110962,2.9202213
-31.17105,2.25972,2.8590827
-31.208225,2.2549577,2.8556876
-31.245502,2.2502956,2.8525128
-31.28175,2.2494462,2.854136
-31.3188,2.2462208,2.8529196
-31.355925,2.2430959,2.8519201
-31.392914,2.2406886,2.8518987
-31.429537,2.2396138,2.853612
-31.465761,2.2398686,2.8570518
-31.50333,2.2365277,2.8561625
-31.540976,2.2332897,2.855496
-31.57893,2.2295418,2.8543
-31.61721,2.2252839,2.8525796
-31.655584,2.2211337,2.85109
-31.69355,2.2183144,2.8513312
-31.731583,2.2156003,2.8517995
-31.769156,2.214212,2.8539891
-31.807308,2.211707,2.8549109
-31.845526,2.2093074,2.856063
-31.884924,2.2045789,2.8544745
-31.923859,2.2011783,2.854611
-31.96083,2.2021387,2.860159
-31.985312,2.2286716,2.896892
-32.0075,2.2588737,2.9381151
-32.02945,2.288494,2.9786549
-32.042694,2.3338459,3.0382843
-32.074947,2.3417695,3.0525756
-32.09861,2.3654377,3.0859852
-32.167225,2.306713,3.0198894
-32.221455,2.2758925,2.9877229
-32.230747,2.3250544,3.0521479
-32.259327,2.3394303,3.0746527
-32.28907,2.351474,3.094411
-32.36744,2.2823615,3.0167675
-32.408104,2.2773705,3.016343
-32.417057,2.323701,3.0775166
-32.453716,2.3248155,3.0845528
-32.49838,2.3135695,3.076922
-32.5367,2.3125384,3.0816174
-32.575848,2.3104353,3.085145
-32.61744,2.3049037,3.0847058
-32.66117,2.2965536,3.0810409
-32.70426,2.2895186,3.0790725
-32.745438,2.2855544,3.0808754
-32.78964,2.277612,3.078096
-32.83274,2.2715662,3.0776944
-32.872536,2.270327,3.0830941
-32.916294,2.2639594,3.0825748
-32.963276,2.2536576,3.077567
-33.006905,2.2481565,3.0783482
-33.051113,2.2422125,3.0787458
-33.09545,2.2364097,3.0794497
-33.143612,2.2261302,3.0750685
-33.18965,2.2188916,3.0743928
-33.235374,2.2123773,3.07471
-33.28029,2.2071586,3.0766783
-33.331593,2.194643,3.0703373
-33.380226,2.185731,3.0683427
-33.423134,2.183819,3.074596
-33.584545,2.046728,2.9252315
-33.6856,1.9812891,2.8590183
-33.732502,1.9779699,2.8645291
-33.783596,1.970283,2.865191
-33.83589,1.9616401,2.8649368
-33.886276,1.9554226,2.86763
-33.93786,1.948251,2.8694096
-33.985336,1.9457276,2.876646
-34.04042,1.9355454,2.8753653
-34.060425,1.9617274,2.915381
-34.115055,1.952394,2.9153605
-34.87788,1.2339737,2.1178627
