x,y,z
-48.577694,1.7226164,4.0246096
-49.299797,1.6125178,4.0028524
-49.99932,1.511455,3.9931626
-50.810966,1.3893609,3.972478
-51.63963,1.267986,3.9581676
-52.64278,1.113466,3.9258547
-53.580124,0.9784477,3.9147615
-54.55107,0.8414502,3.909307
-15.501791,2.309651,3.9417195
-15.1074915,2.1649852,3.756297
-16.898281,2.576777,4.115049
-17.042274,2.5729237,4.0712795
-18.127481,2.7025297,4.0544004
-18.451345,2.7531033,4.072945
-18.733498,2.793933,4.0829287
-18.980667,2.82652,4.085608
-19.192148,2.8503351,4.080122
-19.415104,2.8786092,4.0805907
-19.686134,2.9221177,4.0989537
-19.808928,2.9235592,4.0720916
-20.04393,2.959001,4.083817
-20.177134,2.965145,4.063722
-20.365547,2.988774,4.0641155
-20.54621,3.0110703,4.0639057
-20.740837,3.0387254,4.0707436
-20.941183,3.0692964,4.0819044
-21.025925,3.0642433,4.052384
-21.187685,3.0843365,4.0528226
-21.37667,3.1141953,4.065582
-21.520508,3.1303213,4.0628457
-21.639992,3.1391535,4.052006
-21.80258,3.1630979,4.0599384
-21.914356,3.1707358,4.0487947
-22.029415,3.1800876,4.040225
-22.167871,3.198173,4.042879
-22.285805,3.2098563,4.0382223
-22.42606,3.2301004,4.0447006
-22.516388,3.233283,4.030466
-22.653252,3.2537644,4.0383167
-22.697441,3.2411523,4.0049734
-22.727188,3.223304,3.965133
-22.888079,3.2544465,3.9878144
-22.89655,3.2290597,3.9387693
-23.016674,3.2460966,3.9442914
-23.103376,3.2509594,3.9345567
-23.146908,3.2394524,3.9038954
-23.28125,3.2637982,3.9201236
-23.319675,3.2508385,3.8880262
-23.394922,3.2527404,3.8755846
-23.508204,3.27046,3.8843014
-23.54171,3.2561393,3.8509657
-23.634665,3.2664886,3.8505573
-23.713387,3.2714095,3.8432333
-23.73561,3.2528305,3.804665
-23.843437,3.2707865,3.815321
-23.925728,3.2783875,3.8123803
-23.944134,3.2585588,3.77253
-24.01899,3.263517,3.7664294
-24.143951,3.2912042,3.791616
-24.154608,3.2682896,3.747931
-24.23051,3.2748713,3.7447786
-24.321148,3.2886477,3.7518
-24.364391,3.2809823,3.7294683
-24.416283,3.277494,3.7130508
-24.49532,3.2870789,3.714983
-24.562485,3.291449,3.7098932
-24.60334,3.2834482,3.6876898
-24.691679,3.2987666,3.698339
-24.760592,3.3050706,3.6965852
-24.778584,3.286345,3.6596985
-24.846561,3.292703,3.6583462
-24.891108,3.2875066,3.6407957
-24.97068,3.3004951,3.6492505
-25.002483,3.2891488,3.6232214
-25.079378,3.3015237,3.6312022
-25.12955,3.3002076,3.6197805
-25.173111,3.2955565,3.6036983
-25.213062,3.2890906,3.5851102
-25.301315,3.3092146,3.6050372
-25.343235,3.3043282,3.589016
-25.391579,3.3031719,3.5785108
-25.427134,3.2949834,3.5579014
-25.511295,3.3146558,3.5779924
-25.553024,3.3104477,3.5634413
-25.61351,3.3173366,3.5652394
-25.645473,3.307753,3.5430326
-25.71802,3.3224108,3.5565343
-25.76428,3.3217459,3.547667
-25.834164,3.3356946,3.5604882
-25.851223,3.3175921,3.526095
-25.907999,3.324066,3.5281358
-25.94731,3.3198895,3.5145106
-26.009033,3.3301108,3.5223913
-26.027931,3.3131857,3.4899788
-26.06921,3.3106675,3.479093
-26.130463,3.3214538,3.4881983
-26.174114,3.3209677,3.480576
-26.229143,3.3283358,3.4848413
-26.24229,3.3075564,3.446928
-26.300285,3.317389,3.4551096
-26.348047,3.3205192,3.4533277
-26.409235,3.3333771,3.4663548
-26.441303,3.3259814,3.4488916
-26.472857,3.3182383,3.4309611
-26.543062,3.3386881,3.4558783
-26.587646,3.3409142,3.4532795
-26.632114,3.3432946,3.451014
-26.655888,3.3302975,3.4254055
-26.703196,3.3351586,3.4270911
-26.750328,3.340187,3.4291391
-26.790405,3.340004,3.4233155
-26.830986,3.3404016,3.4184651
-26.860235,3.3319097,3.4000535
-26.902998,3.3343549,3.398501
-26.933477,3.326956,3.381888
-26.977753,3.3310244,3.382997
-27.019703,3.3334167,3.3816152
-27.059923,3.3345737,3.3784122
-27.089405,3.326671,3.361277
-27.130604,3.328984,3.3600092
-27.187353,3.345302,3.3805375
-27.221964,3.3423622,3.3713074
-27.26835,3.3502185,3.3789167
-27.286137,3.3321273,3.34626
-27.316803,3.3257408,3.3318424
-27.369873,3.3405325,3.35049
-27.411268,3.344709,3.3526897
-27.446686,3.343365,3.3463488
-27.481598,3.3416543,3.3394985
-27.515068,3.3386254,3.3306465
-27.547615,3.3347425,3.3205142
-27.594114,3.3452368,3.3329864
-27.638487,3.3539846,3.3428125
-27.667654,3.3470895,3.3281493
-27.69603,3.3393097,3.3121371
-27.726742,3.334003,3.3000607
-27.771503,3.3442025,3.3124642
-27.815119,3.353589,3.323676
-27.856342,3.360701,3.3313851
-27.884323,3.3529036,3.3156219
-27.908285,3.3403099,3.2923145
-27.936579,3.332638,3.2768226
-27.982765,3.3465276,3.2955146
-28.020227,3.3502982,3.2982621
-28.058342,3.3551645,3.302816
-28.09127,3.3537602,3.2974858
-28.119228,3.3460448,3.282187
-28.14807,3.3393843,3.2686024
-28.184793,3.3431787,3.2716875
-28.234507,3.364919,3.303402
-28.268612,3.3659909,3.3022985
-28.298767,3.3616917,3.2926908
-28.32412,3.3504963,3.272131
-28.359938,3.3543267,3.27558
-28.396635,3.3597631,3.2816548
-28.441095,3.3773293,3.3071747
-28.470839,3.3729758,3.2977357
-28.500647,3.3686988,3.2884622
-28.529577,3.3629887,3.276939
-28.559525,3.3588629,3.267994
-28.587723,3.351786,3.2543626
-28.628166,3.365505,3.2741127
-28.662176,3.3687212,3.2770872
-28.696363,3.3725424,3.2810884
-28.72626,3.368845,3.2730718
-28.750221,3.3540378,3.24725
-28.781952,3.3535347,3.2444453
-28.819391,3.364334,3.2598634
-28.85706,3.3762693,3.2771726
-28.88771,3.3745184,3.27252
-28.918375,3.3728483,3.2680426
-28.944788,3.3620358,3.2488818
-28.977425,3.36462,3.2513447
-29.007952,3.362673,3.246551
-29.04967,3.3870285,3.2842207
-29.079504,3.3842394,3.2781734
-29.108965,3.3804958,3.270629
-29.136478,3.3716698,3.254919
-29.164171,3.3629076,3.239349
-29.194317,3.360413,3.2339401
-29.22963,3.3724802,3.2521062
-29.263754,3.382062,3.2663126
-29.295238,3.3844867,3.2689986
-29.325161,3.382328,3.264319
-29.351292,3.36779,3.2396522
-29.38004,3.361101,3.2277203
-29.412457,3.3669589,3.236137
-29.444159,3.3708243,3.2413769
-29.480349,3.3924742,3.2754645
-29.509823,3.389229,3.2692852
-29.540588,3.3912709,3.2717137
-29.572227,3.3975663,3.2810788
-29.60049,3.3888142,3.2661014
-29.628838,3.3796089,3.2504268
-29.657188,3.3694282,3.2332082
-29.687248,3.3676777,3.2296987
-29.718119,3.37071,3.2339883
-29.748827,3.3733003,3.237605
-29.78148,3.3900988,3.2643166
-29.811337,3.3886666,3.261497
-29.84159,3.3904533,3.2639422
-29.870895,3.3839376,3.2529573
-29.900496,3.3790677,3.2446837
-29.930689,3.3800368,3.2459283
-29.96066,3.378464,3.2430892
-29.992619,3.4089448,3.2923255
-30.022284,3.4075298,3.2898288
-30.051777,3.4009476,3.278985
-30.081121,3.382904,3.2495747
-30.11107,3.378046,3.2416115
-30.141167,3.3848023,3.2525468
-30.171032,3.4000268,3.2772737
-30.20065,3.410083,3.2936506
-30.2302,3.4149704,3.3016768
-30.260004,3.411544,3.2962484
-30.289831,3.4092436,3.2926884
-30.319782,3.405972,3.2875934
-30.348827,3.415356,3.3030844
-30.377895,3.4221926,3.3144798
-40.68365,0.8942027,0.35183477
-40.688786,0.94384575,0.44204855
-40.70784,0.98640704,0.52233315
-40.723053,1.0303926,0.60456276
-40.720245,1.0823088,0.69770527
-40.749676,1.1189206,0.76966
-40.720634,1.1817522,0.87761545
-40.77809,1.2050545,0.93128014
-40.663994,1.3044517,1.0888114
-40.786743,1.2983754,1.1024837
-40.665157,1.3990571,1.2610879
-40.77602,1.3982522,1.2821922
-40.670437,1.4900658,1.4281368
-40.793777,1.484098,1.442615
-40.66198,1.5850995,1.6001987
-40.676746,1.6240754,1.6747093
-40.647823,1.680593,1.7724013
-40.6678,1.7166953,1.8429656
-40.76483,1.7217488,1.8727732
-40.747093,1.7726264,1.9628057
-40.8661,1.8129017,2.0626955
-40.920975,1.8349652,2.1153889
-40.96704,1.860436,2.1726131
-40.68304,2.2129855,2.767352
-40.7264,2.237332,2.82271
-40.74492,2.2703564,2.8888845
-40.76644,2.3021722,2.9535837
-40.787476,2.3340094,3.0183277
-40.794777,2.3703423,3.0885348
-40.814804,2.4021826,3.153286
-40.842342,2.431395,3.2149105
-40.849834,2.4670787,3.2842822
-40.84694,2.5058987,3.3573122
-40.920563,2.5199404,3.4011798
-40.970634,2.541681,3.4543152
-41.0132,2.5658576,3.5104465
-41.083458,2.5814908,3.5569096
-41.19434,2.5849106,3.5897427
-41.30525,2.5888224,3.6236434
-41.449,2.5833979,3.647582
-41.604816,2.575117,3.6690412
-41.736107,2.574806,3.7000694
-41.927216,2.5578048,3.7134757
-42.114082,2.5430298,3.7302785
-42.30774,2.527311,3.747036
-42.41935,2.5355527,3.7903242
-42.566147,2.534546,3.8244128
-42.730698,2.5293913,3.8549342
-42.932686,2.5149403,3.8767252
-44.25048,2.203777,3.5962062
-44.25886,2.2459786,3.680852
-44.245033,2.2937663,3.77104
-44.259632,2.3339,3.8534865
-44.27835,2.3728335,3.9347596
-44.278557,2.416295,4.0204234
-44.325417,2.4479427,4.094753
-44.665646,2.407721,4.1017957
-45.045456,2.3597507,4.1037474
-45.444103,2.30934,4.105835
-45.949326,2.235928,4.0897527
-46.45948,2.1641521,4.078361
-47.048183,2.077096,4.0569735
-47.593136,2.0032258,4.0507517
-48.24759,1.9077644,4.029991
-48.90148,1.81602,4.016717
-49.59323,1.719573,4.0041003
-50.268936,1.6303475,4.002
-51.18241,1.4942153,3.9681711
-52.048363,1.3730488,3.9522243
-52.91201,1.2570574,3.9463568
-53.931286,1.1139672,3.927144
-15.697672,2.482277,4.0373764
-15.302212,2.3417199,3.8544564
-15.044893,2.232663,3.700675
-16.914223,2.6541138,4.08361
-17.902292,2.7871425,4.1093373
-18.027336,2.7814708,4.068486
-18.355526,2.8303952,4.086724
-18.615856,2.8629212,4.0889864
-18.830097,2.884338,4.0804877
-19.059612,2.9111204,4.0790005
-19.261805,2.93155,4.0716243
-19.486568,2.959442,4.0736303
-19.707073,2.987371,4.076804
-19.897678,3.0079021,4.0726414
-20.10701,3.0349472,4.076888
-20.290249,3.0554628,4.0745945
-20.511192,3.0882528,4.087493
-20.597303,3.0815876,4.055093
-20.755753,3.097387,4.0496445
-20.936352,3.120894,4.0541086
-21.1299,3.1494718,4.065487
-21.24038,3.1529336,4.04743
-21.398052,3.17202,4.0488358
-21.540127,3.186958,4.045871
-21.663174,3.1964698,4.036852
-21.823132,3.2188194,4.0442457
-21.905785,3.216302,4.0213823
-22.028856,3.227793,4.016382
-22.049892,3.2051623,3.968948
-22.241697,3.2413201,3.9959452
-22.263714,3.2195132,3.9500246
-22.39284,3.2353587,3.95229
-22.471378,3.2339363,3.9328895
-22.512772,3.2195113,3.8969898
-22.672909,3.2483416,3.9173472
-22.697123,3.2282176,3.87453
-22.8419,3.252818,3.8903396
-22.895163,3.2439604,3.8627048
-22.93665,3.230811,3.8295717
-23.11493,3.270187,3.866267
-23.096565,3.2345657,3.803718
-23.239502,3.2616916,3.8250031
-23.300098,3.25716,3.8042994
-23.352385,3.2495503,3.779642
-23.500647,3.2808914,3.807891
-23.518059,3.2598045,3.7654338
-23.615349,3.2715526,3.7677908
-23.67147,3.2667093,3.7477708
-23.722715,3.2600284,3.7253995
-23.81205,3.2697356,3.725778
-23.88738,3.2739372,3.7188425
-23.9208,3.2603202,3.6874146
-23.99834,3.2660968,3.6830788
-24.085207,3.2764332,3.685367
-24.134556,3.2704659,3.6650848
-24.202843,3.2732453,3.6572423
-24.29842,3.2888656,3.6677217
-24.341286,3.2807214,3.644898
-24.402092,3.2810736,3.6342387
-24.507614,3.3028312,3.6542182
-24.562601,3.301209,3.641183
-24.570862,3.277295,3.5964046
-24.6899,3.3071241,3.6287174
-24.725676,3.2968569,3.6037364
-24.781914,3.296819,3.5935912
-24.84031,3.2981267,3.5855489
-24.90827,3.3045826,3.585134
-24.960438,3.3033247,3.5737042
-24.980106,3.2854364,3.5381818
-25.068974,3.3036983,3.5554776
-25.124554,3.3049657,3.548163
-25.177845,3.3052804,3.5396
-25.180601,3.2785041,3.4913344
-25.304909,3.317871,3.5405188
-25.349232,3.3141148,3.5263925
-25.388592,3.307746,3.5085034
-25.436445,3.306271,3.4979634
-25.515013,3.3225243,3.5138955
-25.563953,3.3222733,3.505465
-25.595549,3.3121352,3.4823961
-25.641005,3.3101728,3.4716134
-25.727322,3.3327353,3.4976902
-25.752106,3.3189597,3.4694533
-25.81344,3.3273554,3.4746032
-25.860472,3.3273535,3.467257
-25.90875,3.3283453,3.4615197
-25.958244,3.33034,3.4574137
-25.996483,3.3254342,3.4429708
-26.014599,3.3076904,3.4091225
-26.072397,3.3155696,3.4142404
-26.136992,3.3283057,3.426897
-26.18214,3.3286066,3.4207506
-26.214577,3.3205707,3.4019675
-26.238338,3.3066587,3.3742518
-26.314579,3.328736,3.4017234
-26.374203,3.339962,3.4127378
-26.42064,3.3423665,3.4103355
-26.431103,3.3194087,3.36899
-26.49384,3.3337698,3.385171
-26.553791,3.3466344,3.3991942
-26.598555,3.3487992,3.3968167
-26.626143,3.3383937,3.375072
-26.650394,3.3254135,3.3493757
-26.718235,3.3456154,3.3752284
-26.76663,3.3514616,3.3789296
-26.810848,3.354367,3.378159
-26.83071,3.3382392,3.3478136
-26.855892,3.3261662,3.3238125
-26.910599,3.337946,3.3371162
-26.948526,3.3364165,3.3297205
-26.990225,3.3381686,3.327536
-27.025362,3.334619,3.317121
-27.054655,3.326173,3.2990804
-27.105705,3.3364964,3.3105855
-27.140785,3.3332849,3.3009028
-27.202253,3.3535695,3.3282943
-27.234524,3.348332,3.315579
-27.261784,3.3385715,3.295776
-27.297731,3.336739,3.28854
-27.337133,3.3382616,3.2866735
-27.384298,3.3473516,3.296865
-27.425367,3.35101,3.298542
-27.458128,3.3468525,3.2878957
-27.479525,3.3315334,3.2595763
-27.525637,3.3406925,3.2701883
-27.573341,3.351896,3.2841458
-27.619814,3.3623219,3.2969608
-27.646042,3.3520691,3.276907
-27.674688,3.3442485,3.2607656
-27.713642,3.3474448,3.262257
-27.75509,3.3536267,3.26859
-27.801094,3.3652039,3.28363
-27.833996,3.3625615,3.2759957
-27.873215,3.3672166,3.2801065
-27.892353,3.348886,3.2474332
-27.92497,3.3460178,3.239583
-27.958817,3.3446913,3.2342587
-28.005793,3.3594518,3.2548413
-28.04531,3.3656354,3.2617207
-28.077667,3.3631847,3.254776
-28.102785,3.3515592,3.2331047
-28.137526,3.3522,3.2312303
-28.174427,3.3558786,3.234311
-28.2174,3.3680072,3.2510905
-28.253944,3.371925,3.2546892
-28.286825,3.3710299,3.2505727
-28.31447,3.3628273,3.2346926
-28.34534,3.3591375,3.2261481
-28.370878,3.3476093,3.2049603
-28.422743,3.3753054,3.247334
-28.462889,3.3863027,3.2627473
-28.493176,3.382503,3.2542367
-28.520695,3.3742974,3.2386212
-28.546833,3.36366,3.2190933
-28.578306,3.3615792,3.2134933
-28.614227,3.3670917,3.2202787
-28.65578,3.3827393,3.243599
-28.689552,3.385466,3.245976
-28.720167,3.382757,3.2395587
-28.743734,3.3670356,3.2119985
-28.77243,3.3604345,3.1993184
-28.809326,3.3695574,3.2122993
-28.844704,3.3762631,3.2213998
-28.880392,3.3840857,3.232377
-28.911499,3.382889,3.228695
-28.940708,3.3777156,3.218565
-28.964699,3.3609269,3.189508
-28.995356,3.3584287,3.1838198
-29.037659,3.3830013,3.2224116
-29.072111,3.3903782,3.2329674
-29.103052,3.3896885,3.2303834
-29.133179,3.387037,3.2246342
-29.161001,3.378326,3.2090106
-29.191277,3.375823,3.2035842
-29.224154,3.3805714,3.210072
-29.25991,3.3941288,3.2310371
-29.291048,3.3949602,3.231207
-29.320824,3.391764,3.224821
-29.348423,3.3814454,3.206801
-29.37686,3.3732502,3.192295
-29.40812,3.3743916,3.1931386
-29.44089,3.381284,3.2034593
-29.475779,3.3970327,3.2283587
-29.50744,3.401531,3.2348475
-29.537996,3.4019835,3.2347417
-29.568645,3.4030325,3.2356563
-29.599365,3.4046783,3.2375937
-29.62762,3.3945098,3.220169
-29.655312,3.3802695,3.196093
-29.685923,3.3805904,3.1959724
-29.716253,3.379437,3.1934714
-29.748053,3.3876877,3.2064657
-29.780022,3.3986156,3.2239046
-29.810013,3.3966663,3.220222
-29.840727,3.4004998,3.2260857
-29.870499,3.3966308,3.2193289
-29.900555,3.3949132,3.2161493
-29.92954,3.380295,3.1917963
-29.960537,3.388594,3.2051668
-29.992167,3.410476,3.2409172
-30.022114,3.4090705,3.2384138
-30.052267,3.4124165,3.2437644
-30.081888,3.3986974,3.2210898
-30.111927,3.3918076,3.2096868
-30.142157,3.395904,3.216394
-30.172184,3.412028,3.2429223
-30.201982,3.420955,3.2576547
-30.231823,3.422166,3.259736
-30.262047,3.414104,3.2466073
-30.291826,3.4175463,3.25244
-30.321877,3.4158726,3.249898
-30.351887,3.415314,3.2492313
-30.382103,3.4127574,3.2453194
-40.679363,0.96902394,0.3231659
-40.682884,1.0190763,0.41455603
-40.705772,1.0596027,0.4923606
-40.73345,1.0975921,0.56657076
-40.74322,1.1434658,0.6518903
-40.714294,1.2063408,0.7610202
-40.674706,1.2731822,0.8754854
-40.723976,1.2999401,0.93377256
-40.658348,1.3768392,1.0618868
-40.746532,1.3861728,1.095993
-40.63595,1.4808588,1.2482586
-40.751587,1.4783211,1.2661443
-40.63274,1.5745952,1.41995
-40.735508,1.5774984,1.4455523
-40.629627,1.6664727,1.5886974
-40.689617,1.6867564,1.6381159
-40.6756,1.7368743,1.728015
-40.682354,1.7782052,1.805933
-40.692604,1.817817,1.881484
-40.739098,1.8430033,1.9377251
-40.880863,1.8747597,2.0258865
-41.013138,1.953536,2.2004938
-42.12934,1.6341672,1.8360162
-41.97631,1.7348547,1.9928646
-42.122215,1.7281713,2.0112796
-40.73433,2.259465,2.716405
-40.711548,2.3069696,2.8011832
-40.75363,2.3317554,2.857098
-40.78219,2.3611345,2.9188943
-40.785637,2.3988483,2.9911447
-40.81235,2.4285705,3.053412
-40.823544,2.4632907,3.121893
-40.84754,2.4936504,3.1849985
-40.87554,2.5226154,3.2464395
-40.844948,2.5701134,3.330387
-40.938328,2.5781875,3.3666568
-40.98576,2.6009192,3.4208398
-41.039196,2.6218734,3.4730697
-41.146656,2.6265256,3.5062723
-41.24778,2.6335602,3.5427356
-41.36889,2.6350899,3.573248
-41.48277,2.6393085,3.6074138
-41.62137,2.6368644,3.6344767
-41.761017,2.6347935,3.6626205
-41.90907,2.6310167,3.6895123
-42.08954,2.618877,3.7077913
-42.30542,2.5978575,3.7171497
-42.42726,2.6037564,3.757135
-42.58344,2.600905,3.78821
-42.696922,2.610236,3.8331885
-42.87749,2.6023211,3.8603554
-44.235313,2.2878194,3.5651712
-44.252068,2.327683,3.647523
-44.257904,2.370186,3.732605
-44.277214,2.4090855,3.8139563
-44.28653,2.4503534,3.8977213
-44.309395,2.488112,3.9779553
-44.24651,2.5465848,4.078628
-44.571617,2.511489,4.087925
-44.893517,2.4788928,4.101556
-45.315926,2.4245334,4.096554
-45.756382,2.3683171,4.092421
-46.25792,2.3005958,4.0804744
-46.838993,2.2177508,4.0580387
-47.36668,2.1499383,4.052694
-47.933792,2.0763626,4.045733
-48.607796,1.9827933,4.025336
-49.382378,1.8714871,3.9944925
-50.007065,1.7959075,3.998414
-50.833782,1.6818271,3.9754257
-51.68818,1.5665839,3.9572587
-52.507305,1.4630752,3.9541988
-53.572304,1.3151364,3.9233384
-54.629486,1.1744971,3.9055848
-4.3213577,0.72474194,2.9725199
-4.5888863,0.7054789,2.8696404
-4.6775074,0.65009546,2.7364082
-4.711153,0.58326197,2.5933075
-4.694891,0.5055816,2.4403548
-15.596727,2.541644,3.9763184
-15.099895,2.3790734,3.7669525
-17.704971,2.8470964,4.099907
-17.961327,2.873385,4.093728
-18.228352,2.9038026,4.0934076
-18.394987,2.9095757,4.0672436
-18.673996,2.9457679,4.0758324
-18.93185,2.977884,4.0812573
-19.141819,2.9985225,4.0749474
-19.396584,3.0325217,4.08497
-19.543755,3.0382493,4.063607
-19.766087,3.0657206,4.068244
-19.951155,3.0838995,4.063049
-20.1175,3.097732,4.0535865
-20.295345,3.1157806,4.049913
-20.510048,3.1455877,4.061162
-20.68237,3.1640787,4.0597367
-20.839771,3.1790538,4.0548134
-20.991377,3.1931305,4.0494914
-21.136318,3.2059903,4.043336
-21.23159,3.2042494,4.019705
-21.353617,3.2113333,4.0074725
-21.440636,3.2079635,3.982631
-21.585384,3.2234764,3.981969
-21.65442,3.2152739,3.9518075
-21.804764,3.2339664,3.9562345
-21.854275,3.220133,3.919537
-21.942562,3.219411,3.8999205
-22.063118,3.2300253,3.8953424
-22.0988,3.2122602,3.8542461
-22.266783,3.2402818,3.8732271
-22.285183,3.2170308,3.8253937
-22.460102,3.248997,3.850606
-22.471786,3.2237415,3.80049
-22.61151,3.2445686,3.8118663
-22.691813,3.244547,3.7958312
-22.709929,3.2219648,3.7497053
-22.862257,3.2493196,3.771109
-22.905886,3.2366705,3.7387838
-23.016928,3.2497945,3.7417107
-23.08823,3.2482643,3.7249837
-23.110239,3.2278805,3.6825933
-23.271317,3.2620964,3.7155209
-23.29835,3.2441263,3.6768165
-23.471518,3.2848012,3.7196226
-23.510784,3.2723372,3.6889877
-23.569,3.2677126,3.6694193
-23.667894,3.280178,3.6740122
-23.725101,3.2757726,3.6551776
-23.729055,3.2490551,3.6049852
-23.873203,3.282054,3.6394
-23.939003,3.2822008,3.6275983
-23.937843,3.2534146,3.574726
-24.081364,3.2881851,3.6127238
-24.140467,3.2863414,3.59867
-24.15556,3.2649217,3.5566115
-24.279564,3.2929502,3.5859218
-24.353903,3.299005,3.583836
-24.353767,3.2708375,3.5323057
-24.47726,3.3004665,3.564828
-24.556374,3.3099265,3.5683203
-24.56434,3.285717,3.5227919
-24.656845,3.3022757,3.5370336
-24.708189,3.2992811,3.5228047
-24.763996,3.2987056,3.5122743
-24.801073,3.2890089,3.4884124
-24.882027,3.30157,3.4975958
-24.961874,3.3140945,3.506959
-24.972393,3.2913222,3.4640317
-25.045317,3.300911,3.4693494
-25.101978,3.3023777,3.46273
-25.177263,3.3140612,3.4715605
-25.196995,3.2962947,3.4363909
-25.254084,3.2987504,3.4316578
-25.33086,3.3123488,3.4438648
-25.391048,3.31725,3.4431453
-25.40695,3.2975752,3.405387
-25.487177,3.314303,3.4228315
-25.533772,3.3122926,3.4120255
-25.6071,3.326013,3.4252706
-25.635006,3.313575,3.3988175
-25.713259,3.3310013,3.418034
-25.754002,3.3265119,3.4039168
-25.799438,3.324999,3.3944492
-25.82556,3.3118176,3.367158
-25.877619,3.314667,3.3645682
-25.951149,3.3312778,3.383306
-25.99885,3.3320863,3.3778396
-26.01738,3.3144088,3.3438954
-26.052898,3.3075726,3.3267522
-26.112043,3.3163042,3.3338218
-26.162062,3.3193889,3.3322587
-26.216946,3.3260236,3.3363285
-26.233627,3.3070772,3.300665
-26.292046,3.3165698,3.3093848
-26.370394,3.3403394,3.34055
-26.402517,3.332374,3.3222485
-26.42871,3.320208,3.297418
-26.488016,3.3317811,3.309874
-26.56182,3.354384,3.3397985
-26.59324,3.3465018,3.3219347
-26.630604,3.3430557,3.311112
-26.653503,3.3288112,3.2833204
-26.690422,3.3251207,3.2722259
-26.750675,3.339566,3.289878
-26.791355,3.339248,3.284289
-26.84091,3.3461413,3.2902098
-26.858124,3.3274667,3.255651
-26.88996,3.3203819,3.2395158
-26.948517,3.335272,3.2583914
-26.992666,3.3387337,3.259192
-27.042534,3.3472893,3.2682014
-27.063093,3.3312273,3.238017
-27.103302,3.3319244,3.2346306
-27.139286,3.3291228,3.2257185
-27.193207,3.342348,3.2425308
-27.234076,3.3443677,3.2414951
-27.25375,3.3273065,3.2099185
-27.295115,3.3299947,3.2100744
-27.342743,3.3387978,3.2201352
-27.388647,3.346383,3.2283297
-27.433353,3.353201,3.2353764
-27.467857,3.3504324,3.2270522
-27.488731,3.3342793,3.197187
-27.524794,3.3330731,3.1914778
-27.570469,3.3417883,3.2018638
-27.616795,3.351596,3.2141047
-27.655209,3.35358,3.2137628
-27.682892,3.3443825,3.1953683
-27.711168,3.3357217,3.1778803
-27.747803,3.3361168,3.1751266
-27.797594,3.3513205,3.1964865
-27.845716,3.3652751,3.2159119
-27.878502,3.3622503,3.2078066
-27.899012,3.3449943,3.1765819
-27.932407,3.3425984,3.1695814
-27.976973,3.3537202,3.1846704
-28.016905,3.3597069,3.191462
-28.056261,3.3653386,3.197742
-28.087034,3.3604796,3.1869488
-28.11411,3.3508658,3.1684256
-28.146925,3.3485796,3.161921
-28.183033,3.3507519,3.162763
-28.230541,3.368593,3.1893253
-28.266273,3.3710072,3.190692
-28.296337,3.365717,3.17948
-28.320322,3.3517015,3.1539912
-28.354689,3.352428,3.1527295
-28.394619,3.3615942,3.1653829
-28.432343,3.3679364,3.1734614
-28.46892,3.3729174,3.1793613
-28.504715,3.3770206,3.1838746
-28.528069,3.3614695,3.1560879
-28.561712,3.3622885,3.155285
-28.593819,3.3607242,3.1506038
-28.632889,3.3711574,3.1657472
-28.670256,3.379227,3.1770544
-28.70155,3.3769567,3.171359
-28.728502,3.3667939,3.1526756
-28.759663,3.3641782,3.1464891
-28.788504,3.3571455,3.1330462
-28.82997,3.374708,3.160294
-28.865263,3.3808768,3.1687698
-28.899895,3.3861454,3.1758084
-28.92678,3.3754356,3.1564565
-28.95412,3.3652892,3.1380668
-28.986856,3.366788,3.1389961
-29.021065,3.371905,3.1459646
-29.058754,3.3856993,3.1673632
-29.090696,3.3864708,3.167232
-29.11937,3.379236,3.1538649
-29.147602,3.370551,3.1381297
-29.176397,3.3629463,3.1242194
-29.209202,3.3660638,3.1281428
-29.248837,3.3890731,3.1651373
-29.27984,3.3883207,3.1627321
-29.309849,3.384598,3.1554346
-29.338808,3.3773878,3.1423802
-29.36715,3.3677006,3.125245
-29.398798,3.3687875,3.1260538
-29.429697,3.367407,3.1228027
-29.468193,3.3946972,3.167274
-29.50085,3.4016693,3.1780076
-29.531109,3.3995287,3.1736245
-29.562574,3.4025817,3.1779222
-29.592506,3.3990636,3.1713262
-29.622194,3.3940852,3.1623378
-29.649609,3.3768847,3.133037
-29.67965,3.37205,3.12436
-29.709967,3.368317,3.1175542
-29.744566,3.391339,3.1553516
-29.776367,3.3990617,3.1677122
-29.807081,3.4001946,3.169137
-29.837008,3.395244,3.1604648
-29.866875,3.3888268,3.1493893
-29.897139,3.385055,3.1427588
-29.927265,3.3787906,3.1320124
-29.958908,3.391111,3.1522784
-29.989964,3.3988862,3.165011
-30.020649,3.403143,3.1719193
-30.05101,3.401821,3.1695685
-30.081055,3.3877172,3.1459517
-30.111515,3.379348,3.1319323
-30.142216,3.384433,3.1403785
-30.172636,3.4076018,3.1790085
-30.202888,3.4123287,3.1869364
-30.23318,3.4125037,3.1873155
-30.263193,3.4189284,3.1981506
-30.293634,3.4151442,3.192009
-30.323362,3.4232647,3.2057476
-30.353313,3.4263196,3.211082
-30.383476,3.4263666,3.2114415
-40.674538,1.0959618,0.38514423
-40.695034,1.1373463,0.46455717
-40.717182,1.1776376,0.54237413
-40.744946,1.2150886,0.616097
-40.67885,1.2939374,0.7491479
-40.64064,1.3594141,0.86274815
-40.70571,1.3791564,0.9109678
-40.7473,1.4091008,0.9738307
-40.67496,1.4874325,1.1052446
-40.72079,1.5148807,1.1644983
-40.679348,1.57865,1.2749124
-40.732147,1.6027405,1.3294654
-40.665874,1.6754432,1.4520268
-40.708454,1.7031882,1.5116668
-40.682087,1.7584245,1.6095104
-40.695374,1.7973483,1.6846199
-40.663902,1.8534904,1.7833948
-40.67657,1.8918874,1.8576212
-40.74063,1.9103138,1.9045362
-40.752247,1.9487567,1.9788618
-40.9111,1.9744868,2.0583715
-40.940094,2.0062573,2.1239047
-42.064095,1.6863868,1.744451
-42.12989,1.7087932,1.799995
-42.191936,1.7326446,1.8576393
-42.062737,1.8678133,2.087788
-40.77231,2.3514047,2.743309
-40.744526,2.399984,2.830071
-40.773056,2.429304,2.8918366
-40.791447,2.461875,2.9578152
-40.807568,2.4950287,3.02454
-40.829384,2.526176,3.0887218
-40.84183,2.560186,3.156529
-40.881424,2.5854535,3.213377
-40.916176,2.6122355,3.2722182
-40.955925,2.6374533,3.3292155
-41.038548,2.6496224,3.3702989
-41.150856,2.6531572,3.4011703
-41.233322,2.6660912,3.4439116
-41.344723,2.6708117,3.4770975
-41.46889,2.6723156,3.506918
-41.590397,2.6751676,3.538888
-41.711956,2.6785665,3.5720448
-41.845486,2.6791587,3.6024675
-41.973583,2.6818953,3.6359916
-42.13494,2.6760943,3.6602898
-42.322388,2.6640217,3.6782088
-42.482338,2.6602936,3.7064857
-42.66288,2.651897,3.7303123
-42.763573,2.665319,3.7792702
-42.876255,2.6760461,3.8257356
-42.981346,2.6891901,3.87538
-44.273216,2.4032936,3.6031113
-44.27251,2.4473548,3.690133
-44.26361,2.4931874,3.7789345
-44.26911,2.5352273,3.863638
-44.263588,2.5797167,3.9508133
-44.251713,2.62545,4.039141
-44.38436,2.6370785,4.0929775
-44.75364,2.5946407,4.0937977
-45.117935,2.5553355,4.099862
-45.59552,2.4925003,4.085336
-46.04545,2.438418,4.082054
-46.591072,2.365811,4.0641356
-47.147446,2.2938662,4.0502315
-47.691483,2.2275786,4.044983
-48.329903,2.1443856,4.028094
-49.015846,2.0548084,4.009739
-49.762962,1.956444,3.9883223
-50.40323,1.883681,3.9935303
-51.29046,1.7652514,3.9652243
-52.14541,1.6579576,3.9520383
-53.072704,1.5412974,3.9373674
-54.139614,1.4030623,3.9125361
-0.3347149,0.341125,2.7206368
-1.666626,0.511703,2.7665648
-2.9204502,0.6743398,2.8142557
-3.6245747,0.735399,2.7794533
-4.5970573,0.8538604,2.8012094
-4.6992035,0.80095935,2.670693
-4.739563,0.7356067,2.5289974
-4.7731915,0.66875434,2.3859968
-4.790535,0.59831524,2.2395997
-4.81658,0.52950215,2.0947814
-4.748047,0.43991733,1.9292631
-15.403764,2.5821505,3.888977
-17.407349,2.925856,4.139922
-17.561825,2.924078,4.10297
-17.756622,2.9329112,4.0785594
-18.039259,2.964511,4.0806355
-18.31282,2.9953818,4.083321
-18.59319,3.029486,4.0910707
-18.866325,3.0632856,4.099862
-19.068165,3.080037,4.0901875
-19.243652,3.0909185,4.0745993
-19.45211,3.1115131,4.071309
-19.661922,3.1336086,4.070787
-19.843628,3.1491725,4.063404
-20.027687,3.1663642,4.05882
-20.20491,3.1826408,4.053955
-20.363466,3.194591,4.044578
-20.422485,3.1788635,4.0017166
-20.612392,3.2012606,4.006473
-20.672325,3.1866064,3.965695
-20.81366,3.196291,3.9557874
-20.98439,3.2155466,3.9585981
-21.025417,3.1963851,3.913159
-21.217014,3.2235162,3.9272046
-21.21975,3.193115,3.8678608
-21.431952,3.2282917,3.8935108
-21.471354,3.2098641,3.85015
-21.617939,3.2259152,3.8520966
-21.654854,3.2071714,3.8087797
-21.830765,3.2341099,3.8260589
-21.853733,3.2113128,3.7778482
-22.05237,3.2474298,3.8084574
-22.064995,3.221639,3.7566748
-22.217508,3.2437131,3.7694921
-22.27449,3.2335489,3.7391791
-22.386618,3.2429194,3.7356462
-22.490723,3.250058,3.729466
-22.525387,3.23286,3.6902308
-22.672607,3.2564735,3.7073584
-22.697151,3.236052,3.6640534
-22.809832,3.248208,3.6660738
-22.90784,3.2555175,3.6617222
-22.940216,3.2385273,3.6236687
-23.079674,3.2624896,3.6432552
-23.112099,3.2459626,3.6062055
-23.235008,3.264789,3.6192808
-23.315351,3.2675674,3.6099734
-23.390594,3.2687197,3.5985994
-23.513128,3.2893143,3.6152658
-23.52926,3.2673163,3.5712209
-23.615469,3.2740529,3.5685482
-23.711914,3.2855277,3.5729856
-23.726038,3.2629328,3.528376
-23.82133,3.2746987,3.533688
-23.914663,3.286195,3.5389013
-23.93313,3.2657328,3.4976988
-24.012676,3.2719588,3.4956236
-24.127314,3.2941952,3.5173097
-24.142897,3.2727983,3.4750547
-24.2366,3.286646,3.484879
-24.32293,3.29771,3.490859
-24.345001,3.2795649,3.4537082
-24.424822,3.2883346,3.4566598
-24.516537,3.3032026,3.4689412
-24.558535,3.2949212,3.446848
-24.640587,3.3060825,3.4540124
-24.70278,3.3080711,3.4476156
-24.765572,3.3106718,3.4423037
-24.778473,3.2887335,3.4000912
-24.879599,3.3110375,3.4248443
-24.947828,3.31734,3.4256105
-24.980782,3.305887,3.3995614
-25.018967,3.2971706,3.3777428
-25.097656,3.3098192,3.3886185
-25.148703,3.3083096,3.3780446
-25.18043,3.2966442,3.3520217
-25.250595,3.3058493,3.358108
-25.315527,3.3126316,3.3606453
-25.374607,3.3165622,3.3589468
-25.397318,3.3004255,3.3263931
-25.468008,3.3113825,3.335792
-25.561718,3.3360164,3.3665695
-25.611088,3.3357356,3.3589034
-25.625105,3.3149703,3.3194776
-25.700808,3.3305185,3.3366404
-25.764019,3.339164,3.343217
-25.812988,3.3396041,3.3371134
-25.83083,3.3212209,3.3016362
-25.895542,3.331673,3.3114004
-25.948212,3.3350444,3.3101916
-26.000715,3.3386092,3.309404
-26.0261,3.3251085,3.281835
-26.075912,3.3273385,3.2791262
-26.130646,3.333061,3.282042
-26.175121,3.3323343,3.274869
-26.208317,3.3242457,3.2561145
-26.238523,3.3141549,3.2342362
-26.28789,3.3171806,3.233252
-26.352314,3.3309355,3.2494473
-26.408493,3.3394358,3.2574124
-26.442242,3.3324103,3.2407203
-26.477854,3.3267622,3.226284
-26.565346,3.3589118,3.2723837
-26.59595,3.3501685,3.253183
-26.641733,3.3527195,3.252143
-26.658102,3.333355,3.2159986
-26.705574,3.3374484,3.2175732
-26.763592,3.349987,3.2328343
-26.804474,3.3496299,3.2274356
-26.846952,3.3507204,3.2244463
-26.87012,3.336551,3.196888
-26.917469,3.3418453,3.2008233
-26.963547,3.346419,3.2036824
-27.007847,3.349819,3.2047262
-27.047241,3.3493576,3.1995883
-27.065126,3.3306973,3.1649709
-27.11083,3.335808,3.1689944
-27.15891,3.343323,3.1770134
-27.209286,3.3532603,3.189067
-27.246803,3.3520727,3.183086
-27.263906,3.3324072,3.147019
-27.30894,3.3382175,3.1525588
-27.355232,3.3455477,3.1606646
-27.411871,3.363096,3.1855702
-27.44758,3.3611414,3.178656
-27.482334,3.3583732,3.170463
-27.50872,3.347409,3.148881
-27.547255,3.3485155,3.1471438
-27.598415,3.3627126,3.166974
-27.64111,3.368734,3.1734586
-27.67651,3.3674467,3.1679897
-27.704443,3.358329,3.1496825
-27.737288,3.354423,3.1399965
-27.77657,3.3576403,3.1421046
-27.822882,3.3689704,3.1576657
-27.861805,3.3724506,3.1603436
-27.893211,3.367554,3.1492405
-27.920229,3.3575354,3.1297083
-27.949427,3.349948,3.114231
-27.992912,3.3595397,3.1272402
-28.038837,3.3726091,3.1460862
-28.076378,3.3758125,3.1486516
-28.106638,3.370045,3.1363897
-28.128828,3.3538127,3.1067924
-28.168154,3.3597007,3.1139612
-28.215202,3.3762941,3.138987
-28.254736,3.3834102,3.148332
-28.287788,3.3819587,3.1434822
-28.313984,3.370924,3.1227207
-28.342419,3.3628528,3.106924
-28.379934,3.3679569,3.1131234
-28.424438,3.3838727,3.137411
-28.462776,3.3911695,3.14739
-28.494942,3.3893123,3.142147
-28.520342,3.3767903,3.1191335
-28.5463,3.364809,3.0970497
-28.583168,3.3705335,3.1045947
-28.621023,3.3783317,3.1156626
-28.661215,3.3906717,3.1343865
-28.689375,3.3824522,3.1187553
-28.71824,3.3752856,3.1049209
-28.75098,3.3751037,3.1028218
-28.781862,3.3715477,3.0951123
-28.812796,3.3680718,3.087576
-28.857235,3.3914542,3.125132
-28.886732,3.385689,3.1138482
-28.920609,3.388945,3.117745
-28.946047,3.3743768,3.0917554
-28.978567,3.3748112,3.0909925
-29.004902,3.361363,3.066946
-29.054379,3.4014156,3.1328578
-29.085644,3.400139,3.1293607
-29.11409,3.3919375,3.114255
-29.14114,3.3797946,3.0925508
-29.17206,3.3772418,3.0870156
-29.205772,3.382299,3.0943303
-29.237385,3.381922,3.0925393
-29.274134,3.396717,3.1163425
-29.306862,3.400546,3.1217241
-29.336605,3.3953958,3.112018
-29.364302,3.383261,3.0905752
-29.394777,3.379768,3.0837317
-29.425882,3.378372,3.0804615
-29.461609,3.394237,3.1063418
-29.497196,3.4112163,3.1341515
-29.52829,3.411602,3.1340137
-29.559946,3.4146004,3.1383252
-29.590736,3.4141364,3.1368322
-29.620577,3.4091902,3.1278124
-29.647549,3.3891058,3.0932698
-29.678246,3.3868394,3.0888433
-29.708984,3.3846517,3.0845861
-29.740976,3.3901596,3.0933647
-29.774694,3.4084527,3.1237793
-29.806248,3.414134,3.132934
-29.836466,3.4102402,3.1259508
-29.86581,3.3977776,3.1045275
-29.895998,3.3909829,3.0927162
-29.927008,3.3918965,3.093966
-29.95818,3.3954341,3.0996895
-29.99064,3.4209385,3.1425757
-30.021187,3.4210773,3.142634
-30.051506,3.4156942,3.1333957
-30.081757,3.4032607,3.1122785
-30.112396,3.3970146,3.1016564
-30.143204,3.3969579,3.101533
-30.173784,3.4224389,3.1446128
-30.204159,3.4286494,3.1551576
-30.234617,3.4278095,3.1538234
-30.265165,3.4255207,3.1500769
-30.295452,3.42891,3.1559658
-30.325487,3.434921,3.1663222
-30.355625,3.4379554,3.1716833
-40.680614,1.1696634,0.3477645
-40.693314,1.2143626,0.43251324
-40.71699,1.2537522,0.50939894
-40.689636,1.3153644,0.61889076
-40.66668,1.3742867,0.72425556
-40.69349,1.4109893,0.7970185
-40.690964,1.4599891,0.8876829
-40.761333,1.4776406,0.9327688
-40.666416,1.5646479,1.078342
-40.734848,1.5826869,1.124023
-40.66171,1.6588988,1.2534895
-40.77317,1.6591661,1.2737823
-40.65619,1.7516286,1.4260707
-40.750553,1.7587562,1.4563699
-40.6392,1.8470755,1.602109
-40.67717,1.8760211,1.6634073
-40.678883,1.9188244,1.7442875
-40.669838,1.9653442,1.8303056
-40.717926,1.9899037,1.8855019
-40.73364,2.0265298,1.957613
-40.766525,2.0565853,2.020588
-40.87794,2.0579212,2.0439262
-41.007385,2.0532732,2.059402
-42.135506,1.8304849,1.8496537
-40.763485,2.343958,2.566515
-42.058,1.9464014,2.056203
-40.750927,2.4269977,2.7229538
-40.74932,2.4664464,2.7982645
-40.71981,2.5147016,2.8851242
-40.786533,2.5313623,2.9302511
-40.80793,2.5626984,2.9947872
-40.835056,2.5920937,3.056817
-40.86531,2.6204298,3.1175241
-40.9005,2.6471806,3.1762547
-40.96487,2.6649992,3.2236505
-41.035313,2.6811674,3.2691698
-41.161446,2.6809385,3.2942266
-41.24704,2.693277,3.3355803
-41.38146,2.6917005,3.3599052
-41.488766,2.6985953,3.395297
-41.601532,2.7044039,3.4297934
-41.743546,2.7024791,3.4553108
-41.8509,2.710895,3.493999
-41.979336,2.7139733,3.5267143
-42.134537,2.7103782,3.5520163
-42.273293,2.7119656,3.584175
-42.40658,2.7156625,3.6194458
-42.552895,2.7165644,3.6520658
-42.708595,2.7157357,3.6833668
-42.83925,2.7220674,3.723621
-42.940006,2.7365456,3.7737513
-43.020947,2.7563727,3.830368
-44.248993,2.4938653,3.5724664
-44.23128,2.541801,3.6639876
-44.247696,2.581194,3.7459912
-44.254086,2.6228328,3.8304315
-44.271202,2.6617725,3.9119387
-44.268787,2.705106,3.998105
-44.26572,2.748355,4.084089
-44.477993,2.7429085,4.1197352
-44.92588,2.6861973,4.1043415
-45.34037,2.6392536,4.101364
-45.809254,2.5827928,4.0913815
-46.318382,2.5202975,4.078291
-46.86503,2.4526799,4.063344
-47.423355,2.3856103,4.052261
-48.00202,2.3174026,4.043578
-48.65507,2.2373214,4.027646
-49.424324,2.1376839,3.9982748
-50.07608,2.0652347,3.9979167
-50.917854,1.9596014,3.9730663
-51.736908,1.8628347,3.9613552
-52.59329,1.7634702,3.9530163
-53.60186,1.6406112,3.9314594
-54.577034,1.5292335,3.926034
0.020923615,0.53503776,2.7528076
-2.319353,0.878073,2.955864
-2.3618507,0.8073225,2.8015513
-3.1222858,0.87185,2.7715025
-4.2715054,1.0147905,2.8194098
-4.692997,1.0226331,2.7459545
-4.6918583,0.9492793,2.5965047
-2.5310822,0.44368482,2.0224876
-4.789938,0.82195663,2.3165646
-4.6757793,0.7246449,2.1428099
-4.805502,0.67723393,2.019456
-4.823984,0.6066935,1.8726807
-4.802454,0.52732563,1.7165866
-4.781168,0.4475243,1.5597825
-15.819344,2.8065362,4.034977
-15.137573,2.611205,3.7821054
-16.870483,2.9586418,4.1246843
-17.04826,2.9592862,4.0895324
-17.358036,2.9915104,4.09087
-17.572014,3.00284,4.069976
-18.430912,3.0966382,4.0835185
-18.5842,3.0980527,4.055518
-18.838863,3.1256914,4.059478
-19.03157,3.1389694,4.0473776
-19.215569,3.15102,4.0346727
-19.369633,3.1562328,4.014449
-19.537312,3.1658208,4.000288
-19.677088,3.168826,3.9787068
-19.803831,3.1690054,3.954196
-19.9808,3.1835506,3.9482696
-20.0688,3.1743994,3.9131236
-20.165962,3.1681848,3.8820596
-20.396606,3.2002718,3.9004612
-20.412785,3.1721225,3.8421688
-20.612701,3.1972313,3.8529782
-20.688637,3.187045,3.8185582
-20.807743,3.1899917,3.8016467
-20.988426,3.2120557,3.810422
-21.019503,3.189633,3.7608929
-21.228848,3.2220612,3.7846017
-21.24937,3.1969614,3.73201
-21.444458,3.226735,3.7533898
-21.466064,3.2024348,3.702301
-21.639145,3.226832,3.7175064
-21.66624,3.2047105,3.669773
-21.839405,3.2306528,3.6880999
-21.868397,3.2096214,3.642272
-22.052849,3.2409112,3.6689954
-22.062906,3.213963,3.615364
-22.250704,3.248033,3.6469746
-22.260994,3.2215009,3.594245
-22.410137,3.2436647,3.6100903
-22.480366,3.2386532,3.5880318
-22.563297,3.238506,3.5730925
-22.666382,3.2460852,3.5694232
-22.695953,3.2271998,3.5282483
-22.833954,3.2485876,3.5449247
-22.884523,3.2379808,3.5159879
-22.955986,3.2354572,3.4988656
-23.084541,3.2551684,3.5141916
-23.11602,3.2380092,3.4763021
-23.23812,3.2563853,3.4903316
-23.313065,3.2568247,3.4784913
-23.458752,3.285976,3.5090303
-23.51771,3.2809741,3.4897337
-23.537895,3.2603307,3.4474874
-23.641212,3.2739844,3.4560752
-23.730509,3.2824025,3.4571953
-23.726288,3.2517967,3.4004307
-23.843155,3.2726007,3.4204097
-23.928663,3.2806342,3.421609
-23.944748,3.2588549,3.3782706
-24.049538,3.2760592,3.3936434
-24.134382,3.2850518,3.3969226
-24.150784,3.2636993,3.3545089
-24.259209,3.2841132,3.3754697
-24.33871,3.2919502,3.377614
-24.36607,3.2759898,3.3436937
-24.468773,3.2954173,3.3638868
-24.555084,3.307762,3.373519
-24.568947,3.2858474,3.3308024
-24.6683,3.3052657,3.3516598
-24.727755,3.3057976,3.3436751
-24.778225,3.3021612,3.3293958
-24.816921,3.2928145,3.3063889
-24.86959,3.2906241,3.2945585
-24.975931,3.3161602,3.3259397
-24.971865,3.2853274,3.269825
-25.050919,3.297612,3.2809267
-25.105331,3.2973862,3.2726693
-25.167446,3.3015356,3.2713876
-25.218088,3.2998269,3.2610579
-25.272165,3.3002155,3.2541347
-25.33727,3.3069623,3.2573404
-25.395893,3.3104856,3.2556143
-25.430965,3.3010259,3.2335052
-25.507812,3.3154702,3.2492886
-25.57473,3.3247433,3.257059
-25.627857,3.326409,3.252904
-25.662106,3.317199,3.2315645
-25.71708,3.3203976,3.2300482
-25.784433,3.331378,3.2410626
-25.81078,3.3177955,3.2129831
-25.865345,3.3215637,3.2127023
-25.919083,3.3251307,3.2122126
-25.975214,3.330517,3.2147527
-26.010738,3.3230844,3.1968112
-26.024836,3.3018584,3.1567287
-26.097094,3.3183832,3.1774807
-26.166386,3.3335516,3.1962051
-26.191338,3.3196309,3.168079
-26.225727,3.3119884,3.150138
-26.282728,3.3198638,3.15739
-26.34429,3.3312988,3.1705332
-26.400707,3.339612,3.1787353
-26.44259,3.3380227,3.1709485
-26.46734,3.3243055,3.1434922
-26.529133,3.3373752,3.1597223
-26.571423,3.3366277,3.153533
-26.618816,3.339865,3.1539273
-26.650112,3.3312593,3.1350398
-26.684353,3.3248863,3.119852
-26.730408,3.3276777,3.1197367
-26.785738,3.3379903,3.1320453
-26.831415,3.3411186,3.13266
-26.854094,3.3260899,3.1035023
-26.902916,3.332094,3.108982
-26.93391,3.3237894,3.0909762
-26.979294,3.327449,3.0927424
-27.0308,3.336559,3.1035857
-27.070618,3.336111,3.0987315
-27.096012,3.3233516,3.0735793
-27.136868,3.3240077,3.0706615
-27.19321,3.3386436,3.0909724
-27.231739,3.337806,3.0857296
-27.267267,3.33439,3.0762682
-27.296482,3.3252199,3.0572987
-27.345097,3.334193,3.06853
-27.388197,3.3383512,3.0718355
-27.431602,3.3431046,3.0762038
-27.46832,3.341625,3.0702524
-27.495358,3.3306634,3.048543
-27.53077,3.3280022,3.0407162
-27.595798,3.3557365,3.0837169
-27.630405,3.3528936,3.075726
-27.665895,3.3510716,3.069491
-27.691425,3.3387165,3.045673
-27.727861,3.338001,3.04138
-27.767204,3.3406434,3.04277
-27.814327,3.352256,3.0592666
-27.857014,3.3593616,3.0682774
-27.886528,3.351638,3.0524445
-27.917368,3.3453927,3.0391326
-27.947123,3.3378165,3.0236187
-27.995623,3.352912,3.0462976
-28.034916,3.3573241,3.0510664
-28.068405,3.3547654,3.0441484
-28.102646,3.3532465,3.0390272
-28.128109,3.3404303,3.014894
-28.162458,3.3390794,3.0101385
-28.208467,3.3535507,3.0321493
-28.24886,3.3610153,3.0423942
-28.282864,3.3599966,3.0383582
-28.318192,3.3609889,3.0377684
-28.350142,3.3572817,3.029274
-28.381487,3.352697,3.0193334
-28.428547,3.3717976,3.0495534
-28.466324,3.3775475,3.0572228
-28.498692,3.375194,3.051206
-28.52594,3.3646965,3.031416
-28.552809,3.3532903,3.0101109
-28.58688,3.3535967,3.00872
-28.636831,3.381236,3.0537977
-28.667137,3.3759258,3.0429707
-28.698353,3.3721552,3.0347958
-28.72482,3.3596718,3.0118403
-28.754423,3.3526247,2.9981608
-28.78926,3.3554473,3.0013108
-28.826239,3.362782,3.012188
-28.865438,3.3751369,3.0316658
-28.896004,3.3704011,3.0220828
-28.927113,3.3667264,3.0143433
-28.955801,3.3577082,2.9975328
-28.994772,3.3714597,3.0195813
-29.026123,3.3685312,3.0132322
-29.063534,3.380027,3.0315323
-29.096407,3.3812363,3.0323267
-29.127855,3.3790646,3.0273895
-29.15478,3.3650668,3.0022936
-29.185139,3.35957,2.9917464
-29.219513,3.3650846,3.0000477
-29.256302,3.3781574,3.0213103
-29.289276,3.3808806,3.0249305
-29.322002,3.3831947,3.0278916
-29.348972,3.3671405,2.9994798
-29.378376,3.3581338,2.9831505
-29.410381,3.3576903,2.981503
-29.44698,3.3743265,3.009121
-29.480957,3.3825653,3.0224156
-29.513363,3.3853915,3.0264864
-29.546152,3.3903065,3.0341744
-29.579473,3.3983176,3.0472035
-29.6108,3.3978937,3.0458274
-29.639452,3.3840053,3.0214262
-29.668705,3.3716905,2.9997516
-29.698765,3.3624594,2.9833908
-29.730892,3.364857,2.986991
-29.766083,3.388448,3.0269465
-29.797539,3.3890095,3.0274796
-29.828411,3.385126,3.02043
-29.859144,3.379309,3.0101018
-29.890259,3.3760858,3.0042548
-29.921799,3.376969,3.005484
-29.95388,3.385485,3.0198374
-29.985718,3.3935819,3.0335088
-30.017147,3.3977327,3.0404525
-30.048374,3.399446,3.043254
-30.079163,3.3866317,3.0211802
-30.110353,3.3804443,3.010507
-30.141718,3.3829017,3.0146928
-30.172842,3.4045827,3.0518785
-30.203917,3.4041774,3.051228
-30.235,3.4038522,3.0507512
-30.266,3.4056218,3.0539021
-30.296875,3.4089816,3.0598164
-30.327808,3.4104056,3.062448
-30.358423,3.4154332,3.0712924
-40.65332,1.2598984,0.3309517
-40.688477,1.2942188,0.4005661
-40.72386,1.3282435,0.46976852
-40.67521,1.3985476,0.5934186
-40.73126,1.4229417,0.6481352
-40.69713,1.4856594,0.7601328
-40.658638,1.5494158,0.8734689
-40.70159,1.5784845,0.9351244
-40.705425,1.6235657,1.0205321
-40.701187,1.671509,1.1100907
-40.674152,1.7281497,1.2123375
-40.700794,1.7627349,1.2820706
-40.698997,1.8083293,1.3679066
-40.683235,1.8589351,1.4609532
-40.700474,1.8962674,1.534585
-40.671436,1.9510007,1.6333838
-40.694767,1.985332,1.7025652
-40.671516,2.036864,1.7964783
-40.694405,2.0707846,1.8649983
-40.730247,2.0997844,1.9265032
-40.769043,2.127638,1.9864388
-40.821026,2.1507244,2.039692
-40.919617,2.157381,2.0698862
-40.954014,2.1869051,2.1325293
-41.26467,2.1207745,2.0613313
-41.87697,1.9534512,1.8502259
-40.82756,2.471454,2.656736
-40.79372,2.5213675,2.746911
-40.770466,2.5673542,2.831541
-40.817955,2.5905,2.8851519
-40.851837,2.6179588,2.944687
-40.877323,2.6479776,3.0077167
-40.916615,2.6736794,3.0650425
-40.994873,2.6876073,3.1068907
-41.101685,2.6932783,3.1381469
-41.201332,2.7015412,3.1731935
-41.28202,2.7157624,3.216364
-41.419548,2.7138731,3.2389932
-41.494667,2.7304575,3.2859163
-41.63235,2.7296596,3.3109126
-41.737354,2.7386324,3.3488712
-41.882553,2.7369928,3.3738694
-42.015076,2.73951,3.404683
-42.168823,2.7369497,3.4297428
-42.28496,2.7451293,3.4687214
-42.41863,2.7492251,3.5031872
-42.583828,2.7457762,3.52906
-42.73343,2.7471366,3.5614772
-42.831028,2.7623522,3.611143
-42.917274,2.7807856,3.6650438
-42.997692,2.8009675,3.7213655
-43.063805,2.8249059,3.7824068
-44.24772,2.5805922,3.5338917
-44.243137,2.6251116,3.6219668
-44.272766,2.661367,3.7005744
-44.273514,2.7042437,3.786686
-44.24901,2.7526586,3.8788652
-44.256004,2.79362,3.9626513
-44.29185,2.8280075,4.039264
-44.282448,2.872305,4.126629
-44.724533,2.818842,4.110309
-45.144653,2.7724707,4.103882
-45.60104,2.7207515,4.0943127
-46.05547,2.6719065,4.0902896
-46.554955,2.6163073,4.0821285
-47.141987,2.545775,4.0621505
-47.67527,2.489091,4.059177
-48.312782,2.414884,4.0426545
-48.98436,2.337553,4.027124
-49.718166,2.2520263,4.008215
-50.457184,2.169476,3.9966736
-51.30135,2.0715232,3.9761786
-52.143097,1.978543,3.9655514
-53.107895,1.8680933,3.9456015
-54.04698,1.7673252,3.9402466
1.4558487,0.6379695,2.8191013
-2.2408772,1.1054871,3.0382957
-2.3270588,1.0424163,2.890852
-2.4491043,0.9859774,2.7500858
-3.6295872,1.1232312,2.7959027
-4.656761,1.2384393,2.8272915
-4.70356,1.101706,2.537675
-4.7718296,1.0417874,2.4015574
-3.92807,0.80231786,2.079145
-4.654545,0.8714509,2.0769463
-4.6865234,0.8036547,1.932519
-4.7501316,0.7422118,1.795022
-4.7764072,0.67301035,1.6492591
-4.797991,0.6026175,1.5021973
-15.801494,2.8882666,3.995551
-15.24086,2.7235055,3.7707314
-16.91779,3.0486434,4.103909
-17.2091,3.0739017,4.0987787
-17.52533,3.1063657,4.1034966
-18.10644,3.1274734,4.0350323
-18.320215,3.141283,4.022192
-18.484093,3.1441426,3.9969482
-18.683203,3.156457,3.984074
-18.773155,3.1427193,3.9397428
-18.930954,3.1463997,3.9175608
-19.145926,3.165428,3.9153934
-19.365932,3.186919,3.9172819
-19.412273,3.1642873,3.863721
-19.553522,3.166823,3.8426933
-19.737638,3.181531,3.8380046
-19.869251,3.183012,3.8168302
-19.97518,3.1781063,3.787797
-20.159218,3.1953537,3.7883997
-20.272993,3.1938844,3.7648926
-20.382141,3.1916456,3.7407856
-20.563278,3.2106204,3.745562
-20.610023,3.1915088,3.6996326
-20.794075,3.2129097,3.7088132
-20.825718,3.1899664,3.6582122
-21.01707,3.2151353,3.673637
-21.101252,3.2087464,3.646309
-21.215506,3.211994,3.6326008
-21.315441,3.211354,3.6138864
-21.43547,3.217534,3.6050377
-21.5859,3.2340431,3.6111002
-21.637152,3.2194002,3.57379
-21.756466,3.2271085,3.568256
-21.85119,3.2273376,3.552496
-21.937992,3.2253823,3.533924
-22.057426,3.2348487,3.5319886
-22.108717,3.2217073,3.4979339
-22.24994,3.239751,3.5090337
-22.291811,3.2239475,3.4715605
-22.469688,3.2562175,3.5040922
-22.489456,3.2331984,3.4565358
-22.624146,3.2515404,3.4695654
-22.684464,3.2435627,3.444354
-22.74231,3.234895,3.4182887
-22.870968,3.2528322,3.4317236
-22.896296,3.2326016,3.3889298
-23.031744,3.254273,3.4085364
-23.08683,3.245838,3.3836164
-23.171444,3.2490892,3.3763337
-23.313736,3.2754867,3.404049
-23.341675,3.2573109,3.365068
-23.48707,3.286348,3.3974357
-23.498133,3.2617369,3.3489952
-23.608932,3.2779381,3.3625169
-23.676188,3.2767394,3.349864
-23.710804,3.2621415,3.3169298
-23.797754,3.2697818,3.3180933
-23.885979,3.2784662,3.3210936
-23.924593,3.2661405,3.2920175
-24.01864,3.2781806,3.3005805
-24.120817,3.2944038,3.3158612
-24.124594,3.2672033,3.2641597
-24.233185,3.287194,3.2856836
-24.337385,3.3059175,3.3055305
-24.340826,3.2787218,3.2540522
-24.45352,3.3023398,3.2819433
-24.53701,3.3129597,3.289782
-24.569332,3.2996457,3.260273
-24.650888,3.3101182,3.268219
-24.703266,3.3068535,3.254724
-24.766628,3.309224,3.2502365
-24.81228,3.3030882,3.2324414
-24.873947,3.3051744,3.2277665
-24.95207,3.315974,3.2370644
-24.9774,3.300063,3.2040634
-25.026546,3.296486,3.1907463
-25.091988,3.3016846,3.191536
-25.168488,3.3131533,3.202499
-25.182915,3.2917056,3.1609163
-25.28413,3.317302,3.194808
-25.32302,3.309411,3.1751323
-25.378502,3.310833,3.1705146
-25.411285,3.2997649,3.1458755
-25.49787,3.319319,3.1707315
-25.57108,3.3318615,3.1844492
-25.594305,3.3158443,3.1520743
-25.643095,3.3147519,3.1439295
-25.722876,3.3323195,3.1661897
-25.783768,3.339155,3.1711707
-25.795515,3.316468,3.1281853
-25.836817,3.3116922,3.1144075
-25.895481,3.3178513,3.1185632
-25.94306,3.3174021,3.1120281
-25.99372,3.3191352,3.1091547
-26.01345,3.3012044,3.0741277
-26.084648,3.3166356,3.0938954
-26.14301,3.3241885,3.1008592
-26.186365,3.3221262,3.0921097
-26.208353,3.3058105,3.0599422
-26.266897,3.3143017,3.068727
-26.325752,3.3234277,3.0786738
-26.378948,3.3290308,3.0829077
-26.417183,3.3243904,3.0702786
-26.466549,3.3278272,3.0710993
-26.521545,3.3356423,3.0792737
-26.580296,3.346613,3.0927925
