x,y,z
-34.66543,2.0198073,0.45686865
-34.730785,2.0173745,0.4572134
-34.741703,2.0615835,0.5401249
-34.745567,2.1108189,0.63188887
-34.771355,2.1408956,0.6897769
-34.73139,2.2241602,0.84152937
-34.773018,2.2397792,0.87386227
-34.744778,2.3108513,1.0039458
-34.77773,2.332332,1.0466022
-34.76027,2.3926122,1.157546
-34.79626,2.4107451,1.1943078
-34.78754,2.4624712,1.2901106
-34.75278,2.532598,1.4181447
-34.729805,2.5925682,1.5282459
-34.733063,2.6322412,1.6026845
-34.731487,2.6746802,1.6819267
-34.766815,2.6901662,1.7139697
-34.753307,2.7397625,1.805666
-34.800518,2.7463958,1.8222613
-34.785927,2.795397,1.9128375
-34.79635,2.8265917,1.9722986
-34.809708,2.8553448,2.0274878
-34.85082,2.8653805,2.050099
-34.84865,2.903647,2.1218276
-34.928978,2.888158,2.1001658
-34.92583,2.9264176,2.1718788
-34.96667,2.9363906,2.1945238
-35.00676,2.946868,2.218092
-34.962692,3.0090675,2.3311539
-35.010155,3.0145264,2.3460546
-35.034523,3.033988,2.3851862
-35.000412,3.0879653,2.4838243
-35.080246,3.0741534,2.465629
-35.132366,3.0769937,2.4762154
-35.168045,3.0894647,2.5034251
-35.178967,3.1159556,2.5547314
-35.197395,3.137916,2.5982585
-35.27602,3.1263156,2.5843453
-35.28658,3.1525254,2.635213
-37.97412,1.7288675,0.21076107
-36.047222,2.8434026,2.1274438
-36.052074,2.8757215,2.1895132
-36.02269,2.925362,2.2809644
-35.960564,2.9909806,2.399394
-35.55473,3.229462,2.810368
-35.60745,3.2333994,2.8236742
-35.661636,3.2368133,2.836185
-35.722366,3.2372432,2.843758
-35.786846,3.2361438,2.8488684
-35.966064,3.1804202,2.762279
-36.22822,3.0869486,2.6127496
-36.286793,3.0912032,2.627594
-36.345406,3.095671,2.6429005
-36.401066,3.1017203,2.6609554
-36.488995,3.093348,2.655064
-36.565952,3.090412,2.6584053
-36.637054,3.090474,2.6668835
-36.67171,3.106854,2.702568
-36.765896,3.0974126,2.6955519
-36.868927,3.0847368,2.6833954
-36.90274,3.1020467,2.7209263
-37.03198,3.0793147,2.692585
-37.068092,3.096071,2.7294264
-37.136963,3.0993917,2.7442904
-37.168816,3.1180308,2.7843623
-37.253517,3.1154287,2.7897902
-37.281075,3.1359396,2.8330684
-37.34993,3.1401737,2.8499126
-37.94223,2.9415507,2.5377903
-37.98932,2.9569712,2.5737786
-37.99809,2.987014,2.6334672
-38.0153,3.0136478,2.6876373
-38.04189,3.0366368,2.7359495
-38.11413,3.0427866,2.7572875
-38.207027,3.0417354,2.7672687
-38.270287,3.0517793,2.7951765
-38.40587,3.0363803,2.7827353
-38.45175,3.0532434,2.8218517
-38.632446,3.02342,2.7871623
-38.68854,3.0374656,2.8222127
-38.774918,3.0413964,2.841464
-38.879196,3.0397131,2.8521204
-38.98113,3.0393283,2.8650784
-39.072136,3.043023,2.8846707
-39.18983,3.0384893,2.8916993
-39.27336,3.0455005,2.9169483
-39.399258,3.0394607,2.922245
-39.469963,3.0513399,2.9554935
-39.591057,3.0478997,2.9654064
-39.654778,3.0626023,3.0034142
-39.78143,3.0585082,3.012929
-39.9022,3.0568175,3.026464
-40.032005,3.0530674,3.0372353
-40.178,3.0452638,3.0422845
-40.285297,3.0493674,3.0656571
-40.405148,3.0503964,3.0847473
-40.48676,3.0627453,3.121059
-40.64263,3.0548058,3.1275153
-40.752144,3.06039,3.154439
-40.920288,3.0506034,3.1591048
-41.038216,3.05513,3.185267
-41.213326,3.0451093,3.190618
-41.297955,3.0596015,3.2320867
-41.475414,3.0505219,3.239818
-41.553642,3.0675893,3.2856793
-41.742565,3.0571635,3.2925353
-41.91076,3.052864,3.3087587
-42.1133,3.0410206,3.3149252
-42.22763,3.051529,3.3532062
-42.414124,3.0453546,3.368598
-42.54062,3.0542338,3.4055605
-42.754543,3.0434148,3.415823
-42.93064,3.0423636,3.4402795
-43.125633,3.0379233,3.4607959
-43.290924,3.0410812,3.4923344
-43.482613,3.0392427,3.5178103
-43.662285,3.040962,3.5487852
-43.87887,3.0356832,3.5712285
-44.084393,3.033828,3.5990524
-44.31758,3.0272617,3.6215992
-44.423958,3.0478053,3.6801057
-44.64416,3.0458446,3.7102551
-44.907425,3.036437,3.7319198
-45.17103,3.028311,3.7563639
-45.36709,3.0345414,3.7998447
-45.621597,3.0306258,3.831716
-45.852356,3.0324283,3.871727
-46.11014,3.030398,3.9081955
-46.41239,3.0216067,3.9378395
-46.635887,3.0283868,3.9872801
-47.004257,3.0108495,4.0095415
-47.487213,2.9754522,4.0131736
-47.993202,2.93869,4.017764
-48.597954,2.8881145,4.009605
-49.20759,2.839943,4.007338
-49.866814,2.786994,4.0032287
-50.66345,2.715756,3.983307
-51.46138,2.6485443,3.972114
6.603796,1.5911694,3.7832065
6.711645,1.4796951,3.5637445
6.4425144,1.3158374,3.1766882
6.2397137,1.0462437,2.5779138
6.188467,0.9542687,2.3767748
6.002577,0.8812053,2.195343
6.0692234,0.77263045,1.9774714
6.1489086,0.6614611,1.7563219
6.1175404,0.5660565,1.5518169
4.6636677,0.5895939,1.3845816
4.102854,0.58078384,1.2829638
3.3178425,0.6106353,1.229001
2.1079426,0.7137222,1.265089
1.9480457,0.6493337,1.1074772
1.5049515,0.6332097,1.008791
1.4007301,0.5611868,0.8438654
0.990942,0.5426161,0.7453532
-1.0679531,0.817971,1.0157504
1.1463566,0.3359995,0.33980465
-1.700407,0.76602983,0.8162322
-1.7474136,0.6922736,0.6569414
-3.1769657,0.8791828,0.83641005
-3.1377354,0.79276323,0.663754
-4.3999653,0.9588468,0.8246875
-4.4302597,0.88879967,0.67610073
-7.4911766,1.3583355,1.2046742
-7.357893,1.262953,1.0277753
-7.4155884,1.2064152,0.90362597
-7.280445,1.1089177,0.72292423
-7.3420715,1.0526366,0.59901714
-7.467211,1.0102444,0.49473524
-7.256714,0.8938806,0.28643703
-17.965475,2.8802807,2.8499637
-18.127258,2.8818567,2.8313031
-18.307787,2.8891177,2.82168
-18.496956,2.899595,2.8174648
-18.627155,2.8953624,2.791535
-18.794922,2.901885,2.7823472
-18.959631,2.9084487,2.7737174
-19.151623,2.9234219,2.7784681
-19.314602,2.931322,2.772893
-19.508211,2.948771,2.7825422
-19.655258,2.9539359,2.7736979
-19.80902,2.9618163,2.7694902
-19.96414,2.9709158,2.767611
-20.122343,2.9817662,2.7689033
-20.27137,2.9907155,2.7676377
-20.420849,3.0006077,2.768262
-20.554306,3.0063717,2.7627525
-20.699505,3.0165052,2.7645264
-20.824492,3.0210512,2.7577844
-20.953453,3.027521,2.7544322
-21.072678,3.0315301,2.747467
-21.195007,3.0371776,2.7434278
-21.306843,3.0400014,2.7351456
-21.430233,3.0472686,2.7343044
-21.549896,3.0539436,2.7328057
-21.655811,3.0565562,2.7250051
-21.761475,3.0596256,2.718194
-21.869366,3.0640235,2.7137952
-21.972828,3.0674226,2.708012
-22.077673,3.0718563,2.7041593
-22.18797,3.078824,2.7047048
-22.27423,3.0775814,2.69199
-22.37416,3.0818238,2.6885056
-22.46733,3.0840619,2.6819277
-22.570751,3.0906675,2.6827836
-22.651363,3.0890934,2.67029
-22.741425,3.0915666,2.6646914
-22.825682,3.0922306,2.6562667
-22.9145,3.0951233,2.6517353
-22.998348,3.0964882,2.6448298
-23.08121,3.0978775,2.6381345
-23.170107,3.1021657,2.6364713
-23.240103,3.0990908,2.622602
-23.33163,3.1053627,2.6246142
-23.419,3.1103861,2.6247025
-23.480854,3.1049435,2.607264
-23.55104,3.103361,2.5964742
-23.658182,3.1183178,2.613872
-23.712866,3.1106946,2.5931168
-23.7818,3.1096463,2.58364
-23.866238,3.115956,2.5868301
-23.988129,3.1399345,2.6203432
-24.522459,3.111521,2.510199
-24.621624,3.130056,2.5359812
-24.637642,3.1061742,2.4884295
-24.675472,3.0935006,2.4603243
-24.714157,3.0812948,2.4330769
-24.755728,3.0706582,2.4086056
-24.802824,3.0630805,2.389514
-24.821774,3.0401666,2.3437476
-24.837149,3.0150363,2.2941146
-24.85168,2.9891486,2.2431521
-24.872635,2.9666073,2.1980376
-24.892048,2.9429538,2.1509795
-24.906075,2.91591,2.09798
-24.896172,2.8744457,2.0196662
-24.884117,2.7941382,1.8674655
-24.900152,2.7664564,1.8132405
-24.89977,2.689756,1.6671395
-24.896805,2.6487277,1.5892987
-24.897161,2.6091397,1.513957
-24.902,2.5718,1.4425492
-24.896215,2.5269065,1.3577385
-24.879498,2.4739802,1.2586422
-24.875774,2.4287853,1.1731787
-24.87187,2.3826654,1.0860219
-24.875948,2.3412054,1.0070896
-24.871704,2.2932389,0.91655636
-24.883366,2.2555957,0.84433365
-24.876022,2.2037637,0.7468281
-24.877686,2.1574492,0.6590924
-24.893707,2.1207826,0.5885186
-24.892332,2.070611,0.49382973
-34.70081,2.0355334,0.3761239
-34.74873,2.048558,0.40389395
-34.76588,2.0873818,0.47804976
-34.74978,2.1530252,0.6003337
-34.749035,2.2046525,0.6973953
-34.72593,2.2732506,0.8248334
-34.76126,2.2937994,0.8660989
-34.73293,2.3641343,0.99651957
-34.765255,2.3858814,1.0399132
-34.790707,2.4126184,1.0922465
-34.766224,2.476702,1.2113061
-34.793404,2.5008857,1.2590432
-34.731075,2.5906925,1.4238539
-34.759262,2.6126692,1.4675884
-34.725082,2.679183,1.5906644
-34.7547,2.6990552,1.6306181
-34.75414,2.7398586,1.7078142
-34.73476,2.792958,1.8068156
-34.79874,2.788047,1.8027444
-34.780624,2.8389664,1.8978004
-34.802284,2.86239,1.944046
-34.797176,2.9031653,2.0210242
-34.81529,2.928111,2.069944
-34.860252,2.9354563,2.087749
-34.861664,2.9705865,2.1546793
-34.93703,2.9586952,2.1386042
-34.994774,2.9582977,2.1429095
-34.968006,3.010032,2.2391071
-34.995678,3.027823,2.2754893
-35.035126,3.0384152,2.2992377
-34.99237,3.0977283,2.4085798
-35.088425,3.074674,2.3733125
-35.13378,3.081764,2.3910332
-35.162056,3.09874,2.426118
-35.233585,3.0911453,2.4182625
-35.187843,3.1495643,2.5258226
-35.196312,3.1769724,2.579142
-35.21838,3.1966078,2.6188965
-35.287544,3.190633,2.6140842
-36.0421,2.8190007,1.9736667
-36.081936,2.8334663,2.005344
-36.127792,2.8447897,2.0316167
-36.06082,2.9144335,2.1589737
-35.9797,2.990065,2.296495
-36.01945,3.0033154,2.3260064
-36.062565,3.0149076,2.3527064
-35.59574,3.2782488,2.8132887
-35.67498,3.2695305,2.804563
-35.73075,3.2726269,2.8162875
-35.883835,3.2295134,2.7488012
-36.24175,3.090989,2.5181336
-36.28162,3.1042905,2.548069
-36.33534,3.111233,2.5671926
-36.44026,3.0949843,2.5468378
-36.500195,3.0997386,2.5624695
-36.600693,3.086623,2.5478115
-36.629223,3.1059096,2.5883746
-36.71585,3.0997577,2.5858397
-36.77533,3.105813,2.604136
-36.876205,3.094417,2.5930505
-36.985985,3.0798755,2.5768661
-37.043625,3.08779,2.5987234
-37.08023,3.104586,2.6356096
-37.160385,3.1036043,2.6427197
-37.203796,3.1178567,2.6755
-37.274662,3.1212137,2.690137
-37.338474,3.1276658,2.7100768
-37.91544,2.9339988,2.3969593
-37.968826,2.9472015,2.429029
-37.982677,2.9756296,2.4864383
-38.00573,3.0003774,2.5377474
-38.02351,3.02697,2.5921168
-38.077515,3.0400295,2.6241903
-38.19686,3.0293846,2.617394
-38.248417,3.0438807,2.6521115
-38.338608,3.044714,2.664566
-38.441383,3.041539,2.6706772
-38.55357,3.035613,2.6725464
-38.690304,3.0218236,2.661909
-38.741978,3.0378106,2.69986
-38.81284,3.0474505,2.7276487
-38.958057,3.03259,2.7160974
-39.010452,3.049122,2.7553868
-39.178505,3.0281377,2.7346277
-39.222397,3.048083,2.7797518
-39.378437,3.0324292,2.7682023
-39.419617,3.0537524,2.815844
-39.57978,3.0381656,2.8050647
-39.646812,3.052061,2.8412995
-39.78074,3.0458941,2.8460917
-39.84601,3.0610042,2.8846464
-40.030304,3.041082,2.8685393
-40.110615,3.0526276,2.9020271
-40.23056,3.0530303,2.9184017
-40.356003,3.052451,2.9335856
-40.43016,3.0669527,2.9723878
-40.63422,3.0455341,2.9561672
-40.696022,3.0644069,3.002255
-40.86333,3.0547833,3.0050316
-41.00589,3.0526915,3.0197544
-41.144188,3.0524435,3.0376945
-41.289024,3.0511694,3.054503
-41.471252,3.040955,3.0583482
-41.547546,3.0587273,3.1045537
-41.675613,3.0637252,3.131987
-41.855877,3.0563502,3.141519
-42.052082,3.0459993,3.1472602
-42.167847,3.0561569,3.1836886
-42.34993,3.0509794,3.1981416
-42.50277,3.0536273,3.2245502
-42.713165,3.0436268,3.233244
-42.805164,3.0618937,3.2831836
-43.095158,3.0356944,3.2700634
-43.23109,3.0454717,3.3089561
-43.432457,3.041462,3.3289156
-43.586327,3.0487843,3.36546
-43.800335,3.0439556,3.3856792
-44.040997,3.0345895,3.4004445
-44.2679,3.0293262,3.4217582
-44.451637,3.0340655,3.4575562
-44.607067,3.0454123,3.5029826
-44.833633,3.0433166,3.5310059
-45.09656,3.0352254,3.5519814
-45.31031,3.0379798,3.5883288
-45.547096,3.0374012,3.6212082
-45.798428,3.0352798,3.653091
-46.051903,3.0340238,3.6871634
-46.293106,3.0362625,3.7267766
-46.57771,3.031942,3.7592149
-46.875084,3.026813,3.7919369
-47.15441,3.0263095,3.8317118
-47.460957,3.0225716,3.8688583
-47.768707,3.0201776,3.9090743
-48.038876,3.0255084,3.9599323
-48.466316,3.0067568,3.9839425
-49.052658,2.9649835,3.9835596
-49.67687,2.9203887,3.983008
-50.41895,2.8610182,3.9692101
-51.281258,2.787486,3.94381
6.298601,1.3478651,2.6783562
6.2221355,1.2590814,2.4804764
6.1650066,1.1678674,2.280301
6.0339794,1.0866296,2.0912786
6.1760273,0.96823096,1.8613334
6.1313877,0.87493587,1.6590538
6.1068707,0.7786827,1.4534755
6.8039,0.57700825,1.1242552
4.577444,0.8055606,1.3034506
3.7256222,0.83803844,1.2569036
3.4159603,0.7913382,1.1175575
2.087099,0.90600324,1.1793947
1.4980335,0.909585,1.1081457
2.0130215,0.73663425,0.8157129
1.276413,0.67817116,0.59592247
-1.0522823,0.9869933,0.93060875
-1.723608,1.020441,0.91151
-3.0371075,1.0926476,0.88865376
-3.0866756,1.0230355,0.7377229
-7.5422173,1.4369011,1.0148282
-7.540161,1.3687077,0.8744769
-7.203436,1.2311041,0.6341877
-7.455736,1.2144406,0.5676131
-7.256716,1.1030853,0.36398315
-7.3053665,1.0435152,0.23539162
-17.831024,2.9227853,2.7622375
-17.974163,2.9184508,2.735848
-18.242134,2.9464579,2.760038
-18.531803,2.9815526,2.7960553
-18.63043,2.9686089,2.7577953
-18.825176,2.981403,2.7601886
-19.001492,2.9903316,2.7570314
-19.180931,3.0010436,2.7571754
-19.339428,3.006989,2.7502418
-19.514404,3.0183313,2.7523193
-19.66325,3.0232916,2.7446647
-19.851402,3.0401933,2.7565303
-19.963406,3.036252,2.7353816
-20.119041,3.0455413,2.7358398
-20.255043,3.0498862,2.7286925
-20.4055,3.0592513,2.7300224
-20.52346,3.0596242,2.7170959
-20.645512,3.0618348,2.7074451
-20.787079,3.070703,2.7089725
-20.885368,3.0668004,2.6898909
-21.030499,3.0781877,2.6961718
-21.139418,3.0787838,2.6850033
-21.263367,3.0847976,2.683032
-21.368391,3.0852678,2.6721563
-21.466469,3.083957,2.6585517
-21.571075,3.085312,2.6495962
-21.683784,3.089951,2.6463423
-21.789536,3.092796,2.6403332
-21.90329,3.098973,2.6401324
-21.99857,3.0992703,2.6302977
-22.092825,3.0996768,2.6208425
-22.184422,3.0995972,2.6107574
-22.29047,3.10523,2.610509
-22.38161,3.1059513,2.6021605
-22.424961,3.089335,2.5645766
-22.604998,3.1242535,2.6146545
-22.697695,3.1271303,2.6105556
-22.763094,3.119975,2.5895185
-23.196993,3.1315928,2.567554
-23.635975,3.156966,2.573289
-20.735802,1.8140895,0.22316265
-23.987986,3.186609,2.596919
-24.172342,3.1772156,2.560835
-24.28509,3.1356747,2.4690685
-24.538582,3.1325305,2.4395938
-24.612724,3.138001,2.4435258
-24.633486,3.1163375,2.399528
-24.679306,3.1075757,2.3784075
-24.719753,3.09608,2.3524919
-24.750875,3.0796413,2.317841
-24.804428,3.0752552,2.3046498
-24.825926,3.0535371,2.260676
-24.84054,3.0278044,2.2095556
-24.856312,3.0024211,2.1590524
-24.873886,2.9777658,2.1098433
-24.892586,2.9534774,2.0612884
-24.912395,2.9295626,2.0134015
-24.903898,2.8887792,1.9353132
-24.887672,2.8056598,1.776195
-24.87373,2.7595217,1.6883378
-24.87321,2.7208393,1.6138139
-24.903067,2.700437,1.5721278
-24.897266,2.6573918,1.4897017
-24.891201,2.61344,1.4055929
-24.885498,2.5689635,1.320488
-24.878395,2.5227926,1.2322769
-24.88118,2.4823377,1.1543345
-24.872538,2.4335482,1.061295
-24.873123,2.3901157,0.97788763
-24.873508,2.3457813,0.89280844
-24.873734,2.300541,0.80604744
-24.884018,2.2615561,0.73058414
-24.879438,2.211315,0.63468075
-24.89767,2.1765738,0.56686115
-24.721636,1.9993141,0.2401638
-34.74465,2.1060634,0.38792515
-34.743187,2.1598907,0.49032927
-34.776947,2.183766,0.53798866
-34.74369,2.2613544,0.68369913
-34.731857,2.3201299,0.794991
-34.764095,2.3430378,0.84083605
-34.725197,2.4207711,0.9865775
-34.763287,2.4378836,1.0218391
-34.791386,2.4623845,1.0705714
-34.721252,2.559755,1.2518101
-34.75895,2.575591,1.2847276
-34.72943,2.6401336,1.4061174
-34.756466,2.6627676,1.4513698
-34.745308,2.7121642,1.5451574
-34.75008,2.7494686,1.6169777
-34.760918,2.7819376,1.6800132
-34.76412,2.819092,1.7515078
-34.778755,2.8479037,1.8078871
-34.796913,2.8739467,1.8592548
-34.77538,2.9257252,1.957077
-34.81189,2.9388266,1.9850574
-34.849403,2.951243,2.011837
-34.904972,2.952191,2.0179982
-34.891388,2.996704,2.1026163
-34.95094,2.9951742,2.1043968
-34.950893,3.0304015,2.1722798
-34.99965,3.0355842,2.1862063
-35.014904,3.0609283,2.236342
-35.014374,3.0952754,2.3026004
-35.074047,3.093977,2.3050241
-35.119026,3.1014614,2.323234
-35.164597,3.1087143,2.3410835
-35.266483,3.0843577,2.302576
-35.259132,3.1543703,2.4375248
-35.142933,3.2498298,2.612495
-35.235363,3.2311788,2.584375
-35.29515,3.230587,2.5884738
-35.32505,3.2460063,2.6210551
-35.279118,3.3007748,2.7233768
-35.323246,3.3083127,2.7419858
-35.357582,3.3209424,2.7696524
-35.409943,3.324517,2.7813683
-36.18538,2.969211,2.1602545
-36.10188,3.0439544,2.2982378
-36.002426,3.1250978,2.4472656
-36.111378,3.1047006,2.417626
-36.17984,3.1043048,2.4232812
-36.244106,3.1062143,2.4330869
-36.3041,3.1103983,2.4469724
-36.38691,3.1043518,2.443067
-36.4427,3.111041,2.4615355
-36.53413,3.1019323,2.452548
-36.611008,3.09983,2.4559193
-36.640797,3.1187847,2.496025
-36.722366,3.1152072,2.4970489
-36.814053,3.107729,2.4914546
-36.922104,3.0938382,2.4749303
-36.980053,3.1016388,2.496091
-37.042606,3.10773,2.5143952
-37.1137,3.1105585,2.527185
-37.178665,3.1161892,2.5449147
-37.24132,3.1230056,2.5647917
-37.27883,3.1400268,2.602264
-37.380863,3.131766,2.5965314
-37.944256,2.9452546,2.286591
-37.978226,2.966248,2.3316836
-37.996662,2.9930875,2.3867617
-38.01786,3.018723,2.439795
-38.02409,3.049763,2.5019975
-38.16693,3.0305104,2.4790874
-38.22808,3.041713,2.5079079
-38.316174,3.0434692,2.5209188
-38.43319,3.0354056,2.5175958
-38.494446,3.047494,2.548338
-38.6808,3.0165164,2.5070872
-38.69992,3.0438912,2.5637498
-38.782948,3.0495274,2.5841818
-38.92143,3.0370038,2.5745883
-38.987946,3.0490212,2.6060252
-39.140648,3.0331466,2.5914297
-39.20987,3.045071,2.6230903
-39.335262,3.0393386,2.625814
-39.422497,3.0462863,2.6496568
-39.548412,3.0415707,2.654584
-39.60829,3.057818,2.694059
-39.706917,3.0624614,2.714748
-39.82473,3.061794,2.727036
-39.961052,3.0562215,2.7316623
-40.033054,3.0702112,2.7682257
-40.196995,3.0578363,2.7624936
-40.28315,3.0686057,2.7943401
-40.44075,3.0595412,2.794652
-40.53237,3.0697274,2.8260832
-40.667496,3.068307,2.8392882
-40.80732,3.0662844,2.8518958
-41.005493,3.049287,2.8412395
-41.08953,3.0636692,2.8804932
-41.259777,3.0557861,2.885067
-41.38984,3.0591898,2.90774
-41.509197,3.0659494,2.9359894
-41.61502,3.0766673,2.9706979
-41.830868,3.0604706,2.9641848
-41.999874,3.0569441,2.977779
-42.12529,3.0648386,3.0093389
-42.295685,3.0625546,3.0257683
-42.514153,3.049788,3.0268345
-42.675064,3.0515757,3.0505357
-42.821373,3.0575023,3.080944
-42.98168,3.0609539,3.1081104
-43.169067,3.0591352,3.1279564
-43.37254,3.0547147,3.144569
-43.570736,3.0524752,3.165061
-43.778557,3.0491729,3.1846642
-44.011986,3.0415206,3.1986585
-44.227013,3.0388954,3.2207208
-44.40749,3.0444345,3.2552462
-44.624874,3.0433927,3.281024
-44.790504,3.0537338,3.3236957
-45.0632,3.04387,3.3385596
-45.27937,3.0463235,3.3716335
-45.509026,3.04728,3.4034448
-45.69409,3.0577219,3.4491653
-45.97083,3.0521548,3.4737697
-46.25363,3.0468934,3.499888
-46.56743,3.0375407,3.521665
-46.792347,3.0453956,3.567584
-47.072132,3.0448685,3.6034007
-47.44654,3.0296783,3.6213002
-47.737514,3.030353,3.6612792
-48.02674,3.032767,3.7047467
-48.38485,3.0255117,3.7373028
-48.702576,3.0264769,3.7817345
-49.01854,3.029306,3.8299255
-49.36283,3.0293784,3.8762445
-49.742355,3.0258899,3.9199414
-50.194267,3.0136542,3.955152
-50.690506,2.9973226,3.9878545
-51.463837,2.9442492,3.9809666
6.2850704,1.6464348,2.7936983
6.249338,1.5526123,2.59053
6.1925564,1.4613152,2.3902874
6.0784855,1.3772998,2.1985683
6.0279408,1.2853937,1.9981527
6.1690655,1.1681485,1.7679071
6.090166,1.0794892,1.5712175
4.6838627,1.1735556,1.5977473
4.7554226,1.0676625,1.3834476
4.153822,1.0573714,1.2886114
3.4054737,1.0714865,1.2274461
2.2165852,1.1549082,1.2586842
2.1215801,1.0789938,1.087841
1.9741497,1.0113654,0.92821217
2.1344547,0.8959062,0.705534
1.2254524,0.95012903,0.7099161
-1.5095768,1.3062139,1.127253
-1.7262402,1.1794887,0.83655834
-3.07654,1.2513018,0.82592964
-7.4200535,1.6088874,1.0585198
-7.439869,1.545203,0.9241376
-7.282469,1.4462852,0.737453
-7.365759,1.3943777,0.62031937
-7.5117073,1.3553877,0.5227823
-7.250681,1.2328196,0.29947662
-17.939817,2.981631,2.6877599
-18.200722,3.0063865,2.7095695
-18.417423,3.0215125,2.7166185
-18.613697,3.0326254,2.7177706
-18.819332,3.0472035,2.7250342
-18.982285,3.0517695,2.7165804
-19.136843,3.0549626,2.7062964
-19.287514,3.0579095,2.6959882
-19.45295,3.0656307,2.6938653
-19.589657,3.0663452,2.6806297
-19.742847,3.07233,2.6763992
-19.881598,3.0750573,2.6671448
-20.020039,3.0784094,2.659245
-20.159908,3.082888,2.653533
-20.286388,3.0841866,2.642838
-20.41,3.0852783,2.6320763
-20.531624,3.086399,2.6216345
-20.659014,3.0898812,2.615419
-20.763798,3.0870945,2.5989242
-20.89148,3.0919142,2.5954814
-21.01627,3.0964997,2.5919127
-21.150047,3.1046011,2.5945659
-21.273272,3.1100411,2.592977
-21.395302,3.115751,2.5921025
-21.497704,3.1156518,2.5815625
-21.577362,3.10848,2.5591302
-22.196632,3.1230555,2.527131
-24.037338,3.0281155,2.170629
-24.506138,3.1589108,2.3890853
-24.621479,3.1525443,2.3671236
-24.624216,3.1214542,2.3058324
-24.688864,3.1221864,2.3020668
-24.728313,3.1099792,2.274963
-24.772627,3.1003876,2.252637
-24.814365,3.0894926,2.227995
-24.8284,3.0635424,2.1760635
-24.846235,3.039386,2.1273851
-24.861925,3.0137684,2.0760474
-24.88331,2.9910676,2.0300145
-24.901905,2.9665399,1.9806585
-24.904354,2.932399,1.9137726
-24.89864,2.8929746,1.8372159
-24.890007,2.8511846,1.7562947
-24.896675,2.8178654,1.6908088
-24.878609,2.7690563,1.5969634
-24.894886,2.740452,1.5400419
-24.910528,2.7110677,1.4816847
-24.881329,2.6530905,1.3708935
-24.88352,2.6139808,1.2946367
-24.87822,2.5693989,1.2082992
-24.879234,2.5281496,1.1280408
-24.87471,2.4825377,1.0397253
-24.87237,2.437567,0.95254564
-24.868153,2.3905206,0.8615022
-24.87128,2.347645,0.77809906
-24.895746,2.3188138,0.72055864
-24.885448,2.265142,0.61719036
-24.896402,2.2255483,0.5397568
-34.72143,2.1763532,0.40288448
-34.729206,2.2217953,0.4909587
-34.755703,2.2512064,0.54924536
-34.736004,2.3168983,0.67485285
-34.769573,2.3393059,0.72012186
-34.73477,2.4143984,0.86305285
-34.732998,2.462557,0.95599794
-34.759422,2.4884682,1.0077167
-34.784237,2.5152006,1.0609608
-34.727013,2.601855,1.2250085
-34.74665,2.630787,1.2822561
-34.741882,2.676761,1.3709741
-34.746113,2.7154856,1.44627
-34.75399,2.7509735,1.5155654
-34.767345,2.7820785,1.5767612
-34.76741,2.8217432,1.6537113
-34.762535,2.8640265,1.7354479
-34.77189,2.8960977,1.7983556
-34.784077,2.925796,1.856883
-34.805138,2.9492984,1.9040174
-34.818542,2.9774077,1.95961
-34.841618,2.9989972,2.003232
-34.872787,3.0152845,2.0371447
-34.91716,3.0233054,2.0559368
-34.920677,3.0563397,2.120551
-34.966454,3.0633914,2.1376243
-34.991474,3.0829186,2.1775408
-35.04079,3.0879636,2.191029
-35.06527,3.1076198,2.2312255
-35.097084,3.1228802,2.2634206
-35.16937,3.115074,2.2536325
-35.251335,3.1355984,2.3000455
-35.2687,3.1588967,2.3469896
-35.306217,3.171015,2.3736477
-35.330853,3.1900516,2.4128833
-35.22777,3.2766116,2.5744314
-35.26241,3.2893493,2.6021762
-35.285248,3.3081884,2.6409826
-35.292633,3.3347976,2.6938334
-35.321625,3.3501563,2.726368
-35.32321,3.3791614,2.7835202
-35.39077,3.3751736,2.7812471
-35.474075,3.3638666,2.7659092
-36.033035,3.1231914,2.3386579
-36.11935,3.1141422,2.3280869
-36.173027,3.1210494,2.346249
-36.23608,3.1237545,2.3569574
-36.355877,3.1005251,2.3213768
-36.421627,3.1028416,2.331625
-36.488953,3.1047401,2.3412232
-36.540142,3.1141496,2.3643012
-36.589035,3.1247146,2.389501
-36.6341,3.137069,2.4179454
-36.742115,3.122341,2.398376
-36.82046,3.1209648,2.4026566
-36.938484,3.1032498,2.3781404
-36.994553,3.1121476,2.4008741
-37.059776,3.1174479,2.4173355
-37.145863,3.1145055,2.4193702
-37.192688,3.1278439,2.450202
-37.256493,3.1345057,2.4693608
-37.356304,3.1272225,2.4641495
-37.88891,2.9518964,2.164692
-37.964645,2.9569225,2.1818342
-37.984097,2.9837012,2.2370925
-37.995117,3.013487,2.2975945
-38.014416,3.0399556,2.352306
-38.08236,3.0483687,2.3756447
-38.22062,3.0314598,2.3551707
-38.24906,3.0548735,2.404789
-38.40599,3.032547,2.375372
-38.4752,3.0420122,2.4011197
-38.605255,3.0306048,2.391045
-38.685406,3.03707,2.4119449
-38.73575,3.0539854,2.4509149
-38.844185,3.051521,2.4567876
-38.972958,3.0428734,2.4523144
-39.08452,3.040572,2.4589229
-39.188763,3.041209,2.4707556
-39.284748,3.0449982,2.4881473
-39.392742,3.045432,2.5000505
-39.477077,3.053787,2.525557
-39.58282,3.0558844,2.5406833
-39.662968,3.0662913,2.5700026
-39.781013,3.065597,2.580861
-39.862106,3.0764906,2.6113634
-40.023018,3.0642345,2.6033988
-40.16877,3.0572715,2.6046162
-40.237118,3.0732846,2.6443052
-40.40091,3.0624769,2.6397362
-40.47015,3.0790155,2.6806936
-40.63458,3.0694757,2.6788735
-40.79149,3.0628705,2.6822686
-40.92391,3.063688,2.6981888
-41.085953,3.057275,2.7026386
-41.23676,3.0546618,2.7136688
-41.375313,3.055992,2.7314658
-41.455612,3.0729117,2.7747784
-41.647614,3.0618994,2.7733345
-41.741505,3.076376,2.8132625
-41.916046,3.071381,2.8223162
-42.133705,3.0568166,2.8166108
-42.267097,3.0636127,2.845367
-42.478333,3.0526319,2.8464127
-42.606598,3.0621142,2.8802266
-42.765247,3.0651913,2.9043617
-42.96372,3.0600078,2.9160638
-43.121887,3.0648584,2.9439163
-43.350616,3.0549054,2.949357
-43.542664,3.0541263,2.9695902
-43.73871,3.0534525,2.990562
-43.989147,3.0422654,2.9961324
-44.200798,3.0404668,3.0167036
-44.40618,3.0410202,3.0414834
-44.56858,3.0512874,3.0814614
-44.7668,3.0551798,3.1124606
-45.00955,3.051308,3.1326156
-45.228043,3.0533538,3.1622887
-45.472336,3.0515752,3.187111
-45.659946,3.0616443,3.229972
-45.909443,3.0611959,3.258315
-46.233562,3.0484605,3.269959
-46.499935,3.0477138,3.2998228
-46.77423,3.046914,3.3305907
-47.013325,3.053574,3.3728156
-47.36777,3.0418096,3.3903894
-47.627472,3.0476966,3.4336157
-47.973053,3.040763,3.4603882
-48.33833,3.0324159,3.4866452
-48.741714,3.0198956,3.5088248
-49.009064,3.0306282,3.5634503
-49.35402,3.0307999,3.6053734
-49.742905,3.0261116,3.6424966
-50.14573,3.0213437,3.6812296
-50.55082,3.018292,3.7239394
-50.8489,3.0324588,3.7899604
-51.324673,3.0233793,3.8287783
-51.58374,3.0462534,3.9085803
6.177946,1.6803303,2.2930942
6.1394978,1.5867879,2.0905023
6.175234,1.4840188,1.8765326
6.145727,1.3889933,1.6720715
6.114813,1.2940106,1.4677
6.266287,1.174892,1.2320671
4.4369526,1.3206968,1.343689
3.4690228,1.3581686,1.3190398
2.6454601,1.3804798,1.2779913
1.8316116,1.4056554,1.2441616
1.4333076,1.3746228,1.1363125
0.54728127,1.4177675,1.1329274
2.103548,1.0968063,0.6227102
1.3653717,1.1196496,0.59256506
-1.1796951,1.429306,0.9742813
-2.4174194,1.54458,1.0858226
-1.6609402,1.3429186,0.7422676
-3.0918636,1.4978712,0.91697884
-3.1363983,1.4277542,0.76540184
-4.9311047,1.656671,1.0572252
-4.386429,1.4890692,0.7633114
-7.026142,1.7454042,1.0251608
-7.3525753,1.7378621,0.9757509
-7.415985,1.682365,0.853518
-7.21801,1.5768867,0.6540704
-7.4623547,1.5558887,0.5853467
-7.328306,1.4613185,0.40226555
-7.240902,1.3749456,0.23157978
-17.806032,3.0294993,2.600747
-17.982182,3.0319197,2.5885139
-18.184189,3.0415614,2.5886884
-18.50372,3.0813935,2.6396399
-18.647728,3.079023,2.620829
-18.79331,3.07776,2.6041956
-18.9699,3.085211,2.6025338
-19.134464,3.0904584,2.59755
-19.287981,3.0936456,2.5894446
-19.426117,3.093504,2.576027
-19.520786,3.0822597,2.5440269
-19.636559,3.0772083,2.522766
-15.754797,1.9600844,0.60177517
-15.99815,1.9780159,0.6156645
-16.095432,1.9556129,0.56081533
-20.151009,3.0773246,2.474945
-23.266628,2.9662359,1.9821777
-24.58662,3.151056,2.2516785
-24.60179,3.1259964,2.2008185
-24.646534,3.1159906,2.1777797
-24.697424,3.1092904,2.1608987
-24.749664,3.1034646,2.1456904
-24.795933,3.0946124,2.1249285
-24.83635,3.0826874,2.0985136
-24.85339,3.0579522,2.048356
-24.870268,3.0328484,1.9975123
-24.883133,3.0051985,1.9419336
-24.89912,2.9789743,1.8889971
-24.910557,2.9498093,1.8305807
-24.8955,2.9048133,1.7426596
-24.920233,2.882509,1.696989
-24.898846,2.8324478,1.5995412
-24.89893,2.7944515,1.5245547
-24.895573,2.7537372,1.444459
-24.891907,2.71215,1.3626957
-24.891579,2.671945,1.2834806
-24.883196,2.6259573,1.1934075
-24.879406,2.5820954,1.1072721
-24.87719,2.5384848,1.0215697
-24.874214,2.4936025,0.9334464
-24.883205,2.4558928,0.8587446
-24.875885,2.4065416,0.76216364
-24.899147,2.377171,0.70307875
-24.88766,2.3233156,0.59796476
-24.907461,2.290348,0.53208876
-34.68638,2.2570934,0.42849588
-34.752983,2.2542558,0.42637682
-34.7762,2.2863011,0.49025488
-34.769005,2.3416455,0.59814787
-34.775505,2.3852131,0.6837568
-34.72769,2.4694023,0.84601116
-34.737465,2.5082738,0.9226718
-34.733562,2.5565913,1.0171227
-34.775906,2.5700073,1.045763
-34.788143,2.6051774,1.1154065
-34.724445,2.6940334,1.2860975
-34.749924,2.7179594,1.3345003
-34.74977,2.7594292,1.4158974
-34.764458,2.7899256,1.4766397
-34.77052,2.8258,1.5474744
-34.741352,2.8847008,1.66151
-34.765778,2.9069076,1.7066321
-34.786263,2.9314282,1.7560992
-34.796234,2.962421,1.8176942
-34.81325,2.9884357,1.8699517
-34.832123,3.0129263,1.919354
-34.853516,3.0355341,1.9652348
-34.879932,3.0547845,2.0048428
-34.907215,3.073326,2.0431395
-34.946514,3.0844858,2.0676723
-34.988155,3.0942721,2.089675
-35.039726,3.0982885,2.1009603
-35.08184,3.1079707,2.122849
-35.1264,3.1163144,2.1422849
-35.182434,3.1182559,2.149856
-35.248913,3.114607,2.147099
-35.299343,3.1202013,2.1615815
-35.35174,3.124886,2.174428
-35.402187,3.1308153,2.1896367
-35.44797,3.1393924,2.209803
-35.25796,3.2723804,2.460268
-35.252785,3.306279,2.527154
-35.269962,3.328175,2.5718274
-35.2997,3.343463,2.6043024
-35.316128,3.365392,2.649046
-35.333523,3.386629,2.692515
-35.360268,3.4030752,2.7271638
-35.394447,3.4158254,2.7550325
-35.442554,3.421889,2.7706447
-36.101578,3.1378882,2.25383
-36.16336,3.14116,2.264958
-36.23169,3.141656,2.2710762
-36.292225,3.1460586,2.284431
-36.366623,3.144415,2.2868066
-36.433926,3.1463404,2.2957997
-36.505028,3.1468897,2.3023696
-36.615456,3.130538,2.278234
-36.69675,3.1275485,2.2785873
-36.75737,3.133851,2.2959518
-36.860085,3.122548,2.281417
-36.97762,3.10567,2.2569256
-37.034256,3.114773,2.279688
-37.05879,3.1371982,2.3266282
-37.188824,3.116807,2.2961993
-37.240128,3.1287713,2.3243818
-37.301395,3.1369221,2.3457518
-37.315918,3.1635683,2.4004993
-37.924053,2.9605744,2.0424013
-37.973534,2.9760935,2.0777302
-37.992012,3.0034103,2.1342683
-38.01478,3.0289469,2.1876187
-38.07062,3.04214,2.218913
-38.178432,3.0365222,2.2167048
-38.23266,3.0508142,2.2501588
-38.370834,3.0353167,2.2306767
-38.433258,3.0473335,2.2603168
-38.526604,3.0487843,2.271306
-38.6701,3.0334225,2.2526793
-38.720398,3.0506077,2.2918448
-38.806023,3.056016,2.3102937
-38.973038,3.034764,2.2819219
-39.024174,3.0525622,2.3225288
-39.164597,3.0415008,2.312553
-39.233295,3.0542164,2.344492
-39.382847,3.0415618,2.3321824
-39.448303,3.0560663,2.3675528
-39.573105,3.05243,2.3714352
-39.631718,3.0696597,2.411818
-39.79885,3.0543008,2.3957734
-39.84116,3.0770936,2.4460893
-39.994385,3.067268,2.4401374
-40.11953,3.0664434,2.4500036
-40.244072,3.0664215,2.4614983
-40.38454,3.062501,2.4665565
-40.442287,3.0824795,2.5127873
-40.62613,3.0677211,2.4998384
-40.778885,3.0624738,2.5034766
-40.86932,3.0748305,2.5373282
-41.052734,3.0627968,2.5300632
-41.22869,3.0537198,2.5282001
-41.299026,3.0729833,2.574448
-41.472904,3.0659544,2.5766888
-41.614014,3.0681193,2.5947185
-41.729248,3.0774288,2.6249886
-41.904076,3.0725856,2.631968
-42.09557,3.064598,2.6341486
-42.282074,3.058813,2.6404314
-42.46625,3.0545444,2.6496658
-42.603344,3.0621989,2.678924
-42.7204,3.0750985,2.717091
-42.942024,3.064797,2.7177262
-43.13748,3.0615132,2.7303286
-43.321304,3.0617914,2.7491975
-43.46379,3.0719714,2.7844925
-43.743507,3.0534105,2.7740564
-43.94309,3.0532703,2.7938104
-44.115944,3.0596902,2.8245397
-44.41684,3.0406933,2.8155122
-44.588383,3.0494292,2.851037
-44.794716,3.0520575,2.8774672
-45.018196,3.0523481,2.900844
-45.28812,3.0447972,2.9127116
-45.482033,3.0530763,2.9498243
-45.635376,3.0698757,3.0005918
-45.873955,3.0716782,3.0289283
-46.20968,3.0570786,3.033132
-46.4889,3.0542984,3.0562396
-46.78564,3.049864,3.0777774
-47.022575,3.057249,3.1178813
-47.38121,3.0451684,3.130012
-47.622448,3.0545015,3.17479
-47.988655,3.0445466,3.1923132
-48.322655,3.0416589,3.2213502
-48.724476,3.0297444,3.2386603
-49.0158,3.0370524,3.284761
-49.407837,3.03045,3.312356
-49.724754,3.0370884,3.3599186
-50.151432,3.0291855,3.3886147
-50.520264,3.0317936,3.4333787
-50.95451,3.0270147,3.469633
-51.351128,3.0296545,3.5176015
6.149805,1.8843637,2.208992
6.195921,1.7811747,1.993876
6.1914043,1.6834302,1.7856688
6.1540585,1.5893846,1.5823498
6.1554813,1.4904733,1.3724947
6.1466045,1.3925512,1.1639032
6.0923367,1.3002152,0.96301746
6.0786533,1.2025242,0.75473166
4.1770687,1.3580184,0.9057541
1.6638088,1.6074905,1.1985655
1.5249405,1.5386887,1.0400915
0.06453705,1.6587505,1.1577587
-0.713068,1.6874058,1.1459727
-1.4189339,1.7094836,1.1270704
-2.17877,1.7433717,1.1281943
-3.0028248,1.7911191,1.1527104
-3.174158,1.7409973,1.0313106
-3.0906887,1.6509111,0.8493037
-4.5890636,1.8168168,1.0608878
-4.4138412,1.7145259,0.8618159
-7.3960533,1.876467,0.9305792
-7.3478127,1.8006113,0.7759986
-7.4678516,1.6879249,0.52932596
-7.1965866,1.5681524,0.3031211
-17.741064,3.0479832,2.4591846
-17.89138,3.0435102,2.4370522
-18.137035,3.0628083,2.4560828
-18.274073,3.0568588,2.4321203
-18.492483,3.071766,2.4444685
-18.8409,3.0826435,2.437605
-15.368829,2.046568,0.5886059
-15.489469,2.0280082,0.54033756
-15.685533,2.0304458,0.5291753
-15.7493,1.9974287,0.45592308
-15.87703,1.9823437,0.41440535
-21.567225,3.1214352,2.2970233
-21.761356,3.084776,2.207358
-22.54524,3.0969362,2.173709
-24.564713,3.1513124,2.145729
-24.606995,3.1397672,2.119914
-24.658154,3.1328535,2.102868
-24.702652,3.1226223,2.0796075
-24.756538,3.1174276,2.0658975
-24.797886,3.1057267,2.0399408
-24.838726,3.0937896,2.0135689
-24.85505,3.0684633,1.9618888
-24.870588,3.042411,1.9088287
-24.880898,3.0131135,1.8496151
-24.897533,2.987013,1.796452
-24.903353,2.9543858,1.7308974
-24.890478,2.910419,1.643795
-24.897852,2.877604,1.5778351
-24.892378,2.8366566,1.4963975
-24.893328,2.7988927,1.42098
-24.890265,2.7580695,1.3397126
-24.885113,2.7152677,1.2546453
-24.882128,2.6730773,1.1707087
-24.883648,2.6330092,1.0907855
-24.88372,2.5913343,1.0077696
-24.870193,2.5401113,0.9064994
-24.871124,2.4974215,0.82147884
-24.87703,2.4572842,0.7413082
-24.882135,2.4159145,0.65875864
-24.895477,2.3794365,0.5855417
-24.858429,2.307507,0.44446802
-34.723274,2.3269613,0.4483657
-34.75328,2.3530977,0.50150967
-34.77351,2.3864017,0.5684314
-34.76298,2.4426072,0.6793289
-34.71974,2.5222669,0.8352051
-34.746334,2.5481997,0.8879075
-34.725464,2.6085725,1.0066667
-34.766113,2.6231163,1.0375147
-34.813583,2.6327052,1.0588927
-34.7408,2.7271745,1.2428641
-34.75591,2.7583053,1.3054667
-34.77481,2.78633,1.3621168
-34.73954,2.8506982,1.488266
-34.758465,2.877414,1.5423708
-34.775677,2.9048798,1.597908
-34.78767,2.9353552,1.6591873
-34.796078,2.9676716,1.7239676
-34.808487,2.996925,1.7828903
-34.82264,3.0246458,1.8388815
-34.84279,3.0482423,1.8870082
-34.8697,3.0673947,1.9266739
-34.89564,3.0869555,1.9671264
-34.92857,3.10214,1.9992657
-34.96433,3.1155665,2.0280828
-35.004868,3.1261647,2.0515523
-35.05029,3.1339724,2.0697532
-35.111465,3.1328893,2.0711246
-35.160706,3.1388564,2.0859227
-35.202877,3.1489172,2.1085196
-35.24558,3.1587439,2.1307063
-35.318787,3.1520305,2.1216335
-35.379856,3.1523044,2.1258492
-35.432484,3.157363,2.1391668
-35.372055,3.22201,2.265039
-35.247803,3.3185933,2.4510489
-35.268852,3.3386586,2.4925966
-35.29496,3.3559892,2.528997
-35.32555,3.3709676,2.5609827
-35.335266,3.396239,2.6123495
-35.33894,3.4241853,2.6687317
-35.369205,3.4389114,2.7002687
-35.40274,3.4520307,2.7288117
-35.443848,3.4615676,2.7506642
-36.15477,3.1579993,2.186071
-36.221165,3.159618,2.1936932
-36.299183,3.1562343,2.1920347
-36.37385,3.1547894,2.1940918
-36.452366,3.1520143,2.1937518
-36.53333,3.1485803,2.1922793
-36.621174,3.142584,2.186132
-36.693092,3.1439595,2.1938128
-36.77185,3.1427588,2.1967912
-36.91436,3.1150987,2.1507206
-36.966087,3.1262681,2.1768966
-37.062298,3.1192544,2.169424
-37.107235,3.1336646,2.201744
-37.197807,3.1297798,2.200272
-37.2503,3.1415284,2.2278008
-37.351288,3.1343482,2.2204576
-37.922413,2.9450288,1.8775334
-37.97352,2.9602642,1.9121332
-37.98766,2.9896338,1.9727764
-38.000484,3.0192719,2.033904
-38.01751,3.0471182,2.0917344
-38.15873,3.0292397,2.065796
-38.216045,3.0426407,2.0972986
-38.274048,3.055953,2.128708
-38.42855,3.0352654,2.0981479
-38.484325,3.0500803,2.1325202
-38.66343,3.0223951,2.0896277
-38.70639,3.04237,2.1336212
-38.778576,3.0525098,2.1598158
-38.93715,3.0340967,2.1343837
-39.00469,3.0466456,2.1652136
-39.133556,3.0394437,2.1604662
-39.213684,3.0486329,2.1854806
-39.34067,3.0432415,2.1843638
-39.4084,3.0571442,2.2181296
-39.542645,3.0506256,2.2153535
-39.60958,3.0654666,2.2510552
-39.74182,3.0607414,2.2518744
-39.832634,3.0691063,2.276277
-39.978287,3.061655,2.2726526
-40.065945,3.0719125,2.3007665
-40.23381,3.059412,2.2886424
-40.295784,3.0779817,2.3318424
-40.43139,3.0760286,2.3388653
-40.615242,3.0613773,2.3237424
-40.675533,3.0816078,2.3703475
-40.8716,3.0652623,2.3528237
-41.009354,3.065587,2.3648853
-41.166805,3.0614057,2.36933
-41.278553,3.0699334,2.3962383
-41.46504,3.0597663,2.3908386
-41.566444,3.072165,2.4249659
-41.72955,3.0695572,2.433312
-41.878647,3.071241,2.4493961
-42.083775,3.0600154,2.4435616
-42.265095,3.0556087,2.4498672
-42.413322,3.05998,2.4715824
-42.56537,3.0641742,2.4933047
-42.708504,3.0711577,2.5200973
-42.91201,3.065096,2.5250664
-43.116875,3.0597866,2.5317645
-43.303814,3.0594966,2.5473886
-43.44046,3.0711007,2.5834146
-43.739483,3.0484655,2.5624366
-43.84052,3.069346,2.6147575
-44.184273,3.040019,2.5838718
-44.37475,3.0440602,2.6090813
-44.509552,3.0603018,2.6548696
-44.806774,3.0447674,2.648797
-44.994232,3.0523505,2.681295
-45.239994,3.0495706,2.6973925
-45.441956,3.0563736,2.7296686
-45.650677,3.0628934,2.7620144
-45.84919,3.072315,2.7995753
-46.153793,3.0634522,2.8084564
-46.48452,3.051503,2.81329
-46.71039,3.0596762,2.8508863
-47.0078,3.0566044,2.8714433
-47.345673,3.0481808,2.8845077
-47.623863,3.0514514,2.91676
-47.925293,3.0523024,2.9461155
-48.325832,3.0387092,2.9542398
-48.693375,3.032414,2.9747577
-48.997868,3.0377932,3.0141277
-49.355606,3.0365677,3.0445619
-49.722404,3.0357988,3.076867
-50.148563,3.0281668,3.100264
-50.50547,3.0326958,3.1429787
-50.930534,3.0293813,3.175541
-51.358917,3.0277684,3.2120862
5.9344006,2.0081625,1.9395938
6.177557,1.8834939,1.6935759
6.1647243,1.7866955,1.4862981
6.153391,1.6895075,1.2784247
4.7997036,1.753859,1.3059831
6.315874,1.4716187,0.8279457
2.5916386,1.6608105,0.9305506
1.0294094,1.7800105,1.0584369
0.9184685,1.708715,0.89832973
-0.4784279,1.817513,1.0175657
-0.45101738,1.7307072,0.8358035
-1.7511921,1.8364737,0.9565067
-2.6291351,1.886667,0.99314594
-3.2013264,1.8953354,0.9662156
-3.1744537,1.8147635,0.7979708
-4.3652935,1.9245799,0.9362464
-7.3811855,2.0689692,1.0049391
-7.434149,2.011671,0.8801203
-7.271408,1.9162009,0.6917157
-7.4623528,1.883107,0.6073184
-7.3306026,1.7918017,0.42543077
-7.247473,1.7084267,0.25655127
-17.77433,3.0484104,2.2698965
-15.331953,1.9730453,0.20957088
-20.15287,3.1303868,2.2701797
-24.576828,3.167925,2.0689287
-24.584497,3.1386237,2.0090828
-24.642862,3.1350102,1.998652
-24.700489,3.1312544,1.987997
-24.760677,3.1290848,1.9804459
-24.798521,3.1152837,1.9505229
-24.839813,3.1033301,1.9241867
-24.854824,3.077073,1.8702707
-24.865894,3.048322,1.8115344
-24.876932,3.0191743,1.7520223
-24.891108,2.99141,1.6951742
-24.901482,2.961111,1.6334167
-24.903187,2.9253666,1.5611091
-24.889666,2.880133,1.4704037
-24.896145,2.8459775,1.4011235
-24.888819,2.803002,1.3147287
-24.881277,2.7591505,1.2266021
-24.880713,2.718829,1.1452913
-24.891718,2.6850402,1.0766368
-24.872952,2.6319215,0.9704275
-24.901989,2.6083696,0.92162275
-24.868622,2.5441227,0.7937145
-24.881416,2.5088518,0.7220979
-24.883657,2.465997,0.63571405
-24.894747,2.4283283,0.5594015
-34.756973,2.3506646,0.37618923
-34.731533,2.4198747,0.5140214
-34.75715,2.4485316,0.5725541
-34.76661,2.488894,0.6539526
-34.746895,2.5501645,0.77616215
-34.752087,2.5918515,0.8600979
-34.758434,2.6319025,0.9408221
-34.76547,2.6707156,1.0191131
-34.81074,2.6818671,1.0434594
-34.74831,2.7679446,1.2138438
-34.76624,2.796928,1.2729163
-34.75503,2.8452125,1.369565
-34.755646,2.884649,1.448957
-34.767296,2.9160857,1.5127625
-34.782272,2.9448543,1.5713692
-34.7943,2.975086,1.6328135
-34.805668,3.0052748,1.6941648
-34.82167,3.0320888,1.7489519
-34.840073,3.0570405,1.8001204
-34.86454,3.077949,1.8434439
-34.89343,3.0959604,1.881155
-34.939632,3.1034696,1.8985262
-34.96124,3.125608,1.9442644
-35.000957,3.1369383,1.9690819
-35.04426,3.1462216,1.9899635
-35.093117,3.1524134,2.0048957
-35.146385,3.1562686,2.015348
-35.21054,3.15428,2.014553
-35.2017,3.1927173,2.0918622
-35.210743,3.2208352,2.1492262
-35.24591,3.2345862,2.178873
-35.418663,3.1754372,2.0680466
-35.22839,3.3080008,2.3266597
-35.24036,3.3331425,2.37824
-35.259186,3.3544874,2.4225097
-35.282997,3.3731132,2.4615526
-35.30919,3.3904166,2.498064
-35.341225,3.40473,2.5288477
-35.37992,3.4157655,2.553361
-35.374863,3.447936,2.618422
-35.39559,3.46738,2.6590729
-35.43139,3.4795825,2.685865
-36.173237,3.1632535,2.0841718
-36.235752,3.1670263,2.095367
-36.31192,3.164857,2.0952706
-36.387608,3.163308,2.0964332
-36.48665,3.1517823,2.0786457
-36.573822,3.146096,2.0720959
-36.65183,3.1448874,2.0741649
-36.74844,3.1361015,2.0618982
-36.86618,3.1189399,2.0338182
-36.940697,3.1206708,2.0417576
-37.008644,3.1254752,2.0556083
-37.085686,3.1268404,2.0630064
-37.165913,3.127283,2.0687404
-37.22355,3.137158,2.092411
-37.310913,3.1354606,2.0942583
-37.23273,3.1988943,2.219232
-37.92614,2.9633205,1.779818
-37.97226,2.9806912,1.8182344
-37.980747,3.0123062,1.8835149
-38.012135,3.0351064,1.9321961
-38.05496,3.0536206,1.9728403
-38.20664,3.0325296,1.9391708
-38.26615,3.0455656,1.9696956
-38.387016,3.0369568,1.9597406
-38.449005,3.049721,1.9899278
-38.601913,3.031104,1.9615378
-38.685966,3.0370498,1.9792023
-38.73354,3.055728,2.0207057
-38.842087,3.054047,2.0243468
-38.98289,3.0422463,2.0093126
-39.089672,3.04238,2.0166378
-39.171078,3.0512462,2.040299
-39.28073,3.0514255,2.047974
-39.3673,3.0594323,2.0702744
-39.488224,3.0570989,2.0735903
-39.575027,3.0658917,2.0975957
-39.671143,3.0722153,2.1171675
-39.7699,3.078175,2.1362028
-39.91977,3.069427,2.1283736
-40.00358,3.0808415,2.1577277
-40.15074,3.074267,2.1542768
-40.264824,3.077927,2.1697493
-40.37046,3.0845118,2.1907258
-40.513435,3.0811827,2.1938076
-40.641132,3.0827928,2.2060924
-40.834454,3.0672266,2.1874166
-41.016205,3.055841,2.176633
-41.08619,3.074996,2.2213454
-41.256374,3.0682228,2.2193894
-41.40847,3.0670094,2.2277288
-41.497963,3.0824752,2.266286
-41.692284,3.0720007,2.258482
-41.873795,3.065742,2.258563
-42.05397,3.0607617,2.2612476
-42.15292,3.0762758,2.300747
-42.3526,3.068266,2.2986217
-42.54557,3.0628822,2.3015203
-42.71002,3.0650902,2.3181992
-42.912865,3.0593672,2.3212
-42.981422,3.0848513,2.3794694
-43.28523,3.058456,2.3468595
-43.470085,3.0596988,2.363205
-43.6534,3.0621948,2.3821
-43.878407,3.0567665,2.3875813
-44.05221,3.0631926,2.4140759
-44.378826,3.039024,2.388054
-44.5413,3.0498927,2.4230924
-44.707584,3.060763,2.458469
-44.98018,3.0515208,2.4597845
-45.167416,3.060218,2.4922924
-45.43157,3.0551648,2.5018535
-45.661476,3.0578895,2.5251803
-45.816444,3.0755877,2.5742717
-46.155136,3.060631,2.568894
-46.467155,3.0522194,2.5752769
-46.730522,3.0539682,2.5993352
-46.96766,3.0615687,2.6337352
-47.304775,3.053358,2.6426482
-47.581516,3.0569646,2.6718216
-47.893852,3.056117,2.694438
-48.33085,3.0367675,2.6878252
-48.59725,3.0467064,2.7297244
-48.980854,3.039739,2.745184
-49.346745,3.0374439,2.7691846
-49.69286,3.039972,2.8018823
-50.07306,3.039235,2.8304324
-50.50969,3.0322945,2.8503895
-50.891724,3.035307,2.8871536
-51.295403,3.0372462,2.9234319
6.2482166,2.082957,1.5912471
6.0887775,1.9041193,1.1984463
6.3862247,1.7716377,0.935482
6.026823,1.7144268,0.78937435
3.8940716,1.8720872,0.98346806
2.6221752,1.9352636,1.0335021
2.3838062,1.8751998,0.889647
2.049551,1.828474,0.76793337
2.2455616,1.7137067,0.53652906
2.2691364,1.6206546,0.34003258
-2.52594,2.1091356,1.0630598
-3.5993881,2.1845107,1.1527538
-3.6831608,2.121927,1.0142946
-7.282051,2.2528524,1.057807
-7.393141,2.2049708,0.9492197
-7.3768806,2.1360312,0.8043113
-7.2208138,2.0427835,0.61700535
-7.446806,2.0147948,0.54331684
-7.2057896,1.9051881,0.3269744
-7.261017,1.8471351,0.20075989
-18.506958,3.1012404,2.141883
-24.526073,3.1554518,1.931016
-24.59486,3.156583,1.9302874
-24.646847,3.1494842,1.9134431
-24.698193,3.1422138,1.896296
-24.763948,3.142651,1.8943396
-24.815876,3.1360931,1.8786683
-24.84008,3.1148193,1.8340645
-24.849964,3.0855715,1.7737632
-24.860472,3.0562766,1.7133594
-24.87539,3.029042,1.6570077
-24.890877,3.0017836,1.600604
-24.884571,2.9617481,1.5189881
-24.893362,2.9297636,1.4532356
-24.891846,2.8912854,1.374651
-24.882713,2.8476682,1.285891
-24.875801,2.804619,1.1982245
-24.884214,2.7701175,1.1274314
-24.883335,2.7293675,1.0442662
-24.88046,2.686677,0.9572387
-24.866356,2.636159,0.8546934
-24.873077,2.597973,0.7765341
-24.887531,2.5641418,0.7069855
-24.88913,2.5213614,0.61969423
-24.888914,2.4766085,0.5284724
-34.725502,2.4742022,0.49945974
-34.72442,2.5226693,0.5979743
-34.769264,2.5360231,0.6266508
-34.733376,2.608485,0.7728324
-34.7453,2.6447546,0.84704447
-34.763317,2.676022,0.9113097
-34.752094,2.7273529,1.0154109
-34.78692,2.7456558,1.0539184
-34.74347,2.817448,1.1985784
-34.746956,2.8559182,1.2770786
-34.755695,2.8901885,1.3472323
-34.765907,2.9229066,1.4142971
-34.776516,2.9548278,1.4797726
-34.792145,2.983006,1.5378246
-34.80311,3.013731,1.600914
-34.81981,3.040382,1.655931
-34.8377,3.0659206,1.708745
-34.85743,3.0899973,1.7586641
-34.885036,3.1090124,1.7985778
-34.921337,3.1226707,1.8279138
-34.95377,3.1385648,1.8616848
-34.989605,3.1523864,1.8913751
-35.031403,3.1627414,1.9142413
-35.102364,3.1565926,1.9045758
-35.146015,3.1662002,1.9260287
-35.198425,3.1710289,1.9380894
-35.255962,3.1732397,1.9450264
-35.312317,3.1763434,1.953762
-35.354515,3.18724,1.9778714
-35.24021,3.2807655,2.164536
-35.246258,3.3096304,2.2239385
-35.234505,3.347283,2.3005953
-35.252506,3.369201,2.3463187
-35.272087,3.3901098,2.3900619
-35.294636,3.409352,2.4305377
-35.320904,3.4266198,2.4671474
-35.353024,3.4409473,2.4980035
-35.38767,3.4540317,2.5264425
-35.416588,3.4698331,2.5602179
-36.12464,3.1673987,1.9714422
-36.193775,3.168191,1.9762726
-36.277187,3.1627853,1.969048
-36.350285,3.1625278,1.9719477
-36.42358,3.1625495,1.9754529
-36.509285,3.1574564,1.9690447
-36.599655,3.1508145,1.9596934
-36.686768,3.1461093,1.954195
-36.772743,3.142379,1.9506721
-36.864906,3.1365154,1.9430761
-36.94338,3.1368802,1.9476714
-37.029488,3.1344905,1.9469857
-37.10166,3.138226,1.9582677
-37.180717,3.1395156,1.9648681
-37.232746,3.151926,1.9930892
-37.34544,3.140637,1.9754605
-37.876396,2.9676976,1.6451797
-37.955425,2.9725878,1.6593099
-37.973606,3.0008867,1.7187304
-37.99593,3.027433,1.774766
-38.02636,3.0508196,1.8247104
-38.189537,3.025561,1.7809443
-38.23008,3.045703,1.8247528
-38.342285,3.0402515,1.8193665
-38.431046,3.0436897,1.8311777
-38.534332,3.0424745,1.8341465
-38.64592,3.0389285,1.8327522
-38.68778,3.059715,1.8780966
-38.77465,3.065376,1.8945208
-38.954277,3.0405986,1.8528342
-39.007484,3.0584502,1.8927846
-39.150654,3.047231,1.8773127
-39.233467,3.0561674,1.900423
-39.35765,3.052349,1.8993382
-39.440693,3.062047,1.9241009
-39.587105,3.052514,1.9124217
-39.64868,3.0696685,1.9515529
-39.786545,3.0640118,1.9475193
-39.87507,3.0737705,1.9728279
-39.986485,3.0771718,1.9862194
-40.138054,3.06946,1.9787679
-40.262802,3.0702515,1.9875383
-40.386112,3.0720713,1.9984012
-40.473564,3.0845072,2.0293765
-40.620518,3.080891,2.0303202
-40.787777,3.0725172,2.0225391
-40.93297,3.0709746,2.0277705
-41.075012,3.0710053,2.036137
-41.1955,3.0773911,2.0565538
-41.391624,3.0648162,2.0418081
-41.51529,3.0717711,2.0636663
-41.63556,3.0801544,2.088344
-41.852554,3.065106,2.0697575
-41.984894,3.0719566,2.092012
-42.167343,3.0673413,2.0932794
-42.348454,3.063995,2.0971599
-42.48331,3.0724359,2.1230001
-42.666004,3.0704355,2.1298685
-42.80756,3.078755,2.155929
-43.024403,3.0708046,2.1524558
-43.245426,3.0630698,2.1497264
-43.40326,3.0703063,2.1746154
-43.583176,3.073541,2.1924877
-43.881485,3.0525432,2.1667428
-44.10357,3.0491085,2.1732674
-44.301254,3.0518398,2.1912937
-44.46418,3.062607,2.2241144
