x,y,z
-35.069237,3.3395867,2.2776837
-35.14248,3.332334,2.2659702
-35.18851,3.3397362,2.2831254
-35.274155,3.3268578,2.26046
-35.324368,3.3326201,2.2744756
-35.37794,3.3368642,2.2855449
-35.476753,3.3188295,2.2529445
-35.507633,3.334899,2.2873015
-35.587463,3.3271472,2.2749891
-35.68418,3.3117945,2.2478585
-35.71709,3.3273752,2.281364
-35.80132,3.3188756,2.267776
-35.895767,3.3061726,2.2460437
-35.942047,3.3161414,2.2686958
-36.037933,3.3037834,2.2477808
-36.107193,3.3039577,2.2514095
-36.162262,3.3107438,2.2679906
-36.246243,3.3051007,2.2603889
-36.330566,3.2997983,2.2535267
-36.361843,3.3175983,2.2917047
-36.49578,3.292081,2.2456484
-36.536682,3.3062787,2.276915
-36.597477,3.31233,2.2923865
-36.71214,3.2967021,2.2658343
-36.765026,3.3066597,2.2890153
-36.873016,3.2948747,2.270104
-36.959496,3.292207,2.2689538
-37.0325,3.2952282,2.278893
-37.13558,3.28705,2.2672482
-37.18276,3.300661,2.2977967
-37.310436,3.2842128,2.2703648
-37.378757,3.290544,2.2869968
-37.483154,3.2839565,2.2788014
-37.57457,3.2826514,2.2808824
-37.648056,3.2882204,2.296277
-37.779617,3.273608,2.2729635
-37.82559,3.2896423,2.308628
-37.982018,3.2676938,2.271484
-38.03294,3.2826564,2.3052397
-38.20425,3.257239,2.2617507
-38.279766,3.2647505,2.2814255
-38.409195,3.2548718,2.2679615
-38.468628,3.2684321,2.2993684
-38.587227,3.2632155,2.295044
-38.730183,3.2509313,2.2774
-38.833035,3.2520068,2.285335
-38.98696,3.2378197,2.2643971
-39.106365,3.2350528,2.2653146
-39.25467,3.2242038,2.251061
-39.371468,3.2235606,2.2563057
-39.47331,3.2279038,2.2711167
-39.592308,3.2277467,2.277555
-39.653564,3.2447267,2.3164463
-39.89108,3.2120438,2.261907
-40.00164,3.2162464,2.2770362
-40.110653,3.2214005,2.2940912
-40.27436,3.2121856,2.2843475
-40.42469,3.2074542,2.2832189
-40.52836,3.2158813,2.3068857
-40.69334,3.2087326,2.3016229
-40.765755,3.2263572,2.342742
-40.924328,3.2222805,2.3435855
-41.079773,3.219817,2.3476505
-41.304733,3.2009206,2.3214812
-41.517143,3.1863527,2.3036604
-41.67315,3.186559,2.313445
-41.808887,3.1923728,2.3337965
-41.960957,3.1950026,2.3484902
-42.16099,3.1872842,2.3444123
-42.413013,3.1687634,2.3208566
-42.602455,3.165703,2.3259802
-42.773243,3.167754,2.340732
-42.95069,3.1691985,2.3546548
-43.213367,3.1531775,2.3371415
-43.46123,3.1417203,2.3283463
-43.682194,3.137204,2.3325253
-43.903625,3.1337323,2.3389707
-44.104282,3.1356144,2.3554316
-44.401474,3.119215,2.3394494
-44.614113,3.1210382,2.3566132
-44.873573,3.1148603,2.359888
-45.18016,3.1010423,2.3500562
-45.451977,3.0953708,2.355258
-45.707462,3.0941172,2.3687944
-46.02813,3.082325,2.3642526
-46.305275,3.0799885,2.3769627
-46.5678,3.081636,2.3972044
11.343065,1.6759043,0.41879463
7.403181,1.8803167,0.6512289
5.243475,2.0192447,0.8363409
3.724287,2.0964575,0.92269087
3.641306,2.0136833,0.7412338
1.6567078,2.1587133,0.9487133
1.823885,2.0508585,0.72669125
1.7505665,1.9719105,0.554122
1.6344566,1.8985486,0.39135075
-12.751467,2.3624046,0.6558113
-13.0716305,2.3751047,0.66727495
-13.256304,2.3605933,0.6276946
-13.36828,2.3311906,0.5601282
-13.42173,2.2893188,0.46902037
-18.600973,3.2014616,2.1514893
-18.683834,3.1830058,2.1086774
-18.80301,3.173785,2.0836864
-18.805092,3.135895,2.0036845
-18.82449,3.1021333,1.9316125
-18.841816,3.0677028,1.8582506
-18.861454,3.0337162,1.7857447
-18.859957,2.9940207,1.7022038
-18.828045,2.9459136,1.6023622
-18.846178,2.9108157,1.5276604
-18.849445,2.8714752,1.4447293
-18.848286,2.830624,1.3588443
-18.840199,2.7875051,1.268527
-18.842255,2.7468958,1.1830592
-18.8349,2.7032619,1.0916781
-18.843527,2.663908,1.0086102
-18.832722,2.6185303,0.9137707
-18.811083,2.569479,0.81171894
-18.829525,2.5320673,0.7323785
-18.849445,2.4948883,0.6534877
-18.839474,2.4481936,0.55595493
-18.85917,2.4103878,0.4758134
-29.8712,3.2385058,1.8670344
-29.913498,3.2856724,1.9634409
-29.952848,3.3110096,2.0152054
-29.991377,3.334696,2.0636053
-30.02843,3.3409226,2.0762982
-30.065363,3.3490002,2.092791
-30.101946,3.3505862,2.0960145
-30.138475,3.3505096,2.0958486
-30.17491,3.3601885,2.1156516
-30.211313,3.35986,2.114993
-30.24756,3.364016,2.12352
-30.2839,3.3643134,2.1241646
-30.3075,3.5578558,2.520146
-30.33836,3.5929766,2.5920477
-30.36779,3.632995,2.673977
-30.398428,3.6515825,2.7120743
-30.428875,3.667612,2.744947
-30.460073,3.6749463,2.7600431
-30.491865,3.677099,2.7645493
-30.526266,3.6631243,2.7360764
-30.609545,3.3768818,2.1507173
-30.645441,3.3794227,2.1560636
-30.681372,3.3816168,2.1607141
-30.717737,3.3817177,2.1610937
-30.75412,3.381912,2.161677
-30.790192,3.3835106,2.1651425
-30.826582,3.3838935,2.1661339
-30.862259,3.3869865,2.172679
-30.897873,3.3901703,2.179421
-30.93422,3.3908322,2.181017
-30.97099,3.3902833,2.180149
-31.00867,3.3872225,2.1741576
-31.045862,3.3860004,2.1719384
-31.082018,3.3879151,2.1761432
-31.117496,3.3916569,2.1840954
-31.152903,3.395489,2.1922426
-31.19507,3.3825357,2.1660933
-31.232557,3.3818102,2.16495
-31.269163,3.3833435,2.1684356
-31.304989,3.3866968,2.175652
-31.342953,3.3854039,2.173386
-31.379965,3.3863647,2.1757383
-31.417837,3.3857048,2.1747913
-31.456203,3.3842885,2.1723118
-31.494875,3.3825486,2.1691842
-31.53364,3.3809147,2.1662874
-31.571556,3.3810978,2.1671143
-31.608065,3.383944,2.1733923
-31.646523,3.3834758,2.1729145
-31.688583,3.3771555,2.1605015
-31.730873,3.370959,2.148357
-31.770208,3.3699777,2.146875
-31.807457,3.372494,2.152545
-31.84635,3.372572,2.1532516
-31.885298,3.3727572,2.15419
-31.929493,3.3654654,2.1398854
-31.978071,3.3524206,2.1138601
-32.003048,3.3731186,2.1566935
-32.053535,3.358232,2.1269436
-32.089523,3.3635888,2.1385036
-32.131466,3.3611057,2.134088
-32.173866,3.3583283,2.1290874
-32.2118,3.3614974,2.1362271
-32.246025,3.3693316,2.1528916
-32.282833,3.3739364,2.162983
-32.320274,3.3778112,2.1715984
-32.36367,3.374777,2.1661487
-32.357437,3.429052,2.277485
-32.957138,2.7981925,0.99304295
-32.96422,2.8464117,1.0922155
-32.884106,2.9881063,1.3817487
-32.91216,3.0094504,1.4261446
-32.937004,3.0336776,1.4764156
-32.982456,3.0360253,1.482151
-32.994904,3.07208,1.5565071
-32.99838,3.1161635,1.6471963
-33.003586,3.1573431,1.7319655
-33.019775,3.1868045,1.7928867
-33.025154,3.2258568,1.873312
-33.04871,3.246869,1.9170432
-33.065308,3.273877,1.9729667
-33.085625,3.2969015,2.020792
-33.10761,3.3179545,2.06461
-33.143894,3.325997,2.081994
-33.190483,3.3250787,2.0811849
-33.245,3.3176339,2.06714
-33.292393,3.3166354,2.0662122
-33.32536,3.3278787,2.0901594
-33.380447,3.320921,2.07717
-33.424305,3.3234556,2.0834718
-33.483265,3.3141444,2.0657563
-33.52343,3.3200617,2.0789618
-33.55709,3.3310807,2.102531
-33.610634,3.3268766,2.095243
-33.69129,3.3026466,2.0473847
-33.73686,3.3053353,2.0541277
-33.772114,3.3157363,2.0765176
-33.807205,3.3262231,2.099094
-33.853218,3.3289013,2.1058683
-33.913147,3.3219838,2.093235
-33.98416,3.3078163,2.065958
-34.04319,3.302472,2.0565748
-34.080536,3.3121545,2.0776205
-34.122177,3.3189814,2.0929065
-34.179977,3.3152685,2.0869002
-34.253242,3.3018746,2.0613527
-34.259842,3.3317935,2.1233735
-34.31514,3.3304164,2.1221623
-34.41811,3.2995703,2.0614634
-34.445534,3.3163495,2.0969834
-34.47853,3.3295875,2.1253638
-34.529125,3.3321853,2.132286
-34.633114,3.3032968,2.0757246
-34.655296,3.3233633,2.1179428
-34.713608,3.3222961,2.1175642
-34.75921,3.3288062,2.1324844
-34.81344,3.3305652,2.1378574
-34.885853,3.322424,2.1233234
-34.914677,3.3387954,2.158174
-34.99763,3.325588,2.1335163
-35.066444,3.3206024,2.1254487
-35.098297,3.3356729,2.1577463
-35.17454,3.327378,2.1430955
-35.268124,3.3105958,2.1114383
-35.30129,3.3254766,2.1434345
-35.339504,3.3377573,2.1702223
-35.420147,3.3288362,2.154481
-35.49115,3.3252053,2.149403
-35.529373,3.3379893,2.1772833
-35.62107,3.3249876,2.1535015
-35.701675,3.3179073,2.1416426
-35.746876,3.3280056,2.1642375
-35.8647,3.30439,2.1193776
-35.932472,3.3046944,2.1224556
-35.97307,3.3176882,2.1509514
-36.104538,3.2899,2.0979586
-36.14891,3.301782,2.124312
-36.21315,3.3050227,2.1334352
-36.322773,3.2888741,2.1039052
-36.386047,3.293326,2.1155457
-36.45231,3.2967775,2.1252332
-36.518677,3.3004768,2.135457
-36.57926,3.3068557,2.151062
-36.673164,3.2998555,2.1400766
-36.771927,3.2914429,2.1263528
-36.838974,3.2962751,2.1390338
-36.939186,3.288316,2.1263456
-36.99523,3.2981532,2.1490722
-37.131012,3.277469,2.1112661
-37.199596,3.2832515,2.126062
-37.307404,3.274574,2.1122465
-37.39329,3.2746701,2.1158953
-37.44373,3.2882075,2.1462145
-37.57042,3.2742112,2.1221032
-37.62487,3.2868729,2.1507916
-37.767376,3.2685149,2.118246
-37.821247,3.2820525,2.1487803
-37.991005,3.2556877,2.1006474
-38.040375,3.2715247,2.1358447
-38.185,3.255338,2.1080046
-38.27634,3.2577832,2.1169624
-38.400234,3.2499523,2.1057887
-38.494522,3.2524407,2.1150007
-38.622475,3.2445729,2.1039624
-38.69515,3.2549517,2.1288304
-38.851795,3.2393024,2.1027474
-39.000034,3.2271788,2.0837183
-39.0592,3.2431202,2.1197343
-39.25077,3.2192779,2.0780373
-39.36207,3.2205174,2.0855088
-39.47613,3.2214932,2.0925698
-39.59974,3.2202654,2.0954442
-39.733833,3.2166646,2.0938187
-39.836853,3.222565,2.1108046
-39.950256,3.2260387,2.1231737
-40.142673,3.2082593,2.0944085
-40.262787,3.211277,2.1061645
-40.406425,3.208556,2.1069303
-40.551308,3.2062497,2.1086502
-40.666153,3.2125556,2.1271596
-40.798588,3.2148535,2.1380544
-40.94616,3.213948,2.142918
-41.11602,3.2081895,2.1386032
-41.326008,3.1933808,2.1170845
-41.520805,3.1834493,2.1051736
-41.685173,3.181914,2.1095843
-41.793884,3.1944618,2.1411448
-42.00522,3.1834,2.1276965
-42.197502,3.1778858,2.125094
-42.395668,3.1720386,2.1220913
-42.59345,3.1673188,2.12148
-42.79171,3.1635222,2.12287
-42.97414,3.1642113,2.1330185
-43.213234,3.1536255,2.1220536
-43.432938,3.1484241,2.1215806
-43.664124,3.1419694,2.1190352
-43.91784,3.132087,2.1103473
-44.118027,3.1343935,2.1249166
-44.36919,3.1275308,2.122561
-44.640312,3.1180568,2.115674
-44.8686,3.1182954,2.127318
-45.178925,3.1040726,2.112338
-45.47143,3.0948362,2.1070938
-45.739437,3.0916483,2.113512
-46.047195,3.0826285,2.1095443
-46.33783,3.0782695,2.1146603
-46.542664,3.090454,2.1507
5.665159,1.979713,0.24335718
3.5791569,2.1197755,0.46512938
3.5239086,2.0338411,0.27857447
1.7363834,2.154944,0.47103024
1.8033848,2.0588496,0.26738167
-7.9275627,2.366795,0.56520987
-11.581448,2.4605784,0.63329124
-11.792889,2.444404,0.591249
-12.169708,2.4614568,0.6142006
-12.506962,2.4726963,0.62619114
-12.707035,2.4581368,0.5880823
-12.806587,2.423991,0.511816
-13.239471,2.4592779,0.57175493
-13.060305,2.368138,0.38394022
-18.56177,3.225225,2.0169816
-18.645172,3.206501,1.9743462
-18.751583,3.1936707,1.9434743
-18.804485,3.168103,1.8873725
-18.822762,3.1339722,1.8142715
-18.835506,3.0982924,1.7380867
-18.844517,3.0614636,1.6596069
-18.850712,3.023681,1.5792146
-18.860153,2.98651,1.5000324
-18.848783,2.943545,1.409267
-18.839935,2.9008813,1.3190756
-18.836143,2.859236,1.230896
-18.83228,2.8172276,1.1419692
-18.831736,2.7758045,1.0541945
-18.842907,2.7373955,0.97244406
-18.827074,2.690923,0.87450457
-18.808805,2.6432772,0.7741766
-18.813946,2.6020894,0.68679476
-18.83477,2.565296,0.6082325
-18.8455,2.525224,0.52307415
-18.852028,2.4835672,0.43471432
-29.870337,3.253912,1.8117208
-29.912706,3.2983115,1.9039116
-29.952774,3.3289576,1.9675374
-29.990234,3.3310995,1.9719481
-30.02821,3.3459122,2.0026922
-30.065664,3.3577883,2.0273452
-30.102596,3.359787,2.0314832
-30.139503,3.3701205,2.052947
-30.176176,3.3744771,2.0620022
-30.212896,3.37199,2.0568438
-30.248985,3.3878078,2.0897303
-30.28344,3.426262,2.1696572
-30.309303,3.577069,2.4830422
-30.340982,3.603526,2.538055
-30.373034,3.618359,2.568923
-30.400028,3.6757228,2.6881652
-30.431187,3.6863668,2.7103434
-30.46259,3.6931922,2.7245922
-30.529802,3.6772285,2.691586
-30.61325,3.3950346,2.1053991
-30.649857,3.3949757,2.1053882
-30.686298,3.3958743,2.107376
-30.72283,3.3964362,2.1086721
-30.758955,3.3988178,2.113758
-30.795033,3.4012916,2.1190434
-30.832321,3.399118,2.1146827
-30.86885,3.4000566,2.1167965
-30.905123,3.4019506,2.120903
-30.940435,3.4069474,2.131462
-30.97758,3.4060183,2.129722
-31.014923,3.4047575,2.1273022
-31.051725,3.405311,2.1286588
-31.088228,3.4068184,2.1320052
-31.124067,3.410132,2.1391115
-31.164757,3.4011362,2.1206641
-31.203278,3.3982372,2.1148877
-31.242641,3.3937368,2.1057959
-31.280296,3.3936074,2.1057901
-31.314898,3.4003904,2.120144
-31.351938,3.4017298,2.1232047
-31.389805,3.401467,2.1229491
-31.427298,3.402155,2.1246743
-31.465902,3.4008234,2.122219
-31.506153,3.3966365,2.1138463
-31.544731,3.3959432,2.1127348
-31.580082,3.4012618,2.1241097
-31.627155,3.3860254,2.0928383
-31.670753,3.3776698,2.0758572
-31.711094,3.375325,2.07136
-31.745853,3.382319,2.0862508
-31.788157,3.377256,2.0761352
-31.835535,3.364793,2.0506797
-31.87917,3.3587396,2.0385342
-31.918509,3.3594816,2.0404954
-31.955868,3.3632424,2.048727
-31.998188,3.3600435,2.0425367
-32.035557,3.3640118,2.051218
-32.079308,3.3593931,2.0421052
-32.126373,3.3507776,2.0247183
-32.1461,3.3781486,2.0819478
-32.191658,3.371814,2.0693102
-32.22627,3.3795698,2.0858903
-32.27045,3.3755352,2.0780454
-32.31516,3.371226,2.0696416
-32.34931,3.379691,2.0877209
-32.36497,3.409389,2.1498003
-32.39241,3.4248679,2.1824207
-32.951283,2.8488004,0.98969555
-32.997803,2.8532276,0.9995694
-32.899765,3.0129457,1.3310585
-32.91584,3.0470035,1.4022765
-32.947292,3.0641906,1.4385619
-32.9917,3.0678313,1.4468083
-32.9955,3.1122975,1.5395765
-32.996937,3.1578717,1.6346288
-33.013153,3.1878664,1.6974292
-33.02613,3.220217,1.7651033
-33.035355,3.2552967,1.8384204
-33.056046,3.2789047,1.8880005
-33.083504,3.2958453,1.92379
-33.09879,3.3234,1.9815364
-33.12889,3.3372726,2.0109873
-33.18603,3.3274586,1.9914718
-33.23539,3.3248298,1.9868293
-33.295025,3.3138466,1.9649353
-33.315136,3.3362494,2.0120587
-33.367615,3.3317409,2.0035768
-33.41605,3.3308573,2.0026007
-33.47712,3.3201928,1.9814377
-33.521595,3.3230782,1.9882803
-33.556763,3.3333085,2.0103054
-33.61958,3.3224378,1.9887724
-33.699886,3.2989757,1.9412708
-33.72821,3.3149095,1.9751139
-33.77825,3.314792,1.9758377
-33.806152,3.3308802,2.0100136
-33.84785,3.336977,2.0235868
-33.90218,3.334303,2.0190816
-33.972187,3.321111,1.9929075
-34.04862,3.30414,1.9589701
-34.078884,3.3189685,1.990612
-34.12095,3.3258288,2.0058389
-34.179024,3.3222692,1.999609
-34.25579,3.306965,1.9692092
-34.299267,3.313598,1.9840198
-34.352375,3.3142526,1.986537
-34.415947,3.3086467,1.9761844
-34.46418,3.3128896,1.9861274
-34.506596,3.3208318,2.0037003
-34.558956,3.322892,2.0091858
-34.627453,3.3156319,1.9955201
-34.671738,3.322984,2.0119305
-34.7057,3.3363945,2.040812
-34.768673,3.333227,2.0356278
-34.869946,3.3088698,1.9869318
-34.88421,3.3337705,2.0394707
-34.926617,3.3429036,2.0596251
-35.031757,3.3180928,2.0101004
-35.08205,3.3235657,2.022789
-35.104294,3.3440485,2.066298
-35.20901,3.3212352,2.0209875
-35.28412,3.3145707,2.0088482
-35.32569,3.3254848,2.0327868
-35.38289,3.3285792,2.0407095
-35.46596,3.3190386,2.0227666
-35.504208,3.332093,2.0511484
-35.548977,3.3419917,2.073081
-35.69824,3.3018181,1.9925184
-35.7211,3.3228898,2.0373826
-35.79758,3.3186686,2.0305028
-35.90327,3.3013625,1.9968967
-35.938984,3.3168287,2.0303526
-36.000954,3.3204088,2.039525
-36.110714,3.3029077,2.0056534
-36.156933,3.314224,2.0306983
-36.257008,3.3021464,2.0079975
-36.336906,3.2994165,2.0044293
-36.39121,3.3080194,2.024022
-36.51778,3.2863894,1.9819813
-36.540443,3.3088477,2.0298915
-36.59927,3.3163047,2.0472345
-36.731663,3.2941155,2.0042171
-36.793873,3.3009908,2.0204563
-36.92083,3.282449,1.9849935
-36.961765,3.298433,2.0198445
-37.032562,3.3028955,2.0312834
-37.167725,3.2830658,1.993381
-37.217785,3.2962685,2.0226736
-37.37162,3.2708666,1.9735904
-37.45574,3.2722056,1.9788818
-37.56708,3.2640417,1.9649429
-37.597443,3.2856631,2.011468
-37.70463,3.279909,2.0025177
-37.809875,3.2754366,1.9962287
-37.903687,3.2755063,1.9992008
-38.007244,3.2727108,1.9964294
-38.15246,3.2563632,1.9663124
-38.23611,3.2614913,1.9797034
-38.403305,3.2394025,1.9381561
-38.446484,3.25882,1.9805312
-38.622135,3.2355962,1.9368753
-38.66944,3.254312,1.9779253
-38.821842,3.2400727,1.9525743
-38.930634,3.240265,1.9563994
-39.094055,3.224263,1.9276977
-39.208588,3.2240217,1.9308162
-39.30432,3.2299795,1.946476
-39.458557,3.2191133,1.928401
-39.565666,3.2228436,1.9397397
-39.678864,3.2253363,1.9486694
-39.852215,3.2113078,1.9245596
-39.940704,3.2220478,1.9501958
-40.10064,3.2133918,1.937068
-40.26284,3.204995,1.9245825
-40.35705,3.2158003,1.9505949
-40.53299,3.2052772,1.9340849
-40.64309,3.2129924,1.9541044
-40.7741,3.2157989,1.9644194
-40.956657,3.2060888,1.9499073
-41.095337,3.2084253,1.959517
-41.30781,3.193114,1.9341545
-41.502617,3.1833186,1.9199271
-41.640778,3.188269,1.9351254
-41.803032,3.188144,1.9403787
-41.97541,3.1864653,1.9426913
-42.171333,3.180218,1.9361186
-42.391895,3.1693788,1.9206481
-42.579117,3.1672347,1.9225402
-42.778454,3.1633663,1.9212046
-42.97559,3.161018,1.9230447
-43.19757,3.1543322,1.9165401
-43.447304,3.1429234,1.9009695
-43.66687,3.1391592,1.9006429
-43.895153,3.134739,1.8992453
-44.068256,3.1426945,1.9222918
-44.348736,3.1300447,1.9052448
-44.60335,3.123976,1.901331
-44.883427,3.1143084,1.8906722
-45.19282,3.1005337,1.8723226
-45.45862,3.0965781,1.8733811
-45.75003,3.089272,1.8682342
-46.077442,3.076958,1.8537164
-46.323616,3.080861,1.8709145
-46.5655,3.0867505,1.8922234
-10.535288,2.558652,0.57714653
-11.224922,2.5648315,0.5747857
-11.687414,2.5921006,0.62286997
-11.846954,2.565612,0.5624385
-11.920141,2.5234997,0.47044277
-18.576035,3.2243009,1.8260312
-18.684761,3.211457,1.796216
-18.792574,3.1988595,1.7669606
-18.79409,3.1604729,1.6847892
-18.807575,3.1248207,1.6082258
-18.81821,3.0882583,1.529789
-18.842407,3.0549753,1.4580922
-18.825077,3.0107372,1.3638477
-18.83683,2.9737706,1.2845578
-18.834743,2.9328747,1.1971684
-18.836813,2.8927834,1.1114225
-18.835392,2.8514295,1.0230641
-18.821262,2.8061986,0.92669296
-18.824799,2.7655253,0.83971167
-18.809029,2.7190146,0.7406621
-18.83247,2.6834116,0.6641331
-18.819214,2.6368535,0.56495714
-18.845684,2.6016545,0.48925495
-18.746967,2.528563,0.3351555
-29.868483,3.2707858,1.7582755
-29.910309,3.3056219,1.8317657
-29.950283,3.329447,1.8820214
-29.989037,3.3448186,1.9144387
-30.027302,3.359435,1.9452701
-30.06499,3.3694422,1.9663768
-30.10239,3.379975,1.9885993
-30.13946,3.3837533,1.9965711
-30.17644,3.3854866,2.0002294
-30.21339,3.386458,2.002287
-30.248955,3.4226282,2.0786452
-30.282871,3.4704413,2.1795826
-30.31037,3.5932288,2.4387755
-30.342297,3.6189303,2.4930506
-30.373577,3.6438518,2.545683
-30.405376,3.657727,2.575004
-30.57703,3.4261448,2.0864167
-30.61715,3.406799,2.0456524
-30.653553,3.4093266,2.0510588
-30.690802,3.407683,2.0476665
-30.726385,3.413808,2.060676
-30.76396,3.4110763,2.0549998
-30.800549,3.4127014,2.0585227
-30.837803,3.4118679,2.0568633
-30.873173,3.4179332,2.0697684
-30.909914,3.4189894,2.0721064
-30.947048,3.4188666,2.0719643
-30.98727,3.4095113,2.0523443
-31.024744,3.409168,2.0517464
-31.064976,3.4013026,2.035283
-31.102482,3.401586,2.0360208
-31.139847,3.4023905,2.0378642
-31.177732,3.402027,2.0372477
-31.21356,3.4068234,2.0475245
-31.252007,3.4053917,2.0446658
-31.289597,3.4061673,2.0464702
-31.33706,3.3856091,2.0032735
-31.37499,3.3866086,2.0055633
-31.413755,3.386031,2.0045323
-31.45237,3.3859763,2.0046115
-31.492334,3.383517,1.9996223
-31.53197,3.3820033,1.9966354
-31.57078,3.382266,1.9974017
-31.611513,3.3793027,1.9913702
-31.650936,3.378948,1.9908466
-31.690668,3.3782861,1.9896822
-31.728195,3.3814638,1.9966211
-31.769053,3.3793595,1.9924278
-31.810558,3.3765438,1.9867406
-31.849764,3.377559,1.9891381
-31.893705,3.3716798,1.977006
-31.937593,3.366343,1.9660249
-31.98314,3.3590846,1.9510007
-32.023365,3.359748,1.9526844
-32.061535,3.3633835,1.9606414
-32.10089,3.3654873,1.9653745
-32.134018,3.375843,1.9875073
-32.17581,3.3748925,1.9858155
-32.221916,3.3687892,1.9732704
-32.258713,3.3745658,1.9857712
-32.296425,3.3792248,1.9959211
-32.331352,3.3872068,2.0130796
-32.36682,3.3944683,2.0287266
-32.3937,3.411448,2.0648527
-32.878647,2.9160135,1.0214477
-32.94079,2.9027107,0.9938593
-32.98862,2.9055552,1.0002975
-33.03272,2.912509,1.015399
-32.920135,3.0825617,1.3740225
-32.948177,3.103183,1.4178963
-32.984753,3.1147668,1.4427414
-32.99722,3.1500463,1.5174885
-33.001114,3.1927426,1.6078477
-33.016575,3.2232177,1.6724725
-33.03251,3.2524981,1.734581
-33.049393,3.280202,1.7933683
-33.07027,3.3036208,1.8431363
-33.08843,3.3289838,1.896997
-33.118202,3.3435323,1.9280982
-33.17952,3.3304226,1.9010019
-33.24356,3.315614,1.8703451
-33.28954,3.3167255,1.8731971
-33.317703,3.3328526,1.9076476
-33.360374,3.336858,1.9166026
-33.424652,3.3235507,1.8891511
-33.48135,3.316901,1.8757167
-33.515762,3.3281467,1.8999271
-33.55678,3.3342168,1.9132605
-33.620834,3.322818,1.889874
-33.694275,3.3049412,1.8528833
-33.73723,3.3103826,1.8649273
-33.774067,3.3203902,1.8865767
-33.80767,3.3327034,1.9130774
-33.855553,3.3347988,1.9181118
-33.9171,3.3275201,1.9034615
-33.99642,3.308419,1.8639889
-34.046013,3.3103538,1.8687248
-34.076298,3.325485,1.9011884
-34.11771,3.3330975,1.9178658
-34.20186,3.312793,1.8759313
-34.255146,3.3132305,1.8775678
-34.296825,3.3213325,1.8953071
-34.343494,3.326356,1.9065919
-34.434574,3.3039367,1.8602943
-34.462692,3.3209836,1.8968363
-34.515965,3.3226454,1.9011045
-34.557076,3.331818,1.9211402
-34.62813,3.323373,1.9042301
-34.671062,3.3318136,1.9227529
-34.734283,3.3286602,1.9169726
-34.792313,3.3288236,1.9181633
-34.86999,3.3182602,1.896882
-34.89412,3.3379173,1.9389615
-34.967346,3.3305306,1.9243717
-35.060898,3.3126469,1.8878093
-35.077232,3.336712,1.9391503
-35.158253,3.3264062,1.9185023
-35.262695,3.3044715,1.8735261
-35.279285,3.3285587,1.9249396
-35.349083,3.325357,1.9192262
-35.41915,3.3224175,1.914083
-35.491455,3.3187666,1.9074707
-35.540916,3.3267171,1.9251504
-35.611637,3.3245244,1.9216261
-35.689312,3.3193984,1.9119868
-35.73224,3.3311343,1.9376292
-35.842953,3.3113241,1.8973322
-35.907246,3.313719,1.9034848
-35.96548,3.3191676,1.9160347
-36.061855,3.3076901,1.89324
-36.138546,3.305592,1.8900676
-36.172016,3.3228776,1.9273977
-36.31249,3.293722,1.867773
-36.353867,3.3080857,1.8990397
-36.441498,3.3029115,1.8895416
-36.521584,3.3013964,1.8877077
-36.573013,3.312144,1.9114771
-36.69781,3.2930806,1.8730955
-36.768517,3.2966843,1.8820143
-36.85627,3.2938132,1.8774619
-36.951733,3.2883854,1.8676105
-36.996258,3.30331,1.9001913
-37.15503,3.2744036,1.8415003
-37.210335,3.2858896,1.8669701
-37.347206,3.2669475,1.8291211
-37.39442,3.2821138,1.8622985
-37.514034,3.2708662,1.8405423
-37.58968,3.276237,1.8533921
-37.63687,3.2920973,1.8880749
-37.783943,3.2728038,1.84971
-37.835155,3.2878525,1.8827567
-37.999012,3.2642412,1.8355217
-38.103977,3.2617142,1.8321323
-38.225105,3.2543182,1.8186774
-38.333206,3.2519274,1.8156576
-38.436867,3.2515638,1.816885
-38.57932,3.2391815,1.7932348
-38.65392,3.2493112,1.8163037
-38.79813,3.2377698,1.7945013
-38.864105,3.2514343,1.8249645
-39.04839,3.2289274,1.7805657
-39.163902,3.2284367,1.7818141
-39.287148,3.2262192,1.7795377
-39.42896,3.219152,1.7672877
-39.527275,3.225576,1.7829866
-39.671585,3.2191784,1.7722373
-39.818073,3.2129471,1.7618995
-39.907066,3.2236693,1.7866216
-40.077946,3.2120476,1.7652836
-40.230846,3.2063067,1.756156
-40.34853,3.2109015,1.7684045
-40.474968,3.2137265,1.7770619
-40.683926,3.1954734,1.7423792
-40.733803,3.2196934,1.7952113
-40.94043,3.2038684,1.7656941
-41.088104,3.2040958,1.7692857
-41.317833,3.1846387,1.7325077
-41.48394,3.182115,1.7306256
-41.601486,3.1922157,1.7547388
-41.79641,3.1843667,1.7420979
-41.982246,3.1797042,1.736094
-42.165073,3.1767175,1.7336259
-42.382965,3.1666589,1.7167835
-42.54906,3.1694577,1.7263675
-42.75029,3.165276,1.721776
-42.969955,3.1581094,1.7112036
-43.18216,3.1537156,1.7064223
-43.39222,3.1508877,1.7049632
-43.61363,3.1467707,1.7010031
-43.85009,3.1407042,1.6932087
-44.06991,3.139258,1.6949654
-44.332123,3.1304643,1.6819239
-44.60418,3.1211221,1.6679373
-44.831173,3.1219487,1.6747699
-45.155968,3.1052864,1.6462898
-45.391468,3.1071174,1.6554966
-45.738194,3.0896196,1.6257453
-46.040554,3.0820336,1.6162806
-46.360336,3.0729208,1.6039472
-46.54138,3.0898275,1.6443396
-10.059397,2.7085035,0.6170926
-10.31814,2.6919117,0.57865906
-10.691204,2.695777,0.58324814
-10.910116,2.6752238,0.5366807
-11.017679,2.6363227,0.4516325
-18.465506,3.2288418,1.6570344
-18.606403,3.2229466,1.6429963
-18.774042,3.2241788,1.6440754
-18.778908,3.1865125,1.5628409
-18.802608,3.1532705,1.4909725
-18.808756,3.1155005,1.4095144
-18.816437,3.0778778,1.3283639
-18.835056,3.04284,1.2526898
-18.832111,3.0019906,1.1646957
-18.829084,2.9607935,1.0759573
-18.826834,2.9194717,0.9869504
-18.816093,2.8755007,0.89231825
-18.814602,2.8336816,0.80224323
-18.812235,2.791273,0.7109108
-18.836487,2.7560563,0.63483715
-18.839783,2.714653,0.54563
-18.835602,2.670744,0.45109987
-29.864342,3.2646804,1.6596298
-29.908411,3.3172472,1.7722378
-29.94866,3.3403473,1.8217163
-29.987965,3.359327,1.8623695
-30.026102,3.3657248,1.8760676
-30.064003,3.3709526,1.8872609
-30.101734,3.3754323,1.8968544
-30.139334,3.3808544,1.9084706
-30.176708,3.3931403,1.9347935
-30.213995,3.3945255,1.9377642
-30.251291,3.3947382,1.9382253
-30.282505,3.5087867,2.1825886
-30.311132,3.6123273,2.4044375
-30.342932,3.6411047,2.4661064
-30.37513,3.6572793,2.5007744
-30.406208,3.6794465,2.548285
-30.438887,3.6839488,2.557949
-30.471802,3.686,2.562364
-30.504536,3.6889799,2.5687704
-30.585112,3.409819,1.970696
-30.62109,3.416888,1.9858718
-30.658304,3.4168818,1.9858909
-30.695356,3.4178145,1.9879231
-30.73288,3.4167373,1.985652
-30.769842,3.418283,1.9890032
-30.808949,3.4115138,1.9745436
-30.845068,3.4166162,1.9855204
-30.88444,3.410052,1.9715052
-30.922129,3.4098892,1.9712057
-30.960114,3.408986,1.9693241
-30.99857,3.4069273,1.9649682
-31.036972,3.405389,1.9617305
-31.074995,3.4052074,1.9614015
-31.113058,3.4051256,1.9612889
-31.150667,3.4063962,1.9640756
-31.188784,3.406514,1.9643965
-31.228157,3.403817,1.9586902
-31.266743,3.403307,1.9576716
-31.304634,3.4045627,1.9604368
-31.342144,3.4067473,1.9651957
-31.380232,3.4077864,1.9675021
-31.419973,3.405613,1.9629307
-31.458345,3.4064434,1.964797
-31.49826,3.4044855,1.9606915
-31.537834,3.4034622,1.9585919
-31.577486,3.4025466,1.9567261
-31.617687,3.4009168,1.9533339
-31.657988,3.3993988,1.9501834
-31.700363,3.3947127,1.9402504
-31.743942,3.3885117,1.9270773
-31.792418,3.3750842,1.8984294
-31.832867,3.3748655,1.8980742
-31.877172,3.369056,1.8857493
-31.912025,3.3776088,1.9041848
-31.952063,3.378532,1.9062848
-31.991274,3.3807805,1.9112244
-32.031956,3.3811123,1.9120636
-32.072998,3.3811533,1.912281
-32.11931,3.3744607,1.8980856
-32.15684,3.3795698,1.9091625
-32.19652,3.3819666,1.9144344
-32.23071,3.391278,1.9345155
-32.266678,3.3982716,1.949635
-32.304863,3.4025626,1.9589715
-32.355274,3.3926315,1.9378614
-32.38768,3.4039044,1.962151
-32.823624,2.9613433,1.0148687
-32.87787,2.9564152,1.004508
-32.927624,2.9567795,1.0054822
-32.97895,2.9557145,1.0034003
-33.028904,2.9563706,1.0050068
-33.07628,2.959911,1.0127921
-32.950874,3.138083,1.3943644
-32.984745,3.1523423,1.4250865
-32.986877,3.197351,1.5216212
-33.004757,3.2259963,1.5831332
-33.01782,3.2584922,1.6528859
-33.03917,3.2824774,1.7044239
-33.05951,3.3068547,1.7568021
-33.07755,3.332769,1.812468
-33.112198,3.3433967,1.8354249
-33.168053,3.335443,1.8186235
-33.229553,3.3231225,1.7924848
-33.27719,3.3231351,1.7927399
-33.3059,3.3391466,1.8272281
-33.356285,3.3371472,1.8231845
-33.42216,3.3229313,1.7930131
-33.47401,3.3205476,1.7881589
-33.505615,3.3343556,1.817946
-33.543194,3.3433995,1.8375435
-33.61415,3.326996,1.8027139
-33.679325,3.3156562,1.7787237
-33.720627,3.3225691,1.7937775
-33.75533,3.3343596,1.8192644
-33.795403,3.342213,1.8363357
-33.84768,3.3414443,1.8349729
-33.908394,3.3350477,1.8215804
-33.99453,3.3115335,1.771594
-34.035534,3.3196638,1.7892761
-34.068977,3.3329241,1.8179288
-34.135033,3.3244789,1.8001823
-34.20963,3.310942,1.7715573
-34.23921,3.3270917,1.8063993
-34.28675,3.3316517,1.8164701
-34.348846,3.3272219,1.8073325
-34.421375,3.316716,1.785214
-34.452244,3.3322716,1.8188009
-34.518417,3.3263736,1.8065438
-34.575073,3.3265917,1.807364
-34.651165,3.315651,1.7843456
-34.667046,3.3402827,1.8373404
-34.74179,3.3307977,1.8174477
-34.819973,3.3199024,1.7945504
-34.870255,3.3251946,1.806241
-34.91385,3.3343468,1.8261814
-34.984974,3.3285592,1.814218
-35.0719,3.3147092,1.7850456
-35.09146,3.3373554,1.8338213
-35.168335,3.3296425,1.81777
-35.279156,3.3048234,1.765204
-35.299057,3.3275297,1.8141212
-35.351894,3.3333337,1.8269534
-35.477215,3.3030846,1.7628317
-35.501938,3.3235815,1.807045
-35.555138,3.3300219,1.8212576
-35.66519,3.3092544,1.7774115
-35.7035,3.323477,1.8082485
-35.76773,3.325513,1.8130856
-35.881355,3.3049133,1.7696352
-35.923107,3.3181338,1.7983532
-35.99887,3.315981,1.7942829
-36.105183,3.3005686,1.7619376
-36.14151,3.3168404,1.7971854
-36.261223,3.2966664,1.7547126
-36.308796,3.308486,1.7804804
-36.392944,3.3048077,1.7732091
-36.49305,3.2948852,1.7526379
-36.547943,3.3044,1.7735167
-36.630825,3.302579,1.7702403
-36.74146,3.289933,1.7439055
-36.803978,3.2972975,1.7602305
-36.92722,3.2808344,1.7257919
-36.98278,3.291679,1.7495542
-37.115196,3.2729673,1.710361
-37.166584,3.2860875,1.7389913
-37.26571,3.2813137,1.7295189
-37.380264,3.2713463,1.7090015
-37.43565,3.2838542,1.7363591
-37.562366,3.2705703,1.7088151
-37.60723,3.2874737,1.7455506
-37.770126,3.2625546,1.6932769
-37.802807,3.2843506,1.7404475
-37.968548,3.2600405,1.6895161
-38.0542,3.264195,1.6991744
-38.192497,3.2509725,1.6718812
-38.299973,3.2488594,1.6682425
-38.409386,3.246678,1.6644769
-38.528687,3.2418582,1.6551213
-38.638847,3.2406282,1.6534181
-38.76218,3.235796,1.6440787
-38.850506,3.2425947,1.6594801
-39.023117,3.2237337,1.6203737
-39.110413,3.2319524,1.6388326
-39.232906,3.2299433,1.6355829
-39.411537,3.2118824,1.5982652
-39.470783,3.2299325,1.6376605
-39.64727,3.214161,1.6052637
-39.770576,3.214633,1.6073813
-39.885868,3.2179906,1.6156483
-40.044106,3.2099476,1.5997467
-40.189476,3.2063136,1.5932336
-40.29818,3.213397,1.6094794
-40.483276,3.200534,1.5834546
-40.640198,3.1961565,1.575458
-40.748962,3.2051568,1.5958495
-40.9538,3.1899595,1.564991
-41.122475,3.1850853,1.5560479
-41.302032,3.1783886,1.543283
-41.457928,3.1784906,1.5449562
-41.629864,3.1754894,1.5400963
-41.764786,3.1822586,1.555954
-41.95506,3.1765916,1.5455303
-42.154686,3.169756,1.532682
-42.349648,3.1650584,1.524404
-42.57876,3.1536615,1.5020108
-42.76252,3.1536214,1.5036802
-42.945835,3.1546187,1.5075874
-43.17062,3.1475713,1.4945493
-43.413067,3.137951,1.4761386
-43.63111,3.1347532,1.4713511
-43.79929,3.1430027,1.4907765
-44.070675,3.1310465,1.4676275
-44.269516,3.1350927,1.4782958
-44.582275,3.1176488,1.4437256
-44.836826,3.1132114,1.4366488
-45.10389,3.1077082,1.4274063
-45.378952,3.1020975,1.418014
-45.705215,3.0884533,1.3918004
-46.064625,3.07052,1.3566661
-46.373398,3.0635777,1.3447566
-46.555214,3.0805812,1.3832703
-11.467583,3.158774,1.2698994
-11.912821,3.172581,1.3018074
-12.602993,3.226978,1.422925
-12.789543,3.2050953,1.3761954
-13.137175,3.2101624,1.3886895
-13.442163,3.2100132,1.389668
-13.662163,3.197164,1.3626933
-14.003912,3.2061949,1.3837638
-14.320778,3.2127054,1.3992505
-14.523697,3.200721,1.3740726
-14.896049,3.220217,1.4179974
-15.177562,3.2251081,1.4298091
-15.30051,3.2019658,1.3800449
-15.589139,3.2106798,1.4001842
-15.83792,3.2132678,1.4068451
-16.06254,3.2124314,1.4059625
-16.260473,3.207449,1.3959575
-16.473293,3.2064624,1.3946934
-16.696362,3.2086682,1.4004068
-16.951906,3.218798,1.4234705
-17.129105,3.2137494,1.4132252
-17.349464,3.2188463,1.4252024
-17.507187,3.2114673,1.4098072
-17.71494,3.215918,1.4203243
-17.874569,3.2106686,1.4095616
-18.06368,3.212924,1.4152274
-18.254871,3.2166514,1.4240971
-18.444613,3.2210517,1.4344211
-18.603394,3.2190962,1.4308038
-18.740158,3.2126355,1.417306
-18.768978,3.1804142,1.3473802
-18.795734,3.1475978,1.2761497
-18.79395,3.1074939,1.1889639
-18.826143,3.0757554,1.1200948
-18.82404,3.035068,1.0316343
-18.822708,2.9942605,0.942914
-18.806145,2.9490798,0.84462404
-18.817333,2.910939,0.7617445
-18.825035,2.8715994,0.67624426
-18.846783,2.8358717,0.5986471
-18.82854,2.788742,0.49610376
-18.83685,2.7486758,0.409019
-29.856941,3.2216053,1.467052
-29.902428,3.276751,1.5872312
-29.944998,3.3153505,1.6713514
-29.985931,3.3461435,1.738461
-30.02512,3.3595324,1.7676411
-30.06351,3.360929,1.7706876
-30.10194,3.3670115,1.7839446
-30.140196,3.375696,1.8028698
-30.178137,3.3894827,1.8329129
-30.21627,3.3804288,1.8131824
-30.253819,3.3923247,1.8391027
-30.291277,3.3997285,1.8552327
-30.315014,3.5994153,2.2903795
-30.347904,3.6223922,2.340444
-30.379251,3.6541982,2.4097495
-30.41134,3.6714945,2.447435
-30.44352,3.6842875,2.475305
-30.475992,3.6925783,2.4933643
-30.508827,3.6972053,2.503436
-30.593803,3.4007435,1.8573785
-30.63215,3.3986058,1.8527074
-30.669395,3.4023867,1.8609324
-30.706911,3.4046009,1.8657417
-30.744476,3.4064953,1.8698545
-30.782314,3.4072416,1.8714633
-30.822006,3.401038,1.8579249
-30.860064,3.4015703,1.859066
-30.896315,3.4084117,1.8739543
-30.93468,3.4078958,1.8728075
-30.97269,3.4087205,1.8745823
-31.011124,3.4084053,1.8738708
-31.050905,3.4044771,1.8652859
-31.089928,3.4031308,1.8623252
-31.126503,3.4084773,1.87395
-31.170317,3.3954008,1.8454227
-31.209972,3.39355,1.8413596
-31.248667,3.3942695,1.8428979
-31.289562,3.3901699,1.8339305
-31.328365,3.3910992,1.8359222
-31.369705,3.3868115,1.8265433
-31.40742,3.3904033,1.8343358
-31.449806,3.3847046,1.8218799
-31.492197,3.3795345,1.8105731
-31.532175,3.3793693,1.810174
-31.572882,3.3780928,1.8073511
-31.614826,3.3748982,1.8003473
-31.654562,3.3758755,1.8024325
-31.693842,3.3777673,1.8065124
-31.733864,3.3785508,1.8081746
-31.776459,3.3754094,1.801281
-31.816092,3.3772213,1.805182
-31.861572,3.3702943,1.7900352
-31.904062,3.36832,1.7856808
-31.948618,3.3636618,1.775475
-31.991394,3.3619337,1.7716556
-32.033134,3.3619242,1.7715802
-32.074646,3.36243,1.7726254
-32.113213,3.3670275,1.7825894
-32.15202,3.3713276,1.791904
-32.196712,3.3682032,1.7850337
-32.2368,3.37114,1.7913737
-32.274933,3.376552,1.8031077
-32.316944,3.3773382,1.8047566
-32.351295,3.3872764,1.8263545
-32.367,3.4184563,1.8942571
-32.409645,3.4183369,1.8939285
-32.834538,2.9958262,0.97282076
-32.86814,3.0136795,1.0116568
-32.92355,3.007907,0.9989896
-32.976273,3.0054069,0.993454
-33.024284,3.0080893,0.9992156
-33.077667,3.0055106,0.9935055
-33.12117,3.0130901,1.0099387
-32.993336,3.1879547,1.3910737
-33.02101,3.2079334,1.4345431
-33.031643,3.2435858,1.5121818
-33.051167,3.2700589,1.5698099
-33.07168,3.2950122,1.6241236
-33.094517,3.3173203,1.6726704
-33.132156,3.3260689,1.6916523
-33.180443,3.3255103,1.69034
-33.250294,3.3067303,1.6492968
-33.290253,3.3140006,1.66505
-33.321594,3.3284547,1.6964679
-33.374416,3.3251405,1.6891394
-33.43021,3.3197758,1.6773386
-33.48396,3.3164444,1.6699691
-33.52618,3.322487,1.6830378
-33.570724,3.326813,1.6923618
-33.63547,3.3159192,1.6684952
-33.695805,3.3089015,1.6530781
-33.74074,3.3137083,1.663445
-33.78418,3.319731,1.6764622
-33.831596,3.3229935,1.6834579
-33.88667,3.3210135,1.6790175
-33.946045,3.3163548,1.6687331
-34.015026,3.305485,1.6449008
-34.052017,3.316888,1.6696429
-34.09358,3.3251972,1.687635
-34.14625,3.326219,1.6897311
-34.21845,3.3147748,1.6646347
-34.262295,3.3221333,1.6805477
-34.325302,3.317429,1.6701465
-34.383614,3.3160706,1.6670403
-34.45108,3.3093863,1.6523128
-34.485588,3.3232408,1.6823902
-34.53694,3.326898,1.690218
-34.599846,3.3238988,1.6835237
-34.680397,3.3109388,1.6550932
-34.71238,3.3266878,1.6892948
-34.7653,3.3303854,1.6972022
-34.850395,3.3161662,1.6660142
-34.904907,3.3196254,1.6733952
-34.94499,3.3312306,1.6985478
-35.072037,3.295701,1.6208491
-35.094067,3.3176064,1.6684718
-35.15649,3.3179286,1.6689963
-35.24716,3.303819,1.6380243
-35.28501,3.3176162,1.6679478
-35.354942,3.3150659,1.6621943
-35.42068,3.3150213,1.6619043
-35.507828,3.3046837,1.6391468
-35.558575,3.3127892,1.6566381
-35.632763,3.309687,1.6496649
-35.70987,3.30561,1.6405597
-35.76879,3.3105764,1.6511903
-35.827106,3.316056,1.6629381
-35.909615,3.3106124,1.6508379
-35.968872,3.3162467,1.6629162
-36.07099,3.302839,1.6334195
-36.131317,3.308689,1.6459613
-36.21097,3.3062935,1.6404967
-36.3228,3.290398,1.6055512
-36.371864,3.3021333,1.6309314
-36.456604,3.2988925,1.6236062
-36.529675,3.3009987,1.6279535
-36.61855,3.2969341,1.6188202
-36.732803,3.2830355,1.5882044
-36.79378,3.2913237,1.6060362
-36.92131,3.2733765,1.5665646
-36.98414,3.2816894,1.5844412
-37.061615,3.284549,1.5904031
-37.170174,3.2758684,1.5711508
-37.26075,3.2746434,1.5681791
-37.369484,3.2671103,1.5514197
-37.45327,3.2694232,1.5561643
-37.56359,3.262468,1.5406528
-37.632042,3.2712255,1.5594664
-37.771225,3.2550938,1.52389
-37.849255,3.261313,1.5371451
-37.96811,3.2537136,1.520195
-38.042694,3.261958,1.5378642
-38.165443,3.254214,1.5205846
-38.329277,3.2334585,1.4748535
-38.439163,3.2315319,1.4702687
-38.52894,3.2367334,1.4812574
-38.673473,3.224743,1.4546547
-38.800392,3.2191968,1.4421296
-38.907032,3.2207065,1.4450226
-39.03963,3.214718,1.4315119
-39.212234,3.1972473,1.3928809
-39.32658,3.198378,1.3949146
-39.46482,3.1929753,1.3826504
-39.592133,3.191537,1.379046
-39.74035,3.1847043,1.3636312
-39.913837,3.17146,1.334177
-40.05995,3.166943,1.3238015
-40.219856,3.1593702,1.306726
-40.37786,3.153202,1.2927103
-40.57997,3.1359293,1.2543802
-40.71151,3.1387138,1.2599273
-40.90414,3.1260252,1.2315965
-41.05263,3.125915,1.2307796
-41.219395,3.1218736,1.2213435
-41.369614,3.1229088,1.2230048
-41.563072,3.113905,1.202672
-41.70819,3.1178656,1.2107091
-41.915783,3.10737,1.1870718
-42.079067,3.1086204,1.1891422
-42.23146,3.1132708,1.1986427
-42.4086,3.1129136,1.1971583
-42.608963,3.1081421,1.1859832
-42.820473,3.1019115,1.1715889
-43.02294,3.0988193,1.1640501
-43.210068,3.100151,1.1661854
-43.397644,3.1023362,1.1701722
-43.64972,3.0917444,1.1461253
-43.816914,3.1002996,1.1640329
-44.176872,3.0698786,1.096447
-45.853905,2.773874,0.4463153
-45.887302,2.8169935,0.5398741
-45.80981,2.8818603,0.6811447
-45.831577,2.9267251,0.7785392
-45.672714,3.005876,0.95117855
-45.717125,3.0456524,1.0374155
-45.759132,3.085881,1.1246424
-45.94529,3.099962,1.1544528
-46.541,3.091603,1.1337805
-11.322035,3.360197,1.4157214
-11.377756,3.3139932,1.3158503
-11.138451,3.1702855,0.997674
-11.397156,3.1537552,0.96624136
-12.6140995,3.2334645,1.1622977
-12.802341,3.2116106,1.1179247
-13.193508,3.2234402,1.1507797
-13.4236355,3.2108274,1.1273255
-13.777941,3.2201638,1.154047
-13.991447,3.207347,1.1298232
-14.323929,3.216234,1.1551495
-14.619778,3.2204127,1.1695199
-14.842756,3.2130415,1.1573329
-15.140844,3.2205186,1.1789298
-15.402678,3.2228363,1.1885943
-15.587819,3.2120206,1.1681738
-15.891762,3.224935,1.2017336
-16.065187,3.2140005,1.1808243
-16.31189,3.2184458,1.1948333
-16.503345,3.2130506,1.186336
-16.74787,3.2194865,1.2046418
-16.939217,3.2161617,1.2006536
-17.18768,3.225877,1.2261853
-17.342613,3.2168689,1.2091069
-17.552723,3.2206268,1.2209158
-17.715715,3.2150753,1.211524
-17.940414,3.224185,1.235282
-18.082457,3.215685,1.2190566
-18.29977,3.225267,1.2437043
-18.701859,3.2402728,1.2833128
-18.739979,3.2100766,1.2177658
-18.7469,3.1722174,1.1348939
-18.783491,3.1414852,1.0681276
-18.7798,3.100564,0.9783492
-18.837791,3.0750744,0.923409
-18.79078,3.022486,0.8073182
-18.817085,2.9885023,0.7332144
-18.82808,2.95031,0.6496215
-18.848934,2.9145315,0.5714717
-18.86047,2.8760204,0.48716784
-29.850586,3.2211514,1.3685417
-29.898466,3.2944503,1.5309176
-29.940275,3.3189447,1.5851946
-29.981585,3.347252,1.6479111
-30.021006,3.3546863,1.6643944
-30.06037,3.3671606,1.6920352
-30.099203,3.3719182,1.7025805
-30.137945,3.388298,1.7388611
-30.176422,3.3829663,1.7270522
-30.214798,3.3880215,1.7382436
-30.253372,3.3845348,1.7305102
-30.291893,3.3840268,1.7293706
-30.32807,3.4173484,1.8031502
-30.347288,3.6387002,2.2933745
-30.379263,3.6663885,2.354672
-30.411268,3.6867518,2.399744
-30.443954,3.697329,2.4231367
-30.511757,3.697782,2.4240613
-30.595253,3.414323,1.7961888
-30.63429,3.4101825,1.7869625
-30.671875,3.4139364,1.7952166
-30.709637,3.4165561,1.8009534
-30.751188,3.4028885,1.7706118
-30.789179,3.4053013,1.7758803
-30.827555,3.4061747,1.7777362
-30.86719,3.4026508,1.7698469
-30.906836,3.399642,1.7630925
-30.944952,3.4020438,1.7683196
-30.987274,3.3914938,1.7448511
-31.02661,3.390843,1.7433057
-31.065853,3.3907022,1.7428856
-31.096228,3.414661,1.7958479
-31.148378,3.380573,1.7202139
-31.172554,3.4189079,1.805018
-31.22573,3.385091,1.7299724
-31.258234,3.4016764,1.766583
-31.30623,3.382726,1.7244606
-31.346409,3.38211,1.7229528
-31.388199,3.3783727,1.7145228
-31.426758,3.3816042,1.7215295
-31.463627,3.3881552,1.7358866
-31.505,3.3859513,1.7308407
-31.54627,3.3842635,1.7269316
-31.587868,3.382288,1.7223802
-31.628891,3.3816285,1.7207394
-31.67093,3.3794825,1.7157984
-31.716228,3.3722644,1.6996117
-31.763283,3.3627892,1.6784158
-31.799545,3.3709636,1.6963305
-31.841066,3.3708827,1.6959453
-31.884773,3.3677435,1.6887751
-31.92864,3.3647301,1.6818771
-31.96962,3.3661895,1.6848879
-32.009777,3.3689437,1.6907625
-32.049923,3.3718038,1.6968694
-32.093296,3.3704488,1.693624
-32.136482,3.3696094,1.6915169
-32.173035,3.377504,1.7087679
-32.2138,3.3800182,1.7140846
-32.254883,3.382253,1.7187767
-32.300835,3.3787649,1.710773
-32.330833,3.3944335,1.745244
-32.369164,3.400087,1.7575021
-32.39275,3.4224555,1.8068242
-32.75618,3.0662434,1.0164957
-32.82055,3.049918,0.9799485
-32.865448,3.055302,0.9915447
-32.92012,3.050469,0.98047256
-32.967648,3.053443,0.9867096
-33.015945,3.0557883,0.9915452
-33.11305,3.0605094,1.0012641
-33.0175,3.201972,1.3147659
-33.198776,3.076715,1.036439
-33.04332,3.269548,1.4639654
-33.078613,3.2815328,1.490181
-33.08214,3.322005,1.579618
-33.11526,3.335182,1.6084752
-33.15449,3.3428526,1.6251059
-33.21216,3.3346906,1.6065855
-33.26101,3.3344831,1.6057143
-33.317505,3.328165,1.5912681
-33.348335,3.3433313,1.6245155
-33.420547,3.3248837,1.5831184
-33.465446,3.3289616,1.5917296
-33.515457,3.3291683,1.5917382
-33.558544,3.3349683,1.6041594
-33.623447,3.3242726,1.5799341
-33.680153,3.3202903,1.5706096
-33.739056,3.3150628,1.5585089
-33.7845,3.3200474,1.5690856
-33.82298,3.3301504,1.5910292
-33.864815,3.3378654,1.6076608
-33.918736,3.3372066,1.6056767
-33.984097,3.3289733,1.5868478
-34.04778,3.322379,1.57165
-34.097168,3.3258035,1.5787096
-34.157166,3.322413,1.570611
-34.205154,3.3272104,1.5807052
-34.255848,3.3304248,1.5872722
-34.299534,3.338273,1.6041365
-34.38212,3.3219075,1.5671387
-34.433224,3.3256655,1.5748839
-34.48326,3.3302648,1.5844908
-34.538406,3.331973,1.5876584
-34.599934,3.3301568,1.582973
-34.661114,3.3288915,1.5795012
-34.721924,3.328174,1.5772357
-34.792866,3.3220139,1.5628452
-34.850616,3.3237326,1.5659771
-34.934643,3.311146,1.5372496
-34.995865,3.3116841,1.5377259
-35.06994,3.3055785,1.5233951
-35.14743,3.2981281,1.5060525
-35.2413,3.2825668,1.4706268
-35.309845,3.2809007,1.4661326
-35.36929,3.284287,1.4728804
-35.44768,3.278319,1.4587712
-35.516327,3.2777224,1.4566145
-35.608795,3.2657094,1.4289966
-35.67999,3.264733,1.4259605
-35.741722,3.2687001,1.433928
-35.819195,3.2654324,1.4257507
-35.906174,3.2581384,1.4085746
-35.996235,3.2499604,1.3894062
-36.09875,3.2366471,1.358758
-36.19519,3.2267926,1.3358002
-36.28271,3.221555,1.3231215
-36.3618,3.2205634,1.3198986
-36.443207,3.2189784,1.315331
-36.553123,3.205547,1.2842927
-36.6249,3.2090845,1.2911191
-36.710068,3.2073178,1.2860804
-36.791336,3.2076304,1.285666
-36.870026,3.209412,1.2885137
-36.96029,3.2068915,1.2817259
-37.05232,3.2041583,1.2744374
-37.13823,3.2043467,1.2736583
-37.223682,3.205153,1.2742372
-37.310116,3.2060122,1.2749119
-37.40338,3.2047057,1.2707171
-37.497704,3.2034957,1.2667131
-37.59235,3.2026641,1.2635312
-37.707394,3.1948526,1.2446966
-37.789307,3.1997087,1.2541895
-37.883408,3.2005787,1.254734
-37.980804,3.2007585,1.253706
-38.087624,3.198154,1.2464104
-38.178783,3.2015145,1.2524505
-38.27553,3.2034104,1.2551799
-38.486767,3.167365,1.172811
-38.591583,3.1680257,1.1726899
-38.668648,3.1782975,1.1940985
-38.766888,3.182027,1.2008047
-39.74635,2.9832547,0.7492056
-39.811905,3.001606,0.7884965
-39.50673,3.132361,1.0803533
-39.586365,3.1453862,1.1077132
-39.677307,3.1553705,1.1282096
-39.795967,3.157669,1.131392
-40.040672,3.1243567,1.05441
-40.090782,3.1477375,1.1049318
-40.56139,3.0535908,0.89083767
-40.606857,3.0799468,0.9479432
-40.59381,3.122245,1.040957
-40.684135,3.136377,1.0705047
-40.781986,3.1488678,1.0963221
-40.85718,3.1676805,1.136364
-41.031807,3.1611152,1.1191177
-41.174866,3.1635184,1.1220484
-41.807236,3.0440323,0.84967804
-41.976753,3.0430462,0.8447223
-42.03453,3.0701568,0.90319586
-42.07218,3.1021996,0.97280407
-42.16371,3.1214545,1.0134792
-42.39544,3.1083374,0.98085976
-43.020027,3.006185,0.746552
-43.027214,3.0478125,0.8376312
-43.15443,3.0624046,0.8674488
-43.29577,3.0744486,0.8914342
-43.419643,3.090923,0.9254093
-43.542664,3.1081104,0.96094894
-43.90778,3.0749638,0.8821235
-44.369617,3.0238988,0.76239634
-44.33116,3.0773962,0.8801708
-45.856308,2.8169768,0.28381062
-45.89862,2.8584633,0.3738761
-45.861965,2.915251,0.49878454
-45.95608,2.9465466,0.5656223
-45.739143,3.084911,0.8721175
-45.955044,3.0937524,0.88766575
0.1672821,3.2919433,0.59725285
-10.845236,3.1284308,0.59771585
-10.74576,3.0571074,0.437809
-12.608599,3.2330186,0.88361645
-12.856823,3.2204206,0.8637614
-13.17844,3.2209134,0.8749895
-13.513981,3.2253675,0.8953476
-13.795418,3.2225113,0.8978958
-14.065226,3.2191133,0.8988662
-14.363614,3.2220616,0.9146762
-14.684852,3.230612,0.9435096
-14.880822,3.218342,0.9225764
-15.147066,3.2198784,0.9342103
-15.415296,3.2231724,0.94975805
-15.620703,3.215992,0.9402642
-15.839144,3.212341,0.938931
-16.114277,3.2208858,0.9661994
-16.335043,3.2201078,0.97122955
-16.540121,3.217303,0.97129154
-16.787193,3.2241583,0.99391794
-16.969902,3.21893,0.98791504
-17.171553,3.218625,0.99332905
-17.369137,3.2184904,0.9989786
-17.588884,3.224217,1.0182128
-17.772192,3.2230515,1.021121
-17.980164,3.2283762,1.0390787
-18.107876,3.2164998,1.0166364
-18.533691,3.2345417,1.0690866
-18.708193,3.2361617,1.0777969
-18.719372,3.1991832,0.9963727
-18.777065,3.1734064,0.94105816
-18.848608,3.1511846,0.893991
-18.773773,3.0922027,0.7613487
-18.803513,3.0591574,0.6890931
-18.817081,3.021809,0.606833
-18.831335,2.9844148,0.5244732
-18.829693,2.9425507,0.43174648
-29.85185,3.2594671,1.3546109
-29.895222,3.2847137,1.41151
-29.938694,3.3210313,1.4933243
-29.980268,3.3452933,1.5479879
-30.020878,3.3652008,1.5928373
-30.060513,3.374661,1.6141586
-30.09973,3.3777287,1.6210804
-30.138842,3.3788676,1.6236506
-30.177786,3.3922849,1.6538563
-30.21665,3.3932185,1.6559472
-30.25532,3.3983102,1.6673918
-30.294159,3.3978188,1.6662598
-30.333303,3.3933697,1.6562085
-30.358244,3.555353,2.0208488
-30.382036,3.6804495,2.302442
-30.547901,3.5118089,1.9224882
-30.604347,3.4035666,1.678688
-30.641577,3.412473,1.6986389
-30.680067,3.4141903,1.7023964
-30.720325,3.4079213,1.6881638
-30.758968,3.4094367,1.6914492
-30.79943,3.403784,1.678585
-30.839111,3.4018712,1.6741338
-30.877274,3.405708,1.682622
-30.920172,3.3935258,1.6550269
-30.952698,3.415683,1.7047558
-30.99149,3.416991,1.7075238
-31.029163,3.4216142,1.7177505
-31.066296,3.4275367,1.730895
-31.106455,3.4251273,1.7252655
-31.153006,3.406796,1.6837654
-31.199171,3.3910077,1.6479807
-31.23672,3.3969533,1.6611419
-31.278685,3.392605,1.6511078
-31.317743,3.395157,1.6566067
-31.357708,3.3958166,1.6578336
-31.3977,3.3965814,1.6592903
-31.437515,3.3978508,1.6618729
-31.482271,3.3896956,1.6432123
-31.521408,3.392773,1.6498504
-31.562027,3.39318,1.6504626
-31.604698,3.3901372,1.643292
-31.645683,3.3903728,1.6434989
-31.687897,3.3887477,1.6395025
-31.731907,3.3844845,1.6295509
-31.77586,3.3807411,1.6207595
-31.818472,3.3794777,1.617547
-31.859632,3.3806822,1.6198888
-31.901619,3.3808253,1.6198277
-31.948273,3.3744488,1.6050577
-31.992424,3.372108,1.5993748
-32.033607,3.374171,1.6036115
-32.073936,3.3775098,1.6107154
-32.11601,3.3786302,1.6128068
-32.158722,3.3790936,1.6134062
-32.19538,3.3873923,1.6316705
-32.241848,3.3834581,1.6223292
-32.29043,3.377357,1.608089
-32.31921,3.395177,1.6478057
-32.380146,3.375169,1.6021643
-32.38849,3.4160683,1.6939459
-32.69433,3.1232872,1.0326824
