x,y,z
-31.949528,3.3801198,2.726646
-31.978233,3.3907015,2.7475529
-32.007378,3.4004369,2.7669396
-32.03967,3.4057055,2.7782054
-32.084473,3.3943167,2.7591496
-32.126156,3.3875904,2.7486372
-32.161026,3.390007,2.754816
-32.197678,3.3902702,2.7571092
-32.226387,3.4005113,2.7775908
-32.25858,3.406337,2.7900658
-32.30342,3.3970504,2.7750974
-32.34209,3.3954914,2.774222
-32.387035,3.3869283,2.7606664
-32.41816,3.394495,2.7764463
-32.45074,3.4003656,2.7891746
-32.48122,3.4085293,2.8060923
-32.524628,3.402659,2.7975912
-32.564934,3.400447,2.7957706
-32.610397,3.3930938,2.7846823
-32.64081,3.401647,2.8024435
-32.675808,3.40547,2.8116722
-32.712082,3.408084,2.8187485
-32.758522,3.4008117,2.807992
-32.811028,3.388065,2.7874002
-32.83541,3.402721,2.816359
-32.866367,3.4109564,2.833745
-32.900433,3.41626,2.8458695
-32.97523,3.38438,2.790998
-33.01818,3.3822834,2.7898965
-33.047832,3.3922517,2.8105698
-33.076336,3.4031386,2.8329225
-33.113964,3.4060416,2.840939
-33.171425,3.3921645,2.8188367
-33.209774,3.3949194,2.8266878
-33.26079,3.387296,2.8159528
-33.282925,3.4036994,2.8483863
-33.324368,3.4042847,2.8524737
-33.36849,3.4029226,2.8531213
-33.443836,3.3772566,2.8103127
-33.481583,3.3816326,2.8213668
-33.492958,3.4062898,2.8687205
-33.516834,3.4210756,2.8984303
-33.592476,3.3970616,2.8588896
-33.630653,3.4014678,2.8701653
-33.696712,3.3856876,2.8455029
-33.744114,3.3839204,2.8458986
-33.767788,3.3992445,2.8767757
-33.805504,3.4045663,2.8898802
-33.854748,3.4019969,2.8890061
-33.913483,3.39322,2.8771787
-33.963123,3.3910182,2.877102
-33.982075,3.4095623,2.9138641
-34.039536,3.402504,2.9052944
-34.084614,3.403904,2.9117732
-34.150417,3.3921595,2.8950777
-34.173122,3.4083226,2.927774
-34.2227,3.407454,2.9304314
-34.262444,3.4129393,2.9443598
-34.297768,3.42124,2.963297
-34.35258,3.417767,2.9615602
-46.520233,1.3494651,0.32269526
-46.55812,1.3953211,0.41977072
-46.544876,1.5108356,0.65034103
-46.589386,1.5542374,0.74366045
-46.563847,1.6161327,0.8650212
-46.58246,1.6659446,0.9680114
-46.57943,1.7211156,1.0790195
-46.5246,1.7891357,1.2091188
-46.65364,1.8101556,1.2690978
-46.559486,1.8871596,1.4122567
-46.50522,1.9534447,1.5392208
-46.550888,1.994863,1.6294923
-46.534233,2.0511532,1.741518
-46.557293,2.0976667,1.8392363
-46.60094,2.1392372,1.9298377
-46.652336,2.179009,2.017949
-48.007732,1.9789789,1.7986026
-48.233147,2.0398514,1.9545403
-48.216217,2.0986357,2.0724444
-48.579456,2.0767994,2.0789614
-46.708443,2.521646,2.726241
-46.637436,2.585942,2.8481102
-46.66196,2.630269,2.9426527
-46.700058,2.671801,3.033483
-46.7442,2.7121367,3.1228175
-46.819206,2.746543,3.2044625
-46.953873,2.7698147,3.2718296
-47.169563,2.7784758,3.3208265
-47.3987,2.7856915,3.368884
-47.64901,2.7901752,3.4144607
-47.91577,2.7929478,3.45899
-48.21926,2.7905836,3.4983325
-48.491158,2.7952044,3.5476522
-48.696495,2.812481,3.613607
-48.825256,2.8435168,3.6970253
-49.003044,2.8670154,3.7720876
-50.145203,2.7354984,3.666686
-50.121704,2.795252,3.787788
-50.13818,2.8484347,3.901217
-50.15679,2.9011798,4.0141683
-50.380535,2.9229765,4.0930543
-51.218643,2.8550994,4.0760016
-52.16955,2.7753031,4.050954
-52.995552,2.7182918,4.055111
-54.093258,2.6277196,4.029717
-3.7619476,2.0447898,2.7783217
-4.6917343,2.1122346,2.794561
-5.291561,2.1337342,2.7590451
-6.6299744,2.2742617,2.873701
-7.376421,2.3274686,2.8851242
-7.5344486,2.288962,2.7836514
-8.255938,2.344308,2.803113
-8.894102,2.3894799,2.81255
-9.5243435,2.4366856,2.8273897
-9.9092865,2.4445767,2.7929544
-9.9484825,2.3932855,2.681179
-9.889797,2.324379,2.5457969
-9.813267,2.0129156,1.9107065
-10.007971,1.9909654,1.8401747
-10.087578,1.9468253,1.7388082
-10.047144,1.8784592,1.6030388
-10.064249,1.82142,1.4833336
-10.07847,1.7635725,1.362442
-10.044893,1.6953437,1.2264051
-10.044195,1.633672,1.0997701
-10.043539,1.5716755,0.9725733
-10.068964,1.5151205,0.85335064
-10.060932,1.4508619,0.72266483
-10.083542,1.3931856,0.6017189
-10.101507,1.3342202,0.47882795
-17.623367,2.8714867,2.6832995
-18.431011,3.0327988,2.9125466
-18.44682,2.9983613,2.8405719
-18.744932,3.0363016,2.8813415
-18.875359,3.0323396,2.8574576
-19.0209,3.032985,2.8411574
-19.231535,3.0517333,2.8537693
-19.437939,3.0705135,2.8670168
-19.536924,3.0610473,2.8360128
-19.956932,3.1409795,2.9475803
-19.960274,3.1066403,2.8778005
-19.649622,2.9828677,2.6646657
-20.911034,3.308798,3.1735182
-20.954094,3.2886627,3.1278782
-21.148335,3.3131466,3.1544838
-21.185318,3.2918692,3.1073585
-21.343884,3.3073204,3.1200442
-21.376709,3.2852573,3.0719247
-21.58017,3.315951,3.1101527
-21.667864,3.311669,3.0915232
-21.70935,3.2931561,3.0496845
-21.878689,3.3156655,3.0755486
-21.923565,3.298846,3.0368156
-22.072489,3.3162417,3.0548487
-22.11653,3.2997105,3.0168824
-22.295633,3.32861,3.0546188
-22.331196,3.3098826,3.0133076
-22.495813,3.335519,3.0462356
-22.53385,3.318191,3.0075321
-22.701496,3.346478,3.0454984
-22.732885,3.3273768,3.0040836
-22.825836,3.330409,3.0000372
-22.927483,3.3370945,3.0023541
-22.94374,3.3129082,2.9526052
-23.126526,3.350584,3.0078125
-23.145262,3.3277373,2.9605427
-23.28904,3.3523948,2.9941807
-23.349323,3.3458364,2.9748626
-23.391388,3.3324108,2.9439135
-23.507679,3.3483102,2.9632344
-23.556757,3.3381577,2.938106
-23.60904,3.3294337,2.9155097
-23.746016,3.3554013,2.952695
-23.76397,3.333251,2.907219
-23.825357,3.3290615,2.892754
-23.930283,3.3434877,2.9105797
-23.970018,3.33079,2.8816328
-24.059864,3.3397572,2.8903136
-24.141804,3.3458188,2.8941107
-24.185244,3.3353748,2.8693414
-24.29061,3.3526435,2.8929062
-24.390951,3.3683653,2.9139662
-24.417093,3.3509188,2.8772717
-24.497719,3.3585289,2.884426
-24.544506,3.3508403,2.8649235
-24.600025,3.347409,2.852952
-24.652607,3.3428059,2.8390074
-24.765266,3.3673983,2.8764687
-24.804619,3.3570735,2.8526664
-24.812977,3.3315127,2.8020606
-24.922314,3.3560774,2.8398871
-24.989697,3.360315,2.8419943
-25.015896,3.3439062,2.807691
-25.074774,3.3442893,2.8031402
-25.170502,3.3642187,2.833324
-25.21319,3.3568594,2.8152437
-25.236998,3.3395157,2.77948
-25.30812,3.3476336,2.7890096
-25.394917,3.3647888,2.814735
-25.432793,3.3555434,2.7935576
-25.47209,3.347146,2.7739334
-25.578104,3.3766046,2.8219457
-25.613201,3.366384,2.7992182
-25.6465,3.3551404,2.7746987
-25.684433,3.346609,2.7550688
-25.756725,3.3585246,2.7721243
-25.831747,3.3726177,2.7931929
-25.860664,3.3592834,2.765132
-25.891043,3.3467765,2.7385812
-26.003473,3.3852847,2.8038058
-26.045206,3.3804398,2.7911773
-26.051815,3.3533275,2.7384834
-26.114275,3.3618367,2.7499928
-26.163298,3.3620176,2.7465625
-26.228756,3.3733077,2.7632523
-26.263926,3.3648412,2.7443304
-26.284094,3.346234,2.7071013
-26.332281,3.346619,2.7042542
-26.409477,3.3674006,2.7384086
-26.484911,3.3876963,2.771793
-26.497452,3.363932,2.7253656
-26.538847,3.360604,2.7160268
-26.586285,3.3618324,2.7150073
-26.651056,3.3761442,2.7378254
-26.674818,3.3603044,2.7058892
-26.699957,3.3453157,2.6755152
-26.76144,3.3581204,2.6957731
-26.818298,3.3678796,2.7105598
-26.844664,3.3540199,2.682351
-26.88827,3.3538103,2.6790648
-26.93179,3.3537395,2.6760788
-26.97371,3.3525622,2.6711187
-27.04699,3.3777232,2.7143445
-27.05983,3.352683,2.6658573
-27.103485,3.353574,2.664816
-27.13786,3.3466275,2.6494718
-27.18617,3.3519814,2.6566906
-27.239925,3.3625643,2.6735473
-27.28119,3.3623273,2.6706257
-27.31039,3.351176,2.6477222
-27.33296,3.333702,2.6132345
-27.414883,3.3721933,2.6815386
-27.44948,3.366492,2.6687517
-27.51226,3.388356,2.7066693
-27.52495,3.3613915,2.654861
-27.569094,3.3654764,2.6601777
-27.602913,3.359319,2.6466856
-27.648497,3.3653932,2.6557488
-27.692205,3.3698757,2.6619282
-27.717863,3.3553228,2.6330652
-27.764246,3.363094,2.6453834
-27.80128,3.3609467,2.639453
-27.851143,3.373386,2.6604753
-27.891798,3.3758779,2.6631894
-27.924767,3.3696766,2.6498852
-27.950758,3.355166,2.6212544
-27.988787,3.3548698,2.6189137
-28.036503,3.3666627,2.63896
-28.085272,3.3803916,2.6626377
-28.123148,3.3809197,2.661943
-28.151329,3.3690581,2.638348
-28.17165,3.3465219,2.595008
-28.243965,3.3934636,2.6803598
-28.282711,3.3962407,2.6839738
-28.312677,3.3869863,2.6653252
-28.342827,3.3778017,2.6468263
-28.379957,3.378617,2.6468954
-28.412771,3.373207,2.6354494
-28.46321,3.3946052,2.6737723
-28.496437,3.3903131,2.6644669
-28.544287,3.409285,2.6983786
-28.569788,3.3929105,2.6667
-28.598679,3.3815978,2.6444373
-28.64844,3.405507,2.6876383
-28.689415,3.4154096,2.7048602
-28.71806,3.403913,2.682342
-28.756464,3.4099069,2.6923637
-28.78466,3.3971832,2.6676087
-28.815052,3.3881993,2.6498294
-28.850513,3.3889556,2.6501946
-28.890215,3.3985682,2.6670718
-28.923021,3.3944504,2.6584268
-28.954613,3.3876424,2.6447988
-28.983635,3.374896,2.6201363
-29.023678,3.386766,2.6413407
-29.056704,3.382987,2.63343
-29.09303,3.3871846,2.640407
-29.130322,3.3942704,2.6527977
-29.166687,3.3996015,2.6619487
-29.193064,3.378491,2.621842
-29.22395,3.3686175,2.6026998
-29.264032,3.3849416,2.6324291
-29.303513,3.4009178,2.6615458
-29.337666,3.401589,2.6621509
-29.372059,3.4032855,2.6646972
-29.401085,3.3868198,2.6333857
-29.432072,3.376039,2.612702
-29.465916,3.375175,2.6105447
-29.506828,3.4025388,2.6610951
-29.540869,3.4042141,2.6637363
-29.574423,3.4041002,2.663064
-29.607069,3.3998444,2.654687
-29.636353,3.3782778,2.6140156
-29.670197,3.378412,2.6138816
-29.706535,3.3932211,2.6411753
-29.743155,3.4123664,2.676597
-29.775263,3.4042995,2.6612306
-29.807442,3.3953705,2.644278
-29.838821,3.378039,2.6116571
-29.872412,3.3772821,2.6100159
-29.906548,3.3822699,2.6191316
-29.941313,3.3967798,2.64606
-29.974531,3.3944,2.6414652
-30.007912,3.3939917,2.6405807
-30.040617,3.3776267,2.6099129
-30.074007,3.3703096,2.5961733
-30.107971,3.3866754,2.6267004
-30.141476,3.394161,2.6406655
-30.174894,3.3904066,2.6336575
-30.208113,3.3999517,2.6515207
-30.242506,3.369472,2.5946398
-30.276297,3.3678658,2.5917234
-30.309843,3.371064,2.5978084
-30.341377,3.4002905,2.6525388
-30.374552,3.4022398,2.6563401
-30.4064,3.4170039,2.684103
-30.442417,3.3917816,2.6372051
-30.476414,3.387864,2.630127
-30.51072,3.3826227,2.620603
-30.541363,3.4024267,2.6578784
-30.573608,3.4095936,2.6715765
-30.608953,3.398493,2.6511908
-30.643068,3.3954828,2.6459384
-30.677275,3.3925636,2.640883
-30.710957,3.3925521,2.641283
-30.742702,3.4010785,2.6576452
-30.777449,3.396545,2.6496568
-30.811848,3.3939807,2.6453714
-30.846205,3.3919756,2.6421576
-30.88249,3.3835065,2.6269102
-30.919708,3.3727994,2.6075182
-30.947231,3.3944564,2.6485271
-30.980103,3.397949,2.655675
-31.015259,3.3945243,2.6499486
-31.04955,3.3939927,2.6496463
-31.091316,3.3730524,2.6113238
-31.125248,3.3745837,2.6149273
-31.154459,3.388293,2.6412525
-31.187647,3.391382,2.647808
-31.220976,3.3940911,2.6536822
-31.257053,3.3903966,2.6476545
-31.29531,3.382172,2.6332211
-31.333176,3.3754463,2.6216125
-31.35909,3.3946974,2.6583958
-31.393688,3.3950794,2.6600733
-31.429226,3.3937101,2.6585207
-31.46789,3.3864565,2.64605
-31.506779,3.3793159,2.6338248
-31.538979,3.3851404,2.6457453
-31.571318,3.3905852,2.6569848
-31.602003,3.3988578,2.6735039
-31.63569,3.4017174,2.6799884
-31.673677,3.3973649,2.6730995
-31.718176,3.382644,2.6469889
-31.749828,3.389446,2.6608868
-31.781351,3.3963253,2.6749525
-31.810095,3.407361,2.6967554
-31.845797,3.4075956,2.6985388
-31.885517,3.4020557,2.689642
-31.935398,3.3822014,2.6542416
-31.970287,3.3845813,2.66011
-31.998703,3.396043,2.682837
-32.027863,3.4062197,2.7032018
-32.070873,3.3976555,2.6888824
-32.11109,3.3932507,2.6823049
-32.149746,3.3911972,2.680118
-32.19027,3.387032,2.6740608
-32.216293,3.4012015,2.7019506
-32.248913,3.4069974,2.714375
-32.288086,3.4049144,2.7122664
-32.340866,3.38706,2.6810598
-32.375523,3.3909712,2.6901064
-32.40512,3.4006872,2.7098985
-32.436882,3.4078398,2.7249818
-32.475677,3.4071982,2.7257147
-32.521404,3.399254,2.7130222
-32.572712,3.3858023,2.690227
-32.609524,3.3881621,2.69662
-32.636265,3.4010231,2.7223797
-32.6653,3.4113436,2.7434816
-32.70879,3.4070745,2.7377667
-32.760746,3.3947783,2.7173357
-32.810886,3.3848085,2.701242
-32.839428,3.3959653,2.7240162
-32.86278,3.4118738,2.755536
-32.896343,3.4180372,2.7691808
-32.97851,3.3797588,2.7013388
-33.019516,3.3798807,2.70401
-33.04446,3.394466,2.7332263
-33.072952,3.4057302,2.7563758
-33.11191,3.4078343,2.7627773
-33.166603,3.3966799,2.7449646
-33.220665,3.386556,2.7291045
-33.257523,3.3911662,2.7402325
-33.27004,3.4157586,2.7878895
-33.31733,3.411847,2.783515
-33.375145,3.3998656,2.7644753
-33.441708,3.381536,2.7339377
-33.471375,3.3924904,2.7568388
-33.494465,3.4084015,2.7887883
-33.525307,3.418256,2.8097296
-33.576626,3.412808,2.802874
-33.625984,3.4091537,2.7993407
-33.687145,3.3972318,2.7808552
-33.748703,3.3855412,2.7628717
-33.770092,3.402811,2.797483
-33.815582,3.403013,2.8011765
-33.85142,3.410098,2.817389
-33.913208,3.3995278,2.8016925
-33.95961,3.3998058,2.8056936
-33.97963,3.4178607,2.841866
-34.02778,3.4172122,2.844283
-34.096386,3.4035175,2.8232288
-34.163033,3.391642,2.8055525
-34.17658,3.4139452,2.8495193
-34.214184,3.4208791,2.865828
-34.258522,3.423719,2.874817
-34.301647,3.427466,2.88549
-34.34103,3.4336267,2.900547
-46.543392,1.4491928,0.26562214
-46.535004,1.5076306,0.38283777
-46.587296,1.5493224,0.47351503
-46.569954,1.6094661,0.59329796
-46.519226,1.6778712,0.725893
-46.52951,1.729795,0.83252573
-46.604065,1.7650213,0.9131503
-46.508568,1.8432531,1.0605392
-46.597176,1.8747175,1.1354146
-46.56958,1.9349549,1.2546906
-46.537315,1.9958191,1.3747597
-46.645218,2.0226433,1.442832
-46.541405,2.099784,1.58743
-46.533905,2.153544,1.6963444
-46.548634,2.2018523,1.796979
-46.628372,2.2352386,1.8753123
-46.61855,2.288834,1.9838696
-46.685112,2.3252625,2.0669599
-47.760643,2.1427555,1.8285751
-47.98565,2.1486323,1.8692126
-48.11617,2.175534,1.9411359
-46.65519,2.5339217,2.4918976
-46.58398,2.598378,2.6155071
-46.70603,2.6231296,2.6822
-46.6482,2.6841524,2.8006315
-46.71347,2.7204676,2.8840413
-46.75451,2.7616103,2.9743786
-46.871044,2.7884157,3.0449586
-47.022537,2.8091373,3.1075873
-47.286514,2.8098006,3.143435
-47.481842,2.8242252,3.198925
-47.729824,2.8301697,3.243815
-47.962563,2.8400035,3.2948737
-48.343422,2.8253863,3.314724
-48.591866,2.8352175,3.3680434
-48.821045,2.849469,3.4281116
-48.911003,2.8876567,3.51969
-49.048847,2.9184237,3.6022573
-50.116936,2.802351,3.5023918
-50.139866,2.8547592,3.6150298
-50.144524,2.9098825,3.731008
-50.52223,2.908843,3.7795882
-51.004456,2.8943038,3.814054
-51.508606,2.8790681,3.8501225
-52.09922,2.8541558,3.8776717
-52.679672,2.833706,3.9133387
-53.244957,2.8183064,3.9576912
-53.858727,2.7993217,4.001207
-54.862885,2.7323947,3.9969935
-4.0245457,2.2275374,2.7562327
-5.112919,2.3139024,2.8057036
-5.7308064,2.3361368,2.777564
-6.5556164,2.3929021,2.7970185
-7.1880703,2.4243722,2.7867365
-7.8476257,2.4634063,2.7891593
-8.428785,2.4933846,2.782143
-9.696646,2.6381264,2.9330769
-9.727837,2.58513,2.818554
-9.912638,2.5579412,2.7397199
-9.944159,2.5053225,2.626144
-9.866308,2.4335961,2.4857965
-9.83935,2.3701792,2.3568373
-9.837248,2.3108215,2.2334929
-9.87192,2.198498,1.9958191
-9.911398,2.146259,1.8826838
-10.048571,1.9929459,1.5487452
-10.065676,1.9360592,1.4289742
-10.035778,1.8694019,1.2945175
-10.047243,1.8108008,1.1720495
-10.053074,1.750773,1.047379
-10.030949,1.6845076,0.9131365
-10.052689,1.6272454,0.79255056
-10.066959,1.5681443,0.66912603
-10.094185,1.5116644,0.5497265
-10.065962,1.4425173,0.41063738
-17.59975,2.9392376,2.6386695
-18.34775,3.081321,2.8466754
-18.525967,3.0869308,2.8384461
-17.9567,2.9059043,2.530964
-18.81484,3.0460472,2.7231636
-18.913338,3.0337813,2.6873922
-19.141308,3.0561426,2.7082171
-19.368496,3.079586,2.731389
-19.562065,3.0952106,2.7423224
-19.827528,3.1316488,2.7879333
-19.969372,3.1353035,2.78018
-19.69008,3.021147,2.578044
-19.650541,2.9731,2.484704
-20.919966,3.3022008,3.0180254
-21.011662,3.29605,2.9958944
-21.150948,3.3043835,2.9981585
-21.20346,3.287502,2.9584975
-21.343933,3.2974005,2.9638987
-21.408504,3.284802,2.9317398
-21.617523,3.3172565,2.9757228
-21.663013,3.299647,2.9355035
-21.733303,3.2900054,2.908862
-21.898203,3.3110669,2.9345174
-21.969013,3.3024983,2.9100757
-22.107695,3.3165655,2.924388
-22.165718,3.3045611,2.8944101
-22.324406,3.3266854,2.9230056
-22.378883,3.314241,2.892582
-22.51755,3.3310156,2.9125104
-22.557932,3.314309,2.8750129
-22.70887,3.336708,2.9050965
-22.741066,3.317627,2.8637252
-22.893456,3.3419814,2.897667
-22.935356,3.3269153,2.8634706
-23.036062,3.3336673,2.8672762
-23.1548,3.3477333,2.8840084
-23.17355,3.3246782,2.8361874
-23.325737,3.3525777,2.8774328
-23.353306,3.3332505,2.8362932
-23.482367,3.3536203,2.864781
-23.545956,3.3488982,2.8494444
-23.573753,3.3301008,2.809453
-23.671408,3.3395581,2.819251
-23.767887,3.3491168,2.8293982
-23.772144,3.3210206,2.7731962
-23.915462,3.3509548,2.8196173
-23.97609,3.3468575,2.806017
-23.97791,3.3177872,2.7482138
-24.139105,3.3575444,2.8126197
-24.191107,3.3506396,2.794335
-24.221634,3.3343825,2.7594676
-24.33346,3.3545783,2.7896185
-24.399195,3.3546412,2.7840185
-24.477156,3.3606436,2.7891312
-24.531633,3.3561985,2.775669
-24.60983,3.3631105,2.7826262
-24.617552,3.3370125,2.7305021
-24.720415,3.3563447,2.7599263
-24.800009,3.3651197,2.7705407
-24.813866,3.3420842,2.7240357
-24.880545,3.3450856,2.7244263
-24.978241,3.3640556,2.753703
-25.019444,3.3550181,2.7325788
-25.034008,3.3323538,2.68688
-25.162699,3.3688703,2.7482085
-25.192936,3.354671,2.7179322
-25.239517,3.3491328,2.7033758
-25.296112,3.3491433,2.6989374
-25.38504,3.3670645,2.727087
-25.422047,3.3570395,2.704587
-25.444149,3.338732,2.6670604
-25.561958,3.3743129,2.7276359
-25.61625,3.3747103,2.7242918
-25.643547,3.3597746,2.6930552
-25.6876,3.3545492,2.6795588
-25.74615,3.3580427,2.682035
-25.800108,3.3591294,2.6801848
-25.877491,3.3747025,2.7049007
-25.912493,3.3648987,2.6832619
-26.008703,3.3931239,2.7313313
-26.021059,3.369573,2.6846018
-26.065155,3.3658893,2.6743202
-26.099691,3.3562026,2.6530633
-26.159191,3.3628001,2.6617599
-26.228373,3.3761961,2.6830301
-26.267452,3.3700464,2.6684208
-26.284101,3.348801,2.6260533
-26.34803,3.359659,2.64284
-26.411005,3.3703651,2.6594257
-26.496605,3.397479,2.7063599
-26.48408,3.3556738,2.6261702
-26.545261,3.36616,2.6425323
-26.596241,3.3696964,2.6461225
-26.650269,3.3758094,2.654533
-26.685295,3.368063,2.6373544
-26.696018,3.3418813,2.5860686
-26.733055,3.3354738,2.5714107
-26.823715,3.3709376,2.6344109
-26.86858,3.3713837,2.6325731
-26.901108,3.3621776,2.6128683
-26.921175,3.3428166,2.5743308
-26.966593,3.3440096,2.5739865
-27.040516,3.369247,2.6183815
-27.07512,3.3621256,2.6026874
-27.108372,3.353853,2.584877
-27.157505,3.3593848,2.592792
-27.208296,3.3667495,2.6041722
-27.260677,3.3759615,2.6190467
-27.300737,3.3744512,2.6139874
-27.33027,3.3633869,2.5911455
-27.371265,3.362932,2.5881195
-27.434883,3.3841681,2.6256237
-27.485563,3.3937702,2.6414723
-27.531574,3.3992956,2.649756
-27.532385,3.3602138,2.574707
-27.576841,3.3642147,2.580194
-27.622787,3.3700697,2.5891929
-27.669329,3.3769329,2.600123
-27.699778,3.367157,2.5799465
-27.74723,3.375578,2.5938702
-27.778597,3.3668506,2.5757127
-27.820242,3.3694723,2.578848
-27.872488,3.3843896,2.6050735
-27.90916,3.3820646,2.5990124
-27.94024,3.3732936,2.5808878
-27.968552,3.3610957,2.5563526
-28.01155,3.366494,2.5648708
-28.065712,3.3860853,2.6000829
-28.096933,3.37769,2.5827727
-28.120064,3.3587823,2.5457287
-28.161201,3.3628917,2.551962
-28.196524,3.3595965,2.5443068
-28.256676,3.3901181,2.6002874
-28.301548,3.4008553,2.6191063
-28.33255,3.3925855,2.6021953
-28.360006,3.3790345,2.5753632
-28.39837,3.3811824,2.5781083
-28.438705,3.3865743,2.5869956
-28.486717,3.4041963,2.618957
-28.523367,3.404907,2.6190953
-28.544287,3.380521,2.571959
-28.592901,3.4007747,2.6089888
-28.623524,3.3918507,2.591043
-28.672674,3.414642,2.6329384
-28.711706,3.4208486,2.643591
-28.74153,3.410848,2.6236925
-28.771082,3.4000072,2.6022272
-28.802307,3.3919606,2.5860553
-28.83881,3.3940032,2.5889544
-28.877485,3.4007053,2.6006808
-28.916826,3.4093442,2.6160984
-28.949257,3.4039333,2.6050043
-28.9795,3.3935711,2.5845761
-29.004112,3.3699954,2.539196
-29.044622,3.3822262,2.5615077
-29.084969,3.3950357,2.584948
-29.115545,3.3845303,2.5643368
-29.159027,3.4067543,2.605639
-29.187077,3.3895173,2.5723448
-29.219206,3.3824775,2.5583563
-29.252773,3.3792067,2.5515194
-29.293953,3.3986433,2.5876708
-29.329857,3.4034178,2.5961103
-29.362484,3.3981164,2.5855079
-29.39536,3.393359,2.5759587
-29.42925,3.3919263,2.5727248
-29.463154,3.3905804,2.5696797
-29.50284,3.4120476,2.6098518
-29.535355,3.4062512,2.598431
-29.569586,3.407501,2.6003752
-29.602472,3.4028006,2.591076
-29.634998,3.3958585,2.5775533
-29.66926,3.3973687,2.5800638
-29.702738,3.3947806,2.5748353
-29.73957,3.4127607,2.608593
-29.772608,3.4084888,2.600223
-29.806688,3.4112892,2.6052752
-29.838245,3.394139,2.5725522
-29.872011,3.3933816,2.5709095
-29.905878,3.3936434,2.5712223
-29.941187,3.411715,2.6053057
-29.974726,3.4112213,2.6042356
-30.007877,3.4038157,2.5900908
-30.04088,3.388562,2.5610971
-30.074722,3.388325,2.5605836
-30.10865,3.3933086,2.5699863
-30.142471,3.4053795,2.592845
-30.1761,3.4044704,2.5911283
-30.209826,3.4003806,2.5834079
-30.243963,3.387978,2.559959
-30.277878,3.3868635,2.5579247
-30.311533,3.3905015,2.56492
-30.344465,3.4026206,2.5880098
-30.378033,3.4040966,2.5909543
-30.411945,3.4019287,2.5870185
-30.447046,3.3900604,2.5647273
-30.481155,3.3885376,2.5620632
-30.514982,3.389432,2.564002
-30.544628,3.4174187,2.61729
-30.57932,3.4110289,2.6054754
-30.612762,3.4126406,2.6088428
-30.64816,3.4041083,2.5930195
-30.68283,3.4003196,2.586207
-30.716286,3.4026608,2.5910282
-30.748827,3.4088018,2.6030679
-30.781223,3.4150233,2.6152825
-30.815767,3.4125156,2.6109924
-30.853058,3.4003701,2.5884829
-30.890951,3.3874047,2.5644507
-30.925177,3.3879645,2.5660462
-30.956078,3.3992453,2.5879555
-30.988667,3.404593,2.5986586
-31.022554,3.4058685,2.6016788
-31.061163,3.3938606,2.579595
-31.097914,3.3879535,2.5690818
-31.131693,3.3904328,2.5744576
-31.162172,3.401275,2.5956707
-31.193335,3.4098892,2.6126914
-31.228745,3.408026,2.6099253
-31.269814,3.3934267,2.583115
-31.306986,3.3885655,2.5747418
-31.340515,3.3920393,2.5821471
-31.371817,3.4001653,2.5983634
-31.405842,3.402436,2.6035419
-31.438011,3.4084399,2.6157937
-31.483932,3.3876812,2.5775409
-31.518864,3.388881,2.5807796
-31.554296,3.389266,2.5825071
-31.58293,3.4019797,2.607522
-31.616966,3.4048,2.6138926
-31.649912,3.4095166,2.6238632
-31.689547,3.40304,2.6127534
-31.72801,3.3989336,2.606144
-31.764933,3.3976367,2.6048608
-31.79415,3.4085631,2.6266403
-31.824305,3.4177604,2.6451793
-31.86087,3.4171853,2.6453338
-31.9079,3.401528,2.6171222
-31.95227,3.3904855,2.597641
-31.98301,3.3991652,2.615313
-32.01099,3.4114692,2.639824
-32.044952,3.4154084,2.6486187
-32.08959,3.4052763,2.6309853
-32.131477,3.3992636,2.6211343
-32.170807,3.3969064,2.6181908
-32.198986,3.40874,2.6419358
-32.22978,3.4171205,2.659215
-32.269867,3.4141865,2.655274
-32.316742,3.4035058,2.6368332
-32.35758,3.4003954,2.632638
-32.395134,3.401325,2.6360555
-32.41728,3.4197273,2.6722589
-32.456253,3.4190996,2.6728096
-32.506447,3.406488,2.6509457
-32.552193,3.3992224,2.639145
-32.592884,3.3976982,2.6381335
-32.61835,3.4121692,2.6670876
-32.651073,3.4189832,2.681734
-32.691776,3.4177701,2.681398
-32.75284,3.396672,2.643939
-32.79444,3.3953364,2.643464
-32.823334,3.4064097,2.6661992
-32.85515,3.4145894,2.6835518
-32.88955,3.42032,2.6963592
-32.967888,3.3858216,2.6341786
-33.00313,3.3914306,2.64685
-33.02517,3.4088285,2.6815128
-33.062504,3.412512,2.6906466
-33.103188,3.4133966,2.6946025
-33.16966,3.3924656,2.6580157
-33.20633,3.3973794,2.6695623
-33.240475,3.4044533,2.6851544
-33.273525,3.4124377,2.7024665
-33.32166,3.408242,2.6971931
-33.392006,3.386685,2.6597571
-33.430412,3.390997,2.670381
-33.456257,3.4051378,2.699257
-33.48289,3.418519,2.72674
-33.520996,3.4231045,2.7379565
-33.57576,3.4153771,2.7264276
-33.61832,3.4170337,2.7323136
-33.683422,3.402507,2.7083383
-33.733494,3.3993356,2.705412
-33.75973,3.4133284,2.7342224
-33.80544,3.4135914,2.7377248
-33.85863,3.4089067,2.7321548
-33.92582,3.395032,2.7097197
-33.957005,3.405945,2.7329988
-33.98802,3.4169343,2.7564425
-34.04888,3.4082966,2.743832
-34.11363,3.3975794,2.7274785
-34.151234,3.4047413,2.7440262
-34.1773,3.4192646,2.7741137
-34.217094,3.4250944,2.7882829
-34.26912,3.4234731,2.788846
-34.308937,3.429576,2.803608
-34.36553,3.4256644,2.800098
-46.562572,1.6002474,0.3267789
-46.56666,1.6547003,0.43821573
-46.542053,1.7162511,0.56108856
-46.530766,1.7738626,0.6774602
-46.549175,1.8235404,0.7809653
-46.551414,1.8770237,0.8905525
-46.560036,1.9286094,0.997046
-46.62059,1.9673047,1.0829835
-46.537376,2.0405076,1.2237287
-46.6239,2.072732,1.2994595
-46.55136,2.1422844,1.434073
-46.533684,2.198448,1.5474339
-46.53351,2.2502255,1.6538339
-46.556534,2.2965178,1.7516541
-46.56588,2.3456817,1.8539162
-46.641327,2.3802435,1.9336953
-46.666977,2.4256687,2.030273
-47.71901,2.3077614,1.9074411
-47.836754,2.3369923,1.9813976
-46.534355,2.653812,2.4863076
-46.547592,2.7004654,2.5844016
-46.699783,2.71969,2.6418886
-46.767677,2.7558699,2.724793
-46.787704,2.8013232,2.821432
-47.00361,2.8099737,2.8646593
-47.231026,2.8175426,2.9070716
-47.355602,2.8448756,2.978571
-47.64034,2.8441172,3.0105739
-47.892826,2.850452,3.053625
-48.15983,2.8555179,3.0958357
-48.57681,2.8364253,3.1055503
-48.70777,2.8672721,3.1855588
-48.93184,2.883365,3.245943
-48.99466,2.9265323,3.3437438
-50.072918,2.8089004,3.2268605
-50.105133,2.8599885,3.3377566
-50.12787,2.9124947,3.4505801
-50.53539,2.9071739,3.4886227
-50.915047,2.9080248,3.536355
-51.457573,2.8872457,3.5584712
-52.00267,2.868904,3.5861282
-52.534668,2.8551898,3.6220336
-53.182526,2.828414,3.644661
-53.81151,2.8075094,3.6774673
-54.615562,2.7669446,3.6903343
-3.7013283,2.413866,2.779748
-4.468178,2.446177,2.7657604
-5.252493,2.4849234,2.7635956
-5.980219,2.5197046,2.7592216
-6.694231,2.556299,2.7602353
-7.4255257,2.5991998,2.7727933
-8.083933,2.6349533,2.7781467
-9.240795,2.750832,2.899292
-9.684793,2.7613575,2.8744884
-9.880693,2.7346091,2.7976675
-9.94412,2.6872458,2.6916137
-9.984213,2.6361575,2.580286
-9.792234,2.5460682,2.4116268
-8.321314,2.2360585,1.9161882
-9.860758,2.4404666,2.1834483
-9.858553,2.3811374,2.0596318
-9.865828,2.323236,1.9379005
-9.885382,2.2673495,1.8191943
-10.086819,2.1260421,1.5038514
-10.097237,2.0681355,1.3822222
-10.066298,2.001831,1.2474275
-10.123577,1.952718,1.1394849
-10.128277,1.8929443,1.0148163
-10.062119,1.8182502,0.8664255
-10.035389,1.7510908,0.72977686
-10.076595,1.6978831,0.6153102
-10.102854,1.6413682,0.49557686
-18.467026,3.148857,2.7821026
-17.815334,2.910854,2.3554935
-18.841316,3.0520718,2.5468183
-18.909248,3.0316548,2.498405
-19.19392,3.0687664,2.547381
-19.434078,3.0956368,2.5796428
-19.545475,3.0889587,2.5554142
-19.968739,3.168502,2.678348
-19.815248,3.0902145,2.532587
-19.679123,3.0154805,2.3925147
-19.659384,2.9727297,2.3069959
-20.912113,3.2972555,2.8534055
-20.999153,3.2894788,2.829484
-21.155865,3.3027146,2.8420453
-21.214256,3.2873569,2.8053856
-21.353113,3.296594,2.8115172
-21.444695,3.292075,2.7939873
-21.630287,3.3172143,2.8283234
-21.686636,3.3028069,2.7939482
-21.775095,3.2987912,2.7778454
-21.90115,3.3073046,2.783866
-21.967503,3.297043,2.7571354
-22.102905,3.3098226,2.771059
-22.177328,3.3030164,2.7507
-22.30943,3.316022,2.76545
-22.447561,3.3318672,2.785462
-22.527042,3.328245,2.7712212
-22.625948,3.331789,2.7698288
-22.72456,3.3357558,2.769352
-22.759129,3.3172941,2.7291007
-22.872679,3.3274744,2.7399678
-22.929005,3.317323,2.7147074
-23.060997,3.335441,2.7400951
-23.165407,3.3440375,2.7486486
-23.26783,3.3524861,2.7571049
-23.349447,3.353536,2.7524338
-23.35589,3.325782,2.6960683
-23.49494,3.3499167,2.7331572
-23.569794,3.3494625,2.7261214
-23.606016,3.3338327,2.6917849
-23.690668,3.3379273,2.6931548
-23.762854,3.3373559,2.6862006
-23.820484,3.331077,2.6690016
-23.918026,3.341827,2.682784
-23.985895,3.3405404,2.6748405
-24.03201,3.3302028,2.6505213
-24.149368,3.3510323,2.68302
-24.18495,3.3366299,2.6514564
-24.277164,3.3474936,2.6660466
-24.39371,3.369922,2.7019005
-24.409533,3.3472366,2.655405
-24.49636,3.3571312,2.6685653
-24.540531,3.34766,2.6463494
-24.607557,3.349087,2.6441765
-24.64397,3.336239,2.6158714
-24.760002,3.3618886,2.6583734
-24.803951,3.353204,2.6378627
-24.833387,3.3374484,2.6043744
-24.92172,3.3510969,2.625114
-24.986929,3.353663,2.6255226
-25.002209,3.3310235,2.579462
-25.079487,3.3402655,2.592329
-25.16713,3.3554516,2.61629
-25.22153,3.3536603,2.6089325
-25.259926,3.343527,2.5861778
-25.35571,3.3645895,2.6213112
-25.40113,3.3587735,2.6066847
-25.448511,3.3541868,2.594386
-25.496517,3.3501194,2.5831008
-25.584148,3.3687766,2.614141
-25.632431,3.3654952,2.6044483
-25.65231,3.3458502,2.5643196
-25.718845,3.3535147,2.5751119
-25.786913,3.3625455,2.5885282
-25.822596,3.3524926,2.5663953
-25.8688,3.3488872,2.5563383
-25.919817,3.348434,2.5522165
-25.994772,3.3632243,2.576664
-26.041786,3.360911,2.5691838
-26.061535,3.3412821,2.5293145
-26.140318,3.3597977,2.5609431
-26.201635,3.3675287,2.5724387
-26.243034,3.3624215,2.5599084
-26.264448,3.343938,2.5222974
-26.31172,3.3429027,2.5174766
-26.402124,3.37195,2.5692496
-26.468851,3.3853786,2.5917544
-26.48,3.3599093,2.5411263
-26.520645,3.3552365,2.5296507
-26.55806,3.3483198,2.5139818
-26.628761,3.3660424,2.544787
-26.670774,3.3629932,2.5364957
-26.696476,3.3477209,2.505175
-26.749002,3.3528829,2.512445
-26.781208,3.342582,2.4905596
-26.875246,3.381054,2.560862
-26.903622,3.368241,2.5343142
-26.910276,3.3376656,2.474185
-26.95368,3.3366978,2.4700694
-27.021427,3.3562427,2.5048256
-27.071663,3.3617375,2.513042
-27.104464,3.3526404,2.4936533
-27.138828,3.3448584,2.4767804
-27.183111,3.3458261,2.4765263
-27.232353,3.3514833,2.4852061
-27.276796,3.3531563,2.4863682
-27.32246,3.3562171,2.490203
-27.358166,3.3502467,2.4769216
-27.430424,3.3790898,2.5298223
-27.472326,3.3796945,2.5291152
-27.502562,3.3690722,2.507093
-27.528765,3.3543017,2.4771976
-27.56947,3.3539505,2.4747543
-27.623283,3.3672802,2.4983897
-27.672606,3.3765492,2.5143404
-27.707985,3.371504,2.5030656
-27.729202,3.3511858,2.462709
-27.773464,3.3557062,2.469709
-27.816769,3.3595073,2.4753737
-27.864058,3.3681707,2.4903464
-27.903227,3.3679414,2.4883919
-27.936832,3.3613477,2.474321
-27.971268,3.3557045,2.4620857
-27.99939,3.3423445,2.4351358
-28.066593,3.377274,2.5004468
-28.102558,3.374141,2.4930944
-28.140232,3.3732867,2.490121
-28.16491,3.3554885,2.454781
-28.203709,3.3561254,2.4547052
-28.256857,3.376621,2.4926438
-28.309717,3.3977392,2.5318203
-28.33786,3.3846855,2.5056467
-28.363565,3.367717,2.4719944
-28.396204,3.360519,2.4570594
-28.441511,3.3724387,2.478757
-28.489878,3.3898242,2.5109615
-28.532974,3.3998175,2.5290427
-28.558231,3.381467,2.4928422
-28.593304,3.3787577,2.486631
-28.648312,3.4100611,2.5456495
-28.68426,3.4098215,2.5442333
-28.716915,3.40386,2.5318685
-28.75237,3.4029105,2.5291376
-28.781136,3.389487,2.5024986
-28.813465,3.3824172,2.4880662
-28.849564,3.3826272,2.4876251
-28.888922,3.389695,2.5003715
-28.924622,3.3896565,2.499504
-28.958824,3.3865514,2.4927716
-28.98376,3.3627288,2.4462748
-29.012632,3.3466444,2.414651
-29.053701,3.3587255,2.4371462
-29.088327,3.3559527,2.4311347
-29.144396,3.4077795,2.5300565
-29.171314,3.3865957,2.4887218
-29.201921,3.374112,2.4641194
-29.237638,3.375364,2.465938
-29.271442,3.3712392,2.4574437
-29.31229,3.3886495,2.4903727
-29.346539,3.386541,2.4858003
-29.38272,3.3909192,2.4937243
-29.414087,3.3789282,2.4701915
-29.44773,3.374334,2.4609041
-29.483236,3.3766968,2.4650173
-29.522902,3.3965697,2.502839
-29.558746,3.40234,2.513557
-29.590637,3.390769,2.490934
-29.623472,3.3824883,2.4746614
-29.658606,3.3853137,2.4797783
-29.693888,3.38961,2.4877496
-29.72972,3.3981376,2.5038848
-29.763653,3.3957212,2.4989824
-29.797451,3.3920116,2.491611
-29.830145,3.3787217,2.4658217
-29.864445,3.377023,2.4623628
-29.899181,3.3795574,2.4670734
-29.934223,3.3867884,2.4808474
-29.969196,3.3959534,2.498365
-30.00303,3.389542,2.4859204
-30.03677,3.3772254,2.4621296
-30.071012,3.3709865,2.450059
-30.105518,3.3708274,2.4497147
-30.140081,3.3878136,2.482397
-30.17434,3.390137,2.4868746
-30.20863,3.3884003,2.4835572
-30.24334,3.376611,2.4609094
-30.277857,3.3750513,2.4579768
-30.31207,3.3791106,2.4658813
-30.34516,3.3966177,2.499693
-30.378696,3.4040725,2.514176
-30.413465,3.3977964,2.5022492
-30.451195,3.3676724,2.4444427
-30.485075,3.3735535,2.4559608
-30.519007,3.378139,2.4650068
-30.55117,3.3933883,2.4945955
-30.584816,3.3976812,2.5031195
-30.619535,3.395626,2.4994478
-30.655226,3.3890688,2.4871364
-30.692839,3.3743455,2.4591355
-30.72676,3.3780787,2.466669
-30.758429,3.3910675,2.4920287
-30.791718,3.3963406,2.5025654
-30.828629,3.3875017,2.485979
-30.864779,3.3824255,2.4766545
-30.901749,3.375162,2.4631457
-30.937128,3.3739395,2.4612803
-30.966759,3.3910728,2.4947295
-30.999739,3.3968647,2.5063915
-31.03746,3.3886094,2.4910698
-31.07869,3.3713539,2.4584756
-31.114313,3.3706,2.4576259
-31.148056,3.3749409,2.4665885
-31.17591,3.3938944,2.5036497
-31.211723,3.392493,2.5016193
-31.250505,3.384392,2.4867444
-31.293121,3.3682563,2.4564657
-31.330862,3.3640058,2.4490428
-31.362617,3.3729544,2.466988
-31.393522,3.3833299,2.487691
-31.42642,3.3892717,2.4999022
-31.463556,3.3867483,2.4958873
-31.507149,3.3721993,2.4688258
-31.54586,3.3676572,2.4609928
-31.577568,3.3762162,2.4783177
-31.608076,3.3866384,2.4992352
-31.643274,3.3886428,2.5040283
-31.679789,3.38851,2.5047498
-31.721226,3.3804622,2.490326
-31.755451,3.384544,2.499176
-31.791311,3.38605,2.5031142
-31.82343,3.3934143,2.5182962
-31.858347,3.396431,2.5251732
-31.901339,3.387616,2.5094233
-31.947372,3.374967,2.4863672
-31.978199,3.3844707,2.5057406
-32.009464,3.393166,2.5235853
-32.046375,3.3940425,2.526494
-32.08431,3.393708,2.5271134
-32.13169,3.3812535,2.504592
-32.168552,3.3829029,2.5090647
-32.20751,3.3820443,2.508772
-32.237747,3.3921506,2.5294518
-32.26312,3.4079556,2.56103
-32.308147,3.4000294,2.5473194
-32.355293,3.3900921,2.5298076
-32.39639,3.3876266,2.5265903
-32.42848,3.3955903,2.5432959
-32.461582,3.4023454,2.5577197
-32.50399,3.3989267,2.5527725
-32.55411,3.3875384,2.5326738
-32.594925,3.3865292,2.532392
-32.62684,3.3949776,2.5501485
-32.668552,3.3933446,2.548737
-32.707443,3.3947945,2.5532246
-32.75148,3.3913035,2.5483465
-32.80646,3.3774536,2.523808
-32.836994,3.3876748,2.5450726
-32.86999,3.3954592,2.5617256
-32.90555,3.4008257,2.5738106
-32.95872,3.3900867,2.5553446
-33.00033,3.3903058,2.557724
-33.036453,3.3956087,2.5697827
-33.07299,3.4005985,2.581273
-33.11613,3.3999398,2.5820866
-33.162735,3.3965507,2.5777636
-33.219715,3.3847425,2.557541
-33.258926,3.3881984,2.5662665
-33.29665,3.3929858,2.5775418
-33.344376,3.3897924,2.5737567
-33.403934,3.3774867,2.5527906
-33.439323,3.384687,2.5687375
-33.471516,3.3943846,2.5894284
-33.487873,3.4161353,2.6328883
-33.534374,3.414811,2.6328197
-33.598072,3.400956,2.6091661
-33.645542,3.3995888,2.6091151
-33.706734,3.3885386,2.5908723
-33.75515,3.3871315,2.5908465
-33.782116,3.401129,2.619851
-33.818882,3.4081697,2.635789
-33.87812,3.3997953,2.6227856
-33.942806,3.388161,2.6037245
-33.958546,3.4098868,2.647356
-34.008568,3.4085941,2.6478028
-34.05523,3.4097652,2.6529193
-34.125526,3.3958693,2.62985
-34.164234,3.402717,2.6457057
-34.195694,3.4142082,2.6702852
-34.234215,3.421264,2.6865911
-34.29275,3.4160776,2.6800528
-34.333138,3.4222927,2.6948724
-46.398643,1.7499688,0.3469
-46.497017,1.7794237,0.41681337
-46.611214,1.8051744,0.4807129
-46.57853,1.86796,0.6066456
-46.549263,1.9293394,0.73008966
-46.531586,1.9873664,0.8478341
-46.61366,2.0210452,0.92522573
-46.5406,2.0915897,1.0634995
-46.573944,2.1365352,1.1594915
-46.577324,2.188267,1.2666125
-46.514725,2.2546723,1.3975916
-46.63676,2.279093,1.4601779
-46.569527,2.3457108,1.5912809
-46.737812,2.3604312,1.6385484
-46.535347,2.4553347,1.8148451
-46.641403,2.4835653,1.8840098
-46.66799,2.5287097,1.9803219
-46.734974,2.5654666,2.0633793
-47.6384,2.4863386,1.9906521
-47.876682,2.4922876,2.027306
-46.560814,2.7992508,2.5317154
-46.712143,2.8194122,2.5892115
-46.935238,2.8268158,2.627564
-47.44259,2.8843756,2.8001003
-47.785995,2.8745391,2.8151913
-48.128967,2.8665469,2.8341699
-48.48008,2.858934,2.854868
-48.75783,2.8653426,2.897338
-48.94065,2.8886664,2.9653878
-49.012623,2.9306493,3.061008
-50.076862,2.8159971,2.9324374
-50.106834,2.8676975,3.0441976
-50.11283,2.9230046,3.1610856
-50.551926,2.9133427,3.1873145
-51.00218,2.9042919,3.2160997
-51.428627,2.9009733,3.2545123
-52.07628,2.8685737,3.2553086
-52.548523,2.8638442,3.2958164
-53.201645,2.8369675,3.3090367
-53.861435,2.8125904,3.3283482
-54.527847,2.7907622,3.353859
-3.770956,2.5700336,2.7273755
-4.53986,2.59872,2.7159495
-5.3310947,2.6344035,2.7173443
-6.0822315,2.6687317,2.719716
-6.773945,2.6986833,2.7184744
-7.465557,2.732237,2.7249432
-8.151175,2.768549,2.737883
-8.934179,2.8229012,2.7799501
-9.582405,2.8610811,2.8004637
-9.855581,2.8450143,2.7413483
-9.911356,2.7962196,2.6333985
-9.963015,2.7468572,2.5247087
-9.954046,2.6877146,2.4010787
-9.7861,2.5433397,2.112917
-9.791637,2.4853544,1.9906216
-9.810434,2.4294496,1.8715639
-10.040192,2.2924569,1.5635748
-10.064861,2.237505,1.44629
-10.054592,2.1758244,1.3181372
-10.038742,2.112722,1.1875858
-9.996738,2.0441363,1.0479851
-10.050322,1.9938831,0.93824387
-10.266939,1.9763567,0.8824258
-10.044262,1.8703446,0.68096495
-10.07522,1.8150916,0.5630269
-10.072752,1.7526822,0.4331951
-18.080564,3.1667893,2.6764402
-17.994896,3.1076758,2.561195
-17.8535,2.9538302,2.2545562
-18.139477,2.9841194,2.2930107
-18.099255,2.933973,2.1927037
-17.986946,2.864909,2.0594091
-18.88708,3.056378,2.3794827
-18.999092,3.0473986,2.3515935
-19.325356,3.0957336,2.424182
-19.521786,3.111175,2.4397454
-19.600143,3.095589,2.4011555
-19.997322,3.1681492,2.5179458
-19.94601,3.1180575,2.4190311
-19.694502,3.0107481,2.2187715
-20.934235,3.3282213,2.7708273
-20.897491,3.2843666,2.6836724
-21.101807,3.3107333,2.7213573
-21.15222,3.292603,2.6800895
-21.294806,3.3023114,2.6886072
-21.33002,3.2801144,2.640285
-21.548082,3.3142848,2.693029
-21.616053,3.3029923,2.6645303
-21.674011,3.2887847,2.630887
-21.858192,3.3151057,2.6703324
-21.900917,3.2968004,2.6295667
-22.076405,3.3220315,2.6675305
-22.098425,3.2974997,2.6157112
-22.273623,3.3242393,2.656848
-22.30806,3.304319,2.6135592
-22.496693,3.3373547,2.666586
-22.530222,3.3177302,2.6240363
-22.704481,3.3475866,2.6717348
-22.72188,3.3227768,2.6199012
-22.865284,3.3431883,2.650744
-22.922764,3.3332129,2.6261778
-22.951763,3.3129303,2.58279
-23.149076,3.3553612,2.65452
-23.178688,3.3359323,2.6128845
-23.317959,3.3583128,2.648193
-23.355404,3.3422997,2.6129837
-23.423233,3.3381767,2.5997376
-23.527142,3.3486109,2.613451
-23.558619,3.3307161,2.5749454
-23.642162,3.3338463,2.575369
-23.747406,3.346309,2.5931864
-23.779034,3.328962,2.55587
-23.881393,3.3411994,2.5734935
-23.973557,3.3497682,2.584435
-23.992651,3.3275843,2.5382953
-24.117584,3.3511205,2.5772824
-24.177204,3.3469152,2.5647383
-24.198849,3.3261116,2.5212975
-24.343353,3.3603034,2.5805502
-24.393839,3.352949,2.5623527
-24.479445,3.3618867,2.5746813
-24.53688,3.3582742,2.5636187
-24.597782,3.3565338,2.5561242
-24.620583,3.3369577,2.5152469
-24.709436,3.3490195,2.5337625
-24.806839,3.3658438,2.5613313
-24.81323,3.3385637,2.5060997
-24.891493,3.3467553,2.5175939
-24.970743,3.3559465,2.5310597
-24.99884,3.3395743,2.4964437
-25.060154,3.3402538,2.4940014
-25.168034,3.3655581,2.5380955
-25.227352,3.3661087,2.5355687
-25.234486,3.3390715,2.4809628
-25.321957,3.355129,2.5078473
-25.396523,3.3647954,2.522735
-25.43266,3.3536942,2.4983726
-25.480465,3.349147,2.4864573
-25.570805,3.3688943,2.5206575
-25.628962,3.370922,2.5213342
-25.641254,3.3466256,2.4720807
-25.703102,3.3511474,2.4775777
-25.76654,3.3569984,2.485663
-25.832134,3.3645601,2.497064
-25.864048,3.3520284,2.470285
-25.916613,3.3522005,2.467721
-25.968445,3.3521805,2.4648385
-26.036716,3.362823,2.4823327
-26.072311,3.3530488,2.4609442
-26.122002,3.3524284,2.4570541
-26.207338,3.37547,2.4983969
-26.23935,3.3638604,2.4736166
-26.267014,3.3492723,2.4431615
-26.308422,3.3439379,2.4304214
-26.400497,3.373743,2.4849596
-26.455822,3.3788276,2.4922638
-26.478668,3.3612382,2.456183
-26.529467,3.3635182,2.458189
-26.56669,3.3562105,2.441855
-26.636377,3.3729033,2.4715867
-26.674501,3.3666701,2.457386
-26.714243,3.3617275,2.445691
-26.728771,3.3375065,2.396994
-26.79788,3.3553662,2.4291573
-26.84118,3.3535695,2.4235973
-26.880932,3.3491082,2.4129457
-26.91971,3.3439598,2.4009995
-26.945333,3.3280606,2.3683877
-27.049086,3.377167,2.4609566
-27.072578,3.3599336,2.4258442
-27.099745,3.3455744,2.396277
-27.143543,3.3455172,2.3942919
-27.201563,3.3582535,2.4170113
-27.25185,3.3646455,2.4275417
-27.282944,3.3539565,2.40515
-27.313787,3.3429265,2.3821163
-27.35539,3.341878,2.3783731
-27.428635,3.371183,2.4332967
-27.470999,3.3717082,2.4326725
-27.505648,3.3648682,2.4178424
-27.532043,3.349769,2.387064
-27.56412,3.3401573,2.3669076
-27.6236,3.3587282,2.4012985
-27.678896,3.373728,2.4288287
-27.711185,3.3648927,2.4102597
-27.731169,3.342612,2.3656712
-27.775858,3.3470304,2.3728037
-27.852127,3.3872511,2.449337
-27.887754,3.3826666,2.439104
-27.920132,3.3743384,2.4216342
-27.929905,3.339162,2.3521204
-27.978584,3.3497784,2.3714185
-28.029009,3.3631294,2.396058
-28.091045,3.391703,2.4502764
-28.122828,3.3830082,2.4322076
-28.137825,3.3523636,2.371541
-28.181997,3.359353,2.3839545
-28.221428,3.3604102,2.3848758
-28.261398,3.362449,2.3877296
-28.318878,3.389407,2.439032
-28.348576,3.377771,2.415369
-28.38686,3.3784263,2.4156156
-28.420692,3.3726275,2.403337
-28.47606,3.39978,2.4551587
-28.507694,3.391133,2.4373899
-28.546906,3.3944309,2.4428763
-28.572037,3.3749433,2.4040504
-28.608913,3.3744612,2.4022207
-28.66241,3.4027896,2.4564958
-28.70058,3.405646,2.4612207
-28.73716,3.4059525,2.4610038
-28.767723,3.3952684,2.439405
-28.794111,3.3762133,2.4015164
-28.829578,3.3741076,2.396658
-28.876305,3.3948095,2.436256
-28.91192,3.39381,2.4335995
-28.936052,3.368349,2.3832908
-28.97278,3.3692975,2.3844657
-29.007872,3.3667645,2.3788757
-29.043566,3.3656664,2.3761039
-29.080547,3.3678012,2.3796558
-29.124754,3.3884442,2.419322
-29.162506,3.3939435,2.4294834
-29.189096,3.369857,2.381959
-29.223839,3.3669827,2.3758245
-29.259865,3.3678017,2.376916
-29.30251,3.389015,2.417818
-29.33702,3.3864303,2.412312
-29.371437,3.383482,2.406115
-29.403048,3.3706746,2.3806958
-29.437828,3.3683467,2.3757477
-29.476774,3.3819559,2.4019265
-29.515554,3.3965812,2.4301114
-29.5517,3.4017959,2.4399486
-29.58679,3.403024,2.4420242
-29.6179,3.3852818,2.4070811
-29.651655,3.3789644,2.3944602
-29.68914,3.3927205,2.4210553
-29.724585,3.3965805,2.428347
-29.758738,3.3928032,2.4207454
-29.794867,3.4027588,2.4399815
-29.827988,3.39097,2.4167705
-29.861668,3.381539,2.3981829
-29.896706,3.3835747,2.402009
-29.933064,3.4020948,2.4380517
-29.967398,3.3993037,2.4324903
-30.002348,3.4061685,2.445807
-30.035442,3.3753068,2.3854532
-30.070353,3.3768795,2.3884716
-30.105326,3.3849223,2.4041471
-30.140085,3.3944218,2.422688
-30.174654,3.3971748,2.42807
-30.209106,3.4018393,2.437204
-30.245005,3.3637617,2.3628693
-30.27999,3.3645065,2.364386
-30.314693,3.3694406,2.374105
-30.348673,3.3822057,2.399139
-30.383305,3.3841274,2.4030104
-30.41808,3.3843157,2.4035177
-30.452375,3.3886902,2.4122186
-30.487873,3.3831425,2.4015613
-30.522017,3.388149,2.4115338
-30.555319,3.3977869,2.4305716
-30.589075,3.403417,2.4418
-30.624794,3.3977768,2.4310389
-30.66266,3.3822434,2.4009824
-30.696918,3.385874,2.4083648
-30.731401,3.388231,2.4132795
-30.763342,3.4011004,2.438735
-30.798965,3.398192,2.4334064
-30.836617,3.388135,2.4141479
-30.87557,3.374565,2.3880544
-30.90907,3.380994,2.4010153
-30.944084,3.3820865,2.4035792
-30.977932,3.38688,2.413384
-31.014244,3.384092,2.4084163
-31.048773,3.3868082,2.414207
-31.086843,3.3797104,2.400875
-31.122934,3.378565,2.3991752
-31.155231,3.3873997,2.4169583
-31.189857,3.390027,2.422655
-31.224632,3.3922951,2.427671
-31.263052,3.3861456,2.416296
-31.303064,3.3769734,2.3990526
-31.339457,3.3764074,2.3986077
-31.371675,3.3848634,2.4157677
-31.404139,3.3925045,2.4313555
-31.438444,3.3962169,2.4393072
-31.479565,3.3866801,2.4214692
-31.5231,3.373272,2.3961177
-31.556908,3.3786185,2.4073186
-31.587154,3.3902476,2.43077
-31.619411,3.3979638,2.4466186
-31.659275,3.3925147,2.4368596
-31.696947,3.3911488,2.4350739
-31.738222,3.3841677,2.4223843
-31.774477,3.3856573,2.4262018
-31.80085,3.4025967,2.4600902
-31.837494,3.40338,2.4625716
-31.87652,3.400766,2.4584713
-31.920773,3.390847,2.4401956
-31.96412,3.3828096,2.4256086
-31.993082,3.3953424,2.4510198
-32.032883,3.3927453,2.447053
-32.066666,3.3984942,2.459322
-32.112206,3.388765,2.4415565
-32.15371,3.3847911,2.4349952
-32.19572,3.3805113,2.4278698
-32.218502,3.4004238,2.4677153
-32.255962,3.4019237,2.471848
-32.29452,3.4022446,2.4737191
-32.344048,3.3898664,2.450993
-32.38511,3.3878803,2.4484487
-32.419533,3.3936684,2.4609985
-32.443214,3.41142,2.496746
-32.48697,3.406779,2.4891305
-32.540726,3.3917222,2.4613795
-32.58024,3.3924356,2.4641995
-32.61698,3.3962042,2.472958
-32.65125,3.4025881,2.4867997
-32.687077,3.407388,2.4975982
-32.740498,3.394774,2.474752
-32.786247,3.3902476,2.4675817
-32.82659,3.3912604,2.4711485
-32.860874,3.3981826,2.4861574
-32.89815,3.402306,2.4957824
-32.956444,3.3871999,2.4683166
-32.996643,3.389124,2.4737606
-33.031372,3.3960745,2.4889278
-33.060436,3.4080093,2.5137281
-33.10148,3.4094324,2.5182834
-33.181515,3.3777366,2.4590578
-33.219254,3.3827426,2.4705963
-33.25113,3.3926885,2.491671
-33.28234,3.4031117,2.5136838
-33.326275,3.4031973,2.5158262
-33.385853,3.3910472,2.4944768
-33.441795,3.3823001,2.479721
-33.471943,3.3939755,2.5042524
-33.507576,3.4013708,2.5205793
-33.553047,3.4013774,2.5227485
-33.59228,3.4062414,2.5342731
-33.64642,3.4002674,2.5250406
-33.701355,3.394095,2.5154762
-33.753845,3.39006,2.5100565
-33.786255,3.4005258,2.532455
-33.83012,3.4029741,2.5395246
-33.888,3.3959568,2.5285196
-33.956894,3.3818793,2.504068
-33.975067,3.402381,2.5457778
-34.015198,3.4080768,2.5592046
-34.059925,3.4108653,2.56711
-34.156666,3.3802629,2.5113325
-34.170116,3.403738,2.558804
-34.213356,3.4081326,2.5698981
-34.253006,3.4148953,2.5855403
-34.312523,3.409543,2.5781455
-34.33579,3.4265587,2.6133738
-46.536865,1.8123796,0.23924732
-46.565018,1.8601494,0.34037304
-46.558327,1.9163465,0.4560504
-46.541683,1.9745708,0.5751424
-46.50959,2.0360515,0.6997309
-46.559685,2.0775104,0.7899146
-46.560158,2.13056,0.89994144
-46.567947,2.181602,1.0064974
-46.63241,2.2194948,1.0907121
-46.53802,2.2930865,1.2353907
-46.5946,2.332419,1.3220401
-46.565063,2.3905656,1.4403777
-46.53176,2.4490426,1.5591369
-46.623226,2.4806287,1.6329088
-46.58824,2.5388632,1.7511435
-46.56434,2.59433,1.8646493
-46.6718,2.6228032,1.9335308
-46.713593,2.6647534,2.0247793
-47.18251,2.6228683,1.979001
-47.62368,2.5889163,1.9473877
-46.91334,2.7764344,2.275931
-47.046135,2.801562,2.3403978
-46.964363,2.8667831,2.4695702
-47.282356,2.9593053,2.6922016
-47.46,2.9785686,2.748752
-48.368187,2.874692,2.613306
-48.659782,2.8786802,2.6482892
-48.91526,2.8900416,2.6955385
-49.029846,2.9253345,2.7802835
-50.076042,2.8136923,2.6414146
-50.098022,2.8668876,2.7554774
-50.126923,2.918929,2.8678236
-50.52107,2.9162402,2.8986096
-50.937866,2.9122255,2.9287724
-51.444237,2.897426,2.944559
-51.979412,2.8811703,2.9600272
-52.488068,2.8713512,2.9867105
-53.024536,2.8603644,3.0136037
-53.767197,2.8247056,3.0076594
-54.44361,2.8015518,3.0220752
-6.5291977,2.7947106,2.6067777
-7.28146,2.8322568,2.6262956
-7.9220066,2.8581429,2.6300812
-8.663004,2.901705,2.6633964
-9.288649,2.9324222,2.6787453
-9.735828,2.9399848,2.659299
-9.86974,2.9025335,2.5694723
-9.916685,2.8522353,2.459412
-9.952852,2.8002853,2.346776
-9.969685,2.7452226,2.2291493
-9.804201,2.483648,1.6903172
-9.926142,2.4454353,1.6003456
-10.037165,2.4057338,1.5081539
-10.060904,2.3507066,1.3905196
-10.012983,2.2824318,1.2506108
-10.024464,2.2246277,1.1282139
-10.058411,2.1708417,1.0126014
-10.018347,2.1027594,0.87269163
-10.034487,2.0450835,0.7504039
-10.045019,1.9860816,0.6258278
-10.07041,1.929812,0.50591755
-18.132402,3.2877045,2.742835
-18.060238,3.2330227,2.6339893
-18.081604,3.1990876,2.5615854
-18.031166,3.1483607,2.4594727
