x,y,z
-29.933111,2.2732534,2.9012127
-29.967833,2.2708485,2.8977747
-30.002697,2.2710557,2.8976326
-30.037342,2.2644138,2.889152
-30.072285,2.2660615,2.8909488
-30.10693,2.245086,2.8650117
-30.141941,2.2115803,2.823751
-30.18313,1.4039986,1.8307586
-23.255112,1.2978389,2.8189478
-23.379402,1.3392286,2.8393717
-23.452877,1.3465774,2.8264232
-23.562508,1.3794954,2.8394547
-23.66166,1.4059112,2.8464756
-23.749088,1.4247482,2.8463054
-23.890741,1.483038,2.88662
-23.900661,1.4473805,2.8318362
-23.975426,1.4586306,2.8250365
-24.071272,1.4858742,2.8350067
-24.14683,1.4987702,2.8306203
-24.211283,1.5037961,2.8184133
-24.294498,1.5233905,2.8216166
-24.373333,1.5402334,2.8223228
-24.457844,1.5620236,2.8285565
-24.528065,1.5732946,2.8241124
-24.598717,1.5853496,2.8207893
-24.699154,1.6216097,2.843379
-24.823574,1.6781292,2.8879418
-24.912233,1.7069101,2.9035559
-24.954977,1.6987505,2.8800883
-25.002272,1.694406,2.8608484
-25.083014,1.7182295,2.872067
-25.15455,1.7349498,2.8759723
-25.213964,1.741837,2.8695345
-25.356468,1.8209527,2.9417171
-25.347628,1.7696226,2.872593
-25.381554,1.7551816,2.8435926
-25.439804,1.7623479,2.8383355
-25.50627,1.7772751,2.8418183
-25.566507,1.7870376,2.83988
-25.628895,1.7991858,2.840804
-25.69337,1.8137379,2.8446298
-25.753506,1.8247077,2.8447304
-25.810541,1.8331561,2.8422537
-25.875938,1.8500345,2.84939
-25.929146,1.855602,2.844132
-25.98838,1.8674169,2.8460655
-26.039604,1.8717008,2.8397584
-26.26344,2.0502512,3.0299144
-26.348877,2.0920029,3.066719
-26.39897,2.0984397,3.063923
-26.454803,2.1111894,3.0684624
-26.505608,2.1190975,3.0677013
-26.549412,2.1198802,3.0590024
-26.612938,2.1421828,3.0750098
-26.655945,2.1427257,3.066368
-26.726969,2.174496,3.0936613
-26.766582,2.1719756,3.0818443
-26.81171,2.1758199,3.0774703
-26.859215,2.1826537,3.076692
-26.905586,2.1885035,3.074934
-26.954247,2.1973615,3.0768108
-27.002718,2.206382,3.0790405
-27.048626,2.2126932,3.0782824
-27.093922,2.2185767,3.0771766
-27.141865,2.2280655,3.080421
-27.183647,2.2302012,3.075232
-27.226267,2.233622,3.0716739
-27.270144,2.2389154,3.0704432
-27.314781,2.2455091,3.0708756
-27.358395,2.2510793,3.0702462
-27.401016,2.25562,3.0685372
-27.444809,2.2620451,3.0691833
-27.4893,2.26978,3.0715127
-27.531128,2.2741354,3.069981
-27.57367,2.2797937,3.0701184
-27.613245,2.281461,3.0656476
-27.651964,2.282065,3.0600252
-27.68631,2.27628,3.0469046
-27.714512,2.2611127,3.0226831
-27.736448,2.2359238,2.9865532
-27.753532,2.2024438,2.940534
-27.770468,2.1677747,2.8930922
-27.797564,2.148596,2.8642178
-27.837645,2.1503546,2.8605204
-27.87945,2.1552167,2.8606648
-27.921143,2.160202,2.8610778
-27.964787,2.1689079,2.8660903
-28.007229,2.175946,2.8692203
-28.045513,2.1758966,2.863913
-28.085743,2.1795652,2.8632035
-28.12782,2.1869676,2.8671231
-28.167835,2.1908727,2.8669252
-28.228926,2.2360036,2.9168339
-28.278147,2.2595634,2.9407673
-28.316109,2.2614658,2.938538
-27.864212,1.2535765,1.7080832
-27.901117,1.2325673,1.6769724
-27.918583,1.1690478,1.5941257
-27.916418,1.0598218,1.455502
-28.053421,1.2584302,1.6926136
-28.265099,1.6377196,2.1510715
-28.294573,1.6066475,2.1085386
-28.322067,1.5695038,2.0586195
-28.321396,1.4613485,1.9217391
-28.260078,1.1948996,1.5906806
-28.236002,1.0115027,1.3611336
-28.283829,1.0097153,1.3543715
-28.342268,1.0369561,1.3833971
-28.384792,1.0212913,1.3598304
-28.433153,1.021743,1.3561893
-28.479404,1.0161579,1.3452353
-28.530396,1.0248845,1.352025
-28.579237,1.0275762,1.3515077
-28.629345,1.0347264,1.3566117
-28.706282,1.1323318,1.4735079
-28.752007,1.1286805,1.465591
-28.799515,1.1313424,1.4655848
-29.161543,2.3003082,2.9078054
-29.199171,2.30898,2.9162097
-29.23709,2.3196177,2.927145
-29.271355,2.316074,2.9206161
-29.298634,2.2821598,2.876544
-29.333988,2.2818825,2.87421
-29.368942,2.2798305,2.8697605
-29.404682,2.2816038,2.8701396
-29.4405,2.284094,2.8714957
-29.47649,2.2879248,2.8746028
-29.51229,2.2912269,2.877142
-29.547916,2.2939997,2.8791094
-29.583387,2.2962413,2.880505
-29.618538,2.2967029,2.8797722
-29.654009,2.2997534,2.8823433
-29.689417,2.3028965,2.8851137
-29.724396,2.3030078,2.8842
-29.7597,2.3063343,2.8873696
-29.79518,2.3122537,2.8938508
-29.829939,2.3113866,2.8919702
-29.864758,2.3112347,2.8910618
-29.899618,2.3117974,2.891128
-29.934278,2.3093214,2.8874922
-29.969015,2.30756,2.884828
-30.003883,2.3083913,2.885476
-30.03877,2.310565,2.8878775
-30.073416,2.3034375,2.878777
-30.108055,2.284504,2.8550563
-30.143015,2.2481296,2.8096929
-30.182137,1.7366703,2.1726842
-23.187086,1.3500669,2.8127217
-23.316942,1.3938665,2.8361263
-23.402798,1.4090006,2.8311872
-23.482637,1.4205663,2.823019
-23.529465,1.4098625,2.7924862
-23.708965,1.4914491,2.8566866
-23.76377,1.4873087,2.833623
-23.869743,1.5195909,2.8483958
-23.927097,1.5179467,2.8284903
-24.026665,1.546999,2.8407688
-24.105072,1.5614142,2.8382163
-24.182516,1.575634,2.8358016
-24.244057,1.5785346,2.821807
-24.315643,1.5892613,2.8163266
-24.498383,1.6847076,2.900999
-24.576141,1.7018778,2.9032912
-24.604567,1.6814549,2.8657727
-24.648438,1.6729031,2.841033
-24.738813,1.7010853,2.8559332
-24.83516,1.7348089,2.8772116
-24.903816,1.7471402,2.8757749
-24.965185,1.7540057,2.8686843
-25.04737,1.7783229,2.8808389
-25.111431,1.7883027,2.8776846
-25.145834,1.7738252,2.8479848
-25.266909,1.8326838,2.8989687
-25.35852,1.8677545,2.9242969
-25.38453,1.8470042,2.8883219
-25.418165,1.8326774,2.8595114
-25.47012,1.834429,2.848661
-25.523802,1.8379598,2.8399744
-25.596992,1.8593729,2.8514686
-25.653856,1.8665457,2.8472977
-25.713482,1.8766136,2.8465886
-25.774632,1.8885181,2.8481703
-25.832659,1.8979306,2.847167
-25.895046,1.9119,2.8515348
-25.950363,1.9195521,2.8489685
-26.008312,1.9301298,2.8499274
-26.067705,1.9425566,2.8532066
-26.296461,2.124478,3.0504289
-26.350544,2.1344564,3.0517783
-26.390894,2.1308136,3.037681
-26.43717,2.1333807,3.0308523
-26.481775,2.134432,3.0224257
-26.523172,2.132285,3.0104456
-26.595829,2.163734,3.0374994
-26.6586,2.1854012,3.0534868
-26.739334,2.2274806,3.0934477
-26.78337,2.2299962,3.0876317
-26.82933,2.2349033,3.0847483
-26.876656,2.2416523,3.084168
-26.9253,2.2502546,3.0859146
-26.969875,2.2544837,3.0826883
-27.017702,2.2628314,3.084446
-27.068195,2.2747545,3.0905766
-27.113745,2.2811437,3.090342
-27.156826,2.2848203,3.0870442
-27.20073,2.2897782,3.0853972
-27.245872,2.2965965,3.086094
-27.28817,2.300108,3.0830016
-27.333921,2.3083615,3.0856843
-27.37555,2.311565,3.0824862
-27.417091,2.3148956,3.079566
-27.458544,2.3183527,3.0769186
-27.502438,2.3254218,3.0787225
-27.544088,2.329719,3.077334
-27.583988,2.3318117,3.073419
-27.62504,2.3357744,3.0718694
-27.66319,2.335766,3.0656524
-27.696182,2.3282466,3.0504751
-27.723835,2.3125887,3.0255427
-27.738316,2.276401,2.9758186
-27.758368,2.2478604,2.9353485
-27.77445,2.2122524,2.8863182
-27.807709,2.2032375,2.8695898
-27.849434,2.2079194,2.8695993
-27.893185,2.216283,2.874209
-27.934649,2.2212176,2.8747654
-27.97358,2.222112,2.8705058
-28.015188,2.2278805,2.8723083
-28.059338,2.2385442,2.8802142
-28.099977,2.243371,2.881102
-28.139858,2.2471204,2.8807788
-28.18155,2.2545786,2.8851166
-28.236788,2.288551,2.9221501
-28.27821,2.2968926,2.9278383
-28.314648,2.295735,2.9219475
-27.856466,1.2836957,1.6703529
-27.894077,1.2639923,1.6405916
-27.918156,1.2147915,1.5744858
-27.962845,1.2085097,1.561429
-28.079102,1.3614681,1.7454419
-28.264538,1.6790588,2.1337056
-28.29894,1.6597118,2.1052804
-28.320705,1.609477,2.0386224
-28.335194,1.5391951,1.9470944
-28.33471,1.4281247,1.8048806
-28.218637,1.0148971,1.2870188
-28.268723,1.0179186,1.2862444
-28.31647,1.0149751,1.2781715
-28.370626,1.0298672,1.2924294
-28.412064,1.0094609,1.2628365
-28.464907,1.021575,1.2738872
-28.513247,1.0209789,1.2692161
-28.55981,1.0149951,1.2579312
-28.611046,1.0238502,1.2652974
-28.708313,1.1863093,1.4648371
-28.758423,1.1980214,1.4761434
-28.821972,1.2584393,1.5485406
-29.16305,2.344004,2.9048939
-29.198322,2.3439744,2.902577
-29.240427,2.371143,2.9344363
-29.271376,2.3546724,2.911684
-29.302486,2.337655,2.8883114
-29.338184,2.339842,2.8891096
-29.37304,2.3384178,2.885458
-29.408413,2.339555,2.885106
-29.443878,2.341403,2.8857312
-29.479527,2.344581,2.888114
-29.514782,2.3459961,2.8883657
-29.550102,2.3481224,2.8895946
-29.58528,2.3497217,2.890246
-29.620508,2.3520324,2.8918738
-29.655602,2.3538146,2.892921
-29.690731,2.3563082,2.8949475
-29.725807,2.3588936,2.8971715
-29.76083,2.3615704,2.8995929
-29.795916,2.3655777,2.9037757
-29.830372,2.3634715,2.9003344
-29.86501,2.363315,2.8994336
-29.899904,2.3669734,2.9034204
-29.934614,2.3688593,2.9052553
-29.969162,2.36835,2.9041514
-30.00354,2.3635817,2.8977566
-30.038044,2.3601437,2.8931203
-30.072483,2.3505812,2.8808403
-30.106989,2.331168,2.856215
-30.141823,2.2894764,2.8035722
-30.181147,1.7694893,2.1477737
-23.094532,1.3775592,2.7950277
-23.245476,1.4337742,2.831396
-23.341022,1.4545758,2.8323593
-23.439077,1.477704,2.8361611
-23.543173,1.5056036,2.8453426
-23.65319,1.5383227,2.8600082
-23.7314,1.5500128,2.8533554
-23.874994,1.6076174,2.8949428
-23.868181,1.5610211,2.8281207
-23.969496,1.5903752,2.8410072
-24.0481,1.6042874,2.8380685
-24.129185,1.6204994,2.8379078
-24.185308,1.6190557,2.8193302
-24.268637,1.6378491,2.8225622
-24.34011,1.6484275,2.817359
-24.498032,1.7243669,2.8827
-24.546478,1.7190022,2.8611379
-24.616861,1.7305572,2.8580537
-24.671856,1.7306564,2.8428202
-24.734665,1.7370808,2.834681
-24.822668,1.7637439,2.8489041
-24.894035,1.7778955,2.8497958
-23.895958,0.9309983,1.9040465
-23.994629,0.9595325,1.9184666
-23.985321,0.9001198,1.8359933
-24.113157,0.9536636,1.8787074
-25.285732,1.8856568,2.8997192
-25.361206,1.9067688,2.910183
-25.374296,1.8750441,2.861813
-25.436625,1.8855057,2.8607721
-25.483624,1.8829651,2.8453317
-25.549816,1.8975563,2.849382
-25.612738,1.9097323,2.850956
-25.673634,1.920538,2.8512115
-25.730204,1.9278159,2.847682
-25.794735,1.9428074,2.8531518
-25.849747,1.949425,2.8492928
-25.908598,1.9600103,2.850175
-25.971188,1.9745939,2.855863
-26.03067,1.9866927,2.8589244
-26.074879,1.9843144,2.8454914
-26.328657,2.1893709,3.0721617
-26.35679,2.1735783,3.0439892
-26.412798,2.1858075,3.0484362
-26.44923,2.1784463,3.0302687
-26.518724,2.2053525,3.0521932
-26.55083,2.1938548,3.029471
-26.562767,2.1608362,2.981604
-26.706999,2.2693505,3.0999184
-26.750496,2.2711186,3.0932693
-26.789877,2.2685611,3.081656
-26.83278,2.270033,3.0749154
-26.88158,2.2783616,3.0764222
-26.92921,2.285731,3.0769515
-26.977161,2.2938206,3.0784922
-27.028297,2.306018,3.0850759
-27.07537,2.3138688,3.0866494
-27.119919,2.3190413,3.085175
-27.162945,2.3226528,3.0819712
-27.205412,2.3258295,3.0783768
-27.24643,2.327428,3.0730143
-27.292326,2.3354342,3.0754766
-27.335827,2.3407269,3.0748138
-27.380514,2.347877,3.0765243
-27.424173,2.3540204,3.077156
-27.466835,2.3591502,3.0766916
-27.505568,2.359221,3.0702243
-27.550112,2.3674948,3.07382
-27.590355,2.3701212,3.0706859
-27.630116,2.3722878,3.0671077
-27.6662,2.3693419,3.0574102
-27.695194,2.3560169,3.03514
-27.721292,2.3380892,3.0073032
-27.734243,2.2997642,2.9545522
-27.756226,2.2742915,2.9175296
-27.772686,2.2394662,2.8690567
-27.814798,2.2445555,2.8696094
-27.85389,2.2450676,2.8646502
-27.894732,2.2486343,2.8635564
-27.935478,2.2523208,2.862722
-27.976131,2.2561264,2.862145
-28.01873,2.2635996,2.866212
-28.060827,2.2706094,2.869824
-28.10178,2.2759652,2.8715043
-28.141315,2.2790647,2.8705015
-28.185852,2.291796,2.8815536
-28.238552,2.320753,2.9128895
-28.277195,2.323641,2.9119792
-27.83365,1.369081,1.7195568
-27.901903,1.4128292,1.7686167
-27.951355,1.419683,1.7718925
-28.001783,1.4290793,1.778471
-28.044783,1.4230139,1.7658725
-28.102844,1.4501152,1.7948399
-28.265896,1.715687,2.122374
-28.303646,1.7042706,2.1036901
-28.332157,1.6706312,2.0572362
-28.336119,1.5760589,1.9343929
-28.216248,1.1695604,1.4199247
-28.740604,2.3824463,2.9390664
-28.777037,2.3843184,2.9381604
-28.311543,1.0406194,1.2446337
-28.359886,1.0389893,1.2383409
-28.400091,1.0144093,1.2032533
-28.445753,1.004503,1.1867409
-28.49564,1.0068765,1.1858172
-28.538567,0.9880729,1.1582899
-28.632664,1.1314626,1.3356662
-28.711391,1.233738,1.4614191
-28.76571,1.2600052,1.4913373
-28.824886,1.3053682,1.5455551
-28.874624,1.319746,1.5607285
-28.911776,1.2877789,1.5173497
-29.244226,2.4132738,2.9402504
-29.269032,2.372406,2.8864007
-29.304117,2.372025,2.8839202
-29.338787,2.3698957,2.8793035
-29.374413,2.372151,2.8803306
-29.40948,2.3720434,2.8784423
-29.44538,2.3763268,2.8822122
-29.480503,2.3770187,2.881505
-29.515495,2.3771873,2.8802152
-29.550884,2.3799064,2.8822494
-29.585926,2.3808725,2.8821368
-29.621212,2.383776,2.8845696
-29.65635,2.3861558,2.8864212
-29.691198,2.3867798,2.886118
-29.726173,2.3887265,2.8875794
-29.760973,2.3895307,2.8876677
-29.796177,2.39474,2.893447
-29.830944,2.3963425,2.894713
-29.86558,2.3968005,2.8946028
-29.900028,2.39488,2.8915424
-29.934475,2.3924313,2.887888
-29.968933,2.389453,2.8836384
-30.003496,2.3877976,2.8811526
-30.038221,2.3905518,2.8843656
-30.072735,2.3859882,2.8783326
-30.107182,2.3685498,2.8559709
-30.14189,2.3160133,2.7889585
-30.183062,1.5431709,1.8040519
-42.010525,0.20387125,2.6805754
-43.688263,0.54619646,3.9596138
-23.163818,1.475508,2.8168807
-23.264133,1.498404,2.8202624
-23.363297,1.5212421,2.8240557
-23.48734,1.5612292,2.8462038
-23.57042,1.5748763,2.8413653
-23.698261,1.6192117,2.8691769
-23.759926,1.6196086,2.8512092
-23.861824,1.6479013,2.8630652
-23.92597,1.6507945,2.848359
-23.996311,1.6583252,2.8388667
-24.071344,1.669559,2.8336368
-24.146833,1.681576,2.8295689
-24.209047,1.6844909,2.8159862
-24.32228,1.7248473,2.8432388
-24.430712,1.7627022,2.8682942
-24.477892,1.7560463,2.8452568
-24.556564,1.7731066,2.8483567
-24.910137,1.8774636,2.9041
-23.92712,0.95893836,1.8335004
-25.210018,1.9504693,2.9305978
-25.273235,1.9605422,2.9287696
-25.362434,1.9926057,2.9520283
-25.349476,1.9398174,2.879531
-25.3872,1.9290905,2.854659
-25.439098,1.9304898,2.843707
-25.504858,1.9441226,2.846908
-25.56913,1.9569488,2.8494353
-25.629557,1.9668481,2.8488426
-25.685627,1.9732621,2.8444605
-25.747408,1.9851761,2.846624
-25.810678,1.9989109,2.8511214
-25.871353,2.0107448,2.8536477
-25.932346,2.0233324,2.8572717
-25.983435,2.0270224,2.850748
-26.038914,2.0351858,2.8496213
-26.13433,2.082371,2.8943686
-26.337112,2.2359338,3.0643291
-26.379393,2.234311,3.0527415
-26.386406,2.1974885,2.9998002
-26.488121,2.2559757,3.059371
-26.537605,2.2624512,3.0578117
-26.56531,2.2466395,3.0299845
-26.626707,2.2660196,3.0440316
-26.71151,2.310943,3.0887165
-26.754467,2.312079,3.0814977
-26.800917,2.317221,3.0791984
-26.85226,2.3280578,3.0838661
-26.900387,2.3357375,3.084917
-26.947845,2.3430207,3.0856466
-26.99465,2.3499029,3.0860453
-27.036959,2.3519046,3.0807037
-27.079676,2.3545985,3.0763235
-27.125135,2.3607962,3.0763125
-27.166254,2.3620734,3.070476
-27.211924,2.369118,3.0717626
-27.259706,2.3791366,3.0768085
-27.30187,2.3825152,3.0739145
-27.348831,2.392269,3.0789242
-27.389868,2.3947828,3.0752306
-27.43343,2.4008412,3.075993
-27.474276,2.4036107,3.0728526
-27.516735,2.408792,3.0727916
-27.555721,2.4095192,3.0673752
-27.59673,2.4132323,3.0657434
-27.636417,2.4153438,3.062252
-27.670012,2.4089277,3.0483398
-27.698551,2.3950913,3.0253353
-27.723808,2.3761103,2.9960146
-27.735918,2.3368945,2.9416494
-27.751781,2.3022969,2.8929935
-27.780994,2.287458,2.8688898
-27.819311,2.2866557,2.8623095
-27.863789,2.295875,2.8683128
-27.905561,2.3011441,2.8695154
-27.945095,2.303027,2.8666053
-27.986992,2.3091252,2.8690686
-28.028746,2.3153486,2.8718033
-28.065998,2.3140562,2.8652363
-28.105886,2.3175743,2.8647952
-28.147305,2.3241541,2.8683038
-28.192709,2.3385308,2.881722
-28.247194,2.3707817,2.917759
-28.286303,2.3748136,2.9184327
-27.836308,1.4171202,1.706965
-27.899822,1.4509878,1.7443566
-27.950481,1.460115,1.7506971
-27.996107,1.4592772,1.7445774
-28.055088,1.4871521,1.7748919
-28.094963,1.4746683,1.7542791
-28.266943,1.7572024,2.107582
-28.303356,1.7428522,2.0850759
-28.331339,1.708241,2.0369296
-28.336246,1.616765,1.9165931
-28.161182,1.0784807,1.22825
-28.192944,1.034414,1.1676698
-28.77938,2.4228427,2.9305825
-28.81616,2.4259803,2.931469
-28.851318,2.4250047,2.9272017
-28.384987,1.0176888,1.1292543
-28.43314,1.0138175,1.1203232
-28.481548,1.0106747,1.1124334
-28.52901,1.0046358,1.1009545
-28.648563,1.2260754,1.3804288
-28.716469,1.2936842,1.4635425
-28.772617,1.3263965,1.5021915
-28.82742,1.3568559,1.5381088
-28.878923,1.3777747,1.5619483
-29.20117,2.4142628,2.8877735
-29.24071,2.4313042,2.9075089
-29.270437,2.4101715,2.878365
-29.30706,2.4164693,2.8844886
-29.341888,2.4155645,2.8814511
-29.377121,2.4165764,2.8809552
-29.412325,2.4176805,2.8806596
-29.447014,2.4164386,2.8774295
-29.48275,2.4207747,2.8814507
-29.518282,2.4245949,2.884893
-29.552807,2.4230156,2.8814688
-29.588516,2.4288528,2.88767
-29.623468,2.4305084,2.8885698
-29.658297,2.4316435,2.8888803
-29.693014,2.4322586,2.888599
-29.727934,2.4347975,2.8908763
-29.762732,2.4368155,2.8925614
-29.797606,2.440147,2.89602
-29.832354,2.4429574,2.8988867
-29.866598,2.4403496,2.8948445
-29.900978,2.4390528,2.892572
-29.935564,2.4409063,2.8944392
-29.970016,2.4410124,2.8941302
-30.004313,2.437531,2.8892722
-30.038733,2.435976,2.8869762
-30.073006,2.4265459,2.8745985
-30.107393,2.4116893,2.8552976
-30.141935,2.338721,2.7611036
-30.183136,1.5607102,1.757401
-41.940155,0.26424646,2.5897808
-42.01468,0.27875543,2.642218
-41.61338,0.66228986,3.1209102
-41.608685,0.7111647,3.200521
-41.765747,0.68602705,3.22079
-41.844246,0.6971667,3.2707624
-41.928658,0.70589423,3.319271
-42.06875,0.6902356,3.3493338
-42.21427,0.672899,3.3789845
-43.032463,0.607141,3.6043477
-43.173607,0.59647655,3.645237
-43.274876,0.6505022,3.7817392
-43.32939,0.67596483,3.84932
-43.434925,0.6811588,3.9036145
-43.55931,0.6793201,3.9539576
-43.708107,0.66846824,3.9992824
-23.106117,1.5321229,2.816905
-23.231722,1.570189,2.8365464
-23.328106,1.5904918,2.8381143
-23.460493,1.6347661,2.8654504
-23.557346,1.6569059,2.8699522
-23.647303,1.6751721,2.8707724
-23.738338,1.6947601,2.8734107
-23.881659,1.7501545,2.9148993
-23.871159,1.702369,2.8458834
-23.945847,1.7123337,2.8391867
-24.021019,1.723072,2.833643
-24.096659,1.7345879,2.8292613
-24.174128,1.7478619,2.8271194
-24.310371,1.8035457,2.8718557
-24.39238,1.821507,2.8756833
-24.422499,1.8023193,2.8387985
-25.187954,2.015818,2.948977
-25.202341,1.9862823,2.902234
-25.271952,2.0012398,2.9063625
-25.358118,2.0303204,2.9269605
-25.376759,2.0041513,2.8843732
-25.392754,1.9754062,2.8388186
-25.481287,2.007773,2.8639235
-25.520105,1.9984186,2.8410206
-25.582504,2.0094945,2.8419752
-25.644062,2.020276,2.8428144
-25.706566,2.0323298,2.845364
-25.774094,2.049343,2.85395
-25.825546,2.0523772,2.8463774
-25.881523,2.0598135,2.8441567
-25.939613,2.069565,2.844861
-25.999756,2.0816503,2.8485265
-26.052317,2.0870228,2.8444514
-26.293901,2.2737682,3.0559525
-26.335665,2.2714055,3.043491
-26.414705,2.3057091,3.0748906
-26.499596,2.3467956,3.114707
-26.523945,2.3282752,3.0834618
-26.57473,2.3363285,3.0841513
-26.61318,2.3320694,3.070201
-26.672596,2.3496914,3.082726
-26.720772,2.3560739,3.0818896
-26.762121,2.3555079,3.0728006
-26.810556,2.3627424,3.0732875
-26.856308,2.367392,3.0707893
-26.904922,2.375495,3.0726342
-26.95138,2.3815517,3.0721407
-26.997202,2.387208,3.0713015
-27.042883,2.393013,3.070785
-27.088898,2.3995218,3.0712714
-27.134285,2.4056242,3.0713987
-27.180923,2.4135473,3.073903
-27.224613,2.4182673,3.072606
-27.267723,2.422565,3.0709167
-27.309368,2.4253123,3.06744
-27.353155,2.4310024,3.0677223
-27.397682,2.4379587,3.069703
-27.437267,2.438841,3.064279
-27.47852,2.4421062,3.0619235
-27.520103,2.4460635,3.0605469
-27.55907,2.446738,3.0551963
-27.59882,2.448666,3.0515137
-27.638096,2.450141,3.0473738
-27.671684,2.443729,3.0334716
-27.699814,2.4293864,3.0097127
-27.722322,2.4064975,2.975284
-27.741383,2.377891,2.933701
-27.751839,2.3354802,2.8747659
-27.787432,2.3305156,2.8629532
-27.82715,2.3319974,2.859352
-27.869358,2.337643,2.8611107
-27.909283,2.3399386,2.8587503
-27.949486,2.34293,2.8573756
-27.9903,2.3472016,2.857727
-28.031687,2.3527563,2.8598127
-28.071262,2.3555193,2.8584657
-28.111088,2.3589807,2.858107
-28.150822,2.3625557,2.8579974
-28.190144,2.36566,2.8573914
-28.25004,2.4075747,2.9063401
-28.30203,2.436202,2.9385362
-28.342886,2.444431,2.9448476
-28.382376,2.4504273,2.9484143
-28.423176,2.4594855,2.955999
-28.460365,2.4615831,2.954783
-28.4908,2.4496036,2.9356222
-28.529913,2.456032,2.940127
-28.564602,2.4530973,2.9327154
-28.609005,2.472193,2.9536777
-28.646366,2.475994,2.9551048
-28.680634,2.4727678,2.9475865
-28.714458,2.4684408,2.9387288
-28.749777,2.467773,2.9346604
-28.78323,2.4624302,2.9246488
-28.820623,2.4673162,2.927905
-28.85437,2.4627492,2.9190512
-28.892921,2.471421,2.9273705
-28.929611,2.4754157,2.9297423
-28.96397,2.4729223,2.923812
-29.002905,2.4843054,2.935914
-29.038536,2.4862008,2.935832
-29.069096,2.4719799,2.914956
-29.104599,2.4734526,2.9144802
-29.142149,2.482236,2.9235663
-29.175308,2.476079,2.9133615
-29.209547,2.4736183,2.9080262
-29.244137,2.4724507,2.9044466
-29.274673,2.455091,2.87991
-29.308718,2.4510756,2.872776
-29.3438,2.4513733,2.871325
-29.379528,2.454783,2.8740005
-29.41442,2.4546607,2.8721638
-29.44918,2.4540243,2.8697357
-29.484634,2.4571083,2.8722296
-29.520126,2.460891,2.8757148
-29.554712,2.4599223,2.8730903
-29.589502,2.4602544,2.8722377
-29.624823,2.4643145,2.8763227
-29.659548,2.4648278,2.875864
-29.69457,2.4678578,2.8787642
-29.729527,2.470979,2.8818636
-29.764078,2.4711568,2.8812008
-29.798744,2.4726377,2.8823147
-29.833542,2.47603,2.8860016
-29.86802,2.4764762,2.88592
-29.902182,2.4727576,2.8804789
-29.936638,2.4727726,2.8799872
-29.971088,2.4728763,2.8796878
-30.00541,2.4700296,2.8756118
-30.039839,2.4690945,2.8741088
-30.074127,2.4609535,2.8632698
-30.10849,2.4462123,2.8438888
-30.142899,2.3245647,2.6849566
-30.183605,1.6868782,1.8521314
-41.99154,0.21584511,2.3665414
-41.974598,0.27512717,2.4578624
-41.96016,0.33259678,2.5473523
-41.553413,0.62296367,2.875555
-41.565918,0.6646211,2.9496293
-41.666077,0.66559243,2.9894705
-41.52634,0.77647376,3.1213903
-41.579082,0.79873276,3.1790853
-41.634956,0.8196149,3.2358913
-41.78427,0.79902315,3.259379
-41.86507,0.80940676,3.3086214
-41.95968,0.8140104,3.3537188
-42.083107,0.80649877,3.389843
-42.247917,0.7818191,3.4133759
-42.43419,0.74890614,3.4316382
-42.638557,0.7094135,3.4461164
-42.862038,0.663111,3.4568343
-42.88076,0.7028115,3.5329547
-42.928326,0.7304568,3.6002307
-43.010334,0.7440927,3.6575737
-43.06971,0.767082,3.722094
-43.14041,0.7856271,3.7837906
-43.235138,0.7948296,3.8393831
-43.38297,0.78355217,3.8814936
-43.486515,0.7901778,3.9367385
-43.608055,0.7902651,3.9882903
-43.79866,0.76452684,4.0236797
-44.699787,0.5710218,4.0653415
-44.774445,0.59292746,4.1369457
-23.206074,1.6512909,2.8596144
-23.31136,1.6765046,2.8669033
-23.374405,1.6756952,2.846806
-23.501553,1.7161455,2.8713374
-23.5765,1.7239172,2.861187
-23.636854,1.7225807,2.841476
-23.728722,1.7422209,2.8448305
-23.862247,1.7901847,2.8795366
-23.914833,1.7850084,2.8565974
-23.988596,1.7943294,2.8498054
-24.05935,1.8020186,2.8415127
-24.13201,1.8114202,2.8354068
-24.223137,1.8341341,2.8444061
-24.41076,1.9255309,2.930488
-24.409513,1.8845718,2.8691926
-23.610489,1.2696626,2.162601
-23.632553,1.238709,2.110262
-23.613556,1.1772935,2.0234632
-24.762947,1.9801726,2.917521
-24.847473,2.002994,2.9293022
-24.875036,1.9834545,2.8930497
-24.967516,2.0132911,2.9134173
-25.031544,2.0220146,2.9099154
-23.589176,0.8573055,1.554347
-25.18903,2.0638242,2.931789
-25.205263,2.0359752,2.886691
-25.289371,2.0623124,2.9045663
-25.338554,2.0610452,2.8906093
-25.377787,2.0517843,2.8674736
-25.433163,2.0559268,2.8601532
-25.48108,2.0541086,2.8460217
-25.544155,2.0653052,2.8473725
-25.605177,2.075186,2.8473988
-25.666569,2.085806,2.848517
-25.726538,2.0956113,2.8488884
-25.785107,2.1045914,2.8484898
-25.8423,2.1127367,2.8473
-25.901611,2.1231782,2.8490515
-25.961262,2.1343582,2.8518949
-26.018387,2.1436467,2.852674
-26.071917,2.1499698,2.85008
-26.302965,2.3248277,3.050891
-26.338543,2.3165774,3.031476
-26.362709,2.2972457,2.9987307
-26.455727,2.3451922,3.0476646
-26.52248,2.3683796,3.0668626
-26.567402,2.3703659,3.06047
-26.61225,2.3724964,3.0543914
-26.698925,2.4179018,3.1013818
-26.72972,2.4063737,3.0789342
-26.76994,2.4046707,3.0686193
-26.818798,2.4123216,3.0699244
-26.867981,2.420681,3.0722556
-26.917467,2.4297526,3.0756216
-26.96773,2.440086,3.0807042
-27.01337,2.4456573,3.0800476
-27.057419,2.4497285,3.0776663
-27.099445,2.4517372,3.0728507
-27.144234,2.4571872,3.0724406
-27.18748,2.4611225,3.0702739
-27.231081,2.4657478,3.0690947
-27.274101,2.4699554,3.0675187
-27.31746,2.4748554,3.066934
-27.36381,2.4837966,3.0715456
-27.409075,2.491772,3.0750823
-27.45024,2.494853,3.0725927
-27.491312,2.4980597,3.070376
-27.534412,2.5042038,3.071979
-27.574429,2.5065398,3.0688915
-27.61437,2.508995,3.066064
-27.650152,2.5059147,3.0563288
-27.681536,2.4967005,3.0388985
-27.710285,2.4835887,3.0165834
-27.722809,2.4466577,2.9640207
-27.744513,2.4222362,2.9273744
-27.754478,2.3795805,2.8674946
-27.79375,2.3803277,2.8630009
-27.834457,2.3834777,2.8616796
-27.876528,2.3890412,2.863553
-27.918104,2.3941567,2.8649654
-27.960258,2.400547,2.8681211
-28.000872,2.40476,2.8685946
-28.042057,2.4102464,2.8708105
-28.08311,2.4158554,2.873292
-28.122704,2.4192708,2.873055
-28.160583,2.4199018,2.869329
-28.198742,2.4212193,2.866581
-28.243744,2.4354324,2.8805852
-28.285675,2.4445484,2.8881235
-28.323174,2.4456308,2.885375
-28.360924,2.4474,2.8836079
-28.397161,2.4463534,2.8782816
-28.433968,2.4465747,2.8746853
-28.471584,2.4486537,2.8735886
-28.509956,2.4525967,2.8750057
-28.549835,2.4601722,2.8812408
-28.588497,2.4655113,2.884667
-28.62857,2.4744925,2.8929305
-28.665691,2.4771092,2.8929996
-28.700052,2.4733388,2.8848252
-28.736376,2.474381,2.8830094
-28.772196,2.4743392,2.8798618
-28.80777,2.4738014,2.8761482
-28.847097,2.4834268,2.8858104
-28.87997,2.475973,2.8732147
-28.922611,2.4958963,2.8965435
-28.957712,2.495162,2.8929129
-28.989649,2.4850082,2.8770118
-29.028103,2.4945648,2.8870335
-29.062445,2.491726,2.8808784
-29.098448,2.4943383,2.881958
-29.135258,2.5000296,2.887164
-29.170761,2.5016434,2.8870978
-29.205894,2.5021577,2.8856645
-29.240534,2.5009706,2.882072
-29.275185,2.4998736,2.8786745
-29.310133,2.5000634,2.877048
-29.345621,2.5027397,2.8787751
-29.381842,2.509104,2.8854423
-29.417038,2.511371,2.8867898
-29.45145,2.510131,2.8835926
-29.486454,2.5119803,2.8845453
-29.520975,2.51152,2.8825288
-29.5557,2.5123503,2.8822908
-29.590887,2.5162752,2.8862152
-29.625896,2.5196917,2.8895469
-29.660915,2.523801,2.8938718
-29.695766,2.5274005,2.8976011
-29.730099,2.5274808,2.8967557
-29.764423,2.5276499,2.896103
-29.799046,2.5309174,2.899622
-29.83343,2.532469,2.9009476
-29.867533,2.5310965,2.8984818
-29.901745,2.5310173,2.8978004
-29.936066,2.5328338,2.899701
-29.970034,2.5287116,2.8938198
-30.004105,2.5252788,2.888925
-30.038185,2.520125,2.8818264
-30.072138,2.5048096,2.8613563
-30.106422,2.4919925,2.8442655
-30.140621,2.327325,2.6263208
-30.1813,1.7467308,1.8581038
-41.97375,0.25431514,2.2496462
-41.965057,0.30970716,2.3381596
-41.999397,0.3441279,2.4076948
-41.91642,0.43355322,2.526184
-41.877136,0.50145745,2.6250138
-41.60416,0.6765435,2.8171477
-41.537277,0.7545812,2.9231749
-41.598824,0.7733815,2.9776926
-41.608433,0.8156278,3.0524774
-41.646797,0.8447375,3.1161017
-41.716793,0.85978746,3.1680918
-41.7657,0.88423324,3.2282262
-41.808147,0.9114826,3.290875
-41.926292,0.9061458,3.3271923
-42.021683,0.91104126,3.3724504
-42.160984,0.89776087,3.4037719
-42.29339,0.88805985,3.4387794
-42.490517,0.85216165,3.454177
-42.728058,0.8007772,3.4589243
-42.843422,0.80053234,3.5042439
-42.876633,0.8339176,3.5756106
-42.93173,0.858438,3.640493
-43.00261,0.87675405,3.7010932
-43.092995,0.8875768,3.7566538
-43.167854,0.9047413,3.8173056
-43.26052,0.91523385,3.8736792
-43.42099,0.9001515,3.9128127
-43.54251,0.9005976,3.9637055
-43.6594,0.9032922,4.0169277
-44.738575,0.5989871,3.9226441
-44.71668,0.6565895,4.0169683
-44.72157,0.7040293,4.1045423
-44.930347,0.67820144,4.146359
-45.384956,0.566277,4.13702
-23.127125,1.6890852,2.8500776
-23.222439,1.707124,2.8499079
-23.314442,1.7237263,2.8486114
-23.407581,1.7416267,2.849135
-23.521523,1.7733052,2.8651123
-23.608746,1.78878,2.8638568
-23.686266,1.7985563,2.8567104
-23.845375,1.8619266,2.9090805
-23.86348,1.8340387,2.8610463
-23.92388,1.8339481,2.8439436
-24.011738,1.8525193,2.8479104
-24.07889,1.8576803,2.8372211
-24.167503,1.8778658,2.8436942
-24.235626,1.8845413,2.8352947
-24.439196,1.9860532,2.9345613
-24.472614,1.9699774,2.9011989
-23.606869,1.3141572,2.1386065
-23.63028,1.2842913,2.087277
-23.599806,1.2149847,1.9907107
-24.777359,2.0301578,2.9118443
-24.834694,2.0325837,2.9006948
-23.422783,0.9361024,1.6172628
-23.476805,0.9252937,1.5873637
-23.540699,0.9220791,1.5664716
-25.16298,2.1213856,2.9505243
-25.19864,2.1091137,2.9234204
-25.277687,2.1309705,2.9364996
-25.319065,2.123516,2.9153657
-25.33987,2.0995598,2.8748608
-25.386553,2.0963411,2.8589315
-25.437569,2.0968196,2.847538
-25.502611,2.109165,2.8504376
-25.564342,2.1192021,2.8508186
-25.622223,2.1263952,2.8480163
-25.687103,2.1399522,2.8530455
-25.74516,2.1480887,2.8517919
-25.804193,2.1574647,2.8522305
-25.86301,2.1670527,2.8531294
-25.918707,2.1742554,2.8513432
-25.978245,2.1852982,2.8544006
-26.032976,2.192378,2.8528452
-26.085274,2.1975527,2.8491488
-26.346674,2.399296,3.085678
-26.344713,2.355867,3.0233388
-26.42267,2.3883681,3.0540276
-26.45477,2.377245,3.0314026
-26.531828,2.4102528,3.06319
-26.572401,2.4079158,3.0516586
-26.663288,2.456384,3.1030436
-26.689226,2.4399781,3.0744348
-26.733097,2.4418511,3.068551
-26.781523,2.4487016,3.0689845
-26.82214,2.447632,3.0597043
-26.86879,2.4531672,3.0587754
-26.924774,2.4691422,3.0710382
-26.97054,2.474465,3.0701466
-27.014214,2.4777603,3.0668502
-27.058268,2.4817398,3.064539
-27.101254,2.4847667,3.0611572
-27.14509,2.4890237,3.0594478
-27.18881,2.4934201,3.0580406
-27.232872,2.498505,3.057629
-27.275429,2.5020769,3.0554285
-27.319235,2.5074387,3.0556169
-27.364244,2.5146,3.058216
-27.406433,2.5185783,3.0568972
-27.451126,2.526023,3.06011
-27.49349,2.5308266,3.060083
-27.533602,2.5329714,3.0567775
-27.572382,2.5335596,3.051588
-27.611946,2.5353818,3.04808
-27.647764,2.5322697,3.03835
-27.678772,2.5225089,3.0201697
-27.6996,2.498174,2.9833193
-27.722048,2.475553,2.9486942
-27.728662,2.429217,2.8835325
-27.756355,2.4128442,2.8569841
-27.796358,2.4146798,2.8540034
-27.839254,2.4211788,2.857154
-27.88163,2.4272387,2.859851
-27.92278,2.4317167,2.8606105
-27.963812,2.436317,2.8616338
-28.004028,2.4398947,2.8614354
-28.043465,2.442445,2.8600025
-28.083157,2.445682,2.859562
-28.12342,2.450183,2.8608685
-28.162594,2.4530754,2.860179
-28.200403,2.4537754,2.8567228
-28.241312,2.460351,2.8610363
-28.2796,2.4624248,2.8595662
-28.323872,2.4761798,2.8734775
-28.359537,2.473849,2.8664346
-28.3993,2.4797351,2.8702474
-28.434927,2.4776049,2.8636384
-28.472809,2.4802213,2.8633442
-28.513628,2.4893496,2.8717003
-28.550758,2.4910192,2.870348
-28.588623,2.4945424,2.8715224
-28.624855,2.4946651,2.868308
-28.663069,2.4995658,2.8714747
-28.698961,2.499303,2.8679218
-28.737228,2.5049994,2.8723164
-28.773031,2.5049343,2.8691921
-28.810635,2.5096653,2.8724885
-28.847017,2.5115607,2.8721223
-28.882912,2.5123768,2.8704114
-28.919613,2.5156457,2.8720298
-28.955006,2.515477,2.8691764
-28.990583,2.5159917,2.867309
-29.026905,2.5189638,2.8687806
-29.06259,2.5202606,2.868112
-29.097874,2.520469,2.8660774
-29.133312,2.5213618,2.8650303
-29.168886,2.522942,2.864975
-29.204088,2.5234299,2.8635478
-29.240524,2.5287578,2.8686352
-29.27533,2.5282464,2.866034
-29.311146,2.531985,2.8691678
-29.34646,2.5340357,2.8701334
-29.380789,2.5320146,2.8657513
-29.417181,2.5396063,2.8742557
-29.452198,2.5413408,2.875033
-29.4874,2.5443592,2.8775983
-29.521767,2.543296,2.8747978
-29.556353,2.543515,2.8737807
-29.591412,2.5468068,2.8769403
-29.62603,2.5478032,2.877111
-29.660707,2.5494869,2.878275
-29.69574,2.5542476,2.8836246
-29.730007,2.5537214,2.881987
-29.764482,2.5550773,2.882937
-29.799046,2.5577178,2.8856792
-29.83344,2.5592527,2.8870177
-29.8678,2.5608757,2.8885484
-29.901815,2.5583992,2.8846707
-29.93603,2.5584037,2.884183
-29.970047,2.5549054,2.8790836
-30.004185,2.5526907,2.8757744
-30.038343,2.5499659,2.8718548
-30.072191,2.5311632,2.8465014
-30.10654,2.5226247,2.834951
-30.140486,2.2818627,2.512827
-30.182068,1.6693752,1.6935253
-41.965263,0.27492452,2.1353784
-41.968185,0.32495546,2.219489
-42.023354,0.34980917,2.2803383
-41.74199,0.6301799,2.6490564
-41.707977,0.6938956,2.7439437
-41.53518,0.81966686,2.893322
-41.563248,0.85359406,2.960915
-41.636497,0.86728,3.0109758
-41.64988,0.90750194,3.0842605
-41.631447,0.96131444,3.1691117
-41.735798,0.9615326,3.2083707
-41.782524,0.9868672,3.2692661
-41.849022,1.0038011,3.3233862
-41.930195,1.0147059,3.3728857
-42.04908,1.0101523,3.4102497
-42.166245,1.0068486,3.4493303
-42.263058,1.0123956,3.4961643
-42.611244,0.9163985,3.4635515
-42.81727,0.87973666,3.4795327
-42.8656,0.9069998,3.546102
-42.913532,0.93442035,3.6130137
-42.977222,0.9556792,3.6755152
-43.0559,0.9712484,3.7341337
-43.143356,0.9836712,3.7909021
-43.24237,0.99198365,3.845224
-43.363007,0.9925175,3.8946142
-43.480843,0.994606,3.9458818
-43.624134,0.9877777,3.9917402
-44.72548,0.63076997,3.7994566
-44.694176,0.6918714,3.8966312
-44.70978,0.73556113,3.9819102
-44.728443,0.77793455,4.0663247
-44.803684,0.8001497,4.1378613
-45.306557,0.67314243,4.1160803
-45.57927,0.6287842,4.149185
-23.14485,1.7494955,2.834715
-23.243124,1.7690015,2.8368864
-23.336578,1.7861974,2.8369508
-23.433352,1.8060548,2.8403692
-23.559677,1.8450532,2.8654685
-23.648216,1.861203,2.8656812
-23.717636,1.8657348,2.853273
-23.882467,1.9320552,2.910542
-23.886078,1.8950951,2.852158
-23.96273,1.9056208,2.8474274
-24.044788,1.920193,2.8476024
-24.129345,1.9369721,2.8506312
-24.180065,1.9314518,2.8285112
-24.380596,2.0283706,2.924088
-24.469769,2.0506594,2.9347105
-23.606586,1.4102597,2.1803994
-23.616451,1.3714731,2.1185384
-23.622225,1.3292689,2.052652
-23.635424,1.291811,1.9922218
-24.821928,2.1046472,2.9260879
-23.625233,1.1886094,1.8380685
-24.970911,2.1354415,2.9353342
-23.544653,1.0296099,1.6175566
-25.09127,2.1467898,2.92272
-23.799976,1.1214559,1.6934347
-25.205244,2.1545658,2.9067101
-25.290033,2.1805677,2.9253845
-25.332617,2.1740916,2.905542
-25.370884,2.164251,2.8817892
-25.40306,2.1495125,2.8522506
-25.447197,2.1443892,2.8343744
-25.533058,2.1736546,2.8581905
-25.586699,2.1769938,2.8509288
-25.648073,2.1871073,2.8520713
-25.706215,2.1949017,2.8506026
-25.761787,2.2008648,2.847097
-25.81897,2.2085567,2.84589
-25.875374,2.2159383,2.844493
-25.931011,2.223004,2.8428946
-25.993366,2.236456,2.8493428
-26.043455,2.2392719,2.8428802
-26.127903,2.2739048,2.8759165
-26.347729,2.435314,3.0663662
-26.39182,2.4354987,3.0575829
-26.440266,2.440009,3.0543108
-26.49022,2.4462557,3.0533533
-26.556753,2.4689777,3.073132
-26.603012,2.4724424,3.069044
-26.641745,2.4686575,3.0560036
-26.693106,2.4777071,3.0591893
-26.740614,2.4832141,3.0580797
-26.789003,2.489945,3.0586553
-26.839264,2.4989746,3.0622811
-26.886786,2.5054991,3.0628934
-26.932644,2.510572,3.061809
-26.974907,2.5120294,3.0562668
-27.020525,2.5173926,3.0558114
-27.06842,2.5256062,3.0591187
-27.109417,2.5263965,3.0530987
-27.156986,2.5349123,3.0570617
-27.200142,2.5386896,3.0551004
-27.242262,2.541513,3.0520372
-27.28932,2.5504777,3.0569725
-27.331196,2.5535743,3.054504
-27.37208,2.555703,3.0509014
-27.415535,2.561256,3.0518227
-27.455359,2.562538,3.0473514
-27.497276,2.5666993,3.0467072
-27.539078,2.5709908,3.0463443
-27.57992,2.5743032,3.044825
-27.619007,2.5755172,3.0406904
-27.650677,2.5668297,3.0237875
-27.679255,2.553759,3.0012493
-27.706066,2.537957,2.975205
-27.72413,2.509336,2.932485
-27.734985,2.46951,2.8751373
-27.769865,2.4639099,2.8625116
-27.80858,2.4640257,2.8574452
-27.847633,2.4648151,2.8533573
-27.889923,2.4707963,2.856175
-27.92847,2.4712522,2.8518453
-27.969456,2.4757812,2.8529654
-28.011364,2.4821336,2.856587
-28.048664,2.4812267,2.8507538
-28.089323,2.4861124,2.8526468
-28.128862,2.4894092,2.8525424
-28.167658,2.4916778,2.8511786
-28.20958,2.4997723,2.8576112
-28.250996,2.507421,2.8635602
-28.28761,2.5065973,2.8583908
-28.32724,2.5116117,2.8610458
-28.365557,2.5144427,2.8608994
-28.404957,2.5196831,2.8640442
-28.444227,2.5250378,2.8674364
-28.481407,2.526467,2.8657026
-28.517988,2.526844,2.8626528
-28.55561,2.5296338,2.8629007
-28.59263,2.5313709,2.8618326
-28.630363,2.5349483,2.8633056
-28.666496,2.535149,2.8603578
-28.7053,2.541838,2.8661594
-28.742273,2.5445666,2.8667588
-28.779173,2.5473974,2.8675785
-28.81554,2.549163,2.8670568
-28.852295,2.5521944,2.8683124
-28.890049,2.5582454,2.8736992
-28.926403,2.5608964,2.8746123
-28.961462,2.560136,2.8710299
-28.997906,2.563566,2.8731494
-29.034073,2.5665092,2.8746972
-29.069044,2.5660315,2.871728
-29.10437,2.5668197,2.8705363
-29.14071,2.5712254,2.874288
-29.175938,2.5722027,2.8735075
-29.211617,2.5750377,2.8753037
-29.246597,2.5756135,2.874136
-29.282309,2.5792272,2.8771362
-29.317497,2.5811672,2.8779597
-29.353191,2.5855598,2.8821669
-29.387188,2.5829659,2.8770251
-29.42186,2.5834115,2.876058
-29.45736,2.5880828,2.8808703
-29.492294,2.5904849,2.8826938
-29.526842,2.5912046,2.8823204
-29.560951,2.589647,2.8789434
-29.595766,2.5923204,2.8813562
-29.630241,2.593309,2.881566
-29.66469,2.5943863,2.8819695
-29.698078,2.5878494,2.8721461
-29.732618,2.5896962,2.8737335
-29.76819,2.6011207,2.8883529
-29.802483,2.6025565,2.8895311
-29.836462,2.6011136,2.886887
-29.870665,2.6021323,2.8876448
-29.904493,2.5984898,2.8821645
-29.938467,2.5961215,2.8784804
-29.972391,2.5920594,2.8725734
-30.006546,2.591647,2.8716788
-30.040745,2.5925097,2.872583
-30.07459,2.5786123,2.853568
-30.108635,2.5582678,2.8258924
-30.142563,2.2903202,2.4629374
-30.184383,1.7130046,1.681056
-41.972767,0.35144258,2.0999966
-42.046135,0.36805153,2.1529264
-41.78484,0.54093957,2.352796
-41.74831,0.6072395,2.4515924
-41.85926,0.60523033,2.4868717
-41.706318,0.72348595,2.6330614
-41.741264,0.7555406,2.6996617
-41.50568,0.90802217,2.8751054
-41.54995,0.93459487,2.9361024
-41.609367,0.9544983,2.991341
-41.55853,1.0222883,3.0890174
-41.568367,1.0632229,3.1627855
-41.717903,1.0443888,3.1847887
-41.75145,1.075269,3.2502913
-41.79945,1.099998,3.310676
-41.908653,1.0993872,3.349955
-42.00992,1.1025047,3.3929672
-42.135902,1.0959809,3.4286108
-42.268177,1.0875142,3.4634233
-42.437927,1.0647228,3.487481
-42.66062,1.0218997,3.496624
-42.772938,1.023598,3.5423603
-42.841244,1.0428486,3.6024675
-42.933544,1.0530221,3.6559443
-43.00312,1.0721726,3.7168012
-43.080544,1.0885231,3.7759366
-43.183083,1.095695,3.8287063
-43.259132,1.1130719,3.8895845
-43.410515,1.1030107,3.9310913
-43.556496,1.0956368,3.9755259
-44.687454,0.73429346,3.7726011
-44.708244,0.77627707,3.8568625
-44.717396,0.82217884,3.9438171
-44.741558,0.8625586,4.0270176
-44.75682,0.9058602,4.112202
-45.11764,0.8303151,4.120487
-45.48115,0.75591445,4.1322217
-46.00626,0.62915397,4.114054
-23.04219,1.7791355,2.8055043
-23.182043,1.8222535,2.8342023
-23.2973,1.851711,2.8483052
-23.40237,1.8758385,2.8569555
-23.489315,1.8896074,2.854413
-23.62057,1.9313061,2.8837895
-23.716118,1.9517958,2.889717
-23.796059,1.9631121,2.885614
-23.836906,1.9500332,2.85397
-23.918695,1.963264,2.8526096
-23.989527,1.969902,2.843998
-24.068666,1.9823694,2.84239
-24.131367,1.984457,2.8290749
-24.242863,2.0194476,2.8542356
-24.464735,2.129887,2.967864
-24.473433,2.097449,2.9153733
-23.61125,1.4649205,2.1585045
-23.623102,1.427794,2.098195
-23.62542,1.3834891,2.029366
-23.634539,1.3433862,1.9654202
-23.625624,1.2898092,1.8854065
-23.612322,1.2322321,1.8004761
-23.626392,1.1937757,1.738224
-25.064186,2.2073693,2.9367957
-25.127031,2.2152357,2.9336634
-23.822336,1.191283,1.6872783
-25.223904,2.2101433,2.9029036
-25.327732,2.2505357,2.9397764
-25.338453,2.2194757,2.8902736
-25.36665,2.2017212,2.8569436
-25.415064,2.1998832,2.8430982
-25.480772,2.2121258,2.8466382
-25.538221,2.21813,2.8427544
-25.597942,2.2263403,2.8417768
-25.659874,2.2367742,2.843741
-25.717363,2.2439106,2.8418427
-25.774666,2.251252,2.8403888
-25.83296,2.2598095,2.8406334
-25.889872,2.2675595,2.840066
-25.948326,2.27704,2.8418407
-26.010578,2.2903073,2.8485417
-26.055414,2.2884278,2.836485
-26.221836,2.3971975,2.9633942
-26.356411,2.4794106,3.0576077
-26.403784,2.4826267,3.052843
-26.454905,2.4896283,3.0529995
-26.506393,2.4973254,3.0541964
-26.555525,2.5031168,3.0531378
-26.600752,2.505417,3.0477962
-26.649605,2.5115306,3.0474367
-26.697245,2.5167596,3.0460968
-26.747343,2.5247788,3.048461
-26.796213,2.5319142,3.0498466
-26.84235,2.5365684,3.0482006
-26.887852,2.5408432,3.0462017
-26.934227,2.5463302,3.0458913
-26.978474,2.5498366,3.0431647
-27.024082,2.5550876,3.0428133
-27.071484,2.56263,3.0455499
-27.116302,2.5676453,3.0451565
-27.160511,2.572267,3.0443797
-27.20412,2.5764914,3.04321
-27.246218,2.5792327,3.0402331
-27.290972,2.5853543,3.0417686
-27.332851,2.5883636,3.0393724
-27.37508,2.5920463,3.0379682
-27.415874,2.594225,3.03471
-27.457026,2.5970738,3.0324364
-27.498516,2.6005957,3.0311522
-27.541178,2.6058908,3.0323048
-27.581598,2.6085715,3.0301356
-27.619854,2.6086218,3.02461
-27.653982,2.6032655,3.0120587
-27.680103,2.5869448,2.9851232
-27.703327,2.566243,2.9524446
-27.71907,2.5344796,2.9051723
-27.738123,2.5066009,2.8630366
-27.773357,2.501561,2.8511696
-27.812798,2.5027483,2.8476405
-27.85218,2.504049,2.8443584
-27.892235,2.5065837,2.8428106
-27.932209,2.5092344,2.8415165
-27.973867,2.5148096,2.8442135
-28.01434,2.5188222,2.8449326
-28.05367,2.5212646,2.843655
-28.095284,2.5277689,2.847899
-28.13541,2.5321383,2.849391
-28.174118,2.5343614,2.8481083
-28.214994,2.540662,2.8523793
-28.255714,2.5470839,2.8569126
-28.294117,2.549648,2.8563685
-28.331228,2.5500448,2.853004
-28.3689,2.5516834,2.8513918
-28.407389,2.555139,2.8523116
-28.445782,2.5587041,2.8534684
-28.483517,2.561234,2.8533196
-28.520903,2.563296,2.8526268
-28.558222,2.5654624,2.852159
-28.595737,2.5683062,2.8526907
-28.633173,2.5712543,2.8534489
-28.670273,2.5737312,2.8536549
-28.707794,2.5774622,2.855641
-28.744976,2.5807216,2.8570743
-28.78184,2.583506,2.8579464
-28.819534,2.5887032,2.862173
-28.857327,2.594585,2.8674135
-28.893684,2.5970979,2.8681674
-28.930393,2.6008694,2.8707108
-28.965372,2.6001,2.8671637
-29.000744,2.6005836,2.865396
-29.036667,2.6029053,2.8662033
-29.07234,2.6047413,2.8664298
-29.107777,2.6060908,2.8660698
-29.143871,2.6098654,2.8690886
-29.179195,2.6114051,2.8691406
-29.214638,2.613622,2.8701906
-29.250177,2.616517,2.8722434
-29.284737,2.6160016,2.8697162
-29.319729,2.6173298,2.8697796
-29.35482,2.6193357,2.870841
-29.38999,2.6220188,2.8729033
-29.424713,2.6230385,2.872767
-29.459404,2.6241486,2.872826
-29.494059,2.6253493,2.8730822
-29.528353,2.6248808,2.8711271
-29.562336,2.6227396,2.8669553
-29.597132,2.6253839,2.8694005
-29.631498,2.625769,2.8688273
-29.666363,2.6297688,2.8732748
-29.701294,2.6350362,2.8795314
-29.735231,2.6333392,2.8763204
-29.769262,2.6323168,2.874104
-29.803677,2.634912,2.8769145
-29.838142,2.6387744,2.8815331
-29.87203,2.6368394,2.8782759
-29.905823,2.6332247,2.8727856
-29.939722,2.6302853,2.868291
-29.973679,2.6274328,2.8639846
-30.007738,2.6258454,2.8614817
-30.041887,2.6261127,2.8615918
-30.07592,2.6217546,2.8554292
-30.109911,2.6068785,2.8349128
-30.143642,2.322238,2.4445257
-30.18519,1.7914083,1.7166052
-41.864864,0.42959023,2.0292459
-41.721508,0.5476184,2.179985
-41.79397,0.56375694,2.2314086
-41.841743,0.5914078,2.2941766
-41.696884,0.85048556,2.6850085
-41.47539,0.99482083,2.855227
-41.52731,1.0179772,2.9129472
-41.54865,1.0543427,2.9828725
-41.557312,1.0959051,3.0574937
-41.561012,1.1392565,3.133647
-41.680115,1.1338682,3.1665645
-41.728413,1.1584544,3.2264452
-41.770203,1.185725,3.288859
-41.81864,1.2102456,3.3490658
-41.94002,1.2053044,3.3843622
-42.086277,1.190969,3.412436
-42.202526,1.189275,3.4519567
-42.37937,1.1642885,3.4728994
-42.589615,1.1272569,3.4850984
-42.78962,1.0953639,3.5028038
-42.99814,1.0613232,3.5200787
-42.88466,1.1502786,3.635954
-42.95595,1.1688304,3.6958961
-43.025146,1.1883352,3.7569656
-43.11582,1.2000985,3.8125167
-43.209946,1.2109172,3.867899
-43.319386,1.216541,3.9199986
-43.42505,1.2239525,3.9740968
-43.60022,1.207166,4.01141
-44.71713,0.8610363,3.815878
-44.704163,0.91450167,3.9083257
-44.72643,0.9554367,3.9919152
-44.730534,1.0023868,4.0796266
-44.809032,1.0239525,4.1503286
-45.410965,0.87086535,4.107145
-45.718765,0.81869197,4.1334624
-46.250896,0.69471073,4.1167645
-46.733032,0.59005356,4.116144
-23.135324,1.8922498,2.8446693
-23.247875,1.9190493,2.856431
-23.351702,1.9414835,2.8637242
-23.443966,1.957715,2.8643856
-23.558708,1.9881146,2.881681
-23.633299,1.9948933,2.8722978
-23.71645,2.0073452,2.8697605
-23.85943,2.0575123,2.9112868
-23.883335,2.0341566,2.867917
-23.937683,2.029904,2.8468833
-24.024086,2.0463545,2.8502913
-24.100224,2.0567486,2.8469286
-24.182444,2.0715773,2.8490925
-24.267832,2.089043,2.854701
-24.409842,2.1448326,2.9061456
-24.430553,2.1203635,2.8626337
-23.61197,1.5251505,2.1373363
-23.618969,1.4849792,2.0729556
-23.631393,1.4480305,2.0123825
-23.610086,1.3869715,1.9227042
-23.610592,1.340379,1.8503094
-23.61855,1.2984347,1.7834487
-23.61005,1.2440171,1.7013574
-23.764494,1.3076999,1.7630992
-25.140207,2.2738538,2.9287167
-25.191128,2.2730772,2.9156737
-23.876558,1.2439814,1.6390309
-25.34131,2.3089314,2.936162
-25.335407,2.2654474,2.8709602
-25.384323,2.2638705,2.8575459
-25.43571,2.2644155,2.8469143
-25.495085,2.271529,2.844617
-25.556726,2.2808304,2.8452463
-25.615088,2.2878828,2.8432727
-25.676285,2.2976274,2.8448625
-25.736046,2.3066,2.8456874
-25.794388,2.3147888,2.8457222
-25.850159,2.3211827,2.8436823
-25.909267,2.3307893,2.8458824
-25.96698,2.3396013,2.8472676
-26.01583,2.341033,2.8394675
-26.077168,2.353784,2.8462133
-26.223734,2.443564,2.9513617
-26.357841,2.524313,3.0455642
-26.405743,2.5279102,3.0415497
-26.459595,2.5373101,3.0451193
-26.512123,2.545872,3.0477796
-26.56119,2.551523,3.0468554
-26.610636,2.5578568,3.0469584
-26.65832,2.5628042,3.0454164
-26.705334,2.5673907,3.0435472
-26.753256,2.5731752,3.0433674
-26.80515,2.5833008,3.048964
-26.8522,2.5888925,3.04882
-26.897074,2.5925393,3.0462766
-26.940832,2.5952785,3.042674
-26.98796,2.6018512,3.0442023
-27.030996,2.604348,3.0405302
-27.07297,2.6059206,3.03576
-27.118229,2.6113431,3.0361586
-27.162865,2.6163807,3.0361757
-27.2083,2.6226296,3.037911
-27.249859,2.6247451,3.0343194
-27.29271,2.628598,3.0331316
-27.335445,2.6325853,3.0322356
-27.37672,2.6350908,3.029489
-27.41879,2.638803,3.0284505
-27.46206,2.6442685,3.02985
-27.50432,2.6487865,3.030105
-27.543892,2.650178,3.0263057
-27.582981,2.6511428,3.022036
-27.620766,2.650587,3.0158339
-27.651554,2.640852,2.9974513
-27.682909,2.6317372,2.9799614
-27.701641,2.6051466,2.9391203
-27.719297,2.5763695,2.8953557
-27.741766,2.5536528,2.8597317
-27.782251,2.5563314,2.8582702
-27.820389,2.5558155,2.8526077
-27.8637,2.5631547,2.857616
-27.902441,2.5639758,2.8539438
-27.942213,2.5665734,2.8527608
-27.981546,2.5687308,2.8510776
-28.020454,2.5704448,2.848887
-28.059982,2.5733867,2.8484497
-28.101109,2.5792375,2.852048
-28.141422,2.5840912,2.854394
-28.182585,2.590746,2.8592806
-28.222942,2.5964007,2.8629088
-28.26221,2.6004882,2.8645015
-28.30106,2.6041265,2.865574
-28.3392,2.6067486,2.8653526
-28.377258,2.6094787,2.8653655
-28.416695,2.6151435,2.8694682
-28.454271,2.6175263,2.8691826
-28.490372,2.6171803,2.8652515
-28.527552,2.619202,2.8646374
-28.565742,2.6236,2.8673582
-28.601713,2.623555,2.864079
-28.639204,2.627025,2.8656955
-28.677357,2.6323097,2.869885
-28.713413,2.6331363,2.868042
-28.750149,2.6357746,2.8687649
-28.786575,2.6379423,2.8689208
-28.822021,2.637919,2.8661437
-28.858562,2.6408563,2.8675141
-28.89567,2.6456149,2.87147
-28.931396,2.6470306,2.8709044
-28.966667,2.647392,2.8689628
-29.002905,2.650725,2.8711915
-29.039825,2.65646,2.876811
-29.076052,2.660568,2.8802648
-29.111814,2.663621,2.8823404
-29.146973,2.6650383,2.8822331
-29.181917,2.665971,2.8815293
-29.2165,2.6658397,2.879428
-29.251856,2.6686924,2.8815227
-29.287441,2.6727974,2.8854256
