x,y,z
-34.785465,2.2287085,2.086629
-34.834763,2.232763,2.1012526
-34.869926,2.2480981,2.1321
-34.916122,2.2547324,2.1506004
-34.575287,2.5980234,2.6568546
-34.616013,2.6053236,2.6757693
-34.661556,2.6090941,2.6897774
-34.75402,2.5784779,2.6552958
-34.69849,2.6564593,2.7742915
-34.728554,2.6713505,2.8041778
-34.710373,2.7204733,2.8822136
-34.76505,2.717455,2.8869882
-34.8064,2.7240024,2.9053016
-34.822514,2.7480168,2.9481068
-34.86226,2.7556372,2.96806
-34.897987,2.7660246,2.991953
-34.940823,2.7716749,3.0093489
-34.984943,2.7765841,3.025825
-35.03104,2.7803273,3.040801
-35.073093,2.7868304,3.0597038
-35.122536,2.7887056,3.0723448
-35.17065,2.7916133,3.0865383
-35.22015,2.7938266,3.0999131
-35.27313,2.7940736,3.1107397
-35.318535,2.799193,3.1283565
-35.36461,2.8040388,3.1457233
-35.41488,2.8065066,3.1599922
-35.46588,2.8087301,3.1740751
-35.511215,2.8144813,3.1930618
-35.57441,2.8099687,3.198371
-35.622643,2.8144093,3.215889
-35.680283,2.8136487,3.2265887
-35.734367,2.8151584,3.2404962
-35.783367,2.8197298,3.2586403
-35.842663,2.8187704,3.2695951
-35.903534,2.817224,3.279963
-35.95632,2.820349,3.2966857
-35.9964,2.8304918,3.322794
-36.07247,2.821578,3.3240485
-36.132904,2.8213274,3.3368835
-36.194942,2.8205166,3.3491902
-36.239494,2.8290033,3.373764
-36.30469,2.8270597,3.3849869
-36.369232,2.8257627,3.3972673
-36.43232,2.825495,3.4110937
-36.501724,2.8223863,3.421505
-36.56343,2.8233945,3.4374123
-36.622047,2.8261695,3.4557776
-36.683846,2.8276486,3.4727054
-36.737747,2.8331451,3.4949136
-36.79242,2.838466,3.5170841
-36.83825,2.8481007,3.544835
-36.887188,2.8564086,3.5710797
-36.932,2.8667388,3.5999956
-36.974255,2.878326,3.6306076
-37.010654,2.8926125,3.6646695
-37.044403,2.908101,3.7003088
-37.082047,2.9218829,3.733964
-38.174545,2.47695,3.211432
-38.177116,2.5104616,3.2717428
-38.139194,2.5609314,3.3523555
-38.14805,2.5910237,3.4083395
-38.156418,2.6210802,3.4642444
-38.18284,2.6434362,3.5110016
-38.18188,2.6769254,3.57092
-38.188023,2.7072358,3.6270337
-38.182617,2.7419434,3.6882215
-38.153587,2.7857156,3.7598019
-38.15728,2.8161042,3.815742
-38.156197,2.8481147,3.8734832
-38.158054,2.8787138,3.9295363
-38.16897,2.905613,3.9813404
-38.217716,2.9180422,4.0168653
-38.309048,2.9146645,4.034926
-38.43637,2.8984027,4.039115
-38.501705,2.9055734,4.0697546
-38.574017,2.9104548,4.098176
-38.67634,2.9048529,4.1155305
-38.887802,2.8609664,4.0920696
-38.987186,2.857814,4.1133623
-39.18474,2.8209581,4.0993147
-39.348095,2.797068,4.0999985
-39.528038,2.768445,4.0965967
-39.654556,2.7588892,4.113954
-39.87506,2.7185915,4.1003323
-40.062817,2.6904178,4.1003046
-40.268307,2.657507,4.0965233
-40.5471,2.602046,4.071293
-40.763943,2.5680892,4.0690184
-40.99873,2.5296772,4.0636005
-41.235085,2.4921145,4.0603685
-41.439922,2.4656663,4.0692277
-41.72899,2.4144964,4.0557017
-41.99212,2.372865,4.05291
-42.30403,2.3180742,4.0394225
-42.579716,2.27583,4.0394163
-42.901604,2.2215557,4.030137
-43.26345,2.1575012,4.01406
-43.588936,2.1059613,4.011394
-43.918938,2.054959,4.0112667
-44.313442,1.9876711,3.9991546
-44.70423,1.9236424,3.9923935
-45.13642,1.8504319,3.9804754
-45.61586,1.7668195,3.9628124
-46.04545,1.699295,3.9615078
-46.494904,1.6288781,3.9607925
-47.05248,1.5325792,3.9427223
-47.62845,1.4346347,3.927258
-48.147648,1.3544536,3.9293833
-48.815666,1.239433,3.9091396
-49.648464,1.0868926,3.8662043
-50.21534,1.0047963,3.8799553
-11.074184,1.3239474,3.946312
-12.52313,1.6241696,4.1084
-13.211008,1.7429671,4.1386795
-13.399536,1.7395899,4.0763464
-13.964312,1.8331974,4.093845
-14.426302,1.9034035,4.095852
-14.798318,1.9526393,4.0833573
-15.151666,1.9989616,4.0708046
-15.659888,2.0886672,4.0979605
-15.915539,2.1128745,4.0710583
-16.29382,2.172017,4.076749
-16.406937,2.1598127,4.0206404
-17.530182,2.3506503,4.068434
-17.83441,2.398214,4.0737257
-18.092436,2.43396,4.069534
-18.34893,2.4706838,4.0677943
-18.636152,2.5180495,4.0779257
-18.852633,2.5456355,4.070208
-19.057598,2.5708883,4.061384
-19.260273,2.596556,4.054119
-19.48713,2.6309094,4.0567923
-19.669638,2.6525269,4.047662
-19.909876,2.6936004,4.059634
-20.118559,2.7258816,4.063743
-20.313988,2.7550316,4.0656757
-20.496246,2.7809515,4.0652156
-20.562984,2.7693672,4.025605
-20.739168,2.794909,4.0263014
-20.955942,2.835286,4.04401
-21.09713,2.8509462,4.0357995
-21.168705,2.8431637,4.002456
-21.363419,2.87894,4.017766
-21.56096,2.9169,4.0364933
-21.625786,2.9084396,4.003986
-21.800322,2.9399958,4.017064
-21.981216,2.9749403,4.034853
-22.042913,2.966883,4.0042076
-22.22279,3.0032394,4.0250573
-22.350006,3.020831,4.024988
-22.435432,3.0232058,4.0077376
-22.568014,3.0441782,4.0126915
-22.65646,3.0487485,3.9988823
-22.830938,3.0876212,4.026177
-22.880486,3.0779727,3.9963627
-23.00977,3.1004868,4.0053196
-23.09214,3.104767,3.992859
-23.236576,3.1348968,4.0120664
-23.287403,3.1272178,3.9858649
-23.428406,3.157405,4.006187
-23.473198,3.1478868,3.978303
-23.632317,3.1872575,4.01096
-23.690868,3.1843958,3.9919076
-23.77649,3.1935585,3.988057
-23.892113,3.216392,4.0016584
-23.972218,3.2242057,3.9968574
-24.065067,3.2381806,4.000146
-24.13336,3.2415934,3.9904163
-24.204727,3.2467606,3.9831727
-24.28792,3.257774,3.9836633
-24.355694,3.2620811,3.9758723
-24.445507,3.277138,3.982166
-24.51917,3.2850695,3.979598
-24.59182,3.2929335,3.9772136
-24.651733,3.295023,3.9675798
-24.692863,3.2881851,3.9464955
-24.759602,3.2941628,3.9423268
-24.809202,3.2919238,3.92759
-24.890968,3.3061652,3.9347498
-24.905262,3.2864456,3.8972654
-24.991964,3.3039598,3.909215
-25.02993,3.296646,3.8884163
-25.081488,3.2965822,3.8774076
-25.125505,3.292738,3.8614962
-25.162842,3.2854545,3.8410928
-25.226116,3.2923465,3.8398943
-25.27301,3.2906194,3.8272552
-25.37395,3.3190532,3.8556347
-25.392124,3.3019283,3.8224578
-25.421415,3.290963,3.7976952
-25.525568,3.3228085,3.8314936
-25.559727,3.315086,3.8114557
-25.602493,3.3124442,3.7984815
-25.625484,3.2982948,3.7697792
-25.737076,3.336881,3.813912
-25.777397,3.3335543,3.8004403
-25.825336,3.3350043,3.7937016
-25.870426,3.334937,3.7849913
-25.894245,3.3218482,3.7582588
-25.89584,3.2947195,3.711957
-25.898605,3.2679582,3.6661215
-25.90857,3.2454455,3.626205
-25.859638,3.1844447,3.532157
-25.866835,3.1591372,3.4881558
-25.87449,3.1337924,3.4440746
-25.868904,3.0992289,3.3869233
-25.852306,3.0566602,3.318344
-25.8346,3.0126078,3.2475371
-25.82989,2.9767902,3.1883254
-25.854397,2.9608452,3.1573777
-25.862804,2.9333625,3.1099777
-25.885464,2.915679,3.0765786
-25.869362,2.8697588,3.0027094
-25.889849,2.8497934,2.96601
-25.85696,2.7900815,2.8721204
-25.873726,2.7663956,2.829988
-25.866283,2.724053,2.7609115
-25.881126,2.6980221,2.7153435
-25.89468,2.6706057,2.6677585
-25.841316,2.5903153,2.543416
-25.859943,2.5654562,2.4993992
-25.860582,2.5257976,2.433836
-25.881996,2.5022922,2.3917665
-25.866447,2.4480777,2.3048553
-25.87333,2.4114347,2.2435246
-25.857544,2.3550572,2.1532416
-25.857237,2.3107178,2.080494
-25.871468,2.2780592,2.024838
-25.89174,2.2501001,1.9760761
-25.871784,2.1861172,1.8742447
-25.883408,2.1490285,1.8119464
-25.869457,2.088057,1.7143383
-25.885395,2.053205,1.6552444
-25.871586,1.9900422,1.5542016
-25.888165,1.9541032,1.4934096
-25.894838,1.9080167,1.4175329
-25.896431,1.8560534,1.3328671
-25.892153,1.7972012,1.2378778
-34.60008,1.2699044,0.4088645
-34.60418,1.3304272,0.5071454
-34.585133,1.4133306,0.6388006
-34.594704,1.4652753,0.72408485
-34.620754,1.4996269,0.783082
-34.60529,1.5742614,0.9020791
-34.63554,1.6027112,0.95223475
-34.58734,1.7060118,1.1136198
-34.635517,1.7155488,1.1356163
-34.598392,1.8049092,1.276
-34.60813,1.8489547,1.3490977
-34.59868,1.9096429,1.4467511
-34.622887,1.9387462,1.4976645
-34.592636,2.0158062,1.6192851
-34.60553,2.0533106,1.6824837
-34.589954,2.1148405,1.7809725
-34.607723,2.1465368,1.8355303
-34.60827,2.1922903,1.9106846
-34.635303,2.2150233,1.9520693
-34.678288,2.2242706,1.9737659
-34.6927,2.2568743,2.029632
-34.751266,2.2533102,2.032775
-34.78393,2.2707272,2.0665855
-34.81747,2.2872899,2.0992017
-34.861336,2.295664,2.1199942
-34.544163,2.6208963,2.6077423
-34.58446,2.6286001,2.627081
-34.619804,2.6400416,2.6518874
-34.65743,2.6497686,2.674296
-34.712833,2.6465628,2.678215
-34.699913,2.6928248,2.7531543
-34.741283,2.6996517,2.7715797
-34.71308,2.7555213,2.860104
-34.77926,2.7446938,2.853428
-34.8156,2.754868,2.8768048
-34.858265,2.7607443,2.894157
-34.893074,2.7720103,2.9192424
-34.93427,2.7790048,2.9383602
-34.972763,2.7878642,2.960205
-35.018448,2.7920725,2.9755874
-35.0561,2.8016067,2.9985647
-35.107086,2.802657,3.009736
-35.15271,2.807308,3.0260801
-35.20513,2.8078485,3.0368042
-35.260365,2.8068764,3.045567
-35.31293,2.8077953,3.0571132
-35.357216,2.8139505,3.0760589
-35.398655,2.8219266,3.0976338
-35.44775,2.8254426,3.1131635
-35.50322,2.8253894,3.123918
-35.570873,2.8185072,3.1254673
-35.61869,2.8234203,3.1433668
-35.680172,2.8207085,3.1509929
-35.72295,2.8288405,3.1735654
-35.780945,2.82858,3.1848593
-35.83536,2.8305576,3.1993585
-35.892765,2.8311234,3.2121153
-35.946533,2.8339064,3.2280316
-36.006283,2.8336954,3.2400923
-36.068363,2.8325207,3.2510505
-36.12904,2.8323743,3.2635798
-36.18753,2.8336377,3.2781777
-36.252163,2.8319945,3.2891097
-36.31308,2.8325484,3.3031573
-36.36869,2.836044,3.3212767
-36.452118,2.825887,3.3216548
-36.510986,2.8283348,3.338821
-36.56989,2.831006,3.356471
-36.618633,2.8388274,3.3810053
-36.67439,2.8434272,3.4015203
-36.731716,2.8474855,3.4215202
-36.78428,2.853998,3.4448628
-36.833603,2.8621855,3.470521
-36.87964,2.8720243,3.4984407
-36.93281,2.8787217,3.5225158
-36.976227,2.8899918,3.5525503
-37.01382,2.9039462,3.5861006
-37.044697,2.9209018,3.6235218
-37.080242,2.935791,3.6584382
-38.092934,2.5275512,3.1672802
-38.121326,2.5497758,3.2138195
-38.13778,2.5769908,3.2665677
-38.149635,2.6059563,3.321464
-38.159367,2.635595,3.377162
-38.169464,2.6648579,3.432373
-38.18078,2.6934047,3.4866905
-38.182346,2.725684,3.5454783
-38.156235,2.768743,3.617096
-38.160927,2.7991257,3.6734176
-38.138638,2.8398314,3.7419105
-38.15343,2.865718,3.7927656
-38.160934,2.894248,3.8467188
-38.19305,2.9132304,3.889522
-38.2535,2.9215531,3.9200854
-38.4287,2.8873992,3.9020324
-38.476273,2.901317,3.9397864
-38.604225,2.8860497,3.9445667
-38.7044,2.8815105,3.9620657
-38.743034,2.8994389,4.0052204
-38.868046,2.8868861,4.0145674
-38.916195,2.9018826,4.0549893
-39.002388,2.903823,4.081267
-39.112694,2.8978896,4.099366
-39.322464,2.8588,4.082141
-39.456696,2.8462977,4.0945644
-39.625385,2.823071,4.096252
-39.82069,2.7920525,4.0905976
-40.008423,2.764615,4.0897446
-40.205738,2.7351592,4.0878067
-40.411777,2.704045,4.085241
-40.661247,2.6604357,4.071064
-40.89593,2.622878,4.064409
-41.14686,2.5816598,4.0554175
-41.369083,2.550619,4.0579505
-41.61672,2.5131571,4.0554557
-41.909317,2.4636908,4.0427446
-42.21662,2.411568,4.029215
-42.46725,2.377718,4.0348806
-42.790043,2.3244486,4.0238066
-43.102497,2.2759547,4.0191336
-43.46336,2.2155707,4.0054817
-43.8055,2.1624475,4.0006533
-44.11,2.121605,4.0089464
-44.526974,2.0517917,3.9936252
-44.97419,1.9761875,3.9759617
-45.45083,1.8952744,3.956668
-45.84543,1.8386247,3.9609942
-46.330833,1.7605307,3.950119
-46.829674,1.6816862,3.9418993
-47.438946,1.5775671,3.9167619
-47.955338,1.5001614,3.916933
-48.503296,1.4177642,3.916822
-49.25782,1.2877812,3.8843603
-50.092545,1.1426072,3.845973
-10.918535,1.3960907,3.8690443
-12.632715,1.7515266,4.0846376
-13.235083,1.8460267,4.100306
-13.77039,1.9273348,4.1091337
-14.182824,1.9809351,4.0982533
-14.633386,2.0464106,4.10019
-14.920043,2.0724607,4.0708914
-15.323536,2.1302485,4.0712967
-15.811063,2.2122726,4.095868
-16.217272,2.2755172,4.10653
-16.44392,2.2929072,4.0776916
-17.351704,2.4153726,4.0660048
-17.724659,2.479295,4.087912
-17.975689,2.510747,4.0804167
-18.204826,2.537291,4.069533
-18.390919,2.5525796,4.048753
-18.650562,2.5904403,4.051683
-18.899399,2.6265545,4.0542955
-19.12553,2.6572561,4.052741
-19.284191,2.6687405,4.0325427
-19.524866,2.7062168,4.040316
-19.6992,2.7244906,4.029164
-19.937721,2.7638404,4.041313
-20.124718,2.788241,4.0387125
-20.314846,2.814691,4.0392942
-20.529697,2.8502293,4.05075
-20.690804,2.869424,4.0453777
-20.835361,2.8840342,4.035741
-20.993898,2.9041028,4.032894
-21.173403,2.932151,4.0397778
-21.345226,2.9586215,4.0457644
-21.417255,2.9516342,4.014531
-21.58651,2.978857,4.0227814
-21.782497,3.0165064,4.043859
-21.843422,3.0072362,4.0114603
-22.02606,3.0420012,4.0306997
-22.123394,3.046858,4.0156865
-22.241423,3.0598152,4.010665
-22.405045,3.0903625,4.027068
-22.498098,3.0954394,4.013792
-22.633995,3.1172354,4.020997
-22.720543,3.120942,4.0069585
-22.858194,3.1448612,4.0178204
-22.961275,3.156107,4.0138197
-23.07848,3.1735086,4.017805
-23.155575,3.1755986,4.0034137
-23.277992,3.1963394,4.012431
-23.363052,3.202616,4.003964
-23.460438,3.2144163,4.002742
-23.539219,3.2190416,3.992903
-23.640202,3.2333977,3.9956453
-23.729275,3.2433035,3.993155
-23.813148,3.2514868,3.9888208
-23.904968,3.263575,3.9898012
-23.989954,3.2732167,3.987999
-24.069805,3.2810762,3.9842253
-24.134075,3.282429,3.9723358
-24.208694,3.2887578,3.9671357
-24.272705,3.2906613,3.956441
-24.28239,3.2678912,3.9136934
-24.373388,3.2827146,3.9202886
-24.464804,3.2983077,3.928236
-24.463062,3.2703109,3.8788872
-24.561956,3.290214,3.8930266
-24.647133,3.3041496,3.8995886
-24.67616,3.2911792,3.8705196
-24.763975,3.30723,3.8804069
-24.803051,3.299548,3.8587048
-24.887245,3.3146977,3.8678994
-24.907257,3.2977276,3.8339431
-24.970604,3.3029442,3.830117
-25.066841,3.3256035,3.850231
-25.104969,3.3184626,3.8300176
-25.146143,3.3130264,3.8122396
-25.160727,3.293465,3.7751875
-25.208736,3.2918286,3.7628098
-25.261091,3.29277,3.754128
-25.362082,3.3208427,3.783142
-25.395163,3.3118043,3.761022
-25.411098,3.2931292,3.7255774
-25.513126,3.3233714,3.758349
-25.557604,3.3213158,3.7463236
-25.606289,3.3218856,3.7380981
-25.61768,3.3007455,3.6995153
-25.725729,3.3368368,3.7415004
-25.76985,3.3355012,3.7310352
-25.815994,3.3355765,3.7226834
-25.858643,3.3337169,3.7117138
-25.92289,3.3173103,3.672041
-25.931332,3.2941475,3.6309662
-25.937527,3.2692485,3.5873885
-25.866676,3.1941404,3.4718466
-25.871683,3.1672425,3.4251957
-25.870655,3.135974,3.3722224
-25.849457,3.090741,3.2990642
-25.839455,3.0522912,3.235567
-25.841068,3.0211442,3.1825418
-25.86168,3.0026515,3.1478086
-25.867489,2.9736152,3.0977821
-25.875095,2.9454112,3.0489302
-25.885712,2.9189396,3.0025744
-25.883888,2.8830905,2.9425082
-25.86076,2.8310637,2.8587193
-25.873234,2.8043916,2.8119278
-25.872368,2.7673492,2.749905
-25.865665,2.72525,2.6803875
-25.849138,2.6748753,2.5986032
-25.890553,2.6684136,2.58144
-25.867432,2.6114569,2.489801
-25.87547,2.578081,2.432889
-25.864702,2.5290492,2.352754
-25.862862,2.4863148,2.2818599
-25.875362,2.4545612,2.2272048
-25.861176,2.4000733,2.13871
-25.872387,2.3658643,2.080308
-25.843239,2.2966518,1.9696655
-25.84316,2.2510362,1.8941007
-25.878351,2.235331,1.8632021
-25.879248,2.1891325,1.7866888
-25.882654,2.1442497,1.7120824
-25.870277,2.0841427,1.6145582
-25.872046,2.0357254,1.5344949
-25.882969,1.9948192,1.4656725
-25.88662,1.9462285,1.3852334
-25.920284,1.9252851,1.346447
-25.91174,1.8631606,1.2454958
-34.589794,1.3320501,0.400496
-34.59941,1.3862216,0.4901967
-34.59314,1.4553134,0.6024704
-34.608086,1.5015523,0.6800175
-34.62112,1.5487025,0.7589092
-34.595287,1.6327696,0.8935609
-34.63488,1.6519182,0.93003225
-34.563988,1.775758,1.1244259
-34.634796,1.7638178,1.1139913
-34.564247,1.8832417,1.3013325
-34.63482,1.8709562,1.2904639
-34.56275,1.9878831,1.4736547
-34.62891,1.9790244,1.4680076
-34.5661,2.0840564,1.6329765
-34.599213,2.1034203,1.6696
-34.58246,2.1653342,1.7697797
-34.605637,2.19214,1.8174915
-34.606693,2.2370567,1.8921719
-34.661682,2.2365327,1.8992362
-34.65975,2.2827697,1.9758325
-34.68822,2.3036053,2.0147004
-34.71919,2.3221931,2.050271
-34.762585,2.3307881,2.071114
-34.794193,2.3486109,2.1056576
-34.831387,2.3619573,2.1336484
-34.526646,2.6737921,2.6085525
-34.57224,2.6774485,2.6218414
-34.614788,2.6834862,2.6387177
-34.65851,2.6887603,2.6545672
-34.69787,2.6972802,2.6752477
-35.568634,2.1146486,1.8352299
-34.751167,2.7323072,2.7429929
-34.79634,2.7367015,2.7578812
-34.75424,2.8012505,2.8599901
-34.82569,2.7873785,2.8485198
-34.86585,2.7950902,2.868394
-34.90527,2.8033547,2.8891516
-34.949837,2.8082838,2.9052005
-35.012856,2.801325,2.904304
-35.0575,2.806589,2.9210777
-35.10612,2.8094385,2.9345093
-35.15409,2.8128767,2.9489026
-35.20139,2.8169,2.9642487
-35.260967,2.8135014,2.9691787
-35.29872,2.8237424,2.9935918
-35.350166,2.8257422,3.0064425
-35.39887,2.8295856,3.0220284
-35.444073,2.8356645,3.040885
-35.504017,2.8332365,3.0479202
-35.55418,2.8367782,3.0634837
-35.606487,2.8392687,3.077714
-35.663128,2.839505,3.0889487
-35.720566,2.8395445,3.1000724
-35.777367,2.8401997,3.112216
-35.832043,2.8422675,3.1264758
-35.8919,2.8417394,3.1373148
-35.942997,2.846205,3.1551962
-36.00744,2.8437333,3.163713
-36.058594,2.8485947,3.1824536
-36.120975,2.8477633,3.1935806
-36.186478,2.845612,3.2031088
-36.24377,2.8479815,3.2189693
-36.30872,2.8467073,3.230083
-36.370716,2.8472214,3.2438116
-36.428944,2.8498824,3.2606196
-36.496475,2.8482041,3.271803
-36.574223,2.84188,3.2770138
-36.631115,2.846025,3.2964077
-36.680946,2.8537471,3.3207197
-36.735443,2.8594143,3.3424687
-36.792286,2.8641734,3.363193
-36.840374,2.8731906,3.3896832
-36.889168,2.8820105,3.4160604
-36.93306,2.8931856,3.4456506
-36.98246,2.901977,3.4722805
-37.02044,2.915978,3.5057917
-37.051723,2.9329572,3.5432363
-37.121956,2.932963,3.5590172
-38.080193,2.550671,3.0874581
-38.11475,2.57039,3.1308427
-38.125877,2.599975,3.1867886
-38.141506,2.6274517,3.2400546
-38.1617,2.6528556,3.29072
-38.163937,2.685477,3.3504105
-38.16816,2.7170062,3.4086795
-38.158386,2.75389,3.4735117
-38.15054,2.7896347,3.5368214
-38.13956,2.826263,3.6011
-38.14162,2.8574493,3.658626
-38.15259,2.884945,3.711617
-38.16313,2.9124217,3.7645693
-38.228394,2.9190688,3.7925415
-38.379204,2.8940074,3.782987
-38.42557,2.9084563,3.820938
-38.53791,2.8988662,3.8307357
-38.67059,2.8825088,3.8331137
-38.704617,2.902243,3.8781095
-38.784954,2.905558,3.9042192
-38.93497,2.884767,3.9029775
-38.98458,2.8996983,3.943235
-39.051743,2.9087148,3.9769764
-39.229183,2.8804789,3.9690542
-39.27149,2.89874,4.0140085
-39.368156,2.898967,4.0390987
-39.458603,2.9016917,4.067399
-39.56167,2.9007053,4.092066
-39.75873,2.8699038,4.0848875
-39.955475,2.840336,4.0800714
-40.137344,2.816583,4.0824986
-40.360638,2.78091,4.0732737
-40.580936,2.747445,4.067574
-40.789032,2.7189565,4.0682487
-41.00408,2.689529,4.0690975
-41.249092,2.652347,4.063223
-41.479088,2.620986,4.064609
-41.749386,2.5791285,4.0567966
-42.029663,2.535915,4.049199
-42.35989,2.480016,4.030812
-42.638924,2.4404628,4.030205
-42.971786,2.387429,4.0183444
-43.309254,2.3350031,4.009064
-43.64569,2.284752,4.003868
-43.98668,2.2351456,4.0013313
-44.39148,2.1704154,3.987133
-44.75014,2.1201134,3.9884496
-45.155853,2.0595293,3.9829264
-45.66562,1.974412,3.9585862
-46.09795,1.9118531,3.9569802
-46.58628,1.8375995,3.94831
-47.12896,1.7525525,3.933899
-47.6938,1.6650765,3.9211593
-48.254135,1.5818162,3.915667
-48.903587,1.4803035,3.8996153
-49.724945,1.3417513,3.8593917
-50.211308,1.2859473,3.887886
-11.037359,1.589771,3.9472227
-12.4959755,1.871808,4.110373
-13.022778,1.9433131,4.1089363
-13.390038,1.979744,4.081403
-14.010305,2.0790577,4.110169
-14.413106,2.1288092,4.099782
-14.820845,2.1819632,4.094966
-15.218276,2.2347684,4.0924034
-15.657452,2.3003123,4.10392
-17.039097,2.4876363,4.104447
-17.234539,2.4989886,4.0751977
-17.476479,2.523966,4.060445
-17.786957,2.569078,4.0670805
-18.063148,2.6064012,4.0676603
-18.332169,2.6432443,4.0693064
-18.610706,2.684296,4.0767674
-18.834911,2.7112908,4.071204
-19.023575,2.729177,4.057326
-19.262434,2.7628412,4.061106
-19.474056,2.7897482,4.058962
-19.686975,2.8182218,4.059614
-19.872875,2.8396697,4.0537586
-20.095638,2.8734798,4.0623693
-20.289604,2.8996131,4.0636644
-20.436882,2.9121597,4.050846
-20.554981,2.916212,4.0292406
-20.767427,2.9511719,4.0430527
-20.950455,2.977824,4.04848
-21.051502,2.9786062,4.025201
-21.18011,2.9890199,4.0134754
-21.384054,3.025391,4.0324554
-21.52607,3.0419912,4.029329
-21.616428,3.041679,4.006986
-21.808933,3.0771723,4.027371
-21.926912,3.0877538,4.019018
-22.048119,3.100111,4.013314
-22.203041,3.1251917,4.0234594
-22.306099,3.1324582,4.0127335
-22.431473,3.1484146,4.013027
-22.527092,3.1541104,4.0013037
-22.639738,3.1666481,3.9983964
-22.75978,3.1826043,4.0001926
-22.873451,3.1968312,4.000346
-22.977398,3.2079706,3.9971168
-23.093775,3.224522,4.001107
-23.19115,3.2343016,3.997034
-23.278149,3.2405047,3.9888182
-23.382557,3.2541475,3.9904141
-23.464058,3.2591228,3.981341
-23.552864,3.2675135,3.976965
-23.648886,3.2793765,3.9774094
-23.647165,3.250981,3.9260745
-23.770077,3.274891,3.9427085
-23.845758,3.2794693,3.9345813
-23.881313,3.2671645,3.904593
-23.97386,3.279698,3.9073935
-24.051521,3.286243,3.9026272
-24.05412,3.2598848,3.854506
-24.148502,3.2744446,3.8607974
-24.256067,3.2955647,3.8761973
-24.262285,3.2710013,3.8307633
-24.343208,3.280763,3.8314667
-24.431713,3.2945461,3.8378797
-24.480711,3.290234,3.820105
-24.472052,3.2586064,3.7653728
-24.636868,3.3101768,3.823925
-24.677864,3.3028045,3.8025236
-24.690523,3.281603,3.7622728
-24.783741,3.300248,3.7768202
-24.852934,3.3074744,3.775938
-24.880312,3.2938967,3.7465
-24.921427,3.2873268,3.7268386
-25.019451,3.3103313,3.7484322
-25.103525,3.326763,3.761189
-25.155354,3.3267362,3.7512012
-25.173983,3.3092198,3.7168336
-25.203144,3.297258,3.6902962
-25.275414,3.3087847,3.6969328
-25.331444,3.3118408,3.691824
-25.41035,3.3279293,3.7053413
-25.42447,3.30814,3.6681523
-25.460258,3.300478,3.6482296
-25.563978,3.3319044,3.6841698
-25.61076,3.3311653,3.6744432
-25.632345,3.3158495,3.6439443
-25.710377,3.3338966,3.661408
-25.770714,3.3419428,3.6647105
-25.82464,3.3464923,3.6631398
-25.867502,3.3445795,3.6523738
-25.902893,3.338213,3.63526
-25.933643,3.3290153,3.6141143
-25.953175,3.3127317,3.5827203
-25.9193,3.2621648,3.501367
-25.871296,3.2015698,3.4051933
-25.87158,3.1713982,3.3533168
-25.85751,3.131293,3.2868242
-25.838428,3.0871663,3.2143197
-25.855408,3.066623,3.1763983
-25.871485,3.0452201,3.1372151
-25.867142,3.0094573,3.076827
-25.867252,2.9762125,3.020093
-25.873594,2.9468336,2.9690318
-25.86817,2.9086034,2.9047995
-25.880009,2.882186,2.8580542
-25.862011,2.8335855,2.778256
-25.860641,2.7963705,2.715321
-25.863585,2.7617393,2.6561832
-25.845299,2.7104666,2.5720968
-25.851542,2.676984,2.5145464
-25.900942,2.676353,2.506257
-25.877533,2.6188917,2.4126644
-25.890789,2.589354,2.360959
-25.867168,2.5297441,2.2639112
-25.890892,2.5073688,2.2229214
-25.881584,2.4575298,2.140439
-25.872742,2.4070876,2.0569496
-25.830452,2.3274598,1.9291372
-25.842972,2.2928293,1.8693986
-25.865303,2.2660449,1.821557
-25.888674,2.239737,1.7744465
-25.880413,2.1849878,1.6840267
-25.881105,2.137109,1.6039896
-25.879677,2.0863128,1.5194311
-25.896675,2.051398,1.4590769
-25.897669,2.0008912,1.3748455
-25.902706,1.9531186,1.2947359
-25.922596,1.9185419,1.2348132
-34.581383,1.397104,0.39462137
-34.59742,1.4440722,0.47419024
-34.60009,1.5034378,0.57281256
-34.605865,1.558388,0.6645727
-34.58222,1.6408606,0.7985525
-34.59183,1.6893609,0.88023806
-34.61839,1.720732,0.9356179
-34.5824,1.810224,1.0800023
-34.6132,1.8358073,1.1264434
-34.564877,1.9333088,1.2827778
-34.6069,1.9470539,1.3110743
-34.554314,2.0449834,1.4677348
-34.599735,2.0544941,1.4895597
-34.58033,2.1203208,1.5970764
-34.59789,2.1530595,1.6542182
-34.58647,2.209784,1.7477174
-34.60414,2.241028,1.8025208
-34.61732,2.2754674,1.8621454
-34.64999,2.2934031,1.8968201
-34.650707,2.336934,1.9701395
-34.689316,2.3494601,1.9966965
-34.709335,2.3765783,2.0452623
-34.759003,2.3802183,2.0585709
-34.79347,2.3957133,2.0897589
-34.81824,2.4184606,2.131857
-34.52781,2.7157137,2.591897
-34.580048,2.7145803,2.597865
-34.62081,2.7220292,2.616723
-34.66088,2.730037,2.6364927
-34.695908,2.7416747,2.6617246
-34.77379,2.7232075,2.6424484
-35.585934,2.195822,1.8712091
-34.820213,2.7632236,2.7180767
-34.86681,2.7670476,2.7320848
-34.889645,2.786973,2.7698703
-34.888844,2.8223865,2.8304033
-34.932323,2.8281913,2.8475032
-34.97904,2.8320026,2.861785
-35.058784,2.814748,2.8454375
-35.12302,2.8079627,2.8445668
-35.17208,2.8111033,2.8582978
-35.221157,2.8144097,2.872388
-35.274323,2.8153772,2.8832116
-35.316624,2.823184,2.9040504
-35.372593,2.8228424,2.9132395
-35.421738,2.8268251,2.9287953
-35.46462,2.8346689,2.950015
-35.526333,2.831615,2.95573
-35.569878,2.839371,2.9770608
-35.602707,2.853341,3.007351
-35.666718,2.8496552,3.012598
-35.720848,2.8518333,3.0263486
-35.772854,2.8554046,3.0422158
-35.827778,2.8575695,3.0562372
-35.880558,2.8611197,3.072361
-35.942158,2.8601325,3.0822558
-36.00461,2.8589866,3.0921087
-36.061977,2.8608096,3.1062927
-36.123875,2.8605163,3.1176925
-36.179115,2.8639348,3.1344328
-36.243423,2.8629434,3.1452227
-36.309364,2.8614357,3.1554942
-36.372375,2.861707,3.1684198
-36.43547,2.862221,3.1818714
-36.513275,2.8558242,3.1860566
-36.58511,2.8527424,3.195022
-36.63222,2.8618698,3.2208304
-36.689396,2.866341,3.2404552
-36.742645,2.8728683,3.263032
-36.803745,2.8759236,3.2810912
-36.847443,2.887232,3.310423
-36.89578,2.89651,3.3371592
-36.955215,2.9009118,3.3575358
-36.986546,2.9180808,3.3950624
-37.0265,2.9314137,3.4275808
-37.058178,2.9484153,3.4650455
-37.10263,2.9598696,3.4952965
-38.06304,2.5791502,3.0125666
-38.118454,2.5901356,3.0445094
-38.131725,2.6189542,3.099771
-38.144535,2.6477551,3.1549945
-38.15771,2.676196,3.2097387
-38.16626,2.706318,3.2666225
-38.165115,2.7401106,3.328155
-38.137352,2.7842026,3.402691
-38.136684,2.8170855,3.462852
-38.138866,2.8485622,3.5211706
-38.14309,2.8789873,3.5781093
-38.139996,2.911968,3.6381822
-38.214294,2.9153574,3.6614795
-38.31526,2.9090743,3.6731324
-38.412117,2.9048345,3.6877122
-38.49702,2.9054646,3.7086382
-38.61847,2.8932154,3.7142763
-38.682724,2.902179,3.7460485
-38.745144,2.9120216,3.7791238
-38.88991,2.8931067,3.7781334
-38.953274,2.9033508,3.8123808
-39.02624,2.9105034,3.843235
-39.197445,2.8844624,3.8355212
-39.241295,2.9023578,3.8797374
-39.3437,2.9007912,3.901617
-39.490887,2.884934,3.907558
-39.537163,2.9028292,3.9526768
-39.678463,2.8901181,3.9633327
-39.791218,2.88728,3.985765
-39.868843,2.8960934,4.0217257
-39.969948,2.897869,4.0502496
-40.07745,2.898129,4.0775933
-40.255177,2.8774137,4.08263
-40.497276,2.8382018,4.0686264
-40.664078,2.8229077,4.081505
-40.93956,2.7763505,4.0621066
-41.18182,2.7411046,4.0561
-41.393353,2.7161102,4.062091
-41.64143,2.6818185,4.0596557
-41.94205,2.634053,4.0448604
-42.22399,2.593219,4.038773
-42.49453,2.5571103,4.0390205
-42.814243,2.5090642,4.029034
-43.129158,2.4641075,4.0239377
-43.463573,2.4156957,4.0173697
-43.812885,2.365216,4.0108314
-44.200676,2.3066473,3.9987912
-44.60167,2.2468436,3.9879847
-45.014004,2.1863832,3.9790654
-45.45285,2.1215432,3.9687734
-45.91926,2.052288,3.957336
-46.376247,1.9879229,3.953189
-46.88372,1.9138348,3.9436092
-47.45047,1.8283553,3.9276862
-48.002197,1.7495537,3.9211268
-48.570354,1.6699381,3.9176168
-49.381256,1.5374994,3.8754053
-50.05374,1.4410446,3.867281
-10.949741,1.690119,3.881411
-12.567871,1.9990216,4.078488
-13.196407,2.090907,4.0989213
-13.738506,2.166245,4.108897
-14.11537,2.2057981,4.090409
-14.575403,2.267125,4.093995
-14.945111,2.3092422,4.0827804
-15.340693,2.3596582,4.081562
-15.718401,2.4078286,4.0806146
-16.021584,2.4394574,4.06608
-16.381746,2.4871168,4.068879
-16.742031,2.5367942,4.0757704
-16.95398,2.5500555,4.0485444
-17.376549,2.6196148,4.0791206
-17.805521,2.654304,4.0400896
-18.106995,2.6969662,4.048621
-18.398392,2.7385526,4.0576754
-18.61486,2.7609515,4.0479774
-18.842896,2.7877731,4.0441537
-19.065779,2.8143837,4.0413017
-19.240278,2.8282995,4.025777
-19.494307,2.866284,4.037588
-19.691746,2.8890631,4.0338545
-19.928877,2.9247477,4.0455356
-20.10974,2.9448545,4.040864
-20.305603,2.9705226,4.043394
-20.512695,3.0007527,4.052102
-20.611668,2.9985158,4.024403
-20.747524,3.0083427,4.011151
-20.953173,3.0410922,4.025322
-21.137535,3.0682015,4.0338335
-21.258808,3.07586,4.0201635
-21.40567,3.0925615,4.0178185
-21.573431,3.1170287,4.0254564
-21.699062,3.1283169,4.0179434
-21.838507,3.1449752,4.0175033
-21.933586,3.1471908,4.00003
-22.089003,3.1708071,4.0092506
-22.18798,3.1755495,3.995827
-22.335526,3.198011,4.0048285
-22.438305,3.2053123,3.9955256
-22.555552,3.2183945,3.9939015
-22.680208,3.2348478,3.997016
-22.76754,3.238224,3.9840577
-22.851294,3.240702,3.970295
-22.951954,3.2499793,3.9655619
-23.003086,3.240912,3.9376206
-23.077995,3.2411733,3.9219072
-23.207592,3.263095,3.934593
-23.218279,3.239008,3.8877954
-23.348112,3.2621498,3.9028406
-23.425745,3.265129,3.8918786
-23.432701,3.239796,3.8438063
-23.587158,3.2747893,3.8756948
-23.647009,3.271607,3.8573706
-23.640448,3.2408533,3.802402
-23.796,3.2783923,3.8389518
-23.848312,3.2728717,3.818128
-23.866663,3.2528665,3.777896
-24.003744,3.284583,3.8078198
-24.056683,3.2801428,3.7890534
-24.083275,3.2641635,3.7546926
-24.191166,3.284751,3.770484
-24.253452,3.285308,3.7591243
-24.26052,3.2607803,3.7133708
-24.371445,3.2842574,3.7339993
-24.44358,3.2903016,3.7308245
-24.473589,3.2767768,3.7006426
-24.517693,3.2699933,3.6799378
-24.640995,3.3016717,3.7132068
-24.676388,3.2912889,3.687839
-24.694412,3.2723727,3.650538
-24.813393,3.3037233,3.684239
-24.874414,3.3067532,3.6782413
-24.900093,3.2920864,3.6472983
-24.959507,3.2947416,3.6410594
-25.043224,3.3103502,3.653482
-25.09411,3.3092713,3.6422887
-25.166912,3.3200603,3.6482587
-25.174568,3.2963386,3.6048226
-25.198576,3.2812304,3.5737805
-25.27755,3.296184,3.5862088
-25.369722,3.3190072,3.6102738
-25.424316,3.321505,3.605123
-25.42501,3.2937822,3.5561543
-25.51903,3.3190799,3.5844426
-25.5677,3.3189316,3.575838
-25.598927,3.3088152,3.5527616
-25.6296,3.298379,3.5292778
-25.744076,3.3379653,3.5794063
-25.787445,3.3357224,3.5682607
-25.83484,3.3361073,3.5610976
-25.859291,3.3225672,3.533454
-25.90466,3.3219843,3.5250506
-25.910826,3.2968996,3.4803734
-25.934587,3.2826853,3.451839
-25.871567,3.2124758,3.3398829
-25.842484,3.1630218,3.258648
-25.846004,3.134153,3.2080512
-25.866087,3.1158838,3.1732955
-25.874413,3.089507,3.1263876
-25.861147,3.0480556,3.0567923
-25.883785,3.0306063,3.0232434
-25.88,2.9945786,2.9616942
-25.864588,2.9497604,2.886798
-25.872726,2.9209135,2.8359623
-25.857132,2.8745193,2.7585068
-25.861155,2.8415742,2.701355
-25.835348,2.7860875,2.6098971
-25.842098,2.7538178,2.5536408
-25.857119,2.7272623,2.5060601
-25.873812,2.7015834,2.4598093
-25.884056,2.6705384,2.4053497
-25.889177,2.6349711,2.3439422
-25.877401,2.5853972,2.2610192
-25.876213,2.5433376,2.1895337
-25.86528,2.4925778,2.104611
-25.886908,2.4675424,2.059184
-25.8241,2.3719316,1.905005
-25.84204,2.3421366,1.8521161
-25.858408,2.3104987,1.7963715
-25.885515,2.287574,1.7540917
-25.895649,2.2494726,1.6883326
-25.872614,2.1812704,1.5758724
-25.881008,2.1397333,1.5046644
-25.87592,2.0851133,1.4130859
-25.896286,2.0527384,1.356029
-25.89073,1.9955771,1.2603688
-25.896294,1.9476511,1.1790204
-34.611885,1.4811096,0.41909504
-34.636223,1.5186677,0.48481798
-34.591743,1.6227684,0.65454865
-34.573315,1.6992068,0.78086615
-34.602093,1.7289455,0.8342056
-34.614334,1.7736893,0.9109411
-34.65942,1.7870903,0.93885374
-34.60502,1.8913951,1.1081676
-34.633232,1.9186878,1.1576338
-34.59442,2.0052671,1.2990847
-34.614105,2.038442,1.3575892
-34.603462,2.097378,1.455955
-34.61406,2.1368709,1.5241604
-34.591995,2.2032998,1.6339173
-34.605064,2.2389433,1.6960607
-34.613026,2.2781825,1.7637177
-34.617424,2.3196228,1.8347154
-34.633316,2.3510373,1.8902612
-34.67065,2.3648622,1.918808
-34.702057,2.3832655,1.9544249
-34.71761,2.4138083,2.0086527
-34.770294,2.4153392,2.0185404
-34.79201,2.4405982,2.0647373
-34.82506,2.457007,2.0974598
-34.850105,2.479225,2.1390624
-34.56878,2.725835,2.5215278
-34.588737,2.7486346,2.5635343
-34.63022,2.7557187,2.5817504
-34.66917,2.764666,2.6028633
-34.70368,2.7767584,2.628796
-35.519146,2.2479904,1.8396306
-35.574295,2.2519405,1.854763
-35.600323,2.2757955,1.8999157
-34.908787,2.7798536,2.6652107
-34.949947,2.787872,2.685452
-34.970955,2.8091538,2.7255964
-35.02614,2.808076,2.732398
-35.068954,2.8151834,2.751522
-35.1051,2.8266118,2.7771564
-35.98239,2.3108602,2.0207815
-36.01386,2.330884,2.06077
-36.0423,2.352623,2.1033344
-35.33294,2.8218029,2.8058586
-35.36814,2.8343453,2.8336248
-35.438248,2.82615,2.8309927
-35.467773,2.8422236,2.8641295
-35.53885,2.834068,2.8618698
-35.58495,2.8407037,2.8813972
-35.647224,2.8382604,2.8878102
-35.707516,2.8372505,2.8964734
-35.758644,2.8416336,2.9131174
-35.812645,2.8446112,2.927855
-35.86523,2.8485694,2.9441485
-35.924362,2.8491833,2.955762
-35.977737,2.8531392,2.9723349
-36.048748,2.8479636,2.975965
-36.109623,2.8484793,2.987937
-36.16613,2.8515315,3.0036936
-36.227894,2.852111,3.016089
-36.291992,2.8517833,3.0273728
-36.350914,2.8543518,3.0429387
-36.412914,2.8556325,3.0568542
-36.488712,2.850401,3.0617905
-36.55015,2.8525615,3.0773277
-36.614723,2.853471,3.0912957
-36.690216,2.8494647,3.0986028
-36.74177,2.857139,3.1223826
-36.786236,2.8682806,3.1511092
-36.84942,2.8708582,3.1681223
-36.893707,2.882341,3.1975884
-36.950546,2.8882272,3.219491
-36.98506,2.904317,3.2555175
-37.02575,2.9176645,3.2878847
-37.062244,2.9329045,3.322927
-37.096916,2.9489539,3.3591537
-37.08839,2.9835773,3.4205127
-38.103683,2.5821958,2.8958325
-38.124496,2.608189,2.9476213
-38.143257,2.6348872,3.0003653
-38.16324,2.6609137,3.0522256
-38.16708,2.6933804,3.1126232
-38.165398,2.7277968,3.1755342
-38.16314,2.7621212,3.2382455
-38.13936,2.804641,3.3115864
-38.137558,2.838062,3.372909
-38.138584,2.870083,3.4323406
-38.145866,2.8994303,3.4882584
-38.20542,2.9087136,3.5183825
-38.24099,2.9272072,3.5604796
-38.41341,2.8948388,3.5379953
-38.48764,2.8996625,3.563305
-38.572235,2.9010217,3.5845308
-38.685474,2.8924477,3.5936441
-38.713806,2.914729,3.6416702
-38.85342,2.8977282,3.6410813
-38.956703,2.8941898,3.6576853
-38.99607,2.9132237,3.7023802
-39.16021,2.8896866,3.695332
-39.245377,2.8937793,3.722484
-39.28714,2.9127471,3.7678933
-39.482407,2.8810172,3.7527905
-39.539265,2.8957055,3.7937775
-39.62992,2.89962,3.822258
-39.79234,2.8809702,3.8246617
-39.828354,2.9032228,3.8754807
-40.010178,2.8798459,3.8736339
-40.11833,2.880297,3.9000301
-40.17485,2.8970623,3.9455209
-40.37394,2.8708124,3.9425855
-40.434963,2.8870192,3.9882917
-40.542404,2.8896637,4.019159
-40.636124,2.8968158,4.0555162
-40.79871,2.8844323,4.0709352
-41.067524,2.8425002,4.055134
-41.282635,2.8172965,4.0587506
-41.53712,2.7822573,4.053039
-41.794113,2.7479458,4.0494766
-42.069416,2.7100582,4.0435867
-42.336086,2.676035,4.043218
-42.65943,2.6283545,4.0303764
-42.98174,2.5827608,4.021487
-43.28607,2.543645,4.0209303
-43.65409,2.4898028,4.007581
-43.999454,2.4437742,4.0040326
-44.357864,2.3963666,4.001206
-44.787064,2.3333533,3.98568
-45.209698,2.2743344,3.9765286
-45.66461,2.209828,3.9649043
-46.11007,2.1500902,3.9604778
-46.58314,2.086268,3.9551916
-47.123062,2.009444,3.9414244
-47.689957,1.929378,3.928337
-48.211082,1.8628187,3.930541
-48.903984,1.7605531,3.9061656
-49.786728,1.6200743,3.8549156
-50.226677,1.5812078,3.8920288
-11.01539,1.864495,3.9559522
-12.472918,2.1255271,4.118071
-12.94879,2.178619,4.1064544
-13.330919,2.2133422,4.0813923
-13.832977,2.277204,4.0852423
-14.331149,2.342915,4.093916
-14.689134,2.3788216,4.0776734
-15.087405,2.4261105,4.074416
-15.467786,2.4713035,4.0715094
-15.8777075,2.5256898,4.079833
-16.184555,2.5571702,4.0678625
-16.504036,2.593422,4.0624304
-16.68911,2.5977635,4.026429
-17.735699,2.7438865,4.063957
-18.030138,2.7822073,4.0692663
-18.19433,2.7875245,4.040818
-18.460608,2.8211374,4.0438066
-18.678923,2.8431659,4.0355473
-18.932854,2.8761897,4.0405207
-19.177809,2.9081318,4.045597
-19.347534,2.9202256,4.029666
-19.59135,2.9543495,4.0394735
-19.776752,2.9729972,4.0328574
-19.978176,2.9973302,4.033674
-20.132591,3.008903,4.0206923
-20.314878,3.0296156,4.019098
-20.515728,3.0569453,4.0261393
-20.709656,3.0833044,4.032981
-20.867851,3.099732,4.028893
-20.992393,3.1065154,4.0139585
-21.144493,3.1226454,4.0108585
-21.32032,3.147193,4.0186663
-21.43145,3.1518636,4.0029583
-21.580584,3.1695046,4.003679
-21.701841,3.1787848,3.9947004
-21.850183,3.1977487,3.9982886
-21.969913,3.2079098,3.9914937
-22.073568,3.213236,3.97911
-22.18751,3.2226417,3.972308
-22.262844,3.2192097,3.9496384
-22.394575,3.23597,3.953072
-22.400433,3.208683,3.9004352
-22.588642,3.246808,3.9322429
-22.58356,3.215852,3.8751864
-22.748486,3.247094,3.8991404
-22.794136,3.235077,3.8671033
-22.836529,3.2219505,3.833747
-22.998451,3.2542567,3.860553
-23.013723,3.2313862,3.814774
-23.158737,3.2586534,3.8358197
-23.232805,3.2590704,3.8214955
-23.25425,3.239021,3.7799282
-23.37148,3.257185,3.7899408
-23.418783,3.247818,3.763105
-23.490883,3.24871,3.7503533
-23.626831,3.276289,3.7742524
-23.634724,3.2513907,3.7267957
-23.751987,3.2723584,3.742343
-23.833908,3.2790396,3.738608
-23.851109,3.258337,3.697257
-23.964937,3.2794998,3.7140431
-24.029497,3.2797775,3.7021356
-24.054192,3.262673,3.6661377
-24.144054,3.274724,3.6710544
-24.21151,3.2771711,3.6627622
-24.261564,3.271996,3.6439276
-24.35065,3.2850528,3.6510248
-24.405973,3.282888,3.6368132
-24.4682,3.2842197,3.6277351
-24.508007,3.2751586,3.6040092
-24.619823,3.3009036,3.6301866
-24.675438,3.3000784,3.6186075
-24.6916,3.2800813,3.5796018
-24.796227,3.3039389,3.6038618
-24.847052,3.3015165,3.5904512
-24.87846,3.2894394,3.5631785
-24.933014,3.2892466,3.5532422
-25.050133,3.3217635,3.5911102
-25.081434,3.3102314,3.5650187
-25.153711,3.3204122,3.5707755
-25.17712,3.3048925,3.5390306
-25.198616,3.288251,3.505669
-25.264793,3.2959337,3.508185
-25.349943,3.3145084,3.5269742
-25.39567,3.3116996,3.514357
-25.409006,3.29078,3.4749823
-25.515013,3.3225243,3.5138955
-25.579239,3.331091,3.5186
-25.607288,3.3189793,3.4926114
-25.616302,3.2956161,3.4498425
-25.735502,3.3376086,3.5049925
-25.782583,3.337313,3.4970088
-25.834969,3.3404622,3.4943185
-25.883863,3.3417497,3.4889512
-25.920034,3.3353662,3.4721198
-25.898914,3.2930143,3.4009624
-25.951965,3.2971184,3.4000702
-25.881987,3.2224011,3.2796779
-25.849077,3.1703367,3.1934447
-25.860811,3.1466815,3.1503143
-25.847542,3.1060865,3.0813332
-25.85719,3.0802069,3.03474
-25.861061,3.0500336,2.9815574
-25.864277,3.0189419,2.926927
-25.85267,2.9770477,2.8556733
-25.871922,2.9561327,2.8165803
-25.866035,2.9170606,2.7495427
-25.855513,2.8739655,2.6762285
-25.834509,2.8224514,2.589828
-25.837109,2.7873569,2.528695
-25.857462,2.764911,2.4870987
-25.867737,2.734553,2.4332438
-25.876293,2.70239,2.376562
-25.89294,2.6759403,2.328733
-25.876566,2.6232445,2.2400417
-25.873121,2.5797398,2.1655688
-25.863316,2.5303025,2.081769
-25.870579,2.493741,2.0179973
-25.818834,2.4080176,1.8772774
-25.853655,2.3924205,1.8461795
-25.86023,2.3528764,1.7775741
-25.884663,2.3278117,1.7316599
-25.875803,2.2735844,1.6399212
-25.884808,2.2338421,1.5708847
-25.873934,2.1756923,1.472817
-25.87095,2.1233587,1.3838248
-25.868055,2.0699782,1.2931051
-25.88083,2.0298872,1.2233143
-34.597584,1.5463362,0.42100382
-34.615032,1.5901403,0.49721432
-34.584236,1.6796713,0.6459174
-34.58031,1.7414324,0.75045586
-34.614567,1.7658861,0.79586077
-34.605446,1.8302295,0.9043665
-34.631763,1.8606794,0.9592366
-34.585648,1.9560943,1.1166177
-34.645027,1.9551494,1.1219125
-34.593266,2.0524054,1.2819252
-34.639683,2.062054,1.3039336
-34.584694,2.1587899,1.4628186
-34.642185,2.157985,1.4684167
-34.586277,2.2524009,1.6233602
-34.639633,2.254381,1.6333642
-34.626953,2.3104975,1.7281103
-34.597538,2.3789918,1.8420815
-34.626118,2.399858,1.8816118
-34.693924,2.389586,1.8726659
-34.698692,2.4288414,1.940918
-34.708424,2.463592,2.002122
-34.746506,2.476239,2.0289989
-34.784397,2.4889808,2.0560808
-34.815598,2.5066345,2.0908217
-34.856026,2.5173645,2.114902
-34.860878,2.5538645,2.1788116
-34.57511,2.7978888,2.5624056
-34.63783,2.789873,2.5572639
-34.676834,2.7988694,2.5784025
-34.706432,2.8144064,2.6096406
-35.513115,2.2982905,1.8267407
-34.86425,2.7784388,2.5697293
-34.909027,2.7842414,2.5863895
-34.944828,2.7960942,2.6123605
-35.01133,2.787854,2.607819
-35.04053,2.8041618,2.6407304
-35.68402,2.4274938,2.0777774
-35.717663,2.4450898,2.113752
-35.813206,2.423856,2.0911016
-35.155323,2.8695707,2.7730303
-35.197266,2.8775523,2.7935982
-35.247906,2.8803482,2.80646
-35.286346,2.8906438,2.8306856
-35.414253,2.847967,2.7756839
-35.511017,2.8583276,2.809569
-35.548916,2.8697484,2.8359632
-35.64769,2.846643,2.8111582
-35.69413,2.8536818,2.831314
-35.745483,2.858111,2.8477154
-35.8247,2.8474047,2.841908
-35.88197,2.8491347,2.8546333
-35.9393,2.851073,2.8678098
-35.985786,2.8590257,2.8899484
-36.073868,2.8451755,2.8803139
-36.111626,2.8581412,2.9100585
-36.161034,2.8651137,2.9311576
-36.22526,2.8646634,2.9416032
-36.287357,2.8655915,2.9542217
-36.35254,2.8652513,2.965178
-36.428406,2.8599298,2.9691405
-36.49082,2.8616061,2.9833813
-36.540333,2.8698065,3.0071435
-36.62966,2.8590474,3.003941
-36.68617,2.864398,3.0239725
-36.744995,2.868863,3.0429006
-36.79916,2.8757193,3.0653796
-36.85876,2.8802514,3.084724
-36.892437,2.8968172,3.1211853
-36.938507,2.9077795,3.1498485
-36.986835,2.9178348,3.1773615
-37.047813,2.9224284,3.1973825
-37.07117,2.9436922,3.2407675
-37.138428,2.9458728,3.2577329
-38.104095,2.5640008,2.7444124
-38.121033,2.5920444,2.799232
-38.13833,2.6197426,2.8535767
-38.151085,2.6491382,2.9102397
-38.158432,2.6805346,2.9696107
-38.16691,2.7112112,3.027964
-38.169907,2.743843,3.0889263
-38.149895,2.785339,3.1617637
-38.144203,2.820731,3.2262616
-38.134556,2.857317,3.2922606
-38.14617,2.8853364,3.346758
-38.15734,2.9133365,3.4012117
-38.225742,2.91955,3.4269214
-38.369896,2.8977466,3.416088
-38.43084,2.9075446,3.4471211
-38.501984,2.9138157,3.4737725
-38.658318,2.8895593,3.4611564
-38.69777,2.908063,3.5042672
-38.769028,2.9153395,3.5330977
-38.942863,2.8869615,3.5167127
-38.976864,2.908084,3.56387
-39.056965,2.9133978,3.591164
-39.221382,2.8904529,3.5832953
-39.25592,2.9120288,3.6317072
-39.392693,2.899679,3.6381087
-39.5431,2.8835921,3.6404858
-39.56404,2.9103675,3.6960921
-39.768364,2.8781571,3.6798277
-39.819473,2.8958063,3.7248936
-39.92868,2.8953214,3.7483177
-40.087498,2.8799474,3.754416
-40.16726,2.889717,3.7910995
-40.309387,2.8808525,3.8061447
-40.40457,2.8868227,3.8392138
-40.54979,2.8783445,3.8559127
-40.668785,2.878312,3.8830366
-40.764076,2.885725,3.9192343
-40.92995,2.873288,3.933332
-41.037273,2.8783293,3.9679222
-41.139053,2.8854032,4.005287
-41.26297,2.8867836,4.036835
-41.436035,2.8752818,4.0548654
-41.70687,2.8382063,4.0460024
-41.98493,2.800713,4.0381355
-42.265556,2.7640877,4.032695
-42.545,2.7293248,4.0307484
-42.842888,2.6913354,4.026974
-43.196873,2.640685,4.0117936
-43.49624,2.6057663,4.0146766
-43.85469,2.5577745,4.006076
-44.21964,2.5101626,3.9999309
-44.651676,2.4482787,3.9818769
-45.080948,2.389454,3.969368
-45.485535,2.3388343,3.9673085
-45.953793,2.2755466,3.9557295
-46.4326,2.2123945,3.9471645
-46.89807,2.1548924,3.9467711
-47.464935,2.0771346,3.9310122
-48.049286,1.998604,3.9182034
-48.609844,1.9284649,3.9165163
-49.493656,1.7915828,3.8612213
-50.133793,1.7114794,3.8596869
-10.973389,1.9641876,3.9001675
-12.508905,2.233467,4.0804496
-13.191454,2.328453,4.1107883
-13.663523,2.3814268,4.106252
-14.020838,2.4116535,4.0830817
-14.461687,2.462421,4.081756
-14.893085,2.513438,4.083292
-15.260777,2.5521927,4.0752606
-15.633472,2.5940893,4.072493
-16.034805,2.6447463,4.0807276
-16.3633,2.6802487,4.0757003
-16.64768,2.7068784,4.0632987
-17.500353,2.7958035,4.0449104
-17.817093,2.8367796,4.0540724
-18.04425,2.8565025,4.0416527
-18.405243,2.912243,4.0701904
-18.607014,2.9281354,4.0561686
-18.826973,2.9499407,4.0498114
-19.062191,2.9770517,4.0505714
-19.252487,2.9932032,4.0399485
-19.47004,3.0178962,4.0401087
-19.675098,3.0402994,4.038656
-19.886982,3.0657601,4.0417705
-20.064468,3.0825658,4.0356593
-20.245188,3.1012697,4.0326333
-20.370892,3.1048632,4.0123167
-20.579876,3.1337368,4.02309
-20.716755,3.1422195,4.010021
-20.88675,3.1614442,4.010702
-21.020298,3.170454,3.9995518
-21.220829,3.2009158,4.0155725
-21.326792,3.202931,3.9969902
-21.380018,3.1887617,3.9585335
-21.550726,3.2123744,3.9679549
-21.579113,3.1908836,3.9208436
-21.761488,3.2197948,3.9381435
-21.800571,3.2023525,3.896716
-21.951336,3.2223487,3.9037106
-21.989647,3.205162,3.8630948
-22.156336,3.231944,3.8799045
-22.171215,3.2072294,3.8299294
-22.352715,3.2406416,3.8564725
-22.367785,3.2163696,3.807457
-22.477804,3.225891,3.8033462
-22.581528,3.2337418,3.7974167
-22.617554,3.2174425,3.7594995
-22.800922,3.2555337,3.7948976
-22.783464,3.2199397,3.7313905
-22.939648,3.2493935,3.7560558
-23.002634,3.2443504,3.7342906
-23.064781,3.2392368,3.7126312
-23.215351,3.2687745,3.7387667
-23.208168,3.237268,3.6812859
-23.340553,3.2608964,3.700025
-23.432785,3.2692468,3.6980171
-23.428715,3.2390313,3.642561
-23.577171,3.2710638,3.6741076
-23.623951,3.261966,3.6484504
-23.654612,3.2462494,3.6136007
-23.75729,3.261005,3.6218696
-23.826624,3.2621312,3.6111603
-23.895031,3.2631953,3.6005735
-23.98082,3.2721848,3.6014986
-24.044924,3.2721014,3.5897136
-24.126274,3.2800112,3.5895863
-24.20343,3.286497,3.5876608
-24.25301,3.2808561,3.5684676
-24.269966,3.2603726,3.527924
-24.394756,3.2899017,3.5599728
-24.451866,3.288531,3.5474591
-24.473682,3.2706518,3.511015
-24.56434,3.285717,3.5227919
-24.65533,3.3015406,3.5359545
-24.666727,3.2789578,3.4929233
-24.717506,3.2756763,3.4783297
-24.836128,3.3065567,3.51434
-24.88351,3.3023202,3.4987078
-24.899168,3.2820344,3.4593654
-24.992199,3.301557,3.4792595
-25.07012,3.3138633,3.4886646
-25.117935,3.3107991,3.4753175
-25.157793,3.3036752,3.4560032
-25.159716,3.2761955,3.406221
-25.254084,3.2987504,3.4316578
-25.304647,3.2979116,3.422104
-25.391048,3.31725,3.4431453
-25.409748,3.2991505,3.4077706
-25.470486,3.3048089,3.4084349
-25.538609,3.3150744,3.4162517
-25.596113,3.3196268,3.4155493
-25.615902,3.3023493,3.381699
-25.718002,3.3338199,3.4223404
-25.766796,3.3341954,3.4156766
-25.81616,3.3351521,3.410015
-25.85811,3.3318017,3.397851
-25.883556,3.3183527,3.3702388
-25.909218,3.3049593,3.3427467
-25.898659,3.2684994,3.279684
-25.88948,3.2323244,3.21698
-25.863712,3.1847873,3.1366024
-25.86248,3.152501,3.0797524
-25.844826,3.108803,3.0051208
-25.85441,3.0826206,2.9576364
-25.860764,3.0538692,2.906129
-25.857178,3.0178545,2.843257
-25.865349,2.989404,2.7921438
-25.880764,2.9656124,2.7482953
-25.8357,2.8984835,2.6365285
-25.830366,2.8585932,2.5673175
-25.834158,2.824637,2.5073605
-25.864529,2.8096893,2.477272
-25.8648,2.7721796,2.411675
-25.867569,2.7358909,2.347951
-25.867632,2.6968946,2.2799044
-25.886127,2.6714323,2.2332067
-25.871284,2.6195085,2.1446085
-25.869833,2.5771472,2.0710711
-25.829391,2.5027215,1.946579
-25.830612,2.4604979,1.8730807
-25.854446,2.436048,1.8278055
-25.862597,2.398175,1.7611628
-25.876856,2.364736,1.7015543
-25.877007,2.3186421,1.6217289
-25.870802,2.2661142,1.5315619
-25.889011,2.2338557,1.4737406
-25.881731,2.1783857,1.3787422
-25.872593,2.1200325,1.2790408
-25.877258,2.0729575,1.1973462
-34.603004,1.591526,0.38817644
-34.605217,1.6498139,0.4885106
-34.567997,1.7444751,0.647336
-34.60785,1.764184,0.6854267
-34.614742,1.8142929,0.77241135
-34.593124,1.8895104,0.899652
-34.630405,1.9096689,0.9384594
-34.565887,2.0205534,1.1226616
-34.631256,2.0142446,1.119039
-34.56579,2.1222885,1.2983708
-34.635574,2.1115663,1.2877588
-34.56512,2.2203944,1.4680185
-34.619755,2.2219214,1.4770017
-34.576027,2.3050556,1.6159925
-34.620564,2.3142533,1.6372237
-34.64239,2.341803,1.6876731
-34.59863,2.4212143,1.8203964
-34.624973,2.4437432,1.8627968
-34.649197,2.4676242,1.9073539
-34.67297,2.4915257,1.9519577
-34.70839,2.506262,1.9821033
-34.74357,2.5210783,2.0124216
-34.799015,2.5207696,2.0189724
-34.788383,2.5691311,2.102168
-34.817863,2.5875711,2.1382813
-34.811577,2.6314244,2.2142806
-34.77715,2.6944199,2.3201785
-34.77741,2.731962,2.3861046
-34.77753,2.7689848,2.4511628
-34.807907,2.7847352,2.4829917
-34.84989,2.7925317,2.5024743
-34.891796,2.800452,2.522225
-34.9203,2.817289,2.5558949
-34.990044,2.8070698,2.5476623
-35.033726,2.8141522,2.566371
-35.714443,2.4146082,1.9569259
-35.70379,2.4606924,2.0369883
-35.784237,2.4491572,2.028224
-35.77967,2.4906638,2.1011972
