x,y,z
-41.254654,2.8890889,4.039385
-41.413803,2.881372,4.0615435
-41.68366,2.8444912,4.052829
-41.943047,2.811918,4.0501914
-42.189064,2.7843084,4.054238
-42.510406,2.73836,4.0402765
-42.79979,2.702458,4.03858
-43.11706,2.6610322,4.032794
-43.463306,2.6140594,4.02314
-43.836777,2.562231,4.01057
-44.170513,2.5222328,4.0119596
-44.579727,2.4657345,3.9990568
-45.012657,2.4058156,3.9852643
-45.448475,2.347602,3.9757123
-45.889053,2.2906675,3.9700212
-46.37442,2.2258096,3.9596615
-46.89425,2.1557627,3.9475684
-47.381668,2.0958405,3.9479113
-48.052162,1.9979668,3.9176369
-48.560867,1.9391792,3.9258766
-49.20318,1.8542817,3.9150352
-50.198338,1.6977351,3.8481078
-50.76542,1.6366165,3.866794
-11.490425,2.017931,3.8862114
-13.04455,2.2969356,4.081906
-13.712412,2.3920588,4.1161523
-14.096436,2.4283166,4.0988383
-14.480793,2.4666886,4.085851
-14.876874,2.509769,4.0797205
-15.289331,2.558741,4.0817227
-15.656273,2.5993867,4.0777903
-15.988342,2.633811,4.069654
-16.335855,2.6737063,4.068994
-16.724184,2.7253485,4.082458
-17.442158,2.781216,4.0292697
-17.849873,2.8450994,4.063085
-18.097519,2.8701887,4.0566273
-18.302677,2.8855677,4.04072
-18.557709,2.9151564,4.0416946
-18.84275,2.954145,4.0545416
-19.029783,2.9683137,4.0406504
-19.243252,2.990683,4.0370626
-19.424892,3.0054297,4.025715
-19.66131,3.0364478,4.034173
-19.819141,3.0465841,4.0192757
-20.007774,3.0663536,4.016496
-20.227861,3.0962567,4.0266643
-20.416367,3.1181717,4.0282793
-20.545406,3.1235337,4.010766
-20.72761,3.1454694,4.0139737
-20.917416,3.1707315,4.0220714
-21.032888,3.1743112,4.004304
-21.193926,3.1925826,4.0052404
-21.295498,3.193128,3.9847612
-21.46114,3.214458,3.9907813
-21.482292,3.190455,3.940286
-21.673027,3.2212996,3.9594572
-21.68465,3.194633,3.906022
-21.88597,3.2306266,3.9330053
-21.88991,3.2017865,3.8771796
-22.084984,3.2374253,3.90494
-22.100544,3.2128568,3.8550239
-22.215523,3.2225535,3.8500037
-22.300768,3.2224793,3.8325658
-22.385902,3.2227733,3.8159256
-22.52681,3.2433977,3.8266053
-22.556683,3.224771,3.7854447
-22.719126,3.254516,3.8091946
-22.739693,3.2329452,3.7644877
-22.853785,3.2461603,3.7668386
-22.9464,3.2519383,3.75951
-22.969843,3.2318602,3.7172675
-23.097443,3.2518106,3.7298365
-23.133598,3.236968,3.695076
-23.239742,3.2496822,3.6984034
-23.337242,3.259581,3.698205
-23.36603,3.2424405,3.6607833
-23.51653,3.2746687,3.6922374
-23.573902,3.2697234,3.6722322
-23.568619,3.2390323,3.616261
-23.722672,3.2747545,3.6537437
-23.770195,3.2664678,3.6295881
-23.837065,3.2665968,3.6174903
-23.933407,3.2797818,3.6241584
-23.970474,3.267666,3.5950537
-24.005316,3.2546194,3.5647025
-24.132582,3.282825,3.5936232
-24.178318,3.2751787,3.571373
-24.18975,3.252044,3.5268846
-24.336803,3.2911353,3.5724468
-24.400171,3.29242,3.5636272
-24.39569,3.262128,3.5090375
-24.503542,3.2848344,3.5317082
-24.595572,3.300707,3.5447206
-24.60759,3.2783837,3.5019917
-24.692358,3.2915215,3.5113955
-24.75425,3.2938766,3.5051565
-24.81226,3.2946095,3.4966874
-24.833069,3.276801,3.4609132
-24.941217,3.3035336,3.491281
-25.018608,3.3152037,3.4995646
-25.014679,3.284911,3.445489
-25.066439,3.2836194,3.4346952
-25.172215,3.311369,3.467527
-25.22137,3.3094368,3.4561172
-25.243393,3.292925,3.4228954
-25.315273,3.3037648,3.4309263
-25.395273,3.319602,3.4466982
-25.435642,3.3137217,3.429822
-25.455881,3.296501,3.3958373
-25.528933,3.309511,3.4077997
-25.605726,3.325215,3.4240556
-25.647287,3.3207912,3.409822
-25.702414,3.3245585,3.4081917
-25.716969,3.3042698,3.369876
-25.76934,3.3067238,3.3664284
-25.80563,3.2995827,3.3483663
-25.892134,3.3236768,3.37843
-25.95508,3.333745,3.3871083
-25.963068,3.309377,3.342784
-26.028362,3.3214564,3.3547916
-26.084324,3.3279676,3.3583364
-26.14515,3.338033,3.3675241
-26.15827,3.316872,3.3283486
-26.207537,3.319707,3.326501
-26.290897,3.3459675,3.3612618
-26.338373,3.3483932,3.3590426
-26.37591,3.3441725,3.3465395
-26.420153,3.344771,3.341648
-26.457066,3.3403723,3.3290172
-26.465876,3.3158503,3.2848744
-26.480505,3.295187,3.246777
-26.411945,3.2129493,3.111793
-26.422226,3.1877184,3.0663714
-26.40638,3.1423771,2.9892097
-26.417881,3.1170263,2.9435282
-26.421349,3.08506,2.88737
-26.428852,3.055674,2.8352604
-26.429123,3.0200493,2.773234
-26.411306,2.9692485,2.6870713
-26.391281,2.9155998,2.59628
-26.383274,2.870695,2.519291
-26.405289,2.8498583,2.4805593
-26.422901,2.824999,2.4354267
-26.410904,2.774441,2.3492742
-26.417244,2.738652,2.2866344
-26.424843,2.7032554,2.224588
-26.459312,2.691002,2.1995668
-26.430578,2.6218092,2.0833259
-26.38378,2.5345325,1.937932
-26.39107,2.4950862,1.8691678
-26.41344,2.4689178,1.821713
-26.43293,2.4395332,1.7690892
-26.4309,2.3888698,1.6821928
-26.426634,2.334847,1.589817
-26.431995,2.2890656,1.5106697
-26.452744,2.2576566,1.454689
-26.435097,2.1865215,1.3344941
-26.435358,2.1320536,1.2411537
-35.214394,1.5575137,0.39540195
-35.252827,1.5809793,0.44034863
-35.293484,1.6022608,0.4818492
-35.244843,1.6981287,0.6422601
-35.22765,1.7658739,0.7576833
-35.260326,1.7914741,0.8059678
-35.259468,1.8437972,0.8967209
-35.28755,1.8720574,0.9492278
-35.232056,1.9657259,1.1053848
-35.28266,1.9748812,1.1275563
-35.224087,2.068006,1.2825346
-35.28563,2.0679805,1.2902155
-35.20841,2.1723425,1.4625959
-35.26136,2.1780121,1.4792719
-35.23156,2.24445,1.5916042
-35.26054,2.2670536,1.6349387
-35.269287,2.303882,1.7006063
-35.251274,2.3590636,1.7949796
-35.261414,2.3935623,1.8568845
-35.27334,2.4263067,1.9160185
-35.30571,2.4446068,1.9526019
-35.34777,2.4562194,1.9788108
-35.368267,2.4822383,2.0274882
-35.435215,2.477274,2.028071
-35.4551,2.5034196,2.0770226
-35.489952,2.5195954,2.1105475
-35.50899,2.545781,2.1595879
-35.500137,2.5892751,2.2353225
-35.247868,2.7840765,2.5439668
-35.29848,2.7878218,2.5580182
-35.339783,2.7974346,2.581181
-35.43666,2.7735271,2.5530696
-35.50647,2.7665753,2.5511475
-35.54254,2.779984,2.5804787
-35.57226,2.7970884,2.6154995
-35.614105,2.807084,2.6397514
-36.41757,2.3813906,2.002749
-36.43746,2.4086013,2.0545263
-36.482838,2.4212728,2.084321
-35.783802,2.8463612,2.736515
-35.822212,2.8585467,2.764483
-36.6959,2.4178424,2.1119533
-35.953186,2.853936,2.7771773
-35.997208,2.863519,2.8015656
-36.112736,2.86866,2.829732
-36.18308,2.865117,2.8349428
-36.30316,2.836637,2.8033638
-36.33472,2.8536162,2.8394046
-36.428085,2.8397555,2.8299804
-36.482765,2.845557,2.84978
-36.551792,2.8445497,2.859715
-36.61487,2.846744,2.8745303
-36.682594,2.8469892,2.8866649
-36.74198,2.8514864,2.9051833
-36.81527,2.8497095,2.91474
-36.87243,2.8557587,2.9358497
-36.9358,2.8591623,2.9532862
-36.996082,2.8642263,2.973291
-37.106705,2.8469386,2.961337
-37.15617,2.8574932,2.989637
-37.222992,2.860546,3.0073438
-37.332928,2.8451393,2.9989524
-37.37681,2.858816,3.032216
-37.452705,2.858933,3.0463943
-37.50123,2.8709319,3.0775676
-37.569916,2.8746376,3.097206
-37.625595,2.8839946,3.1249714
-37.66236,2.9012418,3.1639132
-37.712868,2.91295,3.19523
-37.7426,2.9330857,3.2383718
-37.837532,2.9273942,3.2458878
-38.744316,2.604554,2.8171897
-38.786102,2.6237717,2.8611774
-38.798256,2.654365,2.920806
-38.814972,2.6830184,2.9777727
-38.822777,2.7148407,3.0390334
-38.810535,2.75386,3.1099672
-38.79849,2.7924187,3.18016
-38.788353,2.8299003,3.2487907
-38.788742,2.8632393,3.3117924
-38.796337,2.893744,3.3709693
-38.84924,2.9081013,3.4088044
-38.914116,2.9184294,3.4415112
-39.078968,2.894578,3.4297662
-39.12653,2.9116187,3.4718704
-39.285995,2.8910725,3.4654884
-39.34227,2.9058087,3.5051746
-39.42394,2.9123342,3.5345364
-39.591385,2.8912516,3.5290523
-39.63424,2.9112637,3.576311
-39.79964,2.8922834,3.5746117
-39.90213,2.8940516,3.5995908
-39.981407,2.9035254,3.634573
-40.124374,2.8936858,3.645987
-40.215397,2.9004226,3.6783857
-40.386776,2.8833365,3.682084
-40.46529,2.8948445,3.7212172
-40.606354,2.8882284,3.7388487
-40.749466,2.8817353,3.7572613
-40.813354,2.8987632,3.8042378
-41.00337,2.8801122,3.809442
-41.081833,2.893848,3.8534055
-41.295414,2.8703299,3.8545032
-41.362835,2.8881145,3.9041524
-41.57521,2.866778,3.909464
-41.69814,2.8705726,3.9442515
-41.836884,2.8707442,3.9755678
-41.93194,2.8830163,4.021
-42.12113,2.8713274,4.0405245
-42.452797,2.8242166,4.022445
-42.708473,2.7981424,4.0288315
-43.008823,2.7623081,4.0261765
-43.350334,2.7179837,4.0162005
-43.678505,2.6787865,4.013473
-44.0575,2.6291804,4.0018463
-44.418427,2.5859437,3.9988694
-44.818085,2.5356097,3.9908214
-45.28327,2.4723287,3.9722362
-45.689514,2.4250488,3.9720974
-46.19581,2.3574576,3.9547386
-46.663055,2.301311,3.951365
-47.174316,2.238055,3.9441795
-47.72975,2.1680245,3.93391
-48.36315,2.0843885,3.914771
-48.978592,2.0079825,3.9061508
-49.636635,1.9260705,3.8966799
-50.55269,1.794951,3.8491125
-50.894394,1.7846508,3.9098125
-11.635231,2.2086563,3.9715862
-13.011877,2.4384499,4.129112
-13.369293,2.4632385,4.0993843
-13.72913,2.4904003,4.074074
-14.294338,2.5635219,4.0960875
-14.670937,2.598715,4.083565
-15.135621,2.65534,4.0948777
-15.460235,2.6832035,4.0793605
-15.914538,2.7421606,4.0979204
-16.137203,2.7504685,4.065801
-17.451706,2.8974655,4.073742
-17.714357,2.9225664,4.067082
-17.939919,2.939889,4.0530467
-18.19219,2.9651065,4.0490723
-18.468166,2.9977155,4.0547967
-18.756483,3.0350258,4.0673075
-18.940004,3.0466576,4.051399
-19.16212,3.069424,4.04941
-19.332878,3.0796964,4.033719
-19.533766,3.098996,4.0295677
-19.720392,3.115488,4.0229807
-19.924946,3.1379457,4.024459
-20.11982,3.1588237,4.024949
-20.268562,3.1677134,4.011612
-20.441599,3.18434,4.00848
-20.489864,3.1657393,3.9623106
-20.657845,3.182359,3.9603803
-20.808245,3.1946847,3.953764
-20.843098,3.1731431,3.9048674
-21.053236,3.2048292,3.9239235
-21.06313,3.1762674,3.8666205
-21.274162,3.2100115,3.8896506
-21.298557,3.1863992,3.8391843
-21.485538,3.2143695,3.8560238
-21.49775,3.1873126,3.8014975
-21.699783,3.221763,3.8280058
-21.76403,3.2121935,3.7970366
-21.889616,3.2232282,3.7937045
-21.945082,3.2114072,3.7602878
-22.106724,3.2358036,3.7757058
-22.11528,3.2086277,3.7221375
-22.280533,3.2356453,3.7420216
-22.310053,3.216061,3.6990733
-22.477009,3.2451947,3.7228146
-22.519407,3.2307172,3.6872878
-22.65474,3.249998,3.6984286
-22.740387,3.25189,3.6859818
-22.789562,3.2407026,3.6556416
-22.91457,3.2580361,3.6652374
-22.951948,3.2429662,3.6298852
-23.058807,3.2545094,3.6320372
-23.140366,3.256888,3.6216197
-23.153034,3.2327654,3.5739412
-23.294737,3.2594273,3.5984087
-23.358568,3.255939,3.58038
-23.373297,3.2329159,3.5345993
-23.547173,3.2746186,3.581699
-23.561962,3.252009,3.5368147
-23.66187,3.2646909,3.5428963
-23.74452,3.2707102,3.5396414
-23.772532,3.2539458,3.5035372
-23.90033,3.2800343,3.5299249
-23.970387,3.2819145,3.5213466
-23.98822,3.2612224,3.4798894
-24.07863,3.272597,3.485569
-24.17728,3.288215,3.4977722
-24.207827,3.2736077,3.4656153
-24.307453,3.2906225,3.48036
-24.386581,3.298808,3.4822884
-24.401072,3.2772264,3.4401197
-24.479952,3.2859092,3.4431267
-24.569908,3.3003552,3.454979
-24.603624,3.2882376,3.427246
-24.651009,3.2828085,3.4096346
-24.737959,3.2970543,3.421783
-24.808163,3.3035316,3.4224415
-24.822021,3.2820327,3.3809385
-24.914062,3.300147,3.3995285
-24.97348,3.3021302,3.3938513
-25.0255,3.3005683,3.3829188
-25.056526,3.2881958,3.3556066
-25.154442,3.3113594,3.38271
-25.23106,3.3238404,3.3937097
-25.24138,3.3008459,3.3504243
-25.291573,3.2994838,3.340414
-25.392813,3.3266633,3.3745203
-25.43072,3.3191595,3.35533
-25.450027,3.3011885,3.3200169
-25.530798,3.3182936,3.3390946
-25.608356,3.3341534,3.3564463
-25.652912,3.3312619,3.3448224
-25.70485,3.3329127,3.3403716
-25.72922,3.3183217,3.3106813
-25.76114,3.3082068,3.288021
-25.807062,3.306668,3.2788444
-25.887676,3.3268023,3.3037596
-25.950165,3.336267,3.3121133
-25.96646,3.3169181,3.2752714
-26.035725,3.331272,3.2915483
-26.086742,3.3343518,3.290196
-26.14835,3.3446586,3.300374
-26.163824,3.3248496,3.263022
-26.212055,3.3267498,3.2600842
-26.269428,3.3351057,3.2674928
-26.352283,3.3613431,3.3034515
-26.38517,3.3537328,3.2857337
-26.443504,3.3640113,3.2965822
-26.473377,3.3545244,3.2760124
-26.476072,3.3254821,3.224238
-26.469343,3.2890954,3.1606765
-26.432419,3.2298157,3.060379
-26.423418,3.1901102,2.991325
-26.407791,3.144651,2.912962
-26.421017,3.1203108,2.868462
-26.417238,3.0824473,2.802187
-26.419283,3.0484164,2.7420287
-26.417603,3.0108013,2.6760488
-26.387072,2.949331,2.5714874
-26.392687,2.915869,2.5120769
-26.41677,2.8969595,2.4761887
-26.424673,2.8643136,2.4180617
-26.418457,2.8191416,2.3395896
-26.424717,2.7836785,2.2768145
-26.428612,2.7454643,2.2095351
-26.426136,2.7008824,2.1318564
-26.455069,2.683246,2.0979972
-26.368803,2.561658,1.8947287
-26.395132,2.539749,1.8537955
-26.412546,2.509233,1.7988267
-26.439829,2.487368,1.7579918
-26.423283,2.4234748,1.6484194
-26.42337,2.374065,1.5624623
-26.432528,2.3323638,1.4890842
-26.430489,2.2786207,1.3959217
-26.457659,2.252945,1.3487701
-26.443113,2.184217,1.2309065
-35.19995,1.6253059,0.39264917
-35.23927,1.6477196,0.4361353
-35.259068,1.6862221,0.50574446
-35.213764,1.777921,0.66148806
-35.23896,1.8100092,0.7205963
-35.25752,1.8469496,0.78754807
-35.23839,1.9132965,0.90195274
-35.281277,1.9294991,0.935379
-35.2262,2.0217493,1.0913448
-35.257484,2.045729,1.1372523
-35.223743,2.1187449,1.2619805
-35.25415,2.142211,1.3070178
-35.219006,2.2139475,1.4294577
-35.24859,2.236899,1.4736228
-35.2813,2.257326,1.5137744
-35.249256,2.3238254,1.6275373
-35.245857,2.3688235,1.7068486
-35.285767,2.3828175,1.7367039
-35.230186,2.4626524,1.8713484
-35.28308,2.4669423,1.8857603
-35.319233,2.4826946,1.9184532
-35.327003,2.5172791,1.9810266
-35.3448,2.5447445,2.0323024
-35.382385,2.5589712,2.0626621
-35.447887,2.555173,2.0646467
-35.469147,2.5799108,2.111712
-35.488014,2.6058836,2.1607256
-35.50052,2.6355152,2.2154803
-35.473656,2.689015,2.3076272
-35.46093,2.7329993,2.3847413
-35.48467,2.754327,2.4263597
-35.520786,2.7680824,2.456184
-35.54454,2.7890992,2.4973707
-35.584934,2.8002326,2.5232139
-35.65121,2.7964814,2.526031
-36.27663,2.4742591,2.035716
-36.35031,2.4704928,2.0397182
-36.41303,2.473236,2.0539408
-36.448414,2.491319,2.0919309
-35.800232,2.8825736,2.7036896
-35.850113,2.8886895,2.7223048
-35.929283,2.8793056,2.71729
-36.720238,2.4940999,2.1381145
-35.95037,2.9337854,2.8195925
-36.06388,2.9073074,2.7889547
-36.123928,2.9090583,2.8015113
-36.191402,2.9073026,2.8088994
-36.272354,2.899131,2.806757
-36.4868,2.8252306,2.705665
-36.506203,2.848902,2.7521214
-36.553783,2.8587065,2.7777596
-36.63454,2.852685,2.7797923
-36.701862,2.853495,2.7922573
-36.73796,2.869298,2.82725
-36.821445,2.8630416,2.8295035
-36.871223,2.8727658,2.8556976
-36.976757,2.8572135,2.8446107
-37.024284,2.8684745,2.8734078
-37.132786,2.8526406,2.8624392
-37.193737,2.8584695,2.883595
-37.310036,2.8403506,2.869863
-37.349785,2.856047,2.9058423
-37.400494,2.8670838,2.9351258
-37.47995,2.8660839,2.947073
-37.5217,2.8812544,2.9826422
-37.577816,2.8905225,3.0097947
-37.640354,2.8973317,3.0335622
-37.68166,2.912982,3.0701718
-37.708824,2.9343514,3.115045
-37.752945,2.948917,3.1502752
-37.78201,2.9694695,3.194107
-38.76319,2.6199164,2.7148647
-38.789658,2.6452987,2.7674637
-38.809044,2.6732726,2.8237357
-38.811188,2.7075772,2.888867
-38.814445,2.7411773,2.9529562
-38.768917,2.7924724,3.0415406
-38.78956,2.818997,3.095642
-38.788475,2.8532262,3.1603665
-38.787678,2.887061,3.2244782
-38.79834,2.916569,3.2826166
-38.87402,2.9231966,3.3096404
-39.03876,2.8993888,3.295742
-39.124264,2.9036064,3.3202186
-39.222,2.9040678,3.3399577
-39.33732,2.8991168,3.3528295
-39.379227,2.9190018,3.399108
-39.545746,2.898229,3.3917894
-39.616623,2.9093027,3.4269934
-39.700684,2.9164214,3.457273
-39.8815,2.8933225,3.4485626
-39.920387,2.9155877,3.4992714
-40.124226,2.8869348,3.4846015
-40.176422,2.905765,3.5315132
-40.310143,2.9000995,3.5474591
-40.429672,2.899349,3.5701694
-40.511368,2.9103377,3.608109
-40.7117,2.887043,3.6035976
-40.768993,2.9061003,3.6524615
-40.984604,2.8801956,3.6461844
-41.041824,2.9000993,3.6968827
-41.26185,2.8748379,3.6929755
-41.31254,2.897368,3.7476645
-41.538788,2.8722873,3.7456088
-41.607754,2.890685,3.796205
-41.836575,2.8668916,3.7974262
-41.886906,2.891125,3.8558102
-42.101467,2.8729353,3.8652868
-42.257744,2.8707929,3.894226
-42.42723,2.8660798,3.9209976
-42.573486,2.8680058,3.9560804
-42.675713,2.8814764,4.0047565
-42.90189,2.8652115,4.0210834
-43.25468,2.8197162,4.006645
-43.55452,2.7887266,4.0097866
-43.87767,2.7538955,4.0104384
-44.252674,2.7088294,4.0020413
-44.651295,2.6604245,3.9922447
-45.059357,2.6120715,3.9847531
-45.501648,2.5583377,3.974111
-45.94583,2.5065982,3.9680367
-46.43396,2.4477663,3.9575362
-46.94609,2.386469,3.9475298
-47.448677,2.3299532,3.9452147
-48.081047,2.2492309,3.923027
-48.657875,2.1833055,3.9185615
-49.322567,2.1027722,3.9043279
-50.230988,1.9774027,3.8539639
-50.780422,1.9273007,3.8760195
-0.2826023,0.5896878,2.800026
-11.578785,2.3067615,3.9085155
-13.022732,2.5419645,4.082907
-13.69179,2.6280808,4.117258
-14.001383,2.6438904,4.0843763
-14.4284725,2.6858172,4.0800247
-14.900681,2.7395852,4.0903807
-15.257324,2.7711198,4.0799437
-15.6333475,2.8087716,4.0779715
-15.981042,2.8422008,4.07347
-16.328056,2.877346,4.07269
-16.605185,2.898534,4.058322
-16.908314,2.9271548,4.0536737
-17.327839,2.9844854,4.0829487
-17.585197,3.0059469,4.073515
-18.229755,3.047362,4.025793
-18.458176,3.0667872,4.0185685
-18.630234,3.0732782,3.9970057
-19.0102,3.1335325,4.040844
-19.077448,3.1154447,3.9915743
-19.25219,3.1256075,3.9770594
-19.410011,3.1322155,3.9589498
-19.617275,3.1528432,3.958902
-19.714802,3.144925,3.9241445
-19.802288,3.1346831,3.8868608
-20.020409,3.1609933,3.8961632
-20.13136,3.158484,3.8697062
-20.21045,3.1474576,3.832779
-20.440857,3.1801813,3.8525605
-20.489891,3.1615605,3.8067045
-20.655321,3.1772554,3.8057833
-20.824802,3.195063,3.808302
-20.876534,3.178403,3.7660127
-21.064125,3.203209,3.7789054
-21.08738,3.178526,3.7265315
-21.27332,3.2044163,3.7420044
-21.31625,3.1863725,3.698999
-21.482811,3.2077665,3.7095213
-21.531086,3.192036,3.6701603
-21.689884,3.21241,3.6802983
-21.826313,3.2263417,3.682179
-21.887531,3.2159932,3.6510615
-22.00344,3.224275,3.6459455
-22.09314,3.2242563,3.6296864
-22.116434,3.20181,3.5823898
-22.28672,3.2304564,3.6068087
-22.325542,3.2138944,3.5681577
-22.509312,3.248952,3.6025944
-22.523432,3.2241669,3.5527387
-22.675676,3.249465,3.5742393
-22.737196,3.2423615,3.5499282
-22.818024,3.242668,3.536429
-22.93129,3.2555504,3.5412893
-22.96597,3.2392483,3.5043435
-23.082054,3.2542148,3.5128083
-23.150671,3.2514548,3.49586
-23.189646,3.2373724,3.4625854
-23.327793,3.262663,3.4870386
-23.34389,3.2399452,3.4414368
-23.446333,3.2520618,3.4471483
-23.553238,3.266612,3.456767
-23.574486,3.2463703,3.415164
-23.699295,3.2693472,3.437797
-23.769308,3.2699845,3.4275298
-23.787643,3.248881,3.3849716
-23.918404,3.276203,3.4149704
-23.989527,3.2784007,3.407628
-23.991684,3.2505345,3.3552055
-24.10015,3.2697873,3.373877
-24.191814,3.2821922,3.3824983
-24.198353,3.256391,3.3334103
-24.316483,3.281717,3.3620505
-24.39886,3.291248,3.3669543
-24.427809,3.2761502,3.3344479
-24.513578,3.2880306,3.3433027
-24.611732,3.3064063,3.3623567
-24.625744,3.2845972,3.3198676
-24.67355,3.2791872,3.3026562
-24.748686,3.2875042,3.306754
-24.816921,3.2928145,3.3063889
-24.857906,3.2847009,3.2853713
-24.922928,3.2889996,3.2837257
-24.98991,3.2946754,3.2843833
-25.036566,3.2900965,3.2692003
-25.103191,3.2962532,3.2708988
-25.176666,3.3064685,3.2791128
-25.23571,3.3093586,3.276013
-25.25185,3.2891068,3.2366729
-25.365116,3.3223567,3.281581
-25.400043,3.3128054,3.259273
-25.447462,3.310348,3.2482343
-25.475714,3.297132,3.2202644
-25.561161,3.3169045,3.2446327
-25.62314,3.3236532,3.248528
-25.666122,3.3195713,3.2353373
-25.72772,3.3267512,3.2401686
-25.750753,3.311039,3.2086139
-25.78848,3.3041782,3.1912265
-25.866646,3.322368,3.2139893
-25.911324,3.3202846,3.2044458
-25.968153,3.3260565,3.2075944
-26.001816,3.3173842,3.1876507
-26.06532,3.32802,3.198832
-26.110277,3.3270016,3.191369
-26.15143,3.3236632,3.1802483
-26.17217,3.3068092,3.1473608
-26.252108,3.3298414,3.1790233
-26.304031,3.33445,3.1810203
-26.349724,3.3350632,3.17664
-26.397713,3.3375125,3.1753254
-26.444965,3.3397083,3.1736894
-26.46027,3.3192306,3.13523
-26.426893,3.263102,3.0386615
-26.439348,3.23952,2.9950695
-26.42815,3.1979702,2.9221153
-26.417843,3.156283,2.8488622
-26.414633,3.1191933,2.7830653
-26.432339,3.0975478,2.7425303
-26.416666,3.0494826,2.658648
-26.389956,2.9916906,2.5587006
-26.409122,2.9694283,2.517057
-26.421724,2.941489,2.4660735
-26.431694,2.9108922,2.4106994
-26.411116,2.854287,2.3124113
-26.424232,2.8248577,2.2588844
-26.43537,2.793189,2.2016416
-26.415876,2.7343886,2.0995088
-26.420025,2.6949947,2.0294008
-26.460186,2.6867993,2.0109463
-26.402023,2.589995,1.845603
-26.415905,2.5566,1.7853041
-26.425625,2.5186691,1.7174544
-26.42942,2.4743595,1.6389737
-26.429897,2.4258885,1.5535245
-26.437551,2.38322,1.4776878
-26.420555,2.315433,1.3599534
-26.439095,2.2812448,1.2981625
-26.468351,2.2571135,1.2531519
-35.250027,1.6937542,0.39512825
-35.253433,1.7455924,0.4874196
-35.22837,1.8196571,0.6162529
-35.266693,1.8410666,0.6583319
-35.24448,1.910424,0.779243
-35.22131,1.9791079,0.8989215
-35.27295,1.9883084,0.9209261
-35.320553,2.0006719,0.9481883
-35.260815,2.0943391,1.1085582
-35.29911,2.1126676,1.1455564
-35.247658,2.1971967,1.2906814
-35.278736,2.2197053,1.3344588
-35.237213,2.2943616,1.4632039
-35.276333,2.3100224,1.4957886
-35.226883,2.3880148,1.6297107
-35.279217,2.393573,1.6458731
-35.33032,2.4001284,1.6637411
-35.377716,2.4093351,1.685987
-35.283913,2.5135567,1.8619308
-35.29027,2.5490885,1.9266343
-35.310936,2.574682,1.9752741
-35.348145,2.589224,2.0061173
-35.37369,2.6111975,2.0489626
-35.415485,2.6226404,2.074915
-35.47517,2.6228697,2.0829496
-35.51614,2.634992,2.110147
-35.511177,2.6753144,2.1824956
-35.51143,2.7480223,2.3143258
-35.51815,2.7796743,2.3726745
-35.53166,2.8069277,2.4239974
-35.581184,2.81295,2.4416232
-35.67154,2.7956762,2.4224453
-35.655483,2.8394914,2.5000834
-35.69511,2.8513608,2.5271888
-36.345467,2.5239575,2.0197144
-36.40678,2.5276449,2.0350184
-36.452675,2.5399532,2.06399
-36.541557,2.529201,2.0568962
-36.58385,2.5437841,2.0896568
-35.958157,2.9098573,2.6713805
-36.04362,2.8982198,2.6623669
-35.964348,2.9719558,2.786375
-36.086025,2.9420455,2.749164
-36.144024,2.9451606,2.7634578
-36.21754,2.9407754,2.7662845
-36.277943,2.9432578,2.7798905
-36.458313,2.887446,2.7038817
-36.600357,2.8516386,2.6591396
-36.65825,2.8571112,2.6780863
-36.72825,2.8570693,2.688733
-36.816635,2.848762,2.6869397
-36.897682,2.8443587,2.6913266
-36.95205,2.8525965,2.7151275
-37.022587,2.8536797,2.7282114
-37.078476,2.8616455,2.7518797
-37.14836,2.8635862,2.7665958
-37.220684,2.8647676,2.7803493
-37.28917,2.867942,2.7972841
-37.382248,2.8608494,2.7990375
-37.457325,2.8619168,2.81323
-37.489376,2.88141,2.8550382
-37.557243,2.885968,2.8747435
-37.6187,2.8934414,2.898943
-37.65988,2.9093823,2.93579
-37.71305,2.9205387,2.9656892
-37.738346,2.9429445,3.0122132
-37.843655,2.933722,3.012547
-38.717598,2.6253796,2.577467
-38.7763,2.6385117,2.6123352
-38.79252,2.6680124,2.6710443
-38.81243,2.695932,2.7274666
-38.815994,2.729802,2.792451
-38.791256,2.7738445,2.871951
-38.786823,2.8099644,2.9399872
-38.78516,2.8447511,3.0060449
-38.797356,2.8742776,3.0645804
-38.788605,2.9110224,3.133285
-38.846863,2.9239786,3.168458
-39.016697,2.898504,3.1500025
-39.068184,2.9145439,3.1900325
-39.18178,2.90968,3.201188
-39.31559,2.8986354,3.2041974
-39.351288,2.9207878,3.2533698
-39.526566,2.8972576,3.2400432
-39.614727,2.9029398,3.267211
-39.685307,2.9146283,3.302834
-39.856438,2.8947499,3.2960544
-39.904984,2.914191,3.3427758
-40.03857,2.907419,3.35459
-40.17688,2.8998919,3.365911
-40.24306,2.9148884,3.4075637
-40.44357,2.8899543,3.3969035
-40.524197,2.90157,3.4348812
-40.669662,2.8945627,3.4489279
-40.748463,2.9075408,3.4894009
-40.939606,2.88877,3.4893646
-41.023922,2.901155,3.529923
-41.202965,2.88748,3.537737
-41.320225,2.8917634,3.5689526
-41.44119,2.895576,3.6000624
-41.605404,2.8883288,3.6179285
-41.802128,2.873291,3.6268988
-41.880093,2.8904347,3.676177
-42.10972,2.8685718,3.6783442
-42.20156,2.8831968,3.7255874
-42.40304,2.8704817,3.7405071
-42.55544,2.8710613,3.7721462
-42.72383,2.8684373,3.8007207
-42.9439,2.854073,3.8164062
-43.04698,2.868951,3.866938
-43.27033,2.8557367,3.8858013
-43.448757,2.8541903,3.9189982
-43.55079,2.8711638,3.9738455
-43.721725,2.87284,4.0122013
-44.058716,2.8379927,4.011345
-44.419197,2.799748,4.008603
-44.79756,2.7595358,4.005708
-45.235832,2.708428,3.993352
-45.67599,2.6593008,3.9855185
-46.15055,2.6053286,3.9751763
-46.624153,2.5541232,3.970376
-47.179344,2.4888055,3.9541645
-47.76356,2.4206536,3.9384341
-48.345066,2.356199,3.9298067
-48.96239,2.2878675,3.9209962
-49.701664,2.1993556,3.896985
-50.560463,2.0921514,3.8603168
-11.728613,2.4975855,4.0007076
-12.987497,2.6855307,4.1354694
-13.312422,2.6992393,4.099095
-13.727442,2.7323575,4.084694
-14.186946,2.7765584,4.0842686
-14.600531,2.8139126,4.079053
-15.0018835,2.8509595,4.0757375
-15.373823,2.8840191,4.0701947
-15.79084,2.9286041,4.079374
-16.107021,2.95382,4.0690174
-16.410282,2.9779043,4.058988
-16.783157,3.018951,4.069907
-16.840069,2.9914033,4.003334
-17.595146,3.0455527,3.9677925
-17.846525,3.066195,3.9614248
-18.18633,3.1093037,3.9834456
-18.408426,3.1258342,3.9745789
-18.546196,3.1228776,3.942714
-18.641119,3.1099424,3.8990521
-18.820568,3.1186483,3.8828454
-18.987684,3.1251423,3.8646255
-19.201618,3.144561,3.8635192
-19.341372,3.1457818,3.8400679
-19.491985,3.1505623,3.8217692
-19.612137,3.1479583,3.794519
-19.799812,3.1642094,3.7923198
-19.914127,3.1613731,3.7658482
-20.028358,3.1590528,3.7404966
-20.203215,3.174294,3.7388883
-20.307137,3.1703353,3.712336
-20.432625,3.1730561,3.6951332
-20.640572,3.2003956,3.7116275
-20.684788,3.1807404,3.6651616
-20.856083,3.19901,3.670547
-20.919128,3.185625,3.633184
-21.037342,3.1892662,3.619474
-21.210197,3.2103572,3.6303353
-21.263401,3.1951227,3.5913148
-21.443382,3.2200298,3.6085253
-21.464972,3.195455,3.556954
-21.660732,3.227011,3.5845156
-21.689445,3.2052317,3.537294
-21.88849,3.2396507,3.569994
-21.905144,3.2144167,3.5182772
-22.0669,3.2380476,3.5365705
-22.085545,3.2137966,3.4865575
-22.231983,3.233552,3.5000849
-22.311407,3.2307875,3.481471
-22.408575,3.2346478,3.4727273
-22.503834,3.238328,3.4640217
-22.619091,3.2497165,3.4668956
-22.71467,3.254582,3.4605446
-22.735624,3.2324297,3.4146538
-22.8718,3.2531426,3.4321823
-22.941067,3.2494776,3.4139686
-22.978903,3.2341359,3.3785663
-23.10903,3.2543907,3.3963842
-23.141968,3.2376099,3.3591452
-23.27216,3.2591176,3.3794665
-23.340864,3.256988,3.364581
-23.344023,3.228798,3.3105202
-23.521465,3.2712262,3.3633666
-23.55847,3.2571938,3.3310165
-23.625956,3.2558656,3.3180828
-23.75763,3.2818108,3.3469548
-23.763786,3.255359,3.2960215
-23.871828,3.2723923,3.3117747
-23.944935,3.2749662,3.305591
-23.9727,3.258035,3.2695217
-24.092148,3.281696,3.296224
-24.176249,3.2903478,3.3000083
-24.183323,3.264612,3.250627
-24.281673,3.280413,3.2658472
-24.350697,3.2832892,3.2611742
-24.390833,3.2730172,3.2361221
-24.500198,3.2955542,3.262525
-24.560364,3.2953594,3.2535477
-24.596638,3.2839067,3.2270036
-24.648573,3.2801425,3.2126389
-24.747519,3.2997897,3.2353435
-24.807896,3.3008995,3.2289796
-24.819447,3.2776783,3.1841936
-24.925339,3.3023407,3.2154188
-24.96878,3.2956185,3.1969953
-25.02726,3.2968576,3.1913385
-25.051533,3.280367,3.1575084
-25.158611,3.3078923,3.1940856
-25.213064,3.3079436,3.186924
-25.23187,3.2888455,3.1491528
-25.334791,3.3158917,3.1855469
-25.383316,3.3135142,3.1748304
-25.435894,3.3136156,3.1682053
-25.437431,3.2849216,3.1151896
-25.554888,3.322544,3.1693816
-25.616419,3.328713,3.1729164
-25.649086,3.318277,3.1496472
-25.705029,3.321698,3.1489367
-25.71878,3.3000426,3.1075463
-25.770746,3.3013916,3.1036253
-25.848465,3.3188639,3.1261067
-25.904476,3.3234525,3.1277122
-25.946888,3.319813,3.115971
-25.97789,3.3090513,3.092638
-26.06435,3.3340077,3.1279235
-26.099615,3.3263938,3.1099186
-26.152912,3.3307197,3.1115966
-26.15259,3.2995894,3.0550103
-26.257702,3.3391292,3.1148567
-26.30981,3.3436174,3.1171012
-26.358727,3.346222,3.1163306
-26.400951,3.3444223,3.1083646
-26.440771,3.3410902,3.097931
-26.458946,3.32238,3.0620694
-26.447325,3.2818167,2.989952
-26.414734,3.2250795,2.890894
-26.425573,3.1994307,2.843411
-26.408125,3.1520836,2.7597928
-26.418583,3.1250296,2.7099047
-26.38189,3.061154,2.5985775
-26.383455,3.0257616,2.534676
-26.407553,3.0075147,2.499392
-26.414198,2.9750454,2.4403315
-26.414047,2.936454,2.3709893
-26.415258,2.8982048,2.3021774
-26.424103,2.8655403,2.2426915
-26.42223,2.823204,2.1669426
-26.416656,2.7768152,2.0843315
-26.393806,2.7144585,1.974802
-26.386948,2.6646893,1.8863587
-26.432947,2.6608245,1.8751988
-26.430204,2.6131437,1.7902145
-26.417799,2.5555532,1.6884513
-26.424992,2.5147634,1.6149845
-26.418306,2.4600277,1.5179138
-26.429802,2.421313,1.4478788
-26.454706,2.3947036,1.3983126
-26.427702,2.3166656,1.2616277
-26.428406,2.2641718,1.1681333
-35.25219,1.7439022,0.36374378
-35.261482,1.7905071,0.44832134
-35.29984,1.8127952,0.49215364
-35.248398,1.9063315,0.65516853
-35.247902,1.9577644,0.74764585
-35.252373,2.0043554,0.8319783
-35.264774,2.0440116,0.90469694
-35.298275,2.0670068,0.94963455
-35.23267,2.163876,1.1175237
-35.30049,2.1600838,1.1178575
-35.22597,2.2605913,1.2914958
-35.269104,2.2741117,1.3205967
-35.225155,2.3496544,1.4525132
-35.270706,2.3606677,1.4774613
-35.24867,2.418733,1.5802541
-35.272316,2.4443016,1.6292744
-35.277283,2.4822502,1.698719
-35.299206,2.5082088,1.7483702
-35.23929,2.5881696,1.8868709
-35.305553,2.583778,1.8865476
-35.385174,2.5711021,1.872755
-35.36495,2.6230104,1.9649801
-35.390636,2.6449175,2.007986
-35.428093,2.659237,2.0386047
-35.485954,2.6608703,2.0485635
-35.521824,2.6762228,2.0809956
-35.51495,2.7174,2.1555152
-35.52831,2.7458253,2.2092304
-35.540462,2.7746139,2.2635212
-35.57543,2.7896867,2.29556
-35.627647,2.7947254,2.3114042
-35.667686,2.8069122,2.3388963
-35.69462,2.8265386,2.3784547
-35.632782,2.895738,2.4979024
-35.687454,2.8991725,2.5113382
-36.293495,2.6007595,2.0401611
-36.399223,2.5802505,2.0162296
-35.74975,2.9652553,2.6415691
-35.76856,2.9879398,2.686047
-35.89799,2.9524174,2.6376915
-35.9854,3.004849,2.74688
-36.098495,2.9800193,2.716362
-36.15732,2.9829772,2.7300477
-36.222095,2.9832542,2.739633
-36.302544,2.9762156,2.7378478
-36.629135,2.8512988,2.5510736
-36.667282,2.8665693,2.5850387
-36.72254,2.8737953,2.6064816
-36.824703,2.859366,2.594235
-36.868725,2.8723586,2.624971
-36.928654,2.878169,2.644628
-36.99473,2.8814259,2.6604595
-37.087147,2.8732193,2.6587095
-37.157356,2.8753338,2.6731339
-37.227657,2.8777204,2.688148
-37.3247,2.8688695,2.6860714
-37.41971,2.8614397,2.6864328
-37.46357,2.8761518,2.7208986
-37.521557,2.8850167,2.7465363
-37.589073,2.8901274,2.7666006
-37.658226,2.8948405,2.786232
-37.712093,2.9060218,2.8158236
-37.748848,2.9242015,2.8560953
-37.76908,2.948926,2.9062796
-37.804436,2.9675882,2.9473839
-38.77715,2.622966,2.4453254
-38.797787,2.6511834,2.502441
-38.802254,2.6853728,2.5684414
-38.818596,2.7148194,2.627366
-38.811935,2.7526114,2.6986108
-38.786198,2.7970393,2.7795362
-38.784874,2.8320913,2.846551
-38.78548,2.86614,2.9120317
-38.79144,2.8979986,2.9742618
-38.821526,2.9211438,3.0238023
-38.914417,2.9224253,3.041768
-39.055393,2.907625,3.0368457
-39.149544,2.9095275,3.0563726
-39.289528,2.8964727,3.0548058
-39.332962,2.9162629,3.1004949
-39.408276,2.925635,3.1315117
-39.605583,2.8956785,3.1072035
-39.641838,2.9186146,3.1580024
-39.810287,2.8995848,3.1501122
-39.90355,2.905106,3.1770577
-39.972115,2.9187002,3.215516
-40.145992,2.9002202,3.2098875
-40.200397,2.9189408,3.2560387
-40.381172,2.8999124,3.250718
-40.46768,2.909818,3.285458
-40.642937,2.8940864,3.2857895
-40.73319,2.9039092,3.3212047
-40.86579,2.9019892,3.3412137
-41.013958,2.8963256,3.3567414
-41.06711,2.9179492,3.4089737
-41.286476,2.8938274,3.401167
-41.34954,2.9135325,3.4515915
-41.555977,2.8948069,3.4522762
-41.726227,2.886826,3.4677005
-41.841606,2.894141,3.5034556
-42.047318,2.8785253,3.5104537
-42.150887,2.8901858,3.5528493
-42.379433,2.870643,3.5564666
-42.449684,2.8918946,3.6119561
-42.67512,2.875064,3.6205988
-42.873943,2.8659115,3.6396866
-42.995453,2.8763766,3.6835551
-43.19843,2.8680317,3.7052484
-43.367874,2.8685808,3.7385254
-43.5619,2.8642673,3.766821
-43.76367,2.8591557,3.7950983
-43.97416,2.8530931,3.8232384
-44.142254,2.8575106,3.8644738
-44.358776,2.8521118,3.895337
-44.564095,2.8502216,3.93124
-44.764786,2.8503323,3.9704113
-45.146904,2.813278,3.969646
-45.537407,2.7765331,3.971263
-46.010048,2.725088,3.9591894
-46.486526,2.6754234,3.9516172
-46.99372,2.622223,3.9430113
-47.532684,2.5655324,3.933683
-48.124725,2.5015047,3.9199982
-48.733334,2.4375155,3.9098186
-49.407837,2.3644624,3.8943186
-50.223057,2.2691123,3.8612776
-50.852608,2.2118347,3.869501
-11.676098,2.5856857,3.9400516
-12.993576,2.7777977,4.089302
-13.55578,2.8347077,4.101577
-13.909977,2.8547914,4.077049
-14.345375,2.892509,4.073738
-14.740666,2.9246314,4.0665035
-15.103666,2.952386,4.0564065
-15.496629,2.988152,4.057273
-15.913619,3.0309818,4.0682507
-16.150688,3.0384445,4.040183
-16.323809,3.0335488,3.9987364
-16.671413,3.0670178,4.003632
-17.01472,3.021957,3.8504739
-17.519527,3.0966086,3.9108243
-17.697968,3.0989876,3.883749
-17.821892,3.0895367,3.8426352
-17.967344,3.0857341,3.809165
-18.15095,3.0917668,3.7888088
-18.341728,3.1004767,3.7726579
-18.560951,3.1171684,3.7676044
-18.769512,3.132378,3.7615404
-18.855717,3.117842,3.71741
-19.00193,3.1189704,3.6942296
-19.16451,3.1250553,3.6781926
-19.394629,3.1496634,3.6875005
-19.596676,3.1681085,3.6894531
-19.706123,3.1628036,3.660133
-19.805527,3.1552713,3.6281838
-19.98833,3.171119,3.628509
-20.02511,3.1473074,3.5750794
-20.221777,3.1685739,3.58395
-20.405264,3.1871877,3.5898714
-20.437656,3.163217,3.537098
-20.648193,3.191267,3.5572724
-20.806324,3.2050557,3.5581384
-20.849463,3.1853297,3.5121655
-21.038033,3.2096705,3.528903
-21.056524,3.183051,3.473589
-21.240772,3.2076511,3.4916897
-21.269182,3.1845188,3.4417357
-21.47267,3.216826,3.4719415
-21.522938,3.201263,3.433392
-21.684456,3.221891,3.4476852
-21.780527,3.2220068,3.4325194
-21.893679,3.2282553,3.4266481
-21.966192,3.2214744,3.401935
-22.087463,3.2315302,3.4023156
-22.112057,3.2090948,3.3548722
-22.274551,3.2344277,3.3785663
-22.319607,3.2195685,3.3427453
-22.491238,3.2497003,3.3744402
-22.50594,3.2246377,3.3237038
-22.665684,3.252031,3.3520646
-22.713097,3.2392483,3.3201456
-22.83197,3.2530775,3.3287072
-22.91901,3.2556744,3.3205223
-22.936758,3.232454,3.2731805
-23.049072,3.2453418,3.2811017
-23.124256,3.2445095,3.2682862
-23.169273,3.2322187,3.2380333
-23.315483,3.260096,3.2698464
-23.360321,3.2483714,3.2408218
-23.457367,3.2578754,3.2448115
-23.540499,3.262253,3.241088
-23.567823,3.243993,3.2022982
-23.708424,3.273043,3.237454
-23.767227,3.2684956,3.2203865
-23.812693,3.2584865,3.194881
-23.911997,3.2718472,3.2062306
-23.979088,3.2717628,3.1966386
-23.988209,3.2464118,3.1472793
-24.119783,3.275472,3.1840591
-24.193308,3.2792997,3.1811461
-24.251427,3.2764993,3.1678672
-24.32459,3.2808843,3.166162
-24.394524,3.2841644,3.1628633
-24.431366,3.2722301,3.1353874
-24.532293,3.290856,3.15695
-24.603094,3.2956808,3.1565995
-24.608961,3.269298,3.106206
-24.730095,3.299347,3.14673
-24.756641,3.2832887,3.1131144
-24.813795,3.2825534,3.1043134
-24.89312,3.2933574,3.1143236
-24.95993,3.2982461,3.1149135
-25.027222,3.3037672,3.116673
-25.043463,3.2828555,3.0755358
-25.154053,3.311879,3.115841
-25.206001,3.310313,3.1064386
-25.235018,3.296519,3.0771317
-25.303473,3.3043392,3.0832763
-25.354538,3.302937,3.07443
-25.4327,3.3169775,3.0910573
-25.449688,3.2968462,3.0516143
-25.497204,3.294047,3.0407395
-25.618576,3.334332,3.101056
-25.641037,3.3176777,3.0675492
-25.712374,3.3299255,3.0818915
-25.716164,3.3021078,3.0299869
-25.786537,3.3143597,3.0445385
-25.841734,3.3178046,3.0446005
-25.897387,3.321849,3.0457616
-25.949041,3.3237085,3.0433865
-25.961584,3.3009539,3.0000563
-26.059404,3.3328,3.047882
-26.095703,3.3255537,3.0305686
-26.148048,3.3289378,3.0310988
-26.170967,3.3130047,2.9993567
-26.2649,3.3448346,3.0477471
-26.309408,3.3438988,3.0413136
-26.360981,3.348043,3.0434918
-26.402336,3.3453588,3.0342689
-26.443079,3.3423927,3.024634
-26.468725,3.3287518,2.9970603
-26.454935,3.2863886,2.9210262
-26.455753,3.2539182,2.8616366
-26.409805,3.1860957,2.742415
-26.410753,3.152087,2.6802902
-26.385794,3.0977035,2.5835996
-26.386791,3.0621963,2.518827
-26.404348,3.0389497,2.4748316
-26.418598,3.0127156,2.4257588
-26.412548,2.9697556,2.3482318
-26.418558,2.9357004,2.2858062
-26.409578,2.8886502,2.201211
-26.408388,2.8470829,2.1259017
-26.407598,2.8049815,2.049634
-26.390453,2.7479858,1.9478817
-26.392706,2.706517,1.8725853
-26.418766,2.6850946,1.831543
-26.444267,2.6628268,1.7890687
-26.412252,2.588202,1.6569004
-26.418087,2.546422,1.5809293
-26.416271,2.4965992,1.4911232
-26.430643,2.4608667,1.4254627
-26.454174,2.4331133,1.3734975
-26.431805,2.360295,1.2440438
-35.218254,1.8251143,0.39240313
-35.23778,1.8626595,0.46239567
-35.29466,1.8698103,0.4807024
-35.24576,1.9602559,0.6405659
-35.227654,2.0248258,0.75634
-35.275513,2.0375123,0.7840462
-35.2574,2.1001263,0.8963785
-35.285732,2.1267712,0.94774294
-35.237488,2.209611,1.0941195
-35.26125,2.2381985,1.1486936
-35.21745,2.3150735,1.2847409
-35.2733,2.3194427,1.298418
-35.27335,2.3632445,1.3785725
-35.25885,2.416403,1.4744081
-35.274864,2.4476347,1.5333142
-35.28544,2.4821079,1.5976486
-35.28499,2.5234487,1.6734667
-35.304485,2.5508904,1.7259588
-35.33948,2.567825,1.7608728
-35.312046,2.6250699,1.8631678
-35.320953,2.6580238,1.9248061
-35.38851,2.6534011,1.9237933
-35.42388,2.6692986,1.9570608
-35.468597,2.6793392,1.9806318
-35.50288,2.6958168,2.0149565
-35.530396,2.716295,2.055954
-35.539883,2.7473707,2.114521
-35.548103,2.778784,2.1736221
-35.572956,2.8000667,2.2159624
-35.634182,2.8001628,2.2233777
-35.653824,2.824289,2.270483
-36.12738,2.591879,1.8957133
-36.17436,2.6031044,1.9222536
-35.631203,2.9402587,2.4832845
-35.70174,2.9351602,2.4824395
-35.671066,2.985124,2.5717497
-35.718365,2.9926338,2.5916376
-35.7431,3.012192,2.631239
-35.772453,3.029199,2.6667113
-35.82148,3.035962,2.6855807
-35.9414,3.0066357,2.64602
-36.52408,2.7442837,2.2295556
-36.59392,2.744399,2.2388163
-36.1047,3.021386,2.694819
-36.201683,3.005879,2.6784158
-36.269653,3.0050583,2.6858468
-36.65957,2.8504448,2.4467177
-36.702015,2.8640418,2.478001
-36.752537,2.8739023,2.503384
-36.840645,2.8664708,2.501286
-36.898003,2.87364,2.5226355
-36.943916,2.886192,2.5526543
-36.986618,2.900263,2.585164
-37.11839,2.8748634,2.5553203
-37.16737,2.8867066,2.5846028
-37.24886,2.884541,2.591919
-37.34694,2.8756614,2.5888834
-37.417118,2.8791988,2.6055632
-37.481842,2.8853269,2.6264577
-37.542614,2.8933449,2.6504488
-37.6129,2.897659,2.6688118
-37.65526,2.913629,2.70544
-37.71186,2.923911,2.7333388
-37.746597,2.9430661,2.7750711
-37.845074,2.9371085,2.7781706
-38.716995,2.630465,2.3195314
-38.77195,2.6456015,2.3567548
-38.7939,2.6734352,2.4134994
-38.80551,2.7050147,2.4759622
-38.813274,2.7377934,2.540225
-38.78308,2.7843065,2.625257
-38.777897,2.8211412,2.69551
-38.77626,2.8563473,2.7632346
-38.788307,2.8863575,2.8230968
-38.79902,2.9166398,2.883348
-38.877884,2.9229467,2.907833
-39.03844,2.9014058,2.8911614
-39.092873,2.9170098,2.929998
-39.225983,2.9062176,2.9300232
-39.340553,2.902336,2.9406266
-39.37249,2.926281,2.9923434
-39.53662,2.9071007,2.9811893
-39.61612,2.9161365,3.0115914
-39.716526,2.9188268,3.033042
-39.883545,2.9009995,3.0252218
-39.922894,2.9238675,3.076405
-40.07733,2.9113326,3.077056
-40.18181,2.9148364,3.1010704
-40.30588,2.9129295,3.1177583
-40.440823,2.908407,3.131176
-40.55371,2.911048,3.1551213
-40.717712,2.8993814,3.1594582
-40.775307,2.9191136,3.2080464
-40.991985,2.8939018,3.1946254
-41.04503,2.9157362,3.2467728
-41.237213,2.8991876,3.2465286
-41.31095,2.9160562,3.2925124
-41.53017,2.893891,3.2858992
-41.609413,2.9102714,3.3320246
-41.844997,2.8857448,3.3236952
-41.941734,2.8986466,3.3660827
-42.126694,2.88927,3.3793888
-42.303696,2.882873,3.3973522
-42.423637,2.8916721,3.4358506
-42.684464,2.8661568,3.4303803
-42.7666,2.8857,3.4839659
-42.962135,2.878196,3.5033321
-43.181305,2.8660674,3.5176787
-43.276405,2.8842127,3.5710354
-43.516655,2.8690865,3.5832868
-43.73854,2.8594189,3.6033683
-43.875042,2.8701532,3.6494665
-44.101143,2.8615575,3.6726732
-44.32848,2.8538427,3.6979914
-44.56557,2.8451715,3.7232356
-44.69471,2.8607607,3.7782574
-44.95022,2.8502965,3.8034205
-45.21939,2.838304,3.8280716
-45.48507,2.8284051,3.8564615
-45.655384,2.8390965,3.909474
-45.789207,2.8578322,3.9723186
-46.345207,2.7944446,3.9452
-46.782204,2.7570438,3.9493995
-47.296032,2.7073553,3.942771
-47.880257,2.647233,3.9279375
-48.44433,2.5939636,3.9235554
-49.083885,2.529997,3.9113975
-49.83602,2.4493325,3.8860607
-50.66525,2.3591506,3.8557048
-11.858868,2.7280257,3.926372
-13.221186,2.921007,4.0889487
-13.686865,2.9577222,4.084262
-14.128645,2.992472,4.0797596
-14.408163,2.9989848,4.0451574
-14.671105,3.0037427,4.0099
-14.987464,3.0202055,3.9896462
-15.220172,3.021818,3.953312
-15.4870615,3.0314336,3.9276605
-15.876519,3.0673091,3.9350476
-16.123459,3.0759223,3.9109278
-16.45533,3.0626056,3.82796
-16.757324,3.0863862,3.8257952
-16.860607,3.0684576,3.7721024
-17.04879,3.069716,3.7433372
-17.291254,3.084078,3.7322378
-17.5164,3.0957804,3.7187066
-17.727118,3.105337,3.7033014
-17.930944,3.114379,3.688078
-18.044138,3.1030445,3.6466446
-18.273457,3.120031,3.6434588
-18.37906,3.1082125,3.602457
-18.601162,3.1254973,3.601215
-18.75637,3.1273155,3.5797768
-18.946308,3.1386719,3.5719805
-18.998291,3.1157765,3.5177073
-19.23257,3.1401792,3.529119
-19.384995,3.1444335,3.5133338
-19.593552,3.164362,3.5200467
-19.73893,3.1684694,3.505238
-19.815306,3.1545472,3.4654193
-20.01086,3.1737285,3.472921
-20.15098,3.178546,3.460579
-20.22985,3.1668034,3.4249296
-20.416973,3.1862817,3.434557
-20.558056,3.1935074,3.4270663
-20.64817,3.1865683,3.3994226
-20.833033,3.2080667,3.4136157
-20.861877,3.1838975,3.3613982
-21.040682,3.2051394,3.3761458
-21.11448,3.1952164,3.3453684
-21.260883,3.2081065,3.3486767
-21.355436,3.2055368,3.3293962
-21.467247,3.20889,3.3192515
-21.648037,3.2349725,3.3435683
-21.68497,3.2154033,3.2996578
-21.851032,3.2382994,3.3200293
-21.873482,3.21445,3.269987
-22.047247,3.2413936,3.2972813
-22.100456,3.2284107,3.2641306
-22.185959,3.226686,3.2483506
-22.321928,3.2429194,3.2603893
-22.332235,3.215751,3.2059298
-22.506126,3.2465897,3.2411146
-22.564182,3.236877,3.213942
-22.693668,3.2533464,3.2276049
-22.735027,3.238176,3.1923056
-22.876158,3.2601821,3.2151928
-22.947796,3.2569408,3.1989021
-22.982635,3.240023,3.1612964
-23.114399,3.260386,3.1824746
-23.144428,3.242031,3.1428623
-23.260902,3.2576268,3.1570396
-23.344803,3.2609937,3.152113
-23.373411,3.2425833,3.112751
-23.501596,3.2645853,3.1378546
-23.569828,3.2628052,3.1252875
-23.630089,3.2580278,3.1080751
-23.768635,3.286364,3.1441317
-23.776226,3.2600791,3.0927
-23.86417,3.2680376,3.0964317
-23.978025,3.2877514,3.1193523
-23.983793,3.2608154,3.0670638
-24.100048,3.2826142,3.0937638
-24.174622,3.2865295,3.0916924
-24.194542,3.2660735,3.0501194
-24.304287,3.2866504,3.075467
-24.384247,3.2941937,3.0797806
-24.393976,3.2693112,3.0312033
-24.506989,3.2931008,3.062406
-24.595768,3.3061173,3.0761762
-24.62047,3.2886965,3.0400734
-24.704372,3.300161,3.0515914
-24.760395,3.2983751,3.0414205
-24.817055,3.2971568,3.0322948
-24.832167,3.2751756,2.9888968
-24.952814,3.306978,3.0346932
-25.016804,3.3104637,3.0337281
-25.024446,3.2848332,2.984456
-25.101622,3.2956772,2.995926
-25.174953,3.3049827,3.0049858
-25.238993,3.3097413,3.006597
-25.269962,3.2967875,2.9786959
-25.358898,3.3158648,3.0044975
-25.417553,3.3187003,3.003234
-25.443161,3.3031645,2.9712176
-25.490345,3.299875,2.959825
-25.59638,3.3308177,3.0061646
-25.636517,3.3241549,2.9893103
-25.708668,3.3365407,3.0046787
-25.72406,3.3154712,2.9636278
-25.75014,3.300632,2.9331217
-25.839674,3.324572,2.9683547
-25.899372,3.3308198,2.9737492
-25.954414,3.334531,2.9749413
-25.956827,3.3051758,2.920001
-26.047806,3.332217,2.9610324
-26.099922,3.3348904,2.9607148
-26.154922,3.3397534,2.9642186
-26.170383,3.3186638,2.9234948
-26.240261,3.333924,2.944911
-26.305508,3.3466227,2.9620686
-26.37507,3.3628294,2.985351
-26.412537,3.3572538,2.9714098
-26.441338,3.3456402,2.947155
-26.476658,3.338619,2.9308214
-26.457874,3.2924695,2.847249
-26.46669,3.2656186,2.7968125
-26.404354,3.1855028,2.654602
-26.393847,3.1425395,2.5762696
-26.394197,3.1069722,2.5106397
-26.406765,3.080141,2.4600606
-26.423676,3.0562363,2.4145303
-26.415943,3.0124526,2.3346062
-26.415012,2.973207,2.2624822
-26.41285,2.9321613,2.1871982
-26.418867,2.8969893,2.122054
-26.408691,2.8476205,2.0322433
-26.38539,2.786077,1.9212213
-26.390686,2.7475836,1.8501735
-26.412771,2.7228482,1.8030267
-26.436846,2.699425,1.7581701
-26.446777,2.6629832,1.6906443
-26.421831,2.5942304,1.5667715
-26.424229,2.5488548,1.4835801
-26.420105,2.4963717,1.3879428
-26.446068,2.471016,1.3396358
-26.420057,2.3954344,1.2035513
-35.209373,1.8868494,0.3787346
-35.24584,1.9105039,0.42539167
-35.26197,1.949841,0.49919367
-35.214363,2.0379472,0.657249
-35.270947,2.0443127,0.6740136
-35.266716,2.0968277,0.7704606
-35.235126,2.1687753,0.9003353
-35.279007,2.183563,0.9316559
-35.28121,2.2286575,1.0151634
-35.251514,2.295904,1.1366968
-35.296005,2.309071,1.1652455
-35.258713,2.3796487,1.2923341
-35.270386,2.4148514,1.3586559
-35.26355,2.4621892,1.4457307
-35.274815,2.4964297,1.5103359
-35.281765,2.5330372,1.5789628
-35.282494,2.5731864,1.6536007
-35.295227,2.6048303,1.7136884
-35.288204,2.6487868,1.7947288
-35.317547,2.6687894,1.8349485
-35.343403,2.6908157,1.8786302
-35.380215,2.705787,1.9103494
-35.407253,2.726727,1.9522305
-35.46787,2.727014,1.9591522
-35.500854,2.7442286,1.9948082
-35.536804,2.7595773,2.0273466
-35.55615,2.7846463,2.0763268
-35.49394,2.856911,2.2048512
-35.620644,2.8191214,2.1479254
-35.684208,2.8183966,2.1535802
-35.704857,2.842131,2.2004085
-35.74133,2.8568308,2.2320952
-35.792583,2.8633702,2.2501636
-35.652332,2.974237,2.4427462
-35.700916,2.981363,2.4617162
-35.721653,3.003439,2.50569
-35.72521,3.0343616,2.5643992
-35.745052,3.0564234,2.6083422
-35.773003,3.0741255,2.6450558
-35.810642,3.0868068,2.6734776
-35.84739,3.0999544,2.7027245
-36.56671,2.7733622,2.1707973
-36.52691,2.8622904,2.3345237
-36.629993,2.8465786,2.317316
-36.664986,2.863981,2.3546767
-36.702686,2.8800707,2.3899326
-36.789375,2.8733232,2.3878994
-36.81488,2.8952706,2.4328918
-36.96743,2.859171,2.3833365
-36.954987,2.8986099,2.4569893
-37.03701,2.8954146,2.4613638
-37.07484,2.9121456,2.4981947
-37.176315,2.901102,2.4901824
-37.266594,2.8954985,2.4911861
-37.36104,2.8886092,2.4903274
-37.41751,2.8982785,2.516295
-37.494328,2.899623,2.5290284
-37.56969,2.901923,2.5434642
-37.62693,2.9119687,2.5704317
-37.68648,2.921253,2.5963044
-37.726784,2.9384267,2.6348376
-37.772476,2.9534953,2.6701012
-37.82928,2.9642909,2.6986952
-38.763126,2.63606,2.1926708
-38.78939,2.662603,2.2476263
-38.793156,2.6975358,2.315771
-38.797947,2.7317767,2.3827858
-38.79307,2.7693033,2.454887
-38.784218,2.807922,2.5286155
-38.77716,2.8455,2.6006432
-38.771942,2.882054,2.6710057
-38.781166,2.913152,2.732874
-38.847923,2.9238944,2.7633905
-38.996548,2.9065447,2.750968
-39.0516,2.922071,2.7892628
-39.166058,2.9176407,2.7972565
-39.292744,2.9097128,2.800261
-39.334026,2.9306998,2.8474321
-39.467102,2.921715,2.8494406
-39.598812,2.9138868,2.8535876
-39.66326,2.928245,2.8913875
-39.85716,2.9019308,2.868606
-39.887733,2.9277363,2.9240012
-40.0265,2.9201167,2.9298968
-40.14013,2.9208956,2.948629
-40.22394,2.9312043,2.9817247
-40.439457,2.9026215,2.9581008
-40.520042,2.9150078,2.9949603
-40.66816,2.908056,3.003971
-40.72467,2.9282026,3.0526538
-40.958187,2.8982232,3.0293374
-41.002148,2.922766,3.0849576
-41.18806,2.9080155,3.0846553
-41.284138,2.9188666,3.121336
-41.40824,2.9225357,3.1481872
-41.588757,2.9117198,3.155118
-41.803368,2.8928607,3.1514645
-41.886116,2.909524,3.1979685
-42.107887,2.8907228,3.1957383
-42.21912,2.9012027,3.2345767
-42.443535,2.8837764,3.2356987
-42.613102,2.881135,3.2577596
-42.70241,2.8989575,3.308073
-42.9631,2.8757668,3.3037353
-43.096138,2.884385,3.3427992
