x,y,z
-32.052834,3.1264195,3.3980675
-32.08374,3.1297421,3.4064674
-32.11461,3.1331465,3.4150457
-32.14845,3.1323652,3.4177418
-32.181953,3.1322148,3.4214048
-32.215107,3.1326919,3.4260302
-32.250248,3.13061,3.4271026
-32.28347,3.1312804,3.432147
-32.32035,3.1272895,3.4306765
-32.35366,3.1281586,3.436152
-32.386986,3.1291225,3.4418335
-32.42075,3.1296568,3.446981
-32.456238,3.1281917,3.4493918
-32.491364,3.1273568,3.4527678
-32.524353,3.129236,3.4600353
-32.56044,3.127564,3.4623938
-32.600178,3.1218436,3.459169
-32.63509,3.121956,3.464201
-32.67187,3.1201026,3.4665666
-32.709652,3.1173308,3.4677386
-32.74472,3.1177666,3.473472
-32.773174,3.1254997,3.489441
-32.792873,3.1425292,3.5183835
-32.81081,3.161118,3.5495086
-32.837715,3.170033,3.5672421
-32.861504,3.1820645,3.5893388
-32.88859,3.1905918,3.6066303
-32.921112,3.1936166,3.6163807
-32.951565,3.1987548,3.629118
-32.985565,3.200452,3.637186
-33.019573,3.2022507,3.6454754
-33.058853,3.199143,3.6471162
-33.08867,3.2051558,3.6613498
-33.122158,3.207762,3.6709914
-33.157265,3.2089782,3.6788154
-33.192936,3.2098076,3.6861997
-33.228085,3.2112422,3.6944966
-33.26213,3.2137702,3.7043676
-33.297855,3.2149286,3.7124653
-33.322266,3.2259912,3.7340574
-33.372795,3.214652,3.7254324
-33.405148,3.2190764,3.7382164
-33.418846,3.2391222,3.7721033
-33.462093,3.2344975,3.77285
-33.49306,3.240151,3.7875013
-33.529327,3.2415674,3.796557
-33.56501,3.2435787,3.8065047
-33.592216,3.2523897,3.8256083
-33.62418,3.257462,3.839798
-33.65732,3.2616806,3.8529344
-33.700954,3.2579613,3.8556433
-33.728474,3.2666497,3.874881
-33.76279,3.2702446,3.8874626
-33.79518,3.275351,3.9021254
-33.82752,3.280555,3.917
-34.618,2.7379189,3.2144957
-34.58113,2.7985291,3.3036141
-34.58683,2.827952,3.3518467
-34.59595,2.8545647,3.3963804
-34.60196,2.882977,3.4432197
-34.61479,2.906321,3.48346
-34.632584,2.9260168,3.518981
-34.62104,2.965201,3.579599
-34.606754,3.0056021,3.6416593
-34.58764,3.0485506,3.7068486
-34.600067,3.0702868,3.7447987
-34.60521,3.0964725,3.7884064
-34.608505,3.1235,3.8330426
-34.62184,3.1438386,3.8691592
-34.635548,3.163735,3.9047165
-34.646793,3.184947,3.9419296
-34.664104,3.2022161,3.9741852
-34.681858,3.219071,4.0059404
-34.698616,3.2363815,4.038286
-34.726707,3.2468104,4.062094
-34.7583,3.2551694,4.0834103
-34.830875,3.2396822,4.075368
-34.8669,3.2457852,4.0941863
-34.907314,3.2494645,4.1101446
-34.949196,3.2524421,4.125379
-34.990326,3.25599,4.14145
-35.070625,3.2379484,4.13146
-35.12631,3.2339842,4.138826
-35.16841,3.2376952,4.15565
-35.209732,3.2419698,4.173297
-35.301003,3.2197301,4.1593933
-35.356415,3.217081,4.169211
-35.408813,3.2162764,4.181432
-35.45894,3.2168894,4.1955285
-35.576515,3.1831074,4.169367
-35.645924,3.1746762,4.1734314
-35.768543,3.1398623,4.147027
-35.824284,3.1392822,4.1609316
-35.947144,3.105824,4.137067
-35.997677,3.1086025,4.1554613
-36.07801,3.0971487,4.1577597
-36.19661,3.0678127,4.1400404
-36.272728,3.0594668,4.1466846
-36.365353,3.0437727,4.1453757
-36.436188,3.038792,4.1565223
-36.5491,3.0147562,4.1467037
-36.61293,3.0138762,4.16315
-36.745636,2.9821146,4.1457567
-36.82234,2.9763393,4.157575
-36.956005,2.9456675,4.1425457
-37.06256,2.9277873,4.142084
-37.19473,2.8993895,4.130788
-37.272495,2.8952947,4.146249
-37.425858,2.8592887,4.128033
-37.522842,2.8481317,4.136961
-37.65935,2.8209417,4.1294804
-37.762924,2.8082592,4.137893
-37.894276,2.784729,4.1355553
-38.05799,2.748809,4.1211166
-38.162582,2.7377493,4.133048
-38.291725,2.7174468,4.136112
-38.483128,2.6732738,4.1157513
-38.621937,2.6509013,4.1183157
-38.748856,2.6339345,4.1270175
-38.92009,2.6006591,4.1203074
-39.116608,2.5587988,4.1061573
-39.300537,2.5228794,4.098903
-39.461086,2.4967752,4.102156
-39.614944,2.4740558,4.1095567
-39.771862,2.4510784,4.117594
-39.99098,2.40647,4.106263
-40.188347,2.3709652,4.1046963
-40.365555,2.343754,4.1119323
-40.579327,2.3046944,4.109441
-40.789177,2.2682366,4.110596
-41.034096,2.2209105,4.1033463
-41.22693,2.1927652,4.1145444
-41.498676,2.139061,4.10464
-41.82429,2.0689611,4.0823298
-42.072964,2.0262344,4.0854535
-42.317657,1.9862169,4.0924573
-42.573975,1.9438038,4.099053
-42.84752,1.8973047,4.1039724
-43.28187,1.8013265,4.0706425
-43.70549,1.7112958,4.0450196
-44.08012,1.6389711,4.03624
-44.4026,1.584831,4.044144
-44.8117,1.5061302,4.035506
-45.233047,1.4260755,4.02872
-45.711685,1.3313496,4.014064
-46.192467,1.2387302,4.004375
-46.67157,1.1493273,4.0004625
-47.25174,1.033467,3.9814825
-47.81064,0.92698216,3.9732528
-48.179592,0.87727237,4.00752
-16.30019,1.0541987,2.750349
-16.572887,1.10239,2.7540202
-16.892963,1.1693299,2.7774825
-17.154951,1.2169874,2.7838593
-17.42854,1.2704787,2.7974758
-18.21878,1.5183065,3.0064812
-18.325733,1.5142708,2.9668293
-18.36763,1.4859381,2.903082
-18.34156,1.4314606,2.812777
-18.550507,1.467608,2.815442
-18.713497,1.4869869,2.8018365
-18.929918,1.5284016,2.812059
-19.101452,1.5532005,2.805956
-19.325958,1.6003559,2.8243766
-19.579666,1.6608229,2.8581395
-19.686705,1.6625979,2.8303146
-19.89262,1.7059553,2.8478394
-20.034805,1.723877,2.8387995
-20.18169,1.7445881,2.8334894
-20.33405,1.7684863,2.8323874
-20.533848,1.8137784,2.8556514
-20.647337,1.8227298,2.8395238
-20.75225,1.828496,2.8203516
-20.786339,1.8032832,2.7668438
-20.746286,1.7446876,2.6757221
-20.727816,1.6951411,2.5945635
-20.752037,1.6645839,2.5348759
-19.88197,1.2203364,2.0008154
-19.901077,1.1829767,1.931015
-19.897247,1.1345177,1.84835
-20.670282,1.4553704,2.1952147
-20.677536,1.4148283,2.123536
-20.647774,1.3108885,1.9530263
-20.646881,1.2649281,1.8746209
-20.649902,1.220432,1.7978458
-20.736198,1.2174978,1.7706256
-20.764585,1.1384833,1.6290503
-20.821201,1.1204631,1.5841856
-20.834097,1.0795488,1.5117002
-20.829239,1.028825,1.4272156
-20.77865,0.9530306,1.3119359
-20.789413,0.90929747,1.2356572
-31.383736,1.3819759,0.69109535
-31.320728,1.7865069,1.2889166
-31.344603,1.8622305,1.4024982
-31.316309,2.1053321,1.76233
-31.338457,2.170406,1.8601594
-31.36263,2.2249715,1.942544
-31.408443,2.211554,1.9250398
-31.429514,2.2706294,2.014113
-31.442436,2.3490233,2.1315513
-31.384323,2.89414,2.9403238
-31.428408,2.8704462,2.9078784
-31.446037,2.9105277,2.968902
-31.474754,2.9232159,2.9898453
-31.462166,3.0279188,3.145399
-31.484894,3.0504656,3.1807652
-31.523294,3.0386465,3.165956
-31.569305,3.011675,3.1291075
-31.603333,3.0104606,3.1299515
-31.624002,3.0359964,3.169866
-31.61398,3.1202319,3.2953358
-31.635548,3.1408532,3.3280716
-31.672125,3.1327891,3.3190851
-31.70771,3.127,3.313487
-31.738605,3.1299617,3.3206806
-31.779022,3.116279,3.303761
-31.803112,3.1312788,3.328558
-31.832666,3.136642,3.3394122
-31.862783,3.1410048,3.3488717
-31.894163,3.1432996,3.355394
-31.92586,3.1451437,3.3613224
-31.956518,3.1486769,3.3697557
-31.993399,3.1426854,3.3644915
-32.024776,3.1453304,3.3717709
-32.056484,3.1475275,3.3784661
-32.088547,3.1492803,3.384584
-32.12208,3.1490011,3.3878412
-32.156788,3.147231,3.3890252
-32.188507,3.149787,3.3964972
-32.225243,3.1455777,3.3943248
-32.257385,3.1477933,3.401445
-32.2939,3.1443222,3.4004865
-32.32567,3.1472504,3.4087663
-32.361103,3.1455593,3.4105077
-32.392036,3.1497135,3.4206743
-32.430073,3.1450987,3.4183931
-32.46057,3.1499567,3.4296985
-32.494457,3.1507468,3.4352741
-32.532734,3.1464603,3.4337068
-32.57291,3.14023,3.4294682
-32.608326,3.1397974,3.4335513
-32.646057,3.1369004,3.4342227
-32.68251,3.1356602,3.4373279
-32.72135,3.1319733,3.4370594
-32.757492,3.1314728,3.441382
-32.790836,3.1341372,3.4502497
-32.818405,3.1429942,3.4679074
-32.842438,3.1554642,3.490695
-32.851532,3.1831472,3.5348806
-32.877945,3.192648,3.5535488
-32.910213,3.1961749,3.5638986
-32.943466,3.1987896,3.5730443
-32.972614,3.205505,3.5879908
-33.00838,3.2058084,3.5940561
-33.03792,3.2121954,3.608676
-33.07001,3.2161784,3.620017
-33.10632,3.2162938,3.6260605
-33.148575,3.2110925,3.6248264
-33.183933,3.2124357,3.63276
-33.216576,3.2163415,3.644319
-33.249733,3.2198532,3.6554098
-33.286766,3.220047,3.6620102
-33.308662,3.2334967,3.6869216
-33.336002,3.2421346,3.7052646
-33.38552,3.2319784,3.6979227
-33.420868,3.2340608,3.707459
-33.453312,3.2386563,3.7205129
-33.4951,3.23568,3.723331
-33.503265,3.260076,3.7634783
-33.5432,3.258729,3.7686696
-33.577194,3.2622633,3.780582
-33.627533,3.25313,3.7754555
-33.667107,3.2526712,3.782187
-33.69627,3.2603352,3.799962
-33.72099,3.2713566,3.8223143
-33.75241,3.2773015,3.8379066
-33.772427,3.2917097,3.8648975
-33.82519,3.2820492,3.8597891
-33.836662,3.3026135,3.8951056
-34.571148,2.8058798,3.2429957
-34.583805,2.8305805,3.2853494
-34.586895,2.861661,3.3361278
-34.60257,2.883572,3.3747506
-34.61853,2.9050305,3.4127789
-34.632797,2.9273963,3.4520016
-34.627895,2.9623597,3.507722
-34.598064,3.013361,3.5843086
-34.594467,3.046266,3.637113
-34.596436,3.0750744,3.6845098
-34.606155,3.0985012,3.7248745
-34.6037,3.1294072,3.7748876
-34.623695,3.1457233,3.8060145
-34.634308,3.167761,3.8445263
-34.646667,3.188475,3.8813252
-34.662228,3.207011,3.915334
-34.68248,3.2225318,3.9455092
-34.704636,3.2367961,3.9741201
-34.725853,3.251535,4.0033717
-34.76645,3.2547927,4.018161
-34.82821,3.245871,4.017744
-34.89754,3.2329702,4.0125637
-34.93025,3.241414,4.034348
-34.970272,3.2457676,4.0511255
-35.025192,3.2419143,4.0578346
-35.102753,3.2258162,4.0495844
-35.130886,3.2373369,4.075722
-35.167953,3.243998,4.0959587
-35.22857,3.2380884,4.100913
-35.303898,3.2246804,4.0969505
-35.374912,3.2140284,4.0966444
-35.426067,3.2141695,4.109697
-35.490486,3.2076802,4.1149406
-35.52931,3.214644,4.1366053
-35.572758,3.2193556,4.1557055
-35.659527,3.2024684,4.14922
-35.71498,3.2017045,4.162243
-35.797546,3.1878493,4.160013
-35.8916,3.1689017,4.15215
-35.96358,3.1612196,4.157898
-36.0559,3.1442094,4.153077
-36.151005,3.1264591,4.14781
-36.223717,3.1198053,4.155787
-36.352932,3.087303,4.134372
-36.414734,3.0866895,4.1500387
-36.505405,3.0732074,4.1513214
-36.596367,3.0601254,4.153472
-36.695904,3.043739,4.152322
-36.808273,3.0222716,4.145949
-36.924416,2.9998503,4.1390533
-37.02756,2.9837878,4.139763
-37.157158,2.9569666,4.1291203
-37.249207,2.9469385,4.1375074
-37.394104,2.9151406,4.122641
-37.47229,2.9121056,4.1396227
-37.62752,2.8776073,4.123152
-37.707882,2.8747382,4.141266
-37.87529,2.8369765,4.1227393
-38.000187,2.8173423,4.124204
-38.127186,2.7975936,4.1261926
-38.286736,2.765768,4.1162877
-38.427658,2.742175,4.115735
-38.569008,2.7192383,4.1166058
-38.70024,2.700986,4.1229973
-38.902275,2.6566815,4.1038055
-39.07149,2.6259248,4.099308
-39.17743,2.6196337,4.1200447
-39.375946,2.579872,4.1083856
-39.569782,2.5430079,4.100689
-39.74367,2.5144713,4.102165
-39.916245,2.487399,4.1060443
-40.061398,2.470978,4.121041
-40.286175,2.4275215,4.1114125
-40.486336,2.3939033,4.1123
-40.694283,2.358762,4.112974
-40.937325,2.3129187,4.1051235
-41.17652,2.2697816,4.1012106
-41.427345,2.2241654,4.096555
-41.673363,2.1815724,4.096138
-42.02376,2.1064394,4.068816
-42.269447,2.0670948,4.07467
-42.53692,2.0221834,4.0773373
-42.733856,2.0010133,4.101738
-43.13124,1.9183491,4.0762415
-43.555794,1.8296285,4.048431
-43.91923,1.7620635,4.040607
-44.33676,1.6802256,4.0238566
-44.654453,1.6306419,4.0353217
-45.031807,1.5651605,4.0366516
-45.5048,1.4738016,4.0208883
-45.993088,1.3807142,4.007171
-46.48916,1.2881718,3.9973392
-47.03926,1.1831267,3.9820304
-47.50177,1.1057386,3.9903784
-48.127213,0.9857538,3.9724207
-15.845044,1.0794973,2.7404022
-16.210278,1.1553905,2.770186
-16.474497,1.1982739,2.769722
-16.78098,1.2575672,2.7869692
-17.666306,1.5247035,3.0132456
-17.906662,1.566011,3.0175562
-18.145393,1.6081371,3.0240135
-18.329344,1.6315808,3.0126724
-18.36982,1.6028857,2.9485955
-18.374626,1.5608022,2.8707528
-18.416924,1.532579,2.807325
-18.614426,1.5635755,2.8064032
-18.915943,1.6358252,2.850254
-19.177925,1.694639,2.8813515
-19.290745,1.6964617,2.8525434
-19.413818,1.7028835,2.8292398
-19.559925,1.7191596,2.8172493
-19.721962,1.7426882,2.8139105
-19.968914,1.8018978,2.850706
-20.107527,1.8179758,2.8408923
-20.273762,1.8463476,2.845449
-20.45631,1.8825991,2.859644
-20.599424,1.903219,2.8570724
-20.784851,1.942857,2.876749
-20.769875,1.8967264,2.7994385
-20.758976,1.8518858,2.7234359
-20.755432,1.8098295,2.6504931
-20.759167,1.770612,2.5807257
-19.862608,1.324728,2.0372543
-19.869661,1.2823029,1.961276
-19.896961,1.24881,1.8957319
-20.686253,1.5259962,2.1732082
-20.698528,1.3995345,1.9511371
-20.640995,1.3264632,1.8396134
-20.6203,1.2705231,1.7484789
-20.776814,1.3020964,1.7637
-20.81258,1.2276361,1.6272001
-20.82632,1.1877902,1.5556984
-20.820644,1.1375101,1.4712534
-20.828873,1.0939136,1.3949699
-20.835535,1.0490313,1.3170156
-20.79884,0.9805412,1.2094693
-20.788313,0.9251921,1.1181278
-20.746372,0.8520608,1.0042396
-31.336016,1.4217596,0.66060734
-31.367067,1.4925823,0.768373
-31.320173,1.8335414,1.2790513
-31.334095,1.9421496,1.4430552
-31.329586,2.1034415,1.6855469
-31.338778,2.2102578,1.8467832
-31.355364,2.2873979,1.963778
-31.40647,2.2576718,1.9216623
-31.42378,2.3266444,2.0265346
-31.437445,2.4016173,2.1403198
-31.3998,2.8890638,2.8736773
-31.417948,2.9287803,2.9348464
-31.444809,2.9462152,2.9629688
-31.470358,2.9658754,2.9944263
-31.46101,3.0620582,3.139309
-31.48643,3.0784698,3.1659575
-31.52972,3.0565126,3.1358476
-31.58898,3.0028126,3.058878
-31.604927,3.0389376,3.1148658
-31.586979,3.1402864,3.2672253
-31.618893,3.1413267,3.2713418
-31.653666,3.1370761,3.2677107
-31.691761,3.1270208,3.2555885
-31.717026,3.1406727,3.2784867
-31.744446,3.1500921,3.2951865
-31.773544,3.156367,3.307303
-31.803793,3.1605783,3.3164334
-31.834297,3.1643338,3.3249483
-31.864752,3.1681688,3.3336358
-31.896479,3.1699574,3.3393755
-31.92786,3.172363,3.3460793
-31.96265,3.169557,3.3452072
-31.995787,3.1694956,3.348425
-32.028957,3.1695275,3.3518448
-32.060356,3.1722877,3.3593178
-32.09246,3.17408,3.3654385
-32.12679,3.1728108,3.3671532
-32.160423,3.1726892,3.370613
-32.19486,3.1716177,3.372757
-32.228962,3.1711686,3.3758783
-32.26311,3.170818,3.3792143
-32.2981,3.1695268,3.3812537
-32.33275,3.168858,3.3842707
-32.367447,3.1682904,3.387507
-32.403027,3.1667907,3.3894682
-32.43783,3.1664295,3.3931522
-32.472256,3.1666858,3.3978024
-32.50801,3.165501,3.400446
-32.544266,3.1639116,3.4025836
-32.580593,3.1624327,3.404962
-32.619232,3.1585133,3.4039083
-32.655273,3.1577702,3.4075098
-32.69367,3.1545968,3.407703
-32.730774,3.153065,3.4103374
-32.767956,3.1516476,3.413221
-32.804737,3.1508493,3.4170747
-32.835327,3.1567032,3.430512
-32.86681,3.1616356,3.4426942
-32.898235,3.1666527,3.455062
-32.930588,3.1707573,3.466195
-32.96591,3.1719646,3.4732804
-33.00024,3.1742716,3.4820046
-33.032516,3.1786618,3.4937568
-33.06268,3.1851187,3.508501
-33.081783,3.202003,3.5380363
-33.102695,3.2169452,3.564849
-33.128666,3.22702,3.5848312
-33.160923,3.2312906,3.5966969
-33.19585,3.2332175,3.6053424
-33.236263,3.230393,3.6074076
-33.281204,3.223827,3.60434
-33.311268,3.230461,3.619841
-33.350246,3.2294717,3.6247687
-33.369995,3.244934,3.65271
-33.40665,3.2460651,3.6607456
-33.43871,3.2511296,3.6743336
-33.473045,3.2543845,3.6854854
-33.515587,3.2511053,3.6876826
-33.555283,3.2503371,3.693462
-33.589676,3.2539413,3.7053714
-33.62163,3.2595289,3.7200928
-33.65292,3.265678,3.7356582
-33.683525,3.2723827,3.752057
-33.726364,3.269876,3.7559285
-33.751923,3.2804918,3.7778287
-33.782944,3.287013,3.7942019
-33.79561,3.3069658,3.828901
-33.8511,3.2957382,3.821309
-34.559914,2.818296,3.1829824
-34.564613,2.8487875,3.2334576
-34.586926,2.8665223,3.2666974
-34.593918,2.8946826,3.31398
-34.610275,2.9160464,3.3521104
-34.618317,2.9427958,3.3974495
-34.60921,2.9806767,3.4576173
-34.583298,3.0291133,3.5317369
-34.58689,3.0573897,3.578898
-34.59338,3.0834007,3.6230097
-34.60489,3.1058517,3.6623807
-34.60361,3.1361725,3.7121134
-34.62051,3.1546345,3.7461843
-34.63222,3.1761515,3.784275
-34.649178,3.1941957,3.8178144
-34.66372,3.2135487,3.853074
-34.67865,3.2324772,3.887786
-34.694695,3.250558,3.9214034
-34.728413,3.2580175,3.9412994
-34.78228,3.2537227,3.9461343
-34.840645,3.247107,3.948171
-34.902122,3.239045,3.9485602
-34.925583,3.252963,3.9772475
-34.97175,3.2540364,3.9896262
-35.042473,3.2416139,3.9850292
-35.09855,3.237732,3.991504
-35.132973,3.2459698,4.01346
-35.18466,3.244925,4.0238523
-35.24402,3.240015,4.029587
-35.333267,3.2195709,4.016159
-35.36547,3.2297044,4.041109
-35.412174,3.232327,4.0568466
-35.46585,3.2315364,4.0685344
-35.52427,3.2285767,4.077753
-35.548405,3.2432098,4.1087356
-35.62258,3.23278,4.1092033
-35.660717,3.240629,4.132178
-35.720955,3.237731,4.1422753
-35.786873,3.2323735,4.149645
-35.872944,3.2176805,4.146081
-35.964157,3.2010717,4.1405964
-36.04847,3.1882885,4.1400576
-36.125774,3.179278,4.144347
-36.221203,3.1623259,4.1396074
-36.304737,3.1514087,4.1423693
-36.381134,3.1442025,4.149826
-36.479965,3.1273406,4.1463995
-36.575016,3.1127598,4.146057
-36.667057,3.1000638,4.1483116
-36.779392,3.0790548,4.1414785
-36.8436,3.079508,4.159586
-37.004486,3.0389342,4.1315517
-37.084324,3.033741,4.1441174
-37.209175,3.0100918,4.1363983
-37.300503,3.00112,4.145612
-37.455994,2.9662743,4.126647
-37.574486,2.9474812,4.1261067
-37.65299,2.9454913,4.144501
-37.801376,2.9159946,4.133409
-37.91054,2.9029038,4.140766
-38.094593,2.8611276,4.117943
-38.224556,2.8414664,4.1196146
-38.335686,2.8297725,4.130371
-38.49612,2.799957,4.1226854
-38.686104,2.7599988,4.105293
-38.779804,2.7570367,4.1271634
-38.945236,2.7280984,4.1228685
-39.137802,2.690237,4.110395
-39.337246,2.6510494,4.0976515
-39.520416,2.6188786,4.093048
-39.66297,2.6021466,4.104794
-39.818398,2.5816767,4.1136475
-39.993984,2.555072,4.11739
-40.185364,2.5240355,4.1178517
-40.399887,2.4862282,4.1129427
-40.596886,2.4555564,4.116056
-40.8426,2.409782,4.1061573
-41.084488,2.3667042,4.1002417
-41.29322,2.3358264,4.107004
-41.635365,2.2630758,4.076961
-41.87938,2.2236943,4.0790596
-42.123997,2.1854944,4.0837226
-42.370117,2.1481924,4.090704
-42.66214,2.0980592,4.0881042
-42.928925,2.0573022,4.095412
-43.358055,1.9688708,4.064129
-43.757706,1.8917823,4.045155
-44.16872,1.813632,4.027974
-44.464813,1.7715294,4.0427885
-44.810226,1.7167375,4.049447
-45.386528,1.5976305,4.0078707
-45.81101,1.5249386,4.006246
-46.294914,1.4379458,3.996697
-46.757263,1.3596559,3.9970832
-47.36355,1.2444434,3.9736276
-47.942837,1.1399882,3.962328
-15.125945,1.0854702,2.7505054
-15.424994,1.1322978,2.7498035
-15.754068,1.1907909,2.7622414
-16.087566,1.2526937,2.7799282
-16.363167,1.2969611,2.781897
-17.300919,1.5694318,3.0152078
-17.570358,1.6171,3.0256228
-17.8139,1.65731,3.0298758
-18.063839,1.701196,3.039239
-18.265854,1.7294698,3.0336971
-18.363602,1.7213285,2.9910235
-18.38983,1.6875477,2.9217134
-18.403343,1.6489518,2.8473244
-18.55358,1.6608832,2.8270826
-18.735926,1.6856413,2.8214245
-19.05215,1.7621584,2.872942
-19.198235,1.7756267,2.8571043
-17.460281,1.0615792,2.0406337
-17.477322,1.018904,1.9588304
-17.446802,0.95719266,1.8557711
-19.877087,1.8750091,2.851676
-20.026245,1.894057,2.8457923
-20.197124,1.9227779,2.8515863
-20.358921,1.9487998,2.8551035
-20.52693,1.9783635,2.8634396
-20.621021,1.9780145,2.838019
-20.766232,1.9997015,2.838571
-20.803108,1.9759903,2.7868028
-20.702911,1.8931189,2.6657457
-20.794937,1.8927329,2.6413178
-20.781126,1.8462093,2.5626087
-18.840893,0.94348216,1.4646578
-19.8732,1.3567331,1.9306407
-20.469275,1.5810537,2.174654
-20.685629,1.6365414,2.21775
-20.696121,1.5984366,2.1483588
-20.700502,1.5133872,1.9986286
-20.691362,1.4648311,1.9162278
-20.667933,1.4088602,1.8245425
-20.74438,1.4006839,1.7918019
-20.804333,1.3846791,1.7495942
-20.856163,1.3189194,1.6234579
-20.828499,1.2586136,1.525949
-20.846704,1.2209189,1.4567304
-20.821693,1.1606171,1.3588724
-20.828344,1.115999,1.2807193
-20.833458,1.0700951,1.2008524
-20.78936,0.99756026,1.0868363
-20.791016,0.94851613,1.0026622
-20.759777,0.88108826,0.89471436
-31.338783,1.4578266,0.6213579
-31.331192,1.6692388,0.9431882
-31.321308,1.8723047,1.2522855
-31.333172,1.9869897,1.4276633
-31.335667,2.1239219,1.6366224
-31.330832,2.274341,1.8658876
-31.34804,2.3480382,1.9792066
-31.399834,2.315893,1.9327455
-31.417309,2.3831365,2.0363612
-31.434517,2.4471142,2.1350408
-31.421215,2.8695502,2.780363
-31.416767,2.9639478,2.924623
-31.444756,2.9785514,2.9487796
-31.468386,3.0023558,2.9868088
-31.479528,3.0525181,3.0644708
-31.502129,3.0758271,3.1017828
-31.563744,3.016646,3.0152898
-31.582338,3.048151,3.065011
-31.570503,3.1389992,3.2037206
-31.576439,3.191267,3.2845178
-31.645908,3.1203363,3.1807714
-31.667814,3.141257,3.214692
-31.6925,3.1563613,3.239935
-31.717476,3.1704514,3.2636929
-31.744902,3.17982,3.2804313
-31.774004,3.1860752,3.2925634
-31.804571,3.189759,3.3009076
-31.83541,3.1929946,3.3086371
-31.866533,3.1957831,3.3157573
-31.89829,3.1976037,3.3214903
-31.933413,3.194257,3.3195972
-31.963148,3.1994028,3.3303962
-31.998735,3.1957266,3.3281446
-32.030888,3.197381,3.333877
-32.06232,3.200167,3.3413463
-32.094822,3.2014751,3.346686
-32.129185,3.200275,3.348372
-32.16361,3.1991746,3.3502765
-32.19771,3.1986923,3.3531623
-32.231857,3.1983085,3.3562617
-32.266834,3.1969917,3.3580542
-32.303474,3.1937191,3.3570352
-32.338604,3.192613,3.359284
-32.372154,3.193662,3.3647747
-32.408215,3.1917365,3.365962
-32.44309,3.1914515,3.3696342
-32.47673,3.1927977,3.37577
-32.511677,3.1927154,3.3798804
-32.54798,3.191214,3.381988
-32.58569,3.1883054,3.382115
-32.623947,3.185009,3.3817592
-32.660957,3.183344,3.3838692
-32.697586,3.182296,3.3869576
-32.73474,3.1808581,3.3895602
-32.772915,3.1785345,3.3909564
-32.809277,3.178327,3.3955107
-32.84088,3.1832085,3.407524
-32.87194,3.1886716,3.4204416
-32.904892,3.1922379,3.430676
-32.939804,3.1939213,3.4382572
-32.974224,3.1962008,3.4467754
-33.00864,3.1985824,3.4555125
-33.043053,3.201065,3.4644704
-33.078495,3.2026718,3.4722428
-33.108727,3.2092595,3.4872422
-33.153645,3.202317,3.4829135
-33.19556,3.1984396,3.4830852
-33.22523,3.2058206,3.499445
-33.263485,3.2055664,3.5049715
-33.299057,3.2078383,3.514186
-33.331863,3.2126138,3.5270433
-33.368526,3.2141395,3.5353546
-33.405212,3.2157795,3.5439153
-33.44134,3.2180085,3.5533948
-33.476906,3.2208233,3.5637875
-33.506107,3.2289376,3.581738
-33.528778,3.2423034,3.607142
-33.547108,3.2589939,3.6372538
-33.572254,3.2700968,3.6595402
-33.625313,3.2593615,3.6512766
-33.650936,3.270186,3.6733155
-33.67153,3.284772,3.7006507
-33.70595,3.288784,3.7132826
-33.737263,3.2951999,3.7293382
-33.769115,3.3012476,3.7449527
-33.799644,3.3083014,3.762034
-33.829453,3.315896,3.77993
-34.536602,2.8404853,3.1316319
-34.553867,2.8621848,3.1704593
-34.57204,2.8829906,3.2080631
-34.589207,2.9042556,3.2463064
-34.611233,2.921956,3.2796779
-34.614532,2.9521446,3.3301191
-34.591423,2.9995532,3.4039574
-34.586777,3.0339618,3.459972
-34.58553,3.0656297,3.5121903
-34.587086,3.0950239,3.5612664
-34.592876,3.1212964,3.6060767
-34.599575,3.146655,3.64962
-34.611336,3.1685123,3.6884317
-34.62689,3.1877704,3.723752
-34.64142,3.2074652,3.7596617
-34.655613,3.2271633,3.795579
-34.669476,3.2468622,3.831499
-34.68017,3.2682579,3.8696656
-34.736973,3.262214,3.8715746
-34.82273,3.2395902,3.8518343
-34.86776,3.241178,3.8642132
-34.896812,3.2520876,3.888939
-34.920586,3.265978,3.9176269
-34.99418,3.2518663,3.9099066
-35.070328,3.2368326,3.901261
-35.088074,3.254417,3.9350972
-35.138435,3.254121,3.9458942
-35.201645,3.2471328,3.9482565
-35.28243,3.2311318,3.939301
-35.31877,3.2391417,3.961315
-35.355785,3.246871,3.983078
-35.38964,3.2563114,4.00712
-35.44188,3.2563744,4.01941
-35.505028,3.2511349,4.0252085
-35.599476,3.2305062,4.0119376
-35.62397,3.2453227,4.043347
-35.691475,3.2389035,4.048374
-35.73152,3.2462454,4.0707264
-35.781013,3.2491293,4.0877028
-35.85202,3.2419128,4.092431
-35.92963,3.2319636,4.094095
-35.998642,3.2264948,4.1015396
-36.037933,3.2351851,4.126458
-36.079556,3.2428932,4.1503196
-36.18218,3.2229466,4.141031
-36.26887,3.2108364,4.141582
-36.34517,3.2038708,4.1486416
-36.434845,3.191402,4.1494884
-36.530605,3.176794,4.148199
-36.62336,3.1640534,4.149529
-36.7573,3.134184,4.131236
-36.823135,3.1341166,4.1482472
-36.957153,3.1056738,4.13269
-37.030952,3.1031637,4.1476226
-37.17264,3.07302,4.131237
-37.257942,3.0667992,4.142771
-37.383526,3.0447373,4.136759
-37.486423,3.03251,4.142419
-37.627415,3.0057607,4.13232
-37.76289,2.9820395,4.1262846
-37.86594,2.9717207,4.135725
-38.029144,2.9388256,4.120881
-38.131104,2.9302523,4.1333904
-38.291832,2.9000645,4.122986
-38.451374,2.8712904,4.114932
-38.584183,2.8533425,4.1192703
-38.71028,2.8385909,4.127678
-38.916348,2.7955854,4.106997
-39.104538,2.7602525,4.0954456
-39.19094,2.7621393,4.1234856
-39.380077,2.728345,4.11527
-39.577877,2.6926541,4.1061606
-39.76732,2.661002,4.102232
-39.930286,2.639453,4.109485
-40.13249,2.6055884,4.1054068
-40.336174,2.572393,4.103137
-40.535885,2.5416732,4.1044474
-40.713352,2.5193439,4.115012
-40.981583,2.4686556,4.0994797
-41.232327,2.42513,4.0923266
-41.469097,2.3874671,4.0921674
-41.75522,2.335693,4.0803556
-42.074425,2.2753263,4.062425
-42.27535,2.2530558,4.080984
-42.522938,2.217708,4.0890594
-42.836056,2.164074,4.082509
-43.202084,2.0965214,4.0657997
-43.629723,2.0129943,4.0376883
-43.93896,1.9663076,4.0437
-44.33596,1.8961389,4.0320406
-44.651382,1.8513803,4.0440187
-45.14231,1.759067,4.019378
-45.596836,1.6796663,4.0084343
-46.039223,1.6061544,4.005255
-46.52893,1.5222623,3.997085
-47.085114,1.4232655,3.9808292
-47.556213,1.3499694,3.9877682
-48.092888,1.2620571,3.9873247
-14.488017,1.0792949,2.704719
-14.9627075,1.1764743,2.752141
-15.302551,1.233511,2.7626066
-15.663242,1.2992322,2.7836719
-15.944733,1.3412824,2.7829127
-16.18201,1.370378,2.7705307
-17.128288,1.6366196,3.0027046
-17.464191,1.703969,3.0345025
-17.701044,1.7397149,3.0351677
-17.965866,1.7864168,3.0486097
-18.147707,1.8059106,3.0346212
-18.33448,1.8281193,3.024458
-18.378841,1.8009412,2.962102
-18.405905,1.7675743,2.8931856
-18.449333,1.739989,2.830634
-18.60567,1.7536097,2.8135128
-18.954441,1.8390312,2.876605
-16.90956,1.0348816,1.9504995
-17.172455,1.0834765,1.9694204
-17.455204,1.141227,1.999958
-17.486944,1.1043415,1.9244428
-19.781927,1.9454246,2.8517294
-19.950283,1.9706519,2.853601
-20.106113,1.9919083,2.8516655
-20.25209,2.0101228,2.8469062
-20.420578,2.0382586,2.8543978
-20.590155,2.0678577,2.864375
-20.67731,2.064531,2.8362384
-20.769474,2.063659,2.8113647
-20.79295,2.034322,2.752902
-20.766033,1.9834242,2.6686177
-20.771515,1.945826,2.600133
-20.694916,1.8723426,2.4881463
-19.885023,1.4769726,1.984232
-19.909962,1.4430363,1.9178567
-20.501404,1.6617384,2.1615257
-20.675467,1.6971209,2.1819863
-20.682741,1.6577075,2.1105957
-20.711624,1.6278691,2.051046
-20.70725,1.5824146,1.972045
-20.68286,1.5270846,1.8805513
-20.641916,1.4632306,1.7781215
-20.771568,1.4801621,1.777442
-18.340372,0.26006722,0.20882511
-20.84123,1.4237561,1.6626902
-20.820488,1.3679302,1.5701218
-20.841124,1.3320131,1.5028815
-20.84533,1.2875288,1.424613
-20.824123,1.2296557,1.3289771
-20.82231,1.18099,1.2450709
-20.830475,1.1369355,1.1670489
-20.808308,1.0765297,1.0676365
-20.81134,1.0286534,0.9844136
-20.78144,0.96263266,0.8772869
-20.765411,0.9031811,0.7785711
-31.343506,1.4837658,0.5688858
-31.35971,1.6078892,0.7611685
-31.33589,1.8609629,1.1510553
-31.330128,2.0350394,1.419744
-31.339676,2.1475282,1.5940051
-31.323086,2.333183,1.8802509
-31.347393,2.3841333,1.9601908
-31.389557,2.3802733,1.9562812
-31.419546,2.4109004,2.0051913
-31.448486,2.442652,2.0558534
-31.46969,2.867902,2.7161412
-31.439793,3.0179787,2.9471998
-31.470016,3.0266612,2.9625955
-31.486586,3.0646756,3.0227208
-31.495564,3.1170382,3.1046925
-31.52088,3.1332738,3.1316614
-31.54744,3.1463776,3.1538992
-31.574005,3.159008,3.1754527
-31.632982,3.108783,3.1015444
-31.648243,3.1432562,3.1563926
-31.673073,3.1587453,3.1824293
-31.700802,3.1684906,3.1997848
-31.727451,3.1798759,3.2196674
-31.756002,3.1876433,3.234109
-31.78596,3.192858,3.2447295
-31.815832,3.1981487,3.2555132
-31.847223,3.200901,3.2625098
-31.877605,3.2053018,3.2720513
-31.908587,3.2087388,3.280189
-31.94189,3.2086163,3.2830114
-31.97626,3.2070305,3.28369
-32.012794,3.2024343,3.2798986
-32.046978,3.2015693,3.281797
-32.078327,3.204934,3.290121
-32.11074,3.2068357,3.2963023
-32.146492,3.2041953,3.295722
-32.18045,3.2042286,3.2992253
-32.215595,3.2028217,3.3006344
-32.248474,3.2045877,3.3068643
-32.281746,3.2059345,3.3125281
-32.316628,3.2053363,3.3153481
-32.351562,3.2048404,3.318389
-32.38778,3.2029245,3.3193793
-32.425323,3.199598,3.3183422
-32.46172,3.1979034,3.3198137
-32.496906,3.1978319,3.3237748
-32.53214,3.1978638,3.32796
-32.567852,3.1974976,3.3316255
-32.604057,3.1967368,3.3347788
-32.64212,3.1940863,3.3352065
-32.67892,3.1930501,3.3381052
-32.714405,3.193619,3.3434548
-32.75132,3.192804,3.3468332
-32.791122,3.1891322,3.3460755
-32.829147,3.1875632,3.348505
-32.862434,3.1910386,3.3584414
-32.890343,3.200013,3.3765268
-32.926468,3.200722,3.3825245
-32.96909,3.1951866,3.3794413
-33.00434,3.197107,3.3873777
-33.03706,3.2015626,3.3990965
-33.085125,3.1915636,3.3897657
-33.11428,3.1996276,3.4069076
-33.14331,3.207766,3.424209
-33.19019,3.1996267,3.417881
-33.229286,3.1988456,3.4223633
-33.264683,3.2015371,3.431972
-33.30551,3.1995673,3.434904
-33.340946,3.2024848,3.4450035
-33.37637,3.2055097,3.4553347
-33.40899,3.2110038,3.469305
-33.44888,3.210466,3.4746566
-33.488262,3.210528,3.4809647
-33.529995,3.2088454,3.4848638
-33.564873,3.212902,3.4970894
-33.586296,3.2277617,3.5248494
-33.626297,3.22782,3.5314932
-33.658638,3.234018,3.546989
-33.686718,3.2435317,3.5672731
-33.726112,3.2443945,3.5753179
-33.767372,3.2440128,3.581695
-33.79828,3.251522,3.5993476
-33.814884,3.269567,3.6319547
-33.82433,3.2926044,3.6716127
-33.853413,3.3011806,3.6908932
-33.87227,3.3170269,3.7204485
-34.569725,2.8549666,3.0798283
-34.598755,2.8685975,3.1076674
-34.59853,2.9023025,3.1635952
-34.623676,2.9182048,3.194643
-34.628925,2.9473934,3.2442079
-34.588158,3.0068598,3.3357515
-34.60331,3.0283759,3.3745127
-34.584015,3.0721369,3.4440093
-34.600883,3.0918243,3.4801784
-34.602516,3.1210423,3.5294633
-34.613163,3.1441581,3.570321
-34.631638,3.1621032,3.604084
-34.648426,3.180924,3.639058
-34.663513,3.2006078,3.6752205
-34.674767,3.2224166,3.714272
-34.691975,3.2404113,3.7481427
-34.72374,3.2495973,3.7701178
-34.780296,3.2442298,3.772544
-34.83845,3.23825,3.7743287
-34.876633,3.244112,3.7921839
-34.91041,3.2525778,3.8136258
-34.98415,3.2385387,3.8051405
-35.0282,3.2415857,3.8196368
-35.083298,3.2386804,3.8263721
-35.12297,3.244501,3.8448243
-35.18344,3.2391589,3.8486776
-35.251568,3.2300434,3.8477798
-35.309402,3.2268028,3.8548183
-35.356018,3.2297564,3.8701406
-35.384396,3.2423782,3.8981931
-35.43552,3.2432632,3.9110885
-35.492832,3.241208,3.920353
-35.566463,3.2311916,3.9195614
-35.623287,3.2300193,3.9303973
-35.65136,3.2433476,3.9599807
-35.724663,3.2344885,3.9613547
-35.762794,3.2431211,3.9852164
-35.85063,3.2279546,3.979089
-35.884815,3.2388601,4.0061646
-35.945183,3.2374759,4.017913
-36.038498,3.2210145,4.011036
-36.06136,3.2376666,4.0457687
-36.142986,3.2273939,4.047165
-36.219185,3.2200472,4.052503
-36.267048,3.2258124,4.0742655
-36.32633,3.2266722,4.090193
-36.413612,3.2154918,4.0916786
-36.468143,3.2190552,4.11141
-36.522675,3.2228332,4.131608
-36.60965,3.21299,4.1356497
-36.710236,3.197887,4.1337767
-36.81284,3.1825352,4.132049
-36.89642,3.1756568,4.1408043
-37.00723,3.1580663,4.137311
-37.114178,3.1427002,4.1369247
-37.247005,3.1175647,4.1256485
-37.329082,3.1134233,4.139308
-37.454166,3.0927672,4.1343136
-37.574516,3.0747004,4.1328745
-37.676247,3.0645118,4.14097
-37.855328,3.025344,4.116763
-37.947357,3.0202117,4.1317043
-38.07355,3.00276,4.133315
-38.214104,2.9807074,4.130437
-38.377922,2.9509444,4.119761
-38.478905,2.944963,4.1359496
-38.67634,2.9048529,4.1155305
-38.78855,2.8962445,4.13014
-38.958744,2.8678205,4.124081
-39.142838,2.835548,4.1148243
-39.340046,2.7998412,4.1029243
-39.524452,2.7696686,4.097876
-39.66175,2.7564616,4.111434
-39.852516,2.7261214,4.108083
-40.00585,2.7092474,4.119519
-40.212997,2.675596,4.1148205
-40.399826,2.6497092,4.119065
-40.643627,2.606617,4.1072745
-40.8516,2.5762918,4.109442
-41.072926,2.5429454,4.1098633
-41.349915,2.493579,4.096131
-41.648888,2.4390702,4.07914
-41.88322,2.4059157,4.084092
-42.155098,2.3627865,4.08114
-42.385933,2.333375,4.092493
-42.686935,2.2846074,4.087606
-42.994286,2.2356932,4.084459
-43.362114,2.1711252,4.0693254
-43.75805,2.10067,4.0513754
-44.17002,2.0279646,4.0340357
-44.49477,1.9818333,4.0420675
-44.81265,1.9393656,4.055299
-45.3254,1.8457005,4.0281887
-45.771435,1.7728627,4.021538
-46.30178,1.6801333,4.0019445
-46.71958,1.6199138,4.0116763
-47.29305,1.5216057,3.9947376
-48.03248,1.3839695,3.9518733
-14.231634,1.1984401,2.7897234
-14.470728,1.2183444,2.761067
-14.874655,1.2899733,2.7852654
-15.160143,1.3272972,2.7772484
-15.483302,1.3779917,2.784388
-15.766375,1.4178591,2.7822142
-16.062336,1.463439,2.787487
-16.971767,1.7089639,3.0029345
-17.378187,1.7961483,3.0569067
-17.5812,1.8186984,3.0445285
-17.843952,1.8622835,3.0556889
-18.009106,1.8745048,3.0344214
-18.186474,1.8917444,3.0194235
-18.36168,1.9091911,3.0055332
-18.395288,1.878324,2.9392676
-18.413418,1.841938,2.8669648
-18.523888,1.8381572,2.8310962
-18.663366,1.8452713,2.807979
-19.02013,1.9318767,2.8755198
-16.76666,1.0645361,1.8577032
-17.435379,1.2614405,2.048439
-17.443913,1.2161553,1.9630995
-17.472193,1.177999,1.8859711
-19.747871,1.9974332,2.8101292
-20.012722,2.0589027,2.8557825
-20.141882,2.0692606,2.8423343
-20.314278,2.097317,2.8504596
-20.454594,2.1136606,2.845378
-20.622465,2.141859,2.8551288
-20.735699,2.1489172,2.840126
-20.774708,2.1261475,2.789441
-20.72694,2.0674334,2.6950788
-20.786964,2.0530317,2.6546297
-20.77403,2.0079598,2.5766711
-20.74281,1.9546063,2.4883327
-19.904633,1.552885,1.9674954
-19.909748,1.5105302,1.8904867
-19.977686,1.4954112,1.8474951
-20.581474,1.7184215,2.1040535
-20.665295,1.713156,2.0751796
-20.698257,1.6851776,2.0178113
-20.677452,1.5887341,1.8515296
-20.59979,1.5082917,1.7268572
-18.249859,0.35493255,0.22066784
-20.82954,1.4824169,1.6295795
-20.83065,1.4376218,1.5505738
-20.829409,1.391192,1.4693418
-20.834381,1.3473303,1.3913713
-20.822378,1.2945011,1.3015347
-20.818966,1.2453735,1.2164288
-20.820219,1.1980596,1.1336083
-20.811665,1.1451466,1.0432601
-20.80555,1.0928555,0.95360184
-20.794346,1.0372446,0.85938025
-20.77367,0.97588444,0.75730515
-20.75707,0.9158902,0.65687466
-31.337645,1.5430148,0.5727806
-31.355064,1.6612241,0.7582555
-31.340553,1.8799577,1.0997548
-31.326824,2.0797784,1.411778
-31.334152,2.1982226,1.5974326
-31.322508,2.366753,1.8607178
-31.344513,2.4242039,1.9516821
-31.391636,2.4060154,1.9254217
-31.414452,2.4566274,2.0058398
-31.460083,2.4429116,1.9866428
-31.469793,2.5238886,2.1141205
-31.505806,2.5336976,2.1314363
-31.447266,3.0282297,2.904561
-31.465023,3.064858,2.963225
-31.4913,3.0814586,2.990983
-31.517235,3.0981107,3.0188527
-31.52433,3.152678,3.1052113
-31.580414,3.1068785,3.0368733
-31.61418,3.1069229,3.0392766
-31.627665,3.1458254,3.1015525
-31.654884,3.1575098,3.1219459
-31.67844,3.1755226,3.1521068
-31.704836,3.1878371,3.1735358
-31.731283,3.1996863,3.1942854
-31.761444,3.2048295,3.2047782
-31.79183,3.2095299,3.2146397
-31.825293,3.209121,3.2167192
-31.858795,3.2088063,3.2190003
-31.884174,3.2215075,3.2412682
-31.924921,3.2100053,3.2265415
-31.956831,3.2125452,3.233366
-31.989061,3.2146559,3.2395897
-32.02268,3.2148004,3.2428675
-32.057743,3.212989,3.2432232
-32.090725,3.2143497,3.2484784
-32.124077,3.2152905,3.2531538
-32.15707,3.2168348,3.2588072
-32.191204,3.2169445,3.262339
-32.224987,3.2176585,3.2668529
-32.25802,3.219483,3.2731133
-32.29302,3.218869,3.2757363
-32.328472,3.2178535,3.2778158
-32.362366,3.218957,3.2831736
-32.39915,3.216639,3.2834172
-32.43603,3.2144318,3.2839036
-32.470894,3.2148397,3.2884107
-32.50835,3.2123518,3.2886171
-32.54504,3.2109766,3.290576
-32.581367,3.210209,3.2935233
-32.61864,3.2085588,3.2952166
-32.658245,3.204548,3.293437
-32.69616,3.2026386,3.294897
-32.730946,3.204294,3.3017817
-32.768997,3.202612,3.3037338
-32.808544,3.1995769,3.303742
-32.847256,3.1976457,3.3054843
-32.882202,3.1997385,3.3133154
-32.910824,3.208258,3.3307996
-32.94817,3.2081127,3.335425
-32.987556,3.206146,3.3374205
-33.024525,3.206719,3.3432736
-33.0727,3.1968143,3.3336573
-33.085743,3.2202067,3.3735056
-33.147568,3.1981056,3.3460107
-33.18218,3.201551,3.3564444
-33.21888,3.2031925,3.3642864
-33.26201,3.1992495,3.3639727
-33.299885,3.2001853,3.370943
-33.337254,3.2017112,3.3788629
-33.362564,3.2137046,3.4022312
-33.38989,3.2238748,3.4229636
-33.453392,3.2037091,3.3993363
-33.481846,3.213169,3.4191885
-33.513,3.2203748,3.4357996
-33.54578,3.2262754,3.4505692
-33.5837,3.2281117,3.4594917
-33.61989,3.2314491,3.4706812
-33.656063,3.2348976,3.482111
-33.69935,3.2329698,3.485836
-33.72298,3.2462301,3.511623
-33.748203,3.2581747,3.535544
-33.78783,3.2593105,3.5439358
-33.829327,3.259222,3.5506625
-33.859154,3.2678154,3.569952
-34.589737,2.7721095,2.8667521
-34.56944,2.8219464,2.9464784
-34.58039,2.8489113,2.9934134
-34.590843,2.875847,3.040285
-34.604015,2.9005446,3.0839505
-34.616737,2.9252253,3.1275811
-34.614708,2.9595273,3.1848245
-34.59238,3.00683,3.2603722
-34.592224,3.0387197,3.314032
-34.60011,3.0648985,3.359593
-34.608856,3.090176,3.4038582
-34.612434,3.1184282,3.4522662
-34.61685,3.1457658,3.499351
-34.632366,3.1658049,3.5362105
-34.642735,3.1888194,3.577217
-34.654766,3.210545,3.6164145
-34.680317,3.223841,3.6439252
-34.685387,3.2493477,3.6883574
-34.736435,3.24727,3.6947236
-34.774853,3.2528605,3.7117863
-34.828175,3.2498915,3.717208
-34.891655,3.2413611,3.7151823
-34.920795,3.252762,3.740561
-34.983105,3.245471,3.7405639
-35.0398,3.2416792,3.7455187
-35.09957,3.2364905,3.748763
-35.121933,3.2520626,3.78022
-35.18925,3.243246,3.7788925
-35.252342,3.2370975,3.7813735
-35.33061,3.2232692,3.7737913
-35.359524,3.2358284,3.80168
-35.400368,3.2421803,3.821381
-35.43203,3.253362,3.8476026
-35.471947,3.2603595,3.8683739
-35.58865,3.228797,3.8384824
-35.647343,3.2270246,3.848145
-35.69295,3.231995,3.8668277
-35.728394,3.2420835,3.8923244
-35.817776,3.2261357,3.8840997
-35.85243,3.236966,3.9108756
-35.910667,3.2366576,3.9233832
-35.993618,3.225021,3.9215405
-36.053715,3.2244968,3.9342399
-36.104267,3.2286386,3.9531033
-36.171726,3.2252715,3.962602
-36.24417,3.2199955,3.969939
-36.284286,3.229527,3.9962044
-36.33735,3.2334292,4.015536
-36.452667,3.210301,4.0012956
-36.478,3.2268872,4.036929
-36.520435,3.2361002,4.063491
-36.66312,3.2028704,4.0378904
-36.711567,3.2101946,4.062665
-36.730686,3.229872,4.1026936
-36.855247,3.2060373,4.0898867
-36.90113,3.2150598,4.117355
-36.993423,3.2054832,4.1226144
-37.093594,3.193264,4.1251087
-37.213646,3.1737463,4.119355
-37.30591,3.165825,4.1278753
-37.436993,3.1433506,4.119664
-37.52119,3.1396506,4.1340413
-37.666,3.1133525,4.122482
-37.77754,3.1004424,4.127101
-37.885887,3.0893335,4.13431
-38.05385,3.0568624,4.1176004
-38.170784,3.0440178,4.1240106
-38.29328,3.029807,4.1294346
-38.46632,2.9982276,4.1159754
-38.618755,2.974967,4.1126485
-38.751263,2.959556,4.118764
-38.917892,2.9330628,4.113369
-39.092175,2.9049158,4.1070237
-39.257153,2.8809335,4.106084
-39.445927,2.8499084,4.09844
-39.60109,2.8311331,4.1048374
-39.781887,2.8047922,4.1040554
-39.97585,2.7751977,4.100829
-40.185776,2.7415748,4.0944705
-40.357193,2.721403,4.1031103
-40.611996,2.6759305,4.086872
-40.809975,2.6496308,4.0914483
-41.02584,2.618917,4.0927143
-41.245007,2.588404,4.0954037
-41.569733,2.5273113,4.0693436
-41.82805,2.4879045,4.066256
-42.108315,2.4434824,4.0598707
-42.29931,2.4266593,4.081371
-42.530582,2.3992229,4.0940247
-42.854576,2.3466086,4.0847
-43.260666,2.2726893,4.0578423
-43.656662,2.203917,4.0381913
-43.968353,2.1606245,4.043807
-44.3653,2.0958228,4.032434
-44.685036,2.0540357,4.04362
-45.15827,1.9731319,4.02336
-45.609035,1.9008062,4.013462
-46.05894,1.8312168,4.0088387
-46.59714,1.7414308,3.9907312
-47.22786,1.631161,3.959835
-47.652443,1.576154,3.9769454
-48.153122,1.5045669,3.9841318
-14.468441,1.3624012,2.817717
-14.647262,1.3639901,2.77291
-15.029013,1.4273582,2.7923536
-15.326232,1.4672732,2.7896461
-15.63001,1.5108626,2.7923822
-15.912906,1.549691,2.7917342
-16.170506,1.5821757,2.7858458
-17.15929,1.8479416,3.031248
-17.498589,1.912003,3.0641794
-17.687878,1.929502,3.048192
-17.931637,1.9658494,3.0538325
-18.118168,1.9846587,3.0413165
-18.307854,2.005532,3.032014
-18.388315,1.9905169,2.9833746
-18.413837,1.9569955,2.9141636
-18.415936,1.9152541,2.8356452
-18.584763,1.931385,2.8233147
-19.015617,2.0408278,2.9193182
-18.992321,1.9913027,2.8330693
-16.760548,1.1460936,1.8179541
-17.406284,1.330667,2.000535
-17.440083,1.2947772,1.9258738
-17.465755,1.2557347,1.8475304
-19.942835,2.1364768,2.8680973
-20.076443,2.1474774,2.8559952
-20.226887,2.1656399,2.853116
-20.374323,2.1834931,2.8505096
-20.56387,2.2186508,2.8696556
-20.650051,2.214159,2.8409948
-20.767471,2.2224944,2.828476
-20.795418,2.1953745,2.7725139
-20.788568,2.1539662,2.6988182
-20.77405,2.1089945,2.6205492
-20.731174,2.0517542,2.5267186
-19.891497,1.6591783,2.0095243
-19.928097,1.630769,1.94982
-19.917461,1.5820174,1.8643026
-20.68993,1.8717599,2.2112012
-20.561493,1.7312264,1.9875531
-20.660572,1.6457527,1.8126373
-20.745487,1.6408558,1.785306
-20.856167,1.559902,1.617353
-20.844585,1.5094628,1.5303831
-20.851795,1.4675188,1.4545798
-20.827944,1.4099674,1.3578658
-20.829025,1.3639834,1.2764559
-20.823227,1.31406,1.1896601
-20.820591,1.2651436,1.1040993
-20.815775,1.2145472,1.0161581
-20.811852,1.1638045,0.9279003
-20.811825,1.1144812,0.84145737
-20.808184,1.0626786,0.75153255
-20.800999,1.0083647,0.65805435
-20.774813,0.94318557,0.5495324
-31.335194,1.5959456,0.56489277
-31.338137,1.7639842,0.83114815
-31.34275,1.9133582,1.0679741
-31.329435,2.110286,1.3795218
-31.331324,2.2451174,1.5933318
-31.329836,2.3808997,1.8085732
-31.349754,2.444727,1.9106932
-31.377542,2.4821644,1.971365
-31.399906,2.5322938,2.0519862
-31.448053,2.510799,2.020204
-31.463305,2.5757537,2.1241388
-31.518204,2.5376475,2.0664334
-31.573563,2.500777,2.0107746
-31.407368,2.9907806,2.7808366
-31.417326,3.048552,2.8732967
-31.450043,3.0523748,2.88127
-31.465471,3.0939236,2.9483323
-31.48906,3.1161442,2.9851575
-31.51594,3.1305795,3.0098324
-31.544062,3.1419444,3.0297432
-31.589039,3.1195564,2.9969702
-31.606337,3.1518705,3.0496879
-31.630898,3.1691444,3.0789409
-31.65594,3.1849074,3.105864
-31.683231,3.1960616,3.1256328
-31.709427,3.208825,3.147945
-31.73775,3.2175155,3.1639495
-31.768032,3.222666,3.1744852
-31.792044,3.238179,3.2011833
-31.81763,3.2506552,3.223187
-31.854523,3.244725,3.2166371
-31.898113,3.228669,3.194439
-31.929466,3.2321787,3.2026796
-31.96179,3.23424,3.208726
-31.99376,3.236898,3.2157502
-32.02745,3.2371,3.219026
-32.06224,3.2358737,3.2201524
-32.095654,3.236774,3.2246275
-32.128716,3.2382739,3.2300858
-32.1629,3.2383504,3.233407
-32.197495,3.2380211,3.2361617
-32.230606,3.2398028,3.2422318
-32.266052,3.2386658,3.2438664
-32.299984,3.2396357,3.2488074
-32.333935,3.240702,3.2539587
-32.368717,3.2408671,3.2577863
-32.40477,3.2396412,3.259542
-32.439644,3.2400117,3.263815
-32.47582,3.238997,3.2660303
-32.514202,3.2356188,3.264698
-32.550102,3.23532,3.2681503
-32.58737,3.233652,3.269579
-32.626053,3.2306242,3.2690058
-32.664852,3.2277172,3.2686963
-32.701942,3.2268875,3.2716274
-32.737255,3.228121,3.277772
-32.774452,3.2275133,3.2811837
-32.813126,3.225563,3.2826314
-32.852367,3.2232504,3.2836099
-32.8893,3.2234752,3.2885127
-32.928715,3.2214055,3.2900171
-32.968227,3.2194607,3.291792
-33.00435,3.220994,3.2989016
-33.04854,3.2149935,3.2947206
-33.06598,3.2343905,3.3288927
-33.122578,3.2172189,3.3080616
-33.1599,3.2182646,3.3147435
-33.20092,3.2161171,3.3167114
-33.238342,3.217402,3.3239117
-33.276855,3.217862,3.3299546
-33.31542,3.2184434,3.3362613
-33.351303,3.2214804,3.346315
-33.37949,3.2311423,3.3663177
-33.413067,3.2362309,3.3795586
-33.465054,3.2261486,3.3703127
-33.49361,3.2356284,3.3902354
-33.52715,3.2410405,3.4041777
-33.566944,3.241508,3.4108686
-33.595203,3.2512403,3.4313393
-33.631493,3.2546678,3.442555
-33.670715,3.2559376,3.4506693
-33.708786,3.258239,3.4603891
-33.741474,3.2647169,3.4763274
-33.774693,3.2708402,3.4918103
-33.817577,3.2698958,3.4970174
-33.848892,3.2775736,3.514926
-34.55076,2.8030684,2.8295565
-34.55774,2.833465,2.8819008
-34.567917,2.8611634,2.930286
-34.582634,2.8853097,2.9734936
-34.595642,2.910322,3.0179477
-34.608833,2.9348795,3.0617323
-34.602192,2.9724638,3.1242995
-34.583115,3.0177262,3.1978364
-34.581505,3.0507286,3.2536225
-34.585213,3.0797741,3.3036685
-34.599014,3.1019113,3.3437805
-34.59302,3.1364026,3.401534
-34.609947,3.1559253,3.4378705
-34.6245,3.1767273,3.4760346
-34.63801,3.197948,3.514791
-34.65458,3.2170665,3.5505667
-34.666676,3.2387009,3.5899043
-34.686737,3.255334,3.6221833
-34.734516,3.2554371,3.631238
-34.76828,3.2639575,3.6522346
-34.86215,3.2376986,3.62463
-34.88965,3.250253,3.651534
-34.939182,3.2502682,3.6610289
-34.96716,3.2626116,3.6877913
-35.055862,3.2411754,3.6678057
-35.08528,3.2530165,3.6941094
-35.13433,3.2541566,3.705728
-35.196705,3.2483258,3.7079082
-35.282257,3.2304852,3.6938262
-35.329475,3.2334778,3.7085142
-35.351227,3.2499576,3.7417207
-35.405872,3.2493298,3.7517142
-35.45303,3.2527905,3.7674165
-35.535213,3.2386765,3.7595215
-35.60857,3.229521,3.758593
-35.642967,3.2401469,3.7844706
-35.67568,3.251639,3.8115945
-35.766483,3.2348874,3.801134
-35.825703,3.2339442,3.8120198
-35.851295,3.2493124,3.8447104
-35.92314,3.2428021,3.8485713
-36.027645,3.2214293,3.8331385
-36.05551,3.236201,3.8654814
-36.10473,3.241171,3.885087
-36.18522,3.232141,3.8866389
-36.251453,3.2299657,3.8973753
-36.306473,3.2330961,3.9151998
-36.38183,3.227504,3.9219973
-36.463085,3.2197433,3.9263008
-36.50111,3.2310553,3.9552426
-36.571102,3.2287993,3.9670656
-36.671795,3.213922,3.9631922
-36.69815,3.2307155,3.9996037
-36.787586,3.2213743,4.003319
-36.869747,3.21551,4.011734
-36.89918,3.23145,4.047557
-37.01775,3.2116146,4.03924
-37.0953,3.2087932,4.0523605
-37.144943,3.2173235,4.079686
-37.22604,3.2137675,4.092476
-37.31412,3.2079258,4.102832
-37.38864,3.2077098,4.1203394
-37.482193,3.2006567,4.129962
-37.61226,3.1804564,4.1243234
-37.734955,3.1637459,4.123414
-37.86847,3.143779,4.1192284
-38.031242,3.1139975,4.10417
-38.12364,3.1104205,4.1203833
-38.2821,3.083872,4.110442
-38.404064,3.0710707,4.1170626
-38.543133,3.0529935,4.118236
-38.705658,3.027637,4.111825
-38.873146,3.0015368,4.105379
-38.9992,2.9903476,4.116441
-39.16043,2.9681158,4.11586
-39.3275,2.9448714,4.114976
-39.52925,2.9112692,4.1036167
-39.697327,2.8897,4.1063643
-39.907482,2.8556426,4.0965424
-40.077415,2.8354897,4.1026764
-40.283253,2.8050616,4.098832
-40.446754,2.7888684,4.111027
-40.65176,2.7608726,4.111825
-40.936188,2.710033,4.0902157
-41.183792,2.6718524,4.083123
-41.40164,2.6438637,4.087721
-41.644947,2.6096368,4.0873084
-41.953697,2.557859,4.070916
-42.203888,2.5245733,4.074438
-42.423943,2.5011783,4.0889945
-42.706886,2.4613948,4.089148
-43.090515,2.3953853,4.066185
-43.511726,2.3213084,4.0380297
-43.796112,2.286551,4.0487657
-44.197693,2.222083,4.034191
-44.57482,2.1663146,4.0299625
-44.927296,2.1190534,4.035665
-45.43094,2.034809,4.0113254
-45.881786,1.9668245,4.004264
-46.377316,1.8901062,3.9927716
-46.8216,1.8288522,3.9974651
-47.34587,1.7504048,3.9910545
-48.021137,1.6382589,3.9610949
-14.524174,1.4710953,2.7862854
-14.832016,1.5095599,2.7815175
-15.175892,1.5603306,2.7913938
-15.461033,1.5955787,2.786572
-15.834199,1.6588926,2.813415
-16.124065,1.6990442,2.8171186
-17.03189,1.930944,3.0319467
-17.40015,2.0008698,3.0731254
-17.55531,2.006001,3.04423
-17.781578,2.0345063,3.042243
-18.016243,2.0669765,3.0458422
-18.2233,2.0918164,3.0419245
-18.377026,2.1002932,3.0202823
-18.402918,2.067122,2.9513702
-18.423967,2.0322042,2.880477
-18.51294,2.0201592,2.8363066
-18.706331,2.0442324,2.8349404
-18.972311,2.0945427,2.8654842
-16.765436,1.2807643,1.8692923
-16.775528,1.2346523,1.7807474
-17.419903,1.4150085,1.964766
-17.451939,1.3785775,1.889389
-19.775532,2.1786873,2.8324752
-19.97875,2.2139034,2.850453
-20.124374,2.2288892,2.8444276
-20.284184,2.2500257,2.8466234
-20.422112,2.2637584,2.8402886
-20.616722,2.3000526,2.8627129
-20.721432,2.3026354,2.8436375
-20.782024,2.2884078,2.803762
-20.767832,2.2446692,2.7266836
-20.797153,2.2179153,2.6710835
-20.769222,2.167872,2.585751
