x,y,z
-25.802912,1.9713569,3.3198404
-25.802107,1.9285073,3.2628932
-25.84003,1.921283,3.2428145
-25.8126,1.8520553,3.1583247
-25.807951,1.8033609,3.0950131
-25.811638,1.7618682,3.039115
-25.818876,1.7231252,2.9860258
-25.820465,1.6781092,2.9262738
-25.82109,1.6313088,2.8645453
-25.827536,1.5895352,2.8080387
-25.821865,1.534594,2.7374916
-25.84854,1.5120935,2.7013245
-25.782095,1.3916993,2.5607805
-25.803272,1.361579,2.516293
-25.822254,1.3285899,2.4687395
-25.814644,1.2661777,2.389564
-25.814926,1.2111425,2.318182
-25.824999,1.1658592,2.2572203
-25.804802,1.0856686,2.1584244
-25.813604,1.0367107,2.0932798
-25.830828,0.9964442,2.0375166
-25.83416,0.9391968,1.963232
-25.831001,0.87306595,1.8791485
-25.864367,0.8491006,1.8410654
-34.519924,0.78988504,1.7839599
-34.5262,0.846246,1.8575845
-34.58455,0.8411946,1.864296
-34.605785,0.8788724,1.9176006
-34.60941,0.9357331,1.9916778
-34.65888,0.9402869,2.0091224
-34.70362,1.0087221,2.1082945
-34.72355,1.044673,2.1597476
-34.74368,1.1354704,2.282802
-34.4778,1.5668368,2.7796412
-34.514454,1.5785735,2.8044586
-34.52648,1.614747,2.8551311
-34.53276,1.6559684,2.9110713
-34.542995,1.6926215,2.962153
-34.5573,1.72474,3.0084496
-34.576385,1.7517967,3.04945
-34.56601,1.8062351,3.1189065
-34.586395,1.8309991,3.1574597
-34.603382,1.8585575,3.198915
-34.597496,1.9066124,3.2614717
-34.607334,1.9396327,3.3084612
-34.603718,1.9841843,3.3672075
-34.64403,1.9890802,3.3853912
-34.667423,2.008887,3.4188743
-34.68925,2.0298223,3.4535403
-34.71392,2.0480623,3.4855185
-34.73831,2.0663466,3.517592
-34.76628,2.0814261,3.5465016
-34.799843,2.091711,3.570694
-34.837814,2.098322,3.5913353
-34.87635,2.1045108,3.6116934
-34.919426,2.107076,3.6286097
-34.967125,2.1060517,3.642161
-35.01285,2.106787,3.6576324
-35.068,2.1002653,3.666204
-35.117855,2.0981693,3.6793227
-35.1698,2.0946727,3.691298
-35.222504,2.0908399,3.7031736
-35.272522,2.0892878,3.717473
-35.32605,2.0853112,3.7296696
-35.39012,2.073749,3.7348814
-35.457893,2.059853,3.7381864
-35.50825,2.0591068,3.7542324
-35.588444,2.0369785,3.7504134
-35.628307,2.0443432,3.7745833
-35.698933,2.029916,3.7786307
-35.788555,2.0025697,3.771068
-35.862648,1.9867387,3.7745938
-35.92313,1.9807887,3.7875576
-36.02845,1.9444335,3.7730794
-36.098946,1.9325595,3.7814002
-36.152588,1.9324338,3.800684
-36.209217,1.9305193,3.818612
-36.254654,1.9362366,3.843626
-36.342884,1.9140244,3.8440409
-36.412556,1.9044578,3.8561025
-36.480858,1.8961484,3.8696299
-36.541653,1.8929818,3.887998
-38.02189,0.9924822,3.128487
-38.00388,1.0470469,3.202004
-38.002094,1.0908432,3.2660508
-38.002777,1.1326206,3.3282428
-38.022373,1.1623852,3.3801613
-38.038395,1.1940596,3.4336963
-38.03741,1.2356575,3.4954987
-38.017624,1.2879915,3.5660706
-38.008205,1.3335712,3.6308298
-38.010098,1.3720138,3.6895776
-38.023453,1.4034088,3.742506
-38.037964,1.4338632,3.7946577
-38.04638,1.4675326,3.8493643
-38.058365,1.4988706,3.9021697
-38.02512,1.5552936,3.974668
-38.037663,1.5855663,4.0264263
-38.04321,1.6194427,4.0809507
-38.151215,1.597002,4.092226
-38.274387,1.5669761,4.0984106
-38.42615,1.5223472,4.0943804
-38.580154,1.4775345,4.091216
-38.71969,1.4413867,4.0954814
-38.869736,1.4006057,4.0972724
-39.016087,1.3627052,4.1021543
-39.21441,1.2989368,4.089432
-39.39658,1.2447705,4.0849113
-39.570065,1.1962011,4.0855865
-39.7484,1.1463025,4.086534
-39.968395,1.0767751,4.075203
-40.1755,1.0150869,4.070776
-40.434128,0.9294872,4.051725
-40.61605,0.8829162,4.060518
-40.866062,0.8046315,4.049756
-41.08571,0.74250245,4.051313
-41.348743,0.66118026,4.0421658
-41.624065,0.575788,4.0323954
-41.89071,0.49622273,4.0283203
-18.748943,0.70393515,4.0510106
-19.044632,0.7972007,4.0675797
-19.24947,0.8497436,4.0593815
-19.445885,0.8995514,4.050805
-19.639992,0.9494581,4.0436754
-19.87669,1.0210776,4.052786
-20.070332,1.0733392,4.0501456
-20.30024,1.1445904,4.062157
-20.484783,1.1949656,4.060978
-20.695133,1.2593763,4.0711102
-20.847733,1.2961786,4.0627055
-20.944824,1.305788,4.035433
-21.151548,1.371892,4.0504694
-21.303577,1.4112322,4.0469522
-21.462643,1.455195,4.0479054
-21.585217,1.4810693,4.0361614
-21.754066,1.5321317,4.04449
-21.902328,1.5733724,4.046326
-21.993856,1.5850885,4.0260878
-22.192245,1.6552217,4.052328
-22.322426,1.6895218,4.0514507
-22.420277,1.7068405,4.037809
-22.596825,1.7684925,4.060464
-22.663088,1.7695835,4.035074
-22.784237,1.8020022,4.0356693
-22.888847,1.8257885,4.029882
-23.016338,1.8634024,4.03619
-23.084286,1.8673322,4.015106
-23.216492,1.9092042,4.026328
-23.29907,1.9227188,4.0143065
-23.44285,1.9731721,4.0342674
-23.533377,1.9927216,4.0285463
-23.635315,2.0197577,4.0298057
-23.71044,2.031087,4.01798
-23.810905,2.0584722,4.020613
-23.884018,2.0695286,4.0094304
-23.976112,2.0929132,4.009557
-24.074707,2.1210423,4.01442
-24.146309,2.1326272,4.0049996
-24.263788,2.1742096,4.022995
-24.30699,2.1684089,3.9986997
-24.41905,2.207911,4.015886
-24.494045,2.2237697,4.01203
-24.563602,2.236477,4.005659
-24.622646,2.2425156,3.9934645
-24.69696,2.2592502,3.9915094
-24.78703,2.287299,4.0005155
-24.838966,2.2896233,3.9858174
-24.95283,2.3354864,4.012478
-25.01292,2.344425,4.0047216
-25.102077,2.374415,4.01732
-25.150349,2.3757463,4.002937
-25.209854,2.385434,3.9968038
-25.273396,2.3984327,3.9941478
-25.32696,2.4044752,3.9850469
-25.38872,2.4169204,3.9824247
-25.449572,2.4290915,3.9798255
-25.527996,2.4550283,3.991037
-25.593067,2.4713762,3.993177
-25.649746,2.4817,3.9896564
-25.706238,2.492242,3.986609
-25.793228,2.5272536,4.008245
-25.810032,2.507102,3.9750366
-25.823196,2.4837804,3.9386582
-25.805323,2.4349046,3.8764772
-25.867504,2.4510098,3.8799405
-25.802908,2.3623726,3.777192
-25.795517,2.3200765,3.7212582
-25.806625,2.2927566,3.6805277
-25.825748,2.2719035,3.6464167
-25.81947,2.2288413,3.5894394
-25.803915,2.1769679,3.5232263
-25.812706,2.1456604,3.478166
-25.82691,2.1186926,3.437582
-25.829964,2.0812945,3.3861008
-25.797945,2.011373,3.3004942
-25.810284,1.9809239,3.2560616
-25.7987,1.9277723,3.187694
-25.82993,1.9138608,3.160615
-25.823864,1.8644233,3.0959826
-25.815706,1.8120787,3.028132
-25.823978,1.7747023,2.9760818
-25.801413,1.7064407,2.8909898
-25.808903,1.6666422,2.836154
-25.814232,1.6239719,2.7781768
-25.811907,1.5727596,2.7109299
-25.802696,1.51351,2.6348915
-25.818573,1.479104,2.5855818
-25.831757,1.4412668,2.5325317
-25.810604,1.3663039,2.4390774
-25.818962,1.3214529,2.378221
-25.818562,1.2662225,2.3059626
-25.823275,1.2154851,2.238513
-25.831947,1.1681249,2.174684
-25.811146,1.0866363,2.0732484
-25.809511,1.0251904,1.9936819
-25.835068,0.9937904,1.9471879
-25.854668,0.95485425,1.8923731
-25.839445,0.8739612,1.7909951
-25.86949,0.8454256,1.7476277
-34.51044,0.78274107,1.683876
-34.5211,0.8347373,1.7534404
-34.511856,0.9087343,1.8472676
-34.54939,0.927531,1.8800044
-34.597862,0.93369126,1.898911
-34.57251,1.022455,2.00872
-34.695496,1.0046501,2.013906
-34.685886,1.0730803,2.101215
-34.74208,1.0699377,2.1104364
-34.766464,1.1005995,2.1565647
-34.647343,1.4366813,2.570695
-34.46521,1.6683462,2.831829
-34.512703,1.6688168,2.8445687
-34.52977,1.6991115,2.8892822
-34.5533,1.722698,2.9268527
-34.542004,1.7791693,2.9993343
-34.566273,1.801054,3.0350657
-34.55697,1.8539894,3.103581
-34.583874,1.87254,3.1357827
-34.58518,1.9142728,3.1923451
-34.611313,1.9328539,3.2246146
-34.610237,1.9755807,3.2820973
-34.64361,1.9870856,3.3070421
-34.631477,2.0384257,3.3733325
-34.65167,2.0608425,3.4096012
-34.674026,2.0811143,3.4436846
-34.6948,2.1024954,3.4789414
-34.722275,2.1179821,3.5082016
-34.74887,2.1340644,3.538136
-34.778458,2.1475272,3.565476
-34.81437,2.1557305,3.5875793
-34.85148,2.1629753,3.608838
-34.890472,2.1687405,3.6287389
-34.93338,2.171459,3.6457348
-34.98028,2.1711607,3.6598911
-35.03192,2.1673522,3.6707544
-35.082287,2.1647763,3.6830544
-35.133392,2.1618588,3.6952324
-35.18868,2.1560102,3.7047548
-35.24822,2.1472616,3.7116904
-35.299583,2.1449294,3.7251368
-35.3489,2.144326,3.7404804
-35.402462,2.1408236,3.753241
-35.462456,2.1329262,3.7620215
-35.526855,2.1222076,3.7683878
-35.612167,2.0970485,3.7613297
-35.674168,2.0889106,3.7708225
-35.76305,2.0624034,3.7633085
-35.832012,2.0503068,3.7697697
-35.89971,2.0394852,3.777762
-35.9742,2.0244575,3.7821841
-36.037857,2.0171664,3.7941313
-36.134293,1.9884071,3.7866683
-36.16777,2.0018587,3.8183002
-36.229546,1.9967926,3.8332205
-36.2914,1.9919667,3.84866
-36.37075,1.9762049,3.854577
-36.44198,1.9660983,3.8659687
-36.51107,1.9577248,3.8792696
-36.594112,1.9409904,3.8855433
-37.99762,1.1067061,3.1745157
-38.01671,1.1373923,3.22748
-38.030666,1.1709275,3.2829218
-38.042572,1.2053864,3.3391314
-38.04297,1.2463951,3.400906
-38.011993,1.3055665,3.4780087
-38.009476,1.3472488,3.540012
-38.015102,1.3837268,3.597516
-38.025795,1.4169137,3.6522012
-38.033596,1.4514499,3.7079616
-38.027195,1.4937229,3.7700124
-38.013714,1.5395248,3.8347797
-38.028816,1.5688455,3.8860168
-38.03778,1.6013231,3.9397812
-38.036457,1.6391594,3.9977627
-38.045273,1.6710949,4.0509677
-38.059406,1.6998811,4.101663
-38.20228,1.6595464,4.098707
-38.34818,1.6185484,4.0961647
-38.517136,1.5663779,4.08605
-38.634045,1.5425088,4.098441
-38.820126,1.4835367,4.085298
-38.95724,1.4509516,4.0929766
-39.126053,1.4030793,4.090331
-39.279343,1.3641288,4.095312
-39.44418,1.3203545,4.09785
-39.670197,1.2472744,4.08064
-39.851707,1.1976135,4.081517
-40.05187,1.1400042,4.0781126
-40.276867,1.07167,4.0687246
-40.513065,0.99943614,4.058284
-40.722366,0.9415386,4.05919
-40.97149,0.86617327,4.049976
-41.227608,0.7891519,4.04149
-41.502117,0.70525,4.0304203
-41.736336,0.6416452,4.0343704
-42.056637,0.5402353,4.0161796
-18.630173,0.7559421,4.056344
-18.850452,0.8120916,4.048684
-19.102463,0.88419175,4.053234
-19.322208,0.9429219,4.0505643
-19.529953,0.99740386,4.0465455
-19.75439,1.0610597,4.0503225
-19.982376,1.127845,4.0578628
-20.225912,1.2035844,4.0733266
-20.355938,1.2259779,4.0523415
-20.49855,1.2552345,4.037166
-20.710815,1.3196282,4.04859
-20.901829,1.3748856,4.054718
-21.053967,1.4119227,4.0485516
-21.144777,1.418911,4.0207705
-21.326483,1.472647,4.0290422
-21.521744,1.5345712,4.0447865
-21.624172,1.549725,4.0256395
-21.759743,1.5827553,4.021066
-21.966278,1.6540599,4.047473
-22.041946,1.6572671,4.0211697
-22.182695,1.695713,4.0235
-22.36971,1.7601249,4.047662
-22.464214,1.7754295,4.033075
-22.596798,1.8122194,4.0366516
-22.709383,1.8388004,4.0326066
-22.809465,1.8590937,4.023999
-22.91489,1.8830073,4.0190086
-23.01997,1.9073861,4.015025
-23.163813,1.9547093,4.0311604
-23.237797,1.962601,4.014408
-23.371029,2.0055132,4.0282364
-23.453972,2.019744,4.0179734
-23.56259,2.049734,4.0219245
-23.650446,2.0680141,4.0162077
-23.712357,2.0711288,3.9975634
-23.846209,2.1184697,4.0185757
-23.912298,2.1251044,4.003935
-24.03043,2.164432,4.019062
-24.08307,2.163588,3.9984865
-24.176737,2.1889048,4.0019803
-24.300999,2.2344208,4.024477
-24.327503,2.2179728,3.9906282
-24.44033,2.2575507,4.008716
-24.507845,2.26832,4.0006223
-24.572214,2.2774005,3.9912844
-24.634214,2.2852592,3.9811149
-24.74374,2.32549,4.001826
-24.807396,2.3354483,3.9943924
-24.88176,2.3531299,3.9946342
-24.992626,2.3966124,4.019978
-25.044662,2.3999517,4.0072637
-25.115892,2.4170814,4.0081234
-25.167677,2.4208586,3.9963593
-25.217264,2.4233074,3.9835272
-25.286434,2.4401898,3.9850597
-25.33788,2.444584,3.9746332
-25.411415,2.4655728,3.980836
-25.483904,2.4863515,3.9871883
-25.545076,2.4991708,3.985958
-25.597172,2.5054994,3.9785156
-25.66132,2.5213761,3.9808908
-25.73661,2.5463724,3.9927597
-25.819487,2.57796,4.011663
-25.790342,2.5217347,3.941759
-25.80891,2.5026703,3.9094944
-25.804852,2.465142,3.8583603
-25.878801,2.4905734,3.8717775
-25.794014,2.3860853,3.7516527
-25.802702,2.3573346,3.7092714
-25.79592,2.3151817,3.6529474
-25.806267,2.2868648,3.6109018
-25.8334,2.2725134,3.583414
-25.807114,2.2118094,3.5074277
-25.806591,2.1725428,3.453734
-25.808548,2.1348214,3.401578
-25.797699,2.085051,3.3365989
-25.802803,2.0487924,3.2858
-25.805492,2.0097384,3.2319632
-25.811205,1.9728103,3.180315
-25.816929,1.9352741,3.127955
-25.84908,1.9219747,3.1015387
-25.81567,1.8461914,3.0079756
-25.80316,1.7890236,2.9342136
-25.815071,1.7545218,2.8848052
-25.804844,1.6976671,2.8111181
-25.806261,1.651299,2.7486787
-25.81961,1.6160631,2.6982818
-25.765507,1.5116272,2.5722256
-25.801998,1.4981544,2.545432
-25.847385,1.4938133,2.5287633
-25.821747,1.4148152,2.4300432
-25.818794,1.3583057,2.355896
-25.820496,1.3056657,2.2859058
-25.819422,1.2489376,2.2112832
-25.82294,1.1961038,2.140873
-25.809895,1.1236897,2.0485668
-25.796055,1.0488036,1.9533205
-25.80162,0.994473,1.8808737
-25.860931,1.0012493,1.876821
-25.857944,0.9353237,1.7913275
-25.835102,0.84434104,1.6775074
-34.51587,0.8232827,1.6608725
-34.561234,0.8345604,1.6853247
-34.496613,0.97219753,1.8513207
-34.53446,0.99032617,1.8833699
-34.597595,0.9798436,1.8836188
-34.60412,1.032551,1.9543619
-34.60871,1.0863216,2.0261984
-34.67664,1.070482,2.0208802
-34.724678,1.0764847,2.0399413
-34.743134,1.1138158,2.0936713
-34.78858,1.1222789,2.1156502
-34.798954,1.1669846,2.1775079
-34.816296,1.203754,2.2306232
-34.665173,1.4609344,2.5366883
-34.481663,1.6921234,2.8003063
-34.51959,1.7021878,2.823337
-34.53608,1.7329128,2.8687901
-34.595,1.7226171,2.8700504
-34.54768,1.8131235,2.979814
-34.561928,1.8443131,3.02567
-34.569134,1.8815308,3.0779433
-34.583515,1.9115686,3.1225114
-34.59078,1.947603,3.1734295
-34.60658,1.9754097,3.2155795
-34.628674,1.9972315,3.2514029
-34.65043,2.0190802,3.2872858
-34.638252,2.0701294,3.353828
-34.65594,2.0946338,3.3924456
-34.681446,2.1121628,3.4238014
-34.702236,2.1334877,3.4591522
-34.72077,2.156437,3.4962115
-34.74539,2.1740775,3.5278082
-34.77234,2.1896408,3.5573187
-34.80754,2.1983871,3.5799093
-34.844593,2.205652,3.6011043
-34.887505,2.2082984,3.6177258
-34.931057,2.2105615,3.6341228
-34.97929,2.2093153,3.647142
-35.026215,2.209278,3.6615744
-35.077232,2.2062924,3.6732402
-35.12695,2.2045238,3.6863365
-35.17878,2.2013872,3.6982803
-35.232754,2.1968985,3.709107
-35.289604,2.190563,3.7183495
-35.34307,2.1869903,3.7305574
-35.40577,2.1770117,3.7367377
-35.45802,2.174869,3.7508373
-35.533108,2.1567814,3.7497149
-35.598473,2.1460354,3.7560453
-35.67267,2.1295419,3.7571702
-35.739174,2.1188376,3.7641954
-35.811684,2.1044226,3.768013
-35.881508,2.0922832,3.7743444
-35.95816,2.075987,3.7771068
-36.036552,2.0590253,3.779634
-36.10036,2.0521739,3.7919903
-36.159054,2.0489843,3.8080525
-36.208046,2.052329,3.8304229
-36.278877,2.041827,3.840304
-36.352917,2.0296853,3.8490496
-36.427147,2.0178463,3.8584538
-36.496975,2.0091786,3.8711038
-36.560017,2.0050735,3.888205
-38.006435,1.1533022,3.149797
-38.03483,1.1782556,3.1978536
-38.042572,1.2154734,3.2567801
-38.045856,1.2549775,3.3176389
-38.00606,1.3195527,3.4002047
-38.007206,1.3592591,3.4608989
-38.02205,1.3905733,3.5142813
-38.044403,1.4172804,3.5637212
-38.03435,1.4623165,3.6287146
-38.04856,1.4930956,3.681541
-38.01793,1.5487995,3.7551517
-38.02863,1.5807939,3.8087988
-38.037235,1.6136591,3.8631253
-38.051083,1.6433578,3.9148197
-38.075157,1.6672618,3.9618096
-38.061024,1.7115848,4.025256
-38.066906,1.7447364,4.0795994
-38.168503,1.7269552,4.093654
-38.311935,1.6877942,4.091587
-38.418304,1.6688426,4.106128
-38.62383,1.5993578,4.082456
-38.74195,1.5760138,4.095334
-38.90764,1.5292373,4.0912676
-39.04174,1.4994144,4.1009827
-39.23825,1.4392843,4.0891275
-39.39205,1.4015789,4.095053
-39.59935,1.338597,4.083668
-39.804863,1.2778554,4.0753236
-40.013718,1.2168484,4.0682197
-40.206047,1.1650882,4.069069
-40.476963,1.0773075,4.0462427
-40.662933,1.0312438,4.054002
-40.90957,0.95805144,4.044664
-41.109,0.9082465,4.0527763
-41.358086,0.8369088,4.048065
-41.681835,0.73324466,4.0240583
-41.910713,0.67442155,4.031364
-42.195038,0.5922284,4.025489
-17.917137,0.644032,4.0505157
-18.245075,0.7422044,4.066177
-18.533855,0.8251476,4.0742807
-18.79963,0.89964986,4.0788884
-19.0197,0.95524335,4.0726986
-19.211075,0.9991441,4.060107
-19.422039,1.0531554,4.0558176
-19.649778,1.1162207,4.0593143
-19.882822,1.1832087,4.0671706
-20.086456,1.2378774,4.067859
-20.26869,1.2836876,4.063554
-20.478748,1.3439343,4.071007
-20.685465,1.403939,4.0797114
-20.751179,1.3967099,4.039758
-20.905643,1.4332271,4.033068
-21.130142,1.5053453,4.054416
-21.298653,1.551074,4.05704
-21.394844,1.5614915,4.0334373
-21.546398,1.600497,4.032735
-21.739307,1.6616523,4.0504484
-21.851244,1.6823294,4.0372467
-21.975378,1.7100039,4.0303335
-22.161274,1.7708948,4.0510263
-22.276972,1.7959085,4.0436745
-22.381626,1.8157241,4.03275
-22.56137,1.8766439,4.0564675
-22.615389,1.8704967,4.0253744
-22.77435,1.9220815,4.043063
-22.826508,1.9157107,4.0126686
-22.96745,1.9590471,4.024909
-23.05074,1.9709241,4.0109854
-23.210617,2.026762,4.035527
-23.269333,2.02585,4.0116386
-23.410515,2.0728333,4.030009
-23.481518,2.0799518,4.014058
-23.619213,2.1266644,4.0336194
-23.687338,2.13314,4.0180507
-23.781061,2.155283,4.0169106
-23.856602,2.1670592,4.006912
-23.950478,2.1904378,4.007859
-24.073175,2.2321758,4.026108
-24.121054,2.2284548,4.0032372
-24.223,2.258726,4.01202
-24.294933,2.2707932,4.00443
-24.379475,2.2913191,4.0051136
-24.483921,2.325224,4.018814
-24.529636,2.3218331,3.9978428
-24.604332,2.3375578,3.9952211
-24.664734,2.3443217,3.984424
-24.766144,2.3787498,4.0004454
-24.815847,2.3792093,3.9842672
-24.940372,2.430684,4.0177073
-25.005514,2.4425979,4.013337
-25.075478,2.4582539,4.0129356
-25.122297,2.4582257,3.9974785
-25.182602,2.467883,3.9917693
-25.242023,2.477275,3.9860754
-25.304083,2.4889166,3.9828935
-25.384789,2.5144763,3.993898
-25.439367,2.5215762,3.9867883
-25.504162,2.5365324,3.9878316
-25.570745,2.553284,3.9909897
-25.63976,2.572359,3.996817
-25.68201,2.5716233,3.9827871
-25.772057,2.6077354,4.006603
-25.795248,2.5928898,3.978561
-25.812681,2.5734086,3.9457974
-25.8007,2.5304527,3.8887835
-25.919302,2.5910678,3.9390807
-25.853758,2.5045686,3.8368082
-25.8,2.426095,3.7424622
-25.789959,2.3821707,3.6839414
-25.7934,2.3487275,3.636303
-25.798016,2.315757,3.589096
-25.807568,2.2864685,3.5457268
-25.837585,2.2742784,3.5204816
-25.797077,2.200958,3.4302025
-25.80581,2.1693513,3.3841758
-25.79306,2.118265,3.3172336
-25.801777,2.0854466,3.269765
-25.797787,2.0406387,3.2093287
-25.805883,2.0060754,3.159852
-25.817509,1.9741986,3.1132407
-25.824951,1.9379127,3.0618067
-25.835325,1.9037743,3.0126595
-25.787281,1.8134236,2.9020371
-25.799839,1.7796173,2.8530192
-25.811817,1.7446759,2.8027234
-25.805202,1.6908286,2.7315702
-25.784403,1.6218257,2.6435466
-25.773643,1.5615492,2.5649676
-25.793566,1.5313315,2.5195851
-25.812351,1.4994352,2.4723387
-25.833822,1.469784,2.4275923
-25.807146,1.3888547,2.3255534
-25.81628,1.3444121,2.264132
-25.816198,1.2891531,2.1905112
-25.824333,1.2417374,2.1256042
-25.816294,1.1754811,2.0393915
-25.778322,1.0742879,1.9135504
-25.800114,1.0385294,1.8614826
-25.819008,0.99876165,1.8048673
-25.853401,0.97620416,1.7678032
-25.806982,0.85818505,1.6220617
-25.844412,0.83727884,1.586801
-34.50791,0.8104043,1.5622845
-34.52534,0.855001,1.6246314
-34.548965,0.8915386,1.6777964
-34.483643,1.0287948,1.8451118
-34.516808,1.0519781,1.8829412
-34.484566,1.1475627,2.002544
-34.58976,1.0899901,1.9493694
-34.61717,1.1184642,1.9933414
-34.678368,1.1102023,1.9961538
-34.651424,1.1958141,2.1042004
-34.721287,1.1781657,2.0967274
-34.768185,1.1849127,2.1166878
-34.771793,1.236043,2.1860933
-34.472008,1.691256,2.7265735
-34.501278,1.7101722,2.7592964
-34.507973,1.7507069,2.8157973
-34.52897,1.7768428,2.8564763
-34.542576,1.8095913,2.9043856
-34.54862,1.8488975,2.9594078
-34.558144,1.8843133,3.0101385
-34.574226,1.9131408,3.0536919
-34.573658,1.9566453,3.1130795
-34.58989,1.9843283,3.1553354
-34.608116,2.0098426,3.195259
-34.605682,2.053157,3.254233
-34.616142,2.0845432,3.300373
-34.608658,2.130906,3.3624048
-34.65059,2.1343892,3.378839
-34.66848,2.1582515,3.416957
-34.69045,2.1784039,3.4511766
-34.714664,2.1964676,3.4832363
-34.74054,2.21299,3.513729
-34.76421,2.2311425,3.5459805
-34.794144,2.2440896,3.5728674
-34.827175,2.2544954,3.5972056
-34.867344,2.2592583,3.6158233
-34.90946,2.2625895,3.633113
-34.956238,2.2624338,3.6469874
-34.99967,2.26502,3.6638455
-35.066868,2.2497509,3.6627178
-35.10219,2.258838,3.686565
-35.15803,2.2527049,3.6951776
-35.213303,2.2472904,3.7047558
-35.26729,2.2430956,3.715795
-35.336777,2.2279823,3.7161884
-35.393143,2.2227168,3.7266827
-35.448902,2.2181654,3.738133
-35.505466,2.2133226,3.7495432
-35.56786,2.2047088,3.757514
-35.63834,2.1908784,3.7606907
-35.705437,2.1798053,3.766883
-35.774178,2.1680155,3.7727056
-35.85192,2.1506133,3.773466
-35.92185,2.1389108,3.7800694
-35.988274,2.1299243,3.7896037
-36.08388,2.102288,3.781793
-36.142536,2.0992193,3.7976427
-36.19975,2.097337,3.8148794
-36.250957,2.0995047,3.8361611
-36.31581,2.093268,3.8498783
-36.38764,2.0830097,3.8602066
-36.451973,2.0777774,3.8755102
-36.547195,2.053945,3.8741722
-37.999866,1.2072346,3.127368
-38.027462,1.2325954,3.17584
-38.022667,1.2770853,3.241509
-37.988976,1.3381388,3.321772
-38.001637,1.3712466,3.376975
-38.02014,1.4006543,3.4288921
-38.03424,1.4323556,3.4828205
-38.03351,1.4722354,3.5438242
-38.033794,1.5111177,3.603848
-38.00132,1.567961,3.6791286
-38.02134,1.5949142,3.728685
-38.040966,1.6218882,3.778286
-38.05124,1.653774,3.8320231
-38.066772,1.6825318,3.8831239
-38.076134,1.7143731,3.9367661
-38.07103,1.7536397,3.996439
-38.03641,1.8080764,4.068277
-38.102295,1.8092713,4.096923
-38.23564,1.775723,4.098206
-38.4146,1.719564,4.082444
-38.512074,1.7061827,4.101397
-38.68804,1.653635,4.090503
-38.85034,1.6091175,4.086952
-38.997112,1.573365,4.091155
-39.151154,1.5349371,4.094295
-39.338978,1.480962,4.0868196
-39.5018,1.4403205,4.090489
-39.663418,1.4012647,4.096412
-39.857407,1.3477781,4.0929565
-40.097023,1.2739873,4.0762715
-40.31848,1.2102816,4.068425
-40.565083,1.1363325,4.05495
-40.81695,1.0615661,4.0426636
-41.04872,0.99759626,4.0395746
-41.278618,0.93592906,4.0397005
-41.509228,0.87536335,4.042215
-41.801437,0.7888229,4.0292726
-42.110584,0.6966815,4.014844
-42.40571,0.61264133,4.007914
-42.720467,0.5219383,3.9989738
-17.546747,0.6581578,4.066579
-17.876606,0.75210476,4.077922
-18.160872,0.82858443,4.0802727
-18.384777,0.8807237,4.0685515
-18.593035,0.9273665,4.0547333
-18.906687,1.0216026,4.0747886
-19.09243,1.0611131,4.0593696
-19.324232,1.1223209,4.060378
-19.585041,1.1980724,4.0732822
-19.725357,1.2206378,4.050004
-19.97242,1.2930005,4.063647
-20.226364,1.370168,4.0825076
-20.386793,1.4053209,4.0720806
-20.544193,1.4399996,4.062358
-20.697716,1.4737732,4.0529857
-20.905613,1.5345442,4.0651774
-21.049534,1.565747,4.056006
-21.119883,1.5619102,4.0205383
-21.328499,1.6263778,4.0390124
-21.521023,1.6842871,4.0536656
-21.629393,1.701364,4.036971
-21.745922,1.7231586,4.0247293
-21.94659,1.788496,4.0485554
-22.046375,1.8034134,4.0323787
-22.194088,1.8437212,4.03775
-22.3652,1.8972497,4.055033
-22.473766,1.9189928,4.0467243
-22.593504,1.9473305,4.0446253
-22.716095,1.9779623,4.0451903
-22.808115,1.9928378,4.0329666
-22.891804,2.0036817,4.017776
-23.022165,2.0406883,4.02581
-23.129452,2.065772,4.0241647
-23.223541,2.084145,4.017214
-23.347652,2.1200707,4.0263686
-23.44342,2.1406965,4.0225673
-23.557049,2.1722095,4.0290866
-23.637915,2.1854837,4.019743
-23.706026,2.19175,4.004449
-23.846584,2.2411933,4.0290475
-23.895504,2.2370768,4.005105
-24.003998,2.268965,4.014749
-24.071201,2.2765713,4.002359
-24.152054,2.2928953,3.9984732
-24.27303,2.334534,4.0188603
-24.32811,2.3360283,4.0018826
-24.43145,2.3681393,4.0143194
-24.489208,2.3720849,4.000346
-24.547632,2.3767323,3.987318
-24.631237,2.3979566,3.990591
-24.741104,2.4369175,4.011525
-24.776768,2.4279003,3.986199
-24.87548,2.4608388,4.0021625
-24.956903,2.4829762,4.0079937
-25.023472,2.4956534,4.0048647
-25.078293,2.5007253,3.9944897
-25.140882,2.5114403,3.989995
-25.201141,2.5209165,3.9845476
-25.2591,2.5291367,3.9781103
-25.326752,2.544575,3.9792352
-25.392725,2.5592852,3.979938
-25.462606,2.5772808,3.9842973
-25.534239,2.5970764,3.9908266
-25.592464,2.607542,3.9881034
-25.646395,2.6151845,3.9827228
-25.707638,2.6286438,3.9836001
-25.832695,2.6909728,4.0355635
-25.793186,2.6285536,3.9579897
-25.810627,2.609148,3.9251585
-25.80191,2.5690794,3.8706298
-25.86678,2.5864723,3.8765702
-25.792316,2.4932787,3.7657757
-25.798489,2.4633234,3.7216225
-25.79356,2.4238973,3.6673322
-25.788633,2.3838456,3.6122622
-25.793253,2.351069,3.5648804
-25.799667,2.3192954,3.518517
-25.804718,2.2858858,3.4703388
-25.84262,2.280078,3.4519715
-25.793648,2.199168,3.3522139
-25.810919,2.1746387,3.3134713
-25.801859,2.126505,3.2489657
-25.818916,2.100844,3.2089233
-25.79991,2.0422637,3.1327434
-25.807404,2.0067737,3.081788
-25.81019,1.9663506,3.0253358
-25.82708,1.9383707,2.9825773
-25.850796,1.9163923,2.9464765
-25.792164,1.8156447,2.8227706
-25.80418,1.7808988,2.772273
-25.816774,1.7461219,2.7217088
-25.777884,1.6600168,2.6135755
-25.779327,1.6123302,2.5483065
-25.788733,1.5717616,2.4909616
-25.806454,1.5389256,2.4422946
-25.826342,1.5077529,2.3955016
-25.843538,1.4732304,2.3449106
-25.810936,1.3854945,2.2338195
-25.815582,1.3356626,2.1656322
-25.825247,1.2902522,2.1024103
-25.799105,1.20474,1.9932518
-25.7816,1.1269026,1.8926473
-25.803844,1.0919325,1.8410864
-25.805677,1.0331123,1.7620764
-25.826843,0.99525166,1.7071362
-25.849632,0.9585278,1.6535053
-25.825554,0.8657751,1.5350032
-34.497627,0.81077766,1.466589
-34.501217,0.8722644,1.5490718
-34.51063,0.92567205,1.6221232
-34.536545,0.9591093,1.6720934
-34.46084,1.1065812,1.8532066
-34.496788,1.1262047,1.8870893
-34.534073,1.2022839,1.9971666
-34.599598,1.1888771,1.9935155
-34.6559,1.1857905,2.001841
-34.673912,1.223151,2.056274
-34.69668,1.2549152,2.1043491
-34.746063,1.2588618,2.1209936
-34.747753,1.3112495,2.1924114
-34.813217,1.2987552,2.1907382
-34.51929,1.7389703,2.7206416
-34.490036,1.8138039,2.8158884
-34.531036,1.820632,2.8353138
-34.549263,1.8488302,2.8785467
-34.54709,1.8955061,2.9422011
-34.560097,1.9274447,2.9895
-34.569,1.9626007,3.040309
-34.575527,1.9993284,3.0927925
-34.587498,2.030626,3.139279
-34.596516,2.0640395,3.1880422
-34.61728,2.0867276,3.2251034
-34.59806,2.1435215,3.2991438
-34.63714,2.1496844,3.318283
-34.649128,2.1787276,3.3621922
-34.67014,2.1998315,3.3975506
-34.693367,2.2188547,3.4307094
-34.716297,2.2379146,3.4639468
-34.73958,2.256487,3.496706
-34.76452,2.2735333,3.5278902
-34.79379,2.2869906,3.5553346
-34.82615,2.2979288,3.5802054
-34.863663,2.3048244,3.6009326
-34.903088,2.31029,3.6202922
-34.9485,2.3112652,3.6351142
-34.997303,2.3098404,3.6476216
-35.04207,2.3116431,3.66366
-35.092995,2.3090305,3.675324
-35.14054,2.3091302,3.6899815
-35.199203,2.3013346,3.6967611
-35.25802,2.2937622,3.7040262
-35.309963,2.2914178,3.7168503
-35.372555,2.2817862,3.722537
-35.433907,2.2733915,3.7297525
-35.49613,2.2647407,3.736989
-35.558517,2.2563322,3.744752
-35.62178,2.2476764,3.752555
-35.68738,2.2378001,3.7594461
-35.753162,2.228185,3.766902
-35.841866,2.203778,3.7601943
-35.906635,2.195712,3.7698545
-35.984898,2.1792297,3.7716632
-36.061203,2.1645122,3.775566
-36.132515,2.1534557,3.7833633
-36.17164,2.1631565,3.811328
-36.236355,2.1568625,3.824253
-36.305748,2.1479924,3.8350573
-36.37224,2.1412826,3.8482347
-36.44806,2.1292195,3.856739
-36.506336,2.1281931,3.875886
-36.576267,2.1204264,3.889083
-37.994736,1.3123689,3.1675663
-37.998318,1.3514438,3.2286038
-38.009956,1.3854041,3.2849073
-38.021095,1.4193332,3.3411427
-38.032516,1.4527752,3.3968997
-38.021156,1.4988463,3.4638648
-38.011513,1.5434196,3.529316
-38.00281,1.5869617,3.5936847
-38.020065,1.6156566,3.6449246
-38.040134,1.6425803,3.6946368
-38.056557,1.6712918,3.7459126
-38.069298,1.7017634,3.7986956
-38.06685,1.7400956,3.8581233
-38.04986,1.7857378,3.9235802
-38.045414,1.8242786,3.9828835
-38.040405,1.8627186,4.041968
-38.04399,1.8963356,4.096948
-38.18229,1.8607278,4.095413
-38.292603,1.8402004,4.106937
-38.450268,1.7964971,4.1005583
-38.59166,1.76194,4.102458
-38.797,1.696662,4.08107
-38.917442,1.6743948,4.0945973
-39.080776,1.6319733,4.093308
-39.223297,1.60061,4.101554
-39.422836,1.5428734,4.090741
-39.62915,1.4832351,4.0798492
-39.78702,1.447674,4.088237
-39.986042,1.3939109,4.084307
-40.224834,1.3230634,4.0693283
-40.454063,1.258148,4.0602794
-40.6806,1.1959176,4.054743
-40.893875,1.1410773,4.055986
-41.15,1.0684528,4.046397
-41.40172,0.9994025,4.041092
-41.69492,0.91375685,4.026376
-41.94925,0.84685826,4.0263124
-42.295013,0.7421603,4.0032125
-42.51545,0.69316506,4.0188622
-42.88296,0.5832224,3.997099
-43.21769,0.4893651,3.9882617
-17.018183,0.61364985,4.0497184
-17.362793,0.70819354,4.059181
-17.654339,0.78285193,4.0582128
-17.975407,0.87164664,4.068735
-18.201838,0.9224756,4.0561056
-18.5139,1.0111263,4.070823
-18.78145,1.0826254,4.075963
-19.00481,1.1366334,4.070789
-19.19843,1.178983,4.058932
-19.384502,1.2191434,4.046837
-19.647213,1.2945087,4.0614862
-19.864391,1.3511324,4.0642376
-20.040771,1.3906395,4.055797
-20.289608,1.4643075,4.0740914
-20.48552,1.5152302,4.076879
-20.635881,1.5462129,4.065733
-20.775517,1.5730476,4.052355
-20.934523,1.609853,4.047635
-21.101583,1.6514764,4.0477266
-21.254446,1.6873181,4.044298
-21.366066,1.7040765,4.0265408
-21.523148,1.7437131,4.0279593
-21.721832,1.8049107,4.0479536
-21.802025,1.8084183,4.02175
-21.97091,1.856883,4.0332947
-22.115742,1.8942914,4.0366435
-22.212666,1.908128,4.0210032
-22.378103,1.9578586,4.036419
-22.518066,1.9954773,4.042479
-22.613928,2.0108633,4.030197
-22.756205,2.0513885,4.0403047
-22.838366,2.060754,4.0239844
-22.978838,2.1019962,4.0362105
-23.04348,2.1029646,4.013518
-23.170912,2.1386726,4.022195
-23.244062,2.1452022,4.005362
-23.398556,2.1975453,4.030386
-23.46318,2.2004027,4.0112257
-23.592669,2.2404416,4.026477
-23.653734,2.2421718,4.007126
-23.756351,2.268222,4.010641
-23.857769,2.2942677,4.014711
-23.93543,2.3070111,4.006841
-24.042292,2.3375716,4.016193
-24.094725,2.3362446,3.9958477
-24.23534,2.3885083,4.026898
-24.293457,2.3915296,4.0114727
-24.353024,2.3957124,3.9974408
-24.463135,2.4316304,4.0144625
-24.516254,2.4326315,3.9980392
-24.582806,2.4423668,3.9904084
-24.652899,2.454749,3.985702
-24.742762,2.480322,3.9943795
-24.791676,2.479895,3.9776788
-24.905783,2.5225143,4.0041585
-24.987833,2.5448544,4.0108995
-25.055725,2.558321,4.0091066
-25.100304,2.5564723,3.9921384
-25.157791,2.5635843,3.984456
-25.22084,2.5748467,3.981266
-25.284386,2.586854,3.9791255
-25.354046,2.6035662,3.9821157
-25.422703,2.6200674,3.9852118
-25.4834,2.631369,3.9832335
-25.539036,2.6394114,3.9781308
-25.600014,2.6516805,3.9776874
-25.663494,2.666206,3.9798799
-25.747766,2.6966474,3.9991145
-25.789635,2.6960168,3.9859138
-25.803978,2.6746726,3.9509058
-25.82466,2.6579251,3.9207926
-25.831028,2.6299453,3.8787217
-25.887186,2.6404638,3.8778625
-25.793495,2.5331423,3.7505403
-25.786642,2.4930222,3.6951046
-25.79463,2.464206,3.6517854
-25.800526,2.4332726,3.6061282
-25.797392,2.3944607,3.5518408
-25.802473,2.3618395,3.5042152
-25.803703,2.325489,3.452447
-25.801182,2.2853754,3.3964648
-25.830814,2.272126,3.3699927
-25.799984,2.2064605,3.285654
-25.800068,2.1666098,3.229679
-25.80142,2.1272092,3.1741157
-25.816605,2.0994973,3.1314983
-25.810265,2.0519316,3.0666838
-25.82005,2.0182319,3.0172834
-25.804676,1.9607606,2.9411325
-25.818697,1.9296262,2.8944764
-25.835533,1.9006426,2.8502293
-25.807236,1.8281462,2.7567163
-25.817505,1.7914035,2.7035346
-25.771221,1.6988499,2.5868196
-25.774893,1.6536582,2.5237708
-25.800816,1.6298232,2.4850526
-25.806932,1.5856347,2.4230523
-25.812181,1.539722,2.359004
-25.828402,1.5042579,2.3069048
-25.846813,1.4704418,2.2566872
-25.803741,1.3709464,2.1305552
-25.820246,1.3330522,2.0754404
-25.801802,1.2565517,1.9755001
-25.783173,1.1781685,1.873168
-25.804863,1.142843,1.820806
-25.818645,1.0979457,1.7572675
-25.828745,1.0479276,1.6876979
-25.828436,0.984838,1.6027489
-25.86223,0.9601841,1.562818
-25.841234,0.87024856,1.4461441
-34.50174,0.8566179,1.4363108
-34.504814,0.9182501,1.5197916
-34.51618,0.9690435,1.590478
-34.511703,1.0366857,1.6807914
-34.465244,1.1497366,1.8239179
-34.492073,1.1793971,1.8696313
-34.572872,1.1497507,1.8464866
-34.526073,1.2583351,1.9838724
-34.570095,1.2679644,2.0064402
-34.629845,1.2610388,2.0100198
-34.67107,1.2737145,2.036376
-34.708874,1.2898104,2.0667672
-34.75458,1.297719,2.0878577
-34.790867,1.3682442,2.1928735
-34.47637,1.8690772,2.8093982
-34.52074,1.8726606,2.8250566
-34.540024,1.8995996,2.8671236
-34.580013,1.9071581,2.887456
-34.550613,1.9776549,2.978325
-34.569557,2.003466,3.019074
-34.576645,2.0394285,3.0711255
-34.58617,2.0726745,3.1201081
-34.601864,2.1000423,3.1625423
-34.609108,2.1342824,3.2125516
-34.631916,2.1547537,3.2473583
-34.622536,2.202084,3.3116632
-34.623062,2.2403646,3.3659248
-34.66162,2.2466736,3.3852377
-34.683506,2.266647,3.4195294
-34.70186,2.2892485,3.4567003
-34.725037,2.307719,3.489421
-34.750526,2.3241618,3.5200014
-34.77905,2.3380828,3.5479302
-34.80802,2.3515565,3.5754533
-34.840782,2.3620334,3.5998592
-34.88276,2.3654675,3.6168842
-34.92942,2.3654852,3.6304455
-34.974075,2.3671823,3.6459575
-35.024864,2.3644924,3.65703
-35.07367,2.3634934,3.6700778
-35.12597,2.3601644,3.68089
-35.173485,2.3605187,3.6957445
-35.22871,2.3555717,3.7053037
-35.281227,2.3528125,3.7173529
-35.333107,2.35074,3.7303271
-35.387894,2.3468904,3.7417011
-35.451347,2.337368,3.7475376
-35.52002,2.324679,3.750453
-35.578793,2.3190725,3.7608356
-35.64932,2.3059435,3.7639246
-35.72227,2.2916536,3.7661858
-35.77931,2.288233,3.7796183
-35.85046,2.2759361,3.7845101
-35.912174,2.2701252,3.7961397
-36.022533,2.2336938,3.7780056
-36.080967,2.2308552,3.793262
-36.157566,2.2169368,3.7980204
-36.204845,2.2216277,3.8211493
-36.26882,2.2162092,3.8347569
-36.340557,2.206392,3.8444629
-36.412464,2.1968684,3.8548045
-36.486855,2.1862545,3.8644733
-36.562977,2.1750298,3.8739443
-37.962646,1.3883667,3.1583338
-38.012253,1.4002972,3.194343
-38.02864,1.431422,3.2483044
-38.0335,1.4688544,3.308053
-38.02589,1.5129573,3.3738117
-38.013634,1.5591667,3.4413204
-38.016697,1.5963264,3.5004773
-38.032875,1.6258855,3.5527334
-38.045387,1.6572056,3.606554
-38.058247,1.6880665,3.6599436
-38.06577,1.72153,3.7155938
-38.071163,1.7558184,3.7719064
-38.047337,1.8051891,3.8411975
-38.047493,1.8414457,3.8989596
-38.05373,1.8741982,3.9536324
-38.058662,1.9073303,4.0085654
-38.056442,1.9438025,4.0662303
-38.113045,1.9502383,4.098779
-38.257645,1.9128268,4.0954223
-38.391823,1.8815126,4.097962
-38.528122,1.8499835,4.1011615
-38.70725,1.7984235,4.0891047
-38.82838,1.7760675,4.1014867
-38.995052,1.732594,4.0979466
-39.127193,1.7065723,4.109144
-39.334427,1.6459739,4.094393
-39.53126,1.5915945,4.0858016
-39.69249,1.554949,4.0919952
-39.872406,1.5107048,4.0935464
-40.100742,1.4455571,4.080765
-40.31595,1.3877988,4.0749907
-40.575653,1.3115206,4.0572343
-40.78189,1.2606025,4.0595274
-41.025726,1.1944339,4.052422
-41.295986,1.1182978,4.0400457
-41.543262,1.0537853,4.037657
-41.820614,0.9779351,4.0292807
-42.08017,0.9113562,4.0291743
-42.369957,0.8336532,4.0235415
-42.70182,0.74020934,4.0097013
-43.004257,0.6609881,4.0075393
-43.356163,0.56335616,3.9958873
-16.560455,0.59511876,4.0678988
-16.86901,0.6702292,4.062477
-17.183031,0.7493801,4.0619545
-17.528515,0.84320974,4.0733957
-17.798433,0.90822196,4.0681486
-18.13649,1.0030174,4.084995
-18.383259,1.0618777,4.0796504
-18.616867,1.1166813,4.0732355
-18.847153,1.171474,4.0684495
-19.069685,1.2243359,4.063893
-19.251848,1.2611022,4.049266
-19.453804,1.3075457,4.0429296
-19.664827,1.3591897,4.0418024
-19.883938,1.4157188,4.045747
-20.119759,1.4810994,4.0578504
-20.332104,1.5374053,4.064622
-20.515087,1.5816953,4.0635486
-20.68711,1.6220827,4.0606346
-20.868069,1.6676674,4.0629196
-20.947083,1.6667345,4.0294495
-21.118553,1.7097232,4.031623
-21.324398,1.7701538,4.048994
-21.478386,1.8070829,4.0485106
-21.575092,1.8172424,4.0269527
-21.74342,1.862874,4.0354085
-21.931278,1.919242,4.053901
-21.985874,1.9106598,4.018742
-22.176735,1.9705553,4.0421247
-22.323444,2.0094624,4.0486903
-22.415691,2.0215445,4.032956
-22.582905,2.0727234,4.0517836
-22.670374,2.0836577,4.036319
-22.796186,2.1151521,4.039502
-22.858665,2.1139855,4.014353
-23.002453,2.156434,4.028596
-23.079187,2.1638126,4.0120435
-23.222727,2.2078524,4.0291843
-23.306156,2.2200007,4.018008
-23.430164,2.255044,4.028333
-23.502659,2.2622328,4.0135756
-23.6329,2.3022814,4.0297894
-23.679623,2.295877,4.0032125
-23.801079,2.3323987,4.0172963
-23.872662,2.3409867,4.005572
-23.968231,2.3639474,4.0079064
-24.071941,2.392342,4.0159554
-24.128122,2.3932514,3.9980645
-24.254139,2.4362445,4.0212145
-24.299976,2.4317565,3.9987946
-24.406696,2.4645538,4.0130763
-24.486383,2.4815168,4.0123386
-24.538668,2.4819717,3.9956698
-24.597662,2.4868512,3.9836287
-24.705,2.522626,4.0027127
-24.762793,2.5276155,3.9914637
-24.819004,2.5318797,3.979742
-24.940414,2.5788538,4.011523
-25.014324,2.5957003,4.013291
-25.07777,2.6061175,4.0088425
-25.121529,2.603746,3.9915638
-25.188984,2.6175303,3.991106
-25.250477,2.6276946,3.9872136
-25.308931,2.6361494,3.981821
-25.370745,2.647284,3.9794803
-25.440062,2.6640787,3.9833431
-25.503487,2.6772053,3.9836655
-25.563892,2.688603,3.9824471
-25.620628,2.6977515,3.9791102
-25.6765,2.70662,3.9757195
-25.760088,2.7362494,3.99472
-25.795135,2.7305346,3.9762607
-25.808754,2.7087831,3.9406853
-25.835402,2.6966503,3.9154825
-25.827744,2.6581666,3.861836
-25.834557,2.6302752,3.8195705
-25.786854,2.5593903,3.7304296
-25.791695,2.5287192,3.6848946
-25.793163,2.4949098,3.6358657
-25.802242,2.4667115,3.5929332
-25.790138,2.4208703,3.5305066
-25.781965,2.377488,3.4706526
-25.79083,2.3475373,3.4255762
-25.78524,2.3050032,3.3664575
-25.798914,2.2780938,3.324665
-25.814253,2.2522244,3.2840238
-25.789215,2.191,3.2036915
-25.799065,2.1591983,3.1562572
-25.80285,2.1215243,3.1021595
-25.801914,2.078993,3.0424948
-25.80819,2.0422418,2.9892945
-25.800451,1.9920518,2.9207501
-25.81041,1.9573009,2.8696804
-25.830744,1.9316611,2.8289852
-25.801823,1.8590758,2.7345023
-25.805305,1.8160176,2.673695
-25.765182,1.7300119,2.5633583
-25.790558,1.7062783,2.5245895
-25.810253,1.6765771,2.4789495
-25.800934,1.6173444,2.3990736
-25.801855,1.5672865,2.329712
-25.814915,1.5286777,2.2735872
-25.836077,1.49775,2.2263923
-25.829851,1.4375479,2.1449656
-25.799643,1.3506277,2.032094
-25.77201,1.2645593,1.9199643
-25.785297,1.2210896,1.8577137
-25.80845,1.1876185,1.8072114
-25.811123,1.1306746,1.7289877
-25.82075,1.0803573,1.6585121
-25.828312,1.0266073,1.5839033
-25.829535,0.9643395,1.4991016
-25.833302,0.9036546,1.4160776
-25.848606,0.855309,1.3476691
-34.52364,0.8066261,1.2956319
-34.499508,0.9013109,1.41927
-34.50985,0.9541478,1.4930024
-34.514324,1.0125258,1.5732322
-34.496307,1.094871,1.6817026
-34.46271,1.1926386,1.8081632
-34.495102,1.2160323,1.8467464
-34.532253,1.2339232,1.8789163
-34.519768,1.304558,1.973033
-34.563206,1.3147364,1.9962044
-34.637737,1.2924793,1.9816012
-34.679573,1.3046169,2.0073652
-34.713676,1.3245456,2.0422978
-34.758347,1.3335893,2.0646667
-34.788612,1.3569548,2.1037412
-34.818493,1.3803682,2.1429186
-34.845757,1.4060004,2.184701
-34.85342,1.4500897,2.2477427
-34.4844,1.8969891,2.784152
-34.518436,1.9103243,2.8108587
-34.53885,1.9360678,2.851778
-34.54708,1.9725118,2.9048648
-34.558846,2.0051737,2.9536133
-34.564095,2.043119,3.0082994
-34.57533,2.075172,3.0562773
-34.586636,2.1066637,3.1035929
-34.604763,2.1318042,3.1437569
-34.615086,2.163252,3.1909761
-34.63358,2.1873353,3.229951
-34.618538,2.2390919,3.299685
-34.634125,2.2646666,3.3402395
-34.663254,2.2788253,3.3681798
-34.68386,2.2997727,3.4036665
-34.70735,2.3181655,3.4363732
-34.727318,2.3391662,3.4719753
-34.743034,2.3632605,3.510974
-34.7715,2.3771453,3.5388722
-34.806374,2.3860095,3.5614014
-34.843784,2.3929443,3.5819554
-34.880432,2.4004982,3.6032982
-34.929123,2.399097,3.6151567
-34.972435,2.4018824,3.6316786
-35.02597,2.3973107,3.6405244
-35.072052,2.398418,3.6556149
-35.119526,2.3986914,3.6700006
-35.171196,2.3961625,3.6816201
-35.227833,2.3903708,3.6900282
-35.285297,2.384302,3.6983867
-35.337227,2.3823667,3.7112942
-35.392776,2.3781834,3.7220855
-35.449856,2.3732371,3.7323265
-35.50776,2.3680236,3.74254
-35.570843,2.3596573,3.7497797
-35.62972,2.35442,3.7604923
-35.70408,2.3393652,3.761506
-35.76252,2.335097,3.773769
-35.83881,2.3196652,3.7750673
-35.907196,2.309748,3.7822542
-35.984734,2.2944574,3.7844124
-36.054276,2.2846463,3.7923813
-36.163258,2.2508416,3.777017
-36.199963,2.2621493,3.8064995
-36.25328,2.2633846,3.82628
-36.319626,2.2569814,3.83888
-36.386864,2.2503843,3.8516102
-36.46041,2.2404013,3.8614125
-36.5318,2.2320857,3.8731756
-36.6049,2.223156,3.8847108
-38.023132,1.4410768,3.1661172
-38.030888,1.4770691,3.224845
-38.028603,1.5183728,3.2884674
-38.00106,1.5733662,3.3646688
-38.015785,1.6042144,3.418312
-38.033253,1.6332874,3.470313
-38.05351,1.6606085,3.520722
-38.067707,1.6910048,3.573937
-38.062782,1.7313843,3.6361074
-38.054,1.7733846,3.6995864
-38.047867,1.8135359,3.7612624
-38.04278,1.8527164,3.8219366
-38.056904,1.8815625,3.8734455
-38.07557,1.9078577,3.9227338
-38.080555,1.9409208,3.9778695
-38.062542,1.9852672,4.042572
-38.053925,2.024432,4.1026607
-38.20768,1.9828737,4.094762
-38.345177,1.9502997,4.0953064
-38.478054,1.9208261,4.0992637
-38.64615,1.8751938,4.090806
-38.818283,1.8287249,4.0827417
-38.96286,1.7964184,4.0871773
-39.053,1.790534,4.1135902
-39.245575,1.7374151,4.103246
-39.43887,1.6852124,4.094887
-39.646713,1.6275969,4.0836205
-39.837082,1.5792384,4.080838
-40.047245,1.5231745,4.0734873
-40.254642,1.4696712,4.069482
-40.487267,1.406328,4.059588
-40.716305,1.346026,4.0535307
-40.95932,1.2810898,4.0457015
-41.146572,1.241646,4.057835
-41.433582,1.1607797,4.0419483
-41.711807,1.0854409,4.0319777
-42.01056,1.0032434,4.019274
-42.27723,0.9362242,4.019066
-42.576946,0.8572271,4.01275
-42.942265,0.7533183,3.992145
-43.23045,0.6828711,3.9960895
-43.59075,0.58525324,3.9847102
-43.966644,0.4836557,3.9735298
-16.429634,0.6755345,4.082387
-16.67455,0.72296834,4.059359
-17.012184,0.80819774,4.06287
-17.327154,0.88648844,4.064249
-17.730368,1.0019715,4.0930133
-17.964172,1.0516572,4.0797067
-18.174099,1.0929768,4.0622497
-18.417501,1.1492434,4.056758
-18.762716,1.2491593,4.0840435
-19.02844,1.3180587,4.0914187
-19.195787,1.3471076,4.0715623
-19.411396,1.3976295,4.068677
-19.616663,1.4450161,4.064911
-19.821318,1.4933779,4.063259
-20.041111,1.5496066,4.068981
-20.2785,1.6149759,4.083226
-20.450562,1.6528103,4.077576
-20.641212,1.7000258,4.0804315
-20.728226,1.701498,4.048121
-20.900639,1.7423661,4.0479736
-21.087105,1.790781,4.0550427
-21.22832,1.8193483,4.0470524
-21.355463,1.8421516,4.035171
-21.53166,1.888906,4.0440207
-21.669851,1.9186604,4.0396786
-21.790699,1.9409008,4.029804
-21.95419,1.9845722,4.0389624
-22.119549,2.0302424,4.050839
-22.209787,2.039854,4.03241
-22.37321,2.0864606,4.0468574
-22.497738,2.1145978,4.046002
-22.56973,2.1168234,4.022856
-22.71171,2.1552467,4.0324693
-22.800571,2.1671572,4.019024
-22.91458,2.1926732,4.018405
-23.007015,2.207555,4.008712
-23.150295,2.2499762,4.0248423
-23.22749,2.2579966,4.0099564
-23.345556,2.2885215,4.0164304
-23.4319,2.302536,4.0080857
-23.54512,2.3318472,4.0146184
-23.637215,2.3501983,4.0113726
-23.717144,2.3623018,4.00265
-23.850374,2.4050126,4.023711
-23.919449,2.412113,4.011134
-24.01802,2.4365647,4.0157356
-24.069603,2.4343786,3.9948583
-24.162148,2.4564028,3.997963
-24.274307,2.4906626,4.013612
-24.327724,2.4906847,3.9959078
-24.438236,2.5253403,4.012951
-24.502686,2.5328274,4.003365
-24.56171,2.5373333,3.9910793
-24.63414,2.5504384,3.9877558
-24.725735,2.575981,3.9974127
-24.812424,2.5991087,4.005062
-24.878757,2.6099014,4.0004916
-24.97207,2.6384482,4.0145106
-25.0203,2.6384616,3.9994774
-25.0874,2.6510353,3.997692
-25.13908,2.65384,3.9860225
-25.20578,2.6669202,3.9853334
-25.262938,2.674006,3.9786425
-25.317814,2.6798635,3.9709015
-25.409307,2.7111776,3.9903827
-25.464409,2.7180357,3.9842749
-25.527046,2.7304864,3.9843736
-25.588747,2.7426968,3.9844875
-25.646759,2.752689,3.9824848
-25.729939,2.7812028,4.0007367
-25.77035,2.7793078,3.9864063
-25.784351,2.7581284,3.9512453
-25.802055,2.7394495,3.9188156
-25.79398,2.7012358,3.8650084
-25.82639,2.6930969,3.8441343
-25.800846,2.640626,3.774478
-25.793884,2.6016278,3.7195096
-25.787573,2.56252,3.6643028
-25.792906,2.531973,3.6185112
-25.794891,2.4983072,3.569188
-25.785961,2.4553385,3.509375
-25.797377,2.4282045,3.4672194
-25.786615,2.3824587,3.404076
-25.795969,2.3526373,3.3587832
-25.76557,2.2890074,3.2751522
-25.774372,2.2574546,3.2277188
-25.809925,2.2483432,3.205814
-25.800213,2.2000046,3.1391978
-25.801538,2.1604712,3.082531
-25.79162,2.1103096,3.0135794
-25.800888,2.0764086,2.9632063
-25.800177,2.0329192,2.9017248
-25.806606,1.9951873,2.8468122
-25.806183,1.9504633,2.783733
-25.816252,1.9147403,2.7310238
-25.796877,1.8505466,2.6450953
-25.773567,1.7813196,2.5530949
-25.794947,1.753943,2.5098753
-25.805737,1.7157652,2.4539938
-25.803495,1.6639915,2.3820848
-25.797821,1.6077592,2.304811
-25.808722,1.5672004,2.2459202
-25.813934,1.5200408,2.179172
-25.842125,1.4958067,2.1395388
-25.800713,1.3980463,2.0125685
-25.775026,1.3148293,1.9026079
-25.791817,1.2755058,1.8447824
-25.810307,1.2372665,1.78823
-25.815903,1.1840458,1.7137218
-25.805542,1.1118543,1.6163688
-25.815659,1.061213,1.5447621
-25.814505,0.996557,1.4562178
-25.82847,0.9480002,1.3869786
-25.823769,0.87641454,1.2898641
-25.865576,0.85861635,1.2577305
-34.511116,0.803941,1.1972771
-34.5093,0.8734412,1.2920237
-34.508175,0.9405725,1.3837829
-34.500465,1.0137062,1.4826398
-34.478584,1.1011398,1.5985155
-34.51459,1.1223092,1.6347318
-34.475033,1.226033,1.7697911
-34.496834,1.2609525,1.8223705
-34.509792,1.3046863,1.8854561
-34.539146,1.3302362,1.9268675
-34.5518,1.3728235,1.9885416
-34.599228,1.3787203,2.0067053
-34.651405,1.379842,2.0193586
-34.69064,1.3941846,2.0477662
-34.7242,1.4140491,2.0827665
-34.300636,1.976486,2.7761402
-34.855804,1.4936078,2.2235265
-34.370018,2.0006828,2.8259134
-34.448948,1.9715111,2.803008
-34.495426,1.9730165,2.8159542
-34.53082,1.9847612,2.8408809
-34.54543,2.0151339,2.8873696
-34.558342,2.046545,2.9350338
-34.564148,2.0837245,2.9892864
-34.57596,2.1150656,3.0367985
-34.578735,2.1537077,3.0926094
-34.59556,2.1797476,3.1340065
-34.6101,2.2073474,3.1771722
-34.62357,2.2354536,3.2208977
-34.63845,2.2619908,3.262835
-34.6365,2.3019245,3.3198323
-34.661198,2.319663,3.3518376
-34.681778,2.3405187,3.3873744
-34.70009,2.3629296,3.4246683
-34.716747,2.3863702,3.463119
-34.738903,2.4052489,3.4965205
-34.766026,2.420115,3.525526
-34.798218,2.4310098,3.5502224
-34.833584,2.4394786,3.5723505
-34.87018,2.4470494,3.593606
-34.917473,2.4467485,3.6064024
-34.958008,2.4515834,3.6249542
-35.003963,2.4525862,3.6395006
-35.061623,2.4453578,3.6453433
-35.107674,2.446708,3.660643
-35.156513,2.4462574,3.6741905
-35.206093,2.4454923,3.6875935
-35.264874,2.4385827,3.6946673
-35.33018,2.427537,3.6976147
-35.386436,2.4230266,3.7077384
-35.44136,2.4196901,3.7193317
-35.501415,2.4132059,3.7278657
-35.56378,2.405523,3.7354126
-35.625576,2.3985593,3.7439837
-35.68751,2.391837,3.7530775
-35.754745,2.382056,3.759304
-35.818462,2.374893,3.7685175
-35.880833,2.3689165,3.7792287
-35.953056,2.3571298,3.7843337
-36.03528,2.3396068,3.783996
-36.104958,2.3302848,3.7922945
-36.16266,2.3286054,3.8085556
-36.2227,2.3257723,3.8239303
-36.28971,2.3190675,3.8357506
-36.374584,2.3021867,3.8378806
-36.440384,2.29697,3.8518524
-36.507847,2.2911162,3.8655186
-36.576206,2.285086,3.8793392
-38.018883,1.498616,3.142395
-37.9974,1.5508585,3.2169356
-38.006012,1.5856583,3.2746353
-38.01649,1.619092,3.330988
-38.033657,1.6485486,3.3835588
-38.051987,1.677134,3.4353166
-38.06022,1.7109334,3.4919233
-38.05581,1.7511652,3.5544086
-38.036976,1.798594,3.623354
-38.035385,1.8364348,3.6833448
-38.045513,1.8678029,3.7373695
-38.05353,1.8999877,3.7920914
-38.073456,1.9258149,3.8410954
-38.078087,1.9592094,3.8968244
-38.06891,1.9992218,3.9582949
-38.049957,2.0436718,4.0234733
-38.05633,2.0751548,4.0772085
-38.152233,2.0626645,4.093161
-38.271103,2.039567,4.100639
-38.411484,2.0068514,4.1007113
-38.572735,1.9650874,4.0940766
-38.71411,1.9337238,4.09708
-38.860203,1.9010153,4.0998564
-39.047966,1.849906,4.088558
-39.182167,1.8245889,4.0992937
-39.35906,1.7806287,4.095964
-39.519203,1.7453196,4.1006346
-39.69548,1.7037652,4.101445
-39.909813,1.6464291,4.0911703
