x,y,z
-26.102152,1.9304323,2.3811126
-26.097244,1.8760841,2.3033962
-26.080332,1.8083277,2.208693
-26.076,1.7521052,2.128364
-26.079327,1.702702,2.0565348
-26.048235,1.6157379,1.9371047
-26.043743,1.5553429,1.8511109
-26.080395,1.5383897,1.8201542
-26.096788,1.4988706,1.7605724
-26.125507,1.4722972,1.7174578
-26.083385,1.365051,1.571454
-26.079739,1.2992828,1.4781609
-26.092762,1.2513378,1.4075608
-26.11546,1.2137046,1.3501348
-26.088978,1.1165054,1.2162457
-34.846336,0.82932353,0.9155116
-34.906773,0.8296385,0.9268279
-34.836136,0.9700062,1.115643
-34.823257,1.0462627,1.2229753
-34.83921,1.0908642,1.2901936
-34.779808,1.212028,1.4538064
-34.83735,1.2117805,1.4643865
-34.782497,1.3244476,1.6168284
-34.823086,1.3401046,1.6473913
-34.816082,1.4021921,1.7360873
-34.812836,1.4594026,1.8185582
-34.811295,1.5138638,1.8974876
-34.824806,1.5530586,1.9573336
-34.878357,1.5541868,1.9699297
-34.897602,1.5871704,2.0221086
-34.933304,1.6046042,2.0550747
-35.00023,1.5937042,2.053194
-35.018894,1.6263096,2.1050363
-34.75796,2.0381021,2.6551619
-34.803684,2.0423787,2.6716852
-34.81927,2.113897,2.781311
-34.851376,2.128959,2.8110685
-34.8665,2.157627,2.8572736
-34.894268,2.1757882,2.8908496
-34.87327,2.2323477,2.970461
-34.900734,2.2499907,3.0033965
-34.911953,2.2800539,3.051177
-34.934242,2.3012106,3.0883489
-34.92963,2.3425438,3.149446
-34.94127,2.3710313,3.195261
-34.958336,2.3951008,3.235847
-34.959805,2.4303598,3.289576
-34.983303,2.4490628,3.3238425
-35.004498,2.4692519,3.3598828
-35.021324,2.4923556,3.399341
-35.045918,2.5097094,3.4321342
-35.067505,2.5290196,3.4672346
-35.092915,2.5455048,3.4991097
-35.125675,2.556824,3.5251017
-35.15897,2.5677602,3.550747
-35.197014,2.5754943,3.572833
-35.241997,2.5786574,3.5898418
-35.2898,2.5801058,3.6050673
-35.33833,2.5812576,3.6201315
-35.389744,2.580728,3.6334848
-35.441925,2.5799248,3.6467276
-35.495613,2.578394,3.6593585
-35.547905,2.5779774,3.673441
-35.603176,2.5759299,3.6859198
-35.667362,2.5686421,3.6928377
-35.736897,2.558444,3.6968284
-35.791756,2.5575316,3.711285
-35.856396,2.5509977,3.7198362
-35.921936,2.5442743,3.7284608
-35.998974,2.531145,3.7304473
-36.068672,2.5227618,3.7378898
-36.129383,2.519948,3.751606
-36.204758,2.5090377,3.7569542
-36.279587,2.498877,3.763442
-36.367016,2.4820714,3.763258
-36.438416,2.4747252,3.7734327
-36.49745,2.4745605,3.7914429
-36.549458,2.4784813,3.813962
-36.62037,2.4723563,3.8263016
-36.696175,2.4639745,3.8366466
-36.77056,2.4567525,3.8485413
-36.84829,2.4481568,3.8593898
-36.918964,2.4436526,3.8747582
-37.0091,2.429446,3.880692
-38.35043,1.7760625,3.2471094
-38.34701,1.8161387,3.3117652
-38.35033,1.8524182,3.372541
-38.360477,1.8849568,3.429556
-38.37919,1.9129977,3.4821367
-38.388386,1.9454911,3.539052
-38.391285,1.9807587,3.5986013
-38.38282,2.0211515,3.6629772
-38.353672,2.070954,3.7361555
-38.370766,2.0983973,3.7879233
-38.381554,2.1286016,3.8422923
-38.393585,2.1580005,3.895884
-38.405178,2.1873846,3.9494429
-38.40441,2.2221622,4.00793
-38.380913,2.2668512,4.075337
-38.472485,2.2597668,4.0957465
-38.612343,2.231809,4.0979676
-38.763855,2.199589,4.097231
-38.91931,2.1665745,4.096706
-39.042255,2.148469,4.110137
-39.229958,2.1034718,4.1010327
-39.39559,2.0689542,4.102082
-39.56962,2.031917,4.1020203
-39.777603,1.9818623,4.0921006
-39.94925,1.948006,4.097
-40.18596,1.888702,4.082012
-40.363167,1.8548449,4.0893273
-40.625374,1.7880893,4.0712323
-40.84567,1.7395422,4.069417
-41.117622,1.6720736,4.0541267
-41.37613,1.6114998,4.046052
-41.60846,1.5625565,4.048693
-41.856754,1.5088897,4.049312
-42.16814,1.4328749,4.0348268
-42.46237,1.3651633,4.0286784
-42.777462,1.291481,4.0202184
-43.09803,1.2176697,4.0138946
-43.478874,1.1238515,3.9956136
-43.843483,1.0381746,3.9857988
-44.1761,0.9660728,3.9880161
-44.61624,0.85791445,3.9681273
-44.99961,0.7722566,3.9665713
-45.449547,0.6657579,3.9541478
-45.94699,0.5456016,3.9362826
-46.40407,0.44211197,3.9327998
-13.429279,0.56595206,4.126807
-13.9416485,0.6795285,4.1317415
-14.211501,0.71617126,4.0914693
-14.782148,0.8543205,4.1191664
-16.278248,1.1691339,4.1064234
-16.484138,1.1945441,4.072313
-16.771397,1.2497241,4.060966
-17.160477,1.3427961,4.079191
-17.441536,1.3993852,4.0732455
-17.79929,1.4854357,4.0912724
-18.044153,1.5322983,4.0820794
-18.361816,1.6074941,4.096288
-18.629652,1.6660151,4.099696
-18.852516,1.7091808,4.0928154
-19.061306,1.7482817,4.0841646
-19.26597,1.7870002,4.0765624
-19.53181,1.8506223,4.090561
-19.679907,1.8698022,4.069704
-19.87576,1.9086418,4.06612
-20.090565,1.956192,4.071094
-20.313519,2.008329,4.081318
-20.515427,2.053297,4.0867963
-20.715788,2.0988662,4.0940485
-20.840973,2.114559,4.076428
-20.959805,2.1282654,4.057789
-21.15157,2.1733546,4.0677557
-21.24281,2.1768675,4.041568
-21.37638,2.1989872,4.03272
-21.568241,2.247144,4.048399
-21.71379,2.276278,4.0477157
-21.789478,2.2754421,4.020082
-22.00346,2.336565,4.0507274
-22.08205,2.3382459,4.0266714
-22.219929,2.3671994,4.028884
-22.380981,2.407625,4.042824
-22.450472,2.406768,4.0179615
-22.639854,2.4621642,4.047927
-22.74061,2.477138,4.039548
-22.860237,2.501658,4.041067
-22.922237,2.4992704,4.016641
-23.059391,2.533524,4.028938
-23.150717,2.5462976,4.0204806
-23.2672,2.5719962,4.0254946
-23.33427,2.5738454,4.006969
-23.482536,2.6168032,4.0306244
-23.533764,2.6116076,4.005744
-23.683346,2.656931,4.033121
-23.720613,2.6453235,4.0023193
-23.866684,2.6904995,4.0307846
-23.914927,2.6852741,4.007248
-24.003603,2.7016826,4.0066743
-24.113249,2.7298903,4.019006
-24.17765,2.734377,4.006668
-24.278646,2.759183,4.0163193
-24.340311,2.762997,4.0039315
-24.40806,2.7705035,3.9957933
-24.541092,2.8150728,4.028107
-24.56987,2.8015633,3.9978776
-24.668991,2.8283095,4.011735
-24.751677,2.8462818,4.0164304
-24.794754,2.8416963,3.9966297
-24.87242,2.8576202,3.999699
-24.9535,2.8760948,4.005951
-25.003002,2.876167,3.9920235
-25.067247,2.8853896,3.9885454
-25.127611,2.892621,3.983097
-25.240461,2.9326417,4.014939
-25.299467,2.940033,4.0103064
-25.363361,2.950849,4.0098133
-25.397537,2.9431593,3.9884458
-25.44468,2.9438472,3.9767923
-25.513096,2.9585476,3.9814353
-25.581917,2.9739928,3.9872224
-25.630741,2.9767022,3.9785428
-25.690653,2.9870617,3.9789376
-25.754498,3.0004702,3.9831269
-25.804262,3.0047302,3.9768703
-25.860077,3.0134254,3.9760046
-25.922504,3.0270767,3.981189
-25.984644,3.0409791,3.986918
-26.053883,3.0603814,3.9994082
-26.081299,3.0503685,3.9772286
-26.073011,3.0144658,3.9242692
-26.085789,2.9934092,3.8889437
-26.15065,3.0105977,3.8994503
-26.073364,2.9221349,3.783235
-26.057104,2.878057,3.7200608
-26.05958,2.8475204,3.6731014
-26.053667,2.810052,3.6176853
-26.058527,2.7803578,3.5716138
-26.06453,2.7511077,3.5260348
-26.073526,2.7237947,3.4827785
-26.084848,2.6979432,3.4412823
-26.091091,2.6675828,3.3942351
-26.040623,2.5901375,3.2892323
-26.035074,2.5484958,3.228053
-26.034466,2.5102699,3.1709948
-26.056538,2.4906445,3.1368952
-26.071857,2.4649704,3.095314
-26.073578,2.4270966,3.0385494
-26.064949,2.3794653,2.9695497
-26.057756,2.3322146,2.9009051
-26.06397,2.2961159,2.8461118
-26.084969,2.2728112,2.8073192
-26.078331,2.223752,2.7361627
-26.080923,2.182322,2.6745048
-26.093626,2.1496255,2.6238008
-26.092175,2.102869,2.5552888
-26.07968,2.0445473,2.4720306
-26.078976,1.996517,2.4016957
-26.088701,1.9578166,2.3431387
-26.108063,1.9279962,2.295855
-26.079023,1.8486807,2.185388
-26.07312,1.7912881,2.1027365
-26.071854,1.7374687,2.0245438
-26.046831,1.6575444,1.9127584
-26.067812,1.6247182,1.8613043
-26.080969,1.5828304,1.798183
-26.094893,1.5409021,1.7349758
-26.12024,1.5107195,1.6869059
-26.087194,1.4145265,1.5534616
-26.089626,1.356256,1.4689045
-26.130632,1.3410263,1.4401093
-26.089424,1.2296884,1.2865033
-34.961735,0.6899674,0.63367176
-34.85009,0.87901926,0.88816833
-34.880196,0.9119222,0.9411979
-34.832756,1.0260999,1.0986128
-34.82991,1.0911698,1.1927462
-34.820213,1.161912,1.2940145
-34.795204,1.2467141,1.4130893
-34.81102,1.2886784,1.4773145
-34.77533,1.3809488,1.6055417
-34.81316,1.3991685,1.63941
-34.794136,1.4722435,1.7429194
-34.776474,1.5425045,1.8426757
-34.82117,1.5523729,1.8659492
-34.816452,1.6084154,1.9475522
-34.861546,1.6173649,1.9697733
-34.89807,1.6341574,2.0019574
-34.933193,1.6520569,2.0356016
-34.93133,1.7027771,2.1103597
-34.773727,2.0248072,2.5559912
-34.786694,2.1000276,2.6711946
-34.82516,2.152017,2.7576241
-34.81045,2.204905,2.833797
-34.864357,2.2020378,2.8416648
-34.876442,2.2325025,2.8903456
-34.90881,2.2466657,2.919177
-34.896515,2.2953086,2.9899006
-34.919174,2.3163671,3.0271091
-34.90864,2.3623517,3.0944157
-34.92909,2.384354,3.1327305
-34.94525,2.4092836,3.1745763
-34.961006,2.4342115,3.2164173
-34.979652,2.4567275,3.2553763
-34.975273,2.4955676,3.313766
-34.966877,2.5366912,3.374761
-35.023937,2.5310102,3.3802829
-35.04649,2.5497453,3.4148016
-35.06875,2.5685153,3.4493937
-35.095524,2.584022,3.480198
-35.124832,2.597709,3.508935
-35.158115,2.6086626,3.5345626
-35.176525,2.6294885,3.5717363
-35.22633,2.6294556,3.5848098
-35.280437,2.6268284,3.595077
-35.32536,2.6303866,3.61265
-35.367386,2.6359315,3.6326542
-35.429565,2.628832,3.6383886
-35.48538,2.6260686,3.6492987
-35.52815,2.631667,3.6698866
-35.589203,2.6261346,3.67808
-35.650394,2.6208408,3.68679
-35.735455,2.6014762,3.6800165
-35.7948,2.5980582,3.6913853
-35.857243,2.5930955,3.701282
-35.909264,2.594558,3.7185383
-35.97493,2.5883021,3.72751
-36.04607,2.5792463,3.733696
-36.117405,2.5704806,3.7405133
-36.190464,2.5611393,3.7470207
-36.26604,2.5508041,3.7527814
-36.34649,2.5382051,3.7564507
-36.416275,2.5319307,3.7672606
-36.494034,2.5216842,3.7741532
-36.547615,2.5248938,3.7956648
-36.609867,2.5236666,3.8127232
-36.684883,2.5159729,3.8232713
-36.756073,2.5106766,3.8366718
-36.832993,2.5027652,3.8476882
-36.902836,2.4988952,3.8632407
-36.969547,2.496955,3.8810997
-38.33585,1.8397293,3.23031
-38.342907,1.8742442,3.2896519
-38.367428,1.899797,3.33989
-38.37268,1.9346566,3.3995085
-38.377396,1.9694567,3.4589992
-38.386547,2.0018048,3.5159893
-38.352005,2.0547364,3.593194
-38.35334,2.090053,3.6528664
-38.363346,2.1209812,3.7081852
-38.37709,2.1499293,3.76156
-38.391243,2.1784813,3.8145447
-38.401585,2.2085712,3.8689866
-38.396187,2.2455416,3.9298964
-38.381702,2.286222,3.9941545
-38.37944,2.321064,4.052797
-38.38266,2.3531826,4.1088195
-38.553352,2.3121579,4.097806
-38.708267,2.2790194,4.0949707
-38.803005,2.2725315,4.117054
-38.97439,2.2340631,4.1111155
-39.154205,2.1931124,4.104017
-39.323265,2.1577413,4.102915
-39.479683,2.1285887,4.108252
-39.628605,2.1034005,4.11796
-39.83707,2.054995,4.1087847
-40.050667,2.0058165,4.10028
-40.272964,1.9544927,4.09135
-40.487976,1.9073894,4.0873446
-40.76171,1.8387151,4.0670877
-41.018494,1.7782836,4.0553107
-41.242874,1.7317929,4.0563912
-41.45437,1.6914933,4.063851
-41.749477,1.6210635,4.049177
-42.01656,1.5628331,4.0459294
-42.337044,1.4865367,4.030742
-42.66945,1.4078338,4.015971
-42.94267,1.3524873,4.0208545
-43.288815,1.2726488,4.0097246
-43.660706,1.1857512,3.995965
-44.04011,1.0984316,3.9845781
-44.39573,1.0216172,3.9832907
-44.8307,0.91957283,3.9672089
-45.275223,0.816849,3.953878
-45.720024,0.7166419,3.9455338
-46.193855,0.6093321,3.9358754
-46.657745,0.5080693,3.9336934
-12.688927,0.55108094,4.1405406
-13.1005745,0.6250372,4.1173286
-13.482403,0.6918347,4.09268
-14.086845,0.83193254,4.118367
-14.464876,0.9024532,4.102699
-14.8672285,0.98303103,4.096571
-15.258416,1.0622275,4.0924444
-15.663483,1.1482866,4.0959263
-15.927848,1.1894162,4.070604
-16.186193,1.2299447,4.0467033
-17.032087,1.4291794,4.0915627
-17.221224,1.4509106,4.060075
-17.484154,1.4996657,4.0503764
-17.86045,1.5903106,4.074707
-18.258266,1.6909916,4.109438
-18.399693,1.7010138,4.075281
-18.61884,1.7402337,4.0653553
-18.905159,1.8055727,4.0779834
-19.237385,1.8898088,4.107955
-19.305279,1.8763754,4.0592923
-19.530102,1.9229277,4.0611744
-19.719418,1.9571619,4.0540686
-19.910904,1.9933301,4.0497937
-20.100964,2.0300577,4.047187
-20.327662,2.0824018,4.0593553
-20.552685,2.1354823,4.073574
-20.747856,2.1779318,4.079737
-20.902885,2.2052374,4.0735126
-21.014618,2.2156544,4.052934
-21.161928,2.2413998,4.0469613
-21.314909,2.2703755,4.044812
-21.424103,2.2817569,4.0272336
-21.571095,2.309833,4.0258594
-21.783037,2.3667526,4.052492
-21.841373,2.3583338,4.0183363
-22.00924,2.398139,4.0305796
-22.138111,2.42176,4.0281796
-22.269974,2.4474878,4.0285287
-22.403084,2.4745827,4.0309353
-22.539103,2.5038235,4.036176
-22.649424,2.5221148,4.0313067
-22.765274,2.5436163,4.0302186
-22.865738,2.5586185,4.0232162
-22.999958,2.590149,4.03342
-23.077396,2.5954752,4.017708
-23.167887,2.607473,4.0091887
-23.265528,2.6234517,4.005213
-23.37512,2.6458716,4.008387
-23.490807,2.6720057,4.0159783
-23.585762,2.6885383,4.0141125
-23.691694,2.711186,4.019143
-23.757032,2.7138515,4.0035677
-23.883883,2.7484407,4.022222
-23.940811,2.7476614,4.003721
-24.0104,2.7537482,3.992837
-24.117735,2.7801504,4.0041914
-24.215141,2.8020017,4.01113
-24.304306,2.8200688,4.014408
-24.348747,2.8143942,3.9921098
-24.478466,2.8556633,4.0216107
-24.538801,2.8594968,4.0103865
-24.614372,2.8721566,4.0092096
-24.674406,2.8765094,3.9991093
-24.76623,2.899295,4.0098925
-24.80923,2.8946333,3.9902425
-24.886112,2.9097908,3.9931188
-24.974651,2.9322977,4.00466
-25.037443,2.9401975,3.9999788
-25.085983,2.9399357,3.9862351
-25.163939,2.957644,3.9932785
-25.273754,2.995334,4.0236545
-25.312927,2.990462,4.0053663
-25.360115,2.9906764,3.9931092
-25.428139,3.0041785,3.9964855
-25.465082,2.998436,3.9776726
-25.543379,3.0192564,3.9901013
-25.594357,3.0230153,3.982803
-25.65226,3.0315623,3.9813433
-25.714855,3.0435672,3.9841988
-25.775799,3.0548975,3.9865017
-25.83856,3.0678673,3.9909945
-25.887997,3.0722225,3.9854443
-25.9414,3.0795736,3.9836621
-26.012253,3.0993552,3.9970186
-26.065853,3.107633,3.9967928
-26.057028,3.072068,3.9437623
-26.068766,3.050651,3.9077768
-26.074917,3.0249314,3.8665528
-26.072983,2.9929504,3.817658
-26.063787,2.9551234,3.761541
-26.064964,2.9244103,3.7140331
-26.060894,2.889277,3.6610308
-26.06063,2.8564773,3.610816
-26.059044,2.8221407,3.558632
-26.061203,2.7901647,3.5092945
-26.06268,2.7571428,3.4585977
-26.069687,2.727987,3.4126492
-26.079664,2.7007635,3.3690715
-26.097431,2.679453,3.3328633
-26.032059,2.589624,3.2107959
-26.0464,2.564139,3.1691709
-26.057013,2.5351472,3.1231236
-26.07286,2.5101364,3.0820713
-26.078007,2.4755712,3.0289383
-26.061693,2.4217877,2.9514017
-26.078058,2.3956487,2.908813
-26.08345,2.3593626,2.853311
-26.075338,2.3103006,2.781468
-26.063635,2.2570279,2.7041297
-26.080185,2.22867,2.658547
-26.080135,2.184403,2.592556
-26.089645,2.148274,2.53694
-26.077604,2.0909534,2.4540067
-26.096674,2.0624363,2.40808
-26.066294,1.9851809,2.299189
-26.086853,1.9565413,2.252996
-26.108965,1.9289501,2.208167
-26.105757,1.8752441,2.129437
-26.069313,1.7863226,2.0047927
-26.041649,1.7044644,1.8891039
-26.062607,1.6718488,1.837471
-26.07276,1.6270957,1.7699714
-26.089134,1.5881057,1.7099705
-26.088278,1.5294707,1.624187
-26.1082,1.4925139,1.5667753
-26.089888,1.4118624,1.4518852
-26.119108,1.3833325,1.4054761
-26.088524,1.2852678,1.2673697
-26.09469,1.2276926,1.1825218
-34.89749,0.74608207,0.59175825
-34.94559,0.7620559,0.6232114
-34.817375,0.96675515,0.90164566
-34.861115,0.98460984,0.9353614
-34.861256,1.0477788,1.0282493
-34.838852,1.1328475,1.1495361
-34.798397,1.234416,1.292059
-34.853577,1.2375507,1.3065786
-34.803417,1.3454657,1.456955
-34.851746,1.3543675,1.4789815
-34.804867,1.4555626,1.6202397
-34.808384,1.5063097,1.6961913
-34.826756,1.5420265,1.7527308
-34.809883,1.6100807,1.8507586
-34.851055,1.6231349,1.8781519
-34.918312,1.6122866,1.8750787
-34.906853,1.672977,1.9635015
-34.938095,1.6943958,2.0017624
-35.024406,1.7156827,2.0510964
-35.082222,1.7136636,2.059895
-35.101288,1.7449603,2.110941
-34.843945,2.220189,2.7751026
-34.85526,2.2514465,2.8251548
-34.88106,2.2709248,2.86057
-34.90087,2.2948346,2.9015064
-34.903755,2.3313951,2.9580579
-34.90408,2.3693347,3.0162363
-34.926952,2.389804,3.0528927
-34.933258,2.422333,3.1043391
-34.944233,2.4509718,3.1509843
-34.958015,2.4771917,3.1946564
-34.972683,2.5024452,3.237143
-34.964245,2.5438206,3.2991357
-35.027615,2.534016,3.299233
-35.014156,2.5781472,3.3644743
-35.038708,2.59538,3.397294
-35.067097,2.6098528,3.4268575
-35.083553,2.6323087,3.4660044
-35.11628,2.6436348,3.4919238
-35.148846,2.65505,3.5180364
-35.18616,2.6633317,3.5405369
-35.232548,2.6657662,3.5562649
-35.27823,2.668818,3.5728784
-35.331753,2.6670237,3.583981
-35.376736,2.670864,3.6018496
-35.431084,2.6689937,3.6132426
-35.484787,2.667775,3.6255946
-35.537094,2.6676512,3.6394105
-35.597527,2.6628184,3.6480155
-35.655136,2.6599953,3.6591606
-35.720264,2.6529744,3.6657476
-35.781086,2.648852,3.6758928
-35.837517,2.6475947,3.6895227
-35.895527,2.6456795,3.7026367
-35.95134,2.6452892,3.7176929
-36.031578,2.6312828,3.7177668
-36.099854,2.6244967,3.7262263
-36.15983,2.622697,3.7404985
-36.264717,2.5964098,3.7280316
-36.328156,2.5934958,3.741705
-36.393246,2.5899882,3.755
-36.475685,2.5774956,3.758811
-36.519783,2.5858433,3.7855425
-36.58277,2.5843554,3.8018546
-36.656948,2.577319,3.8124971
-36.725697,2.5734744,3.8268785
-36.800964,2.5666285,3.838389
-36.88524,2.555609,3.845848
-36.96246,2.5486012,3.8579159
-37.025215,2.5491858,3.8782663
-38.359394,1.9237628,3.2496743
-38.37581,1.9532952,3.3041635
-38.37369,1.9915686,3.36761
-38.37428,2.0281644,3.4292355
-38.361046,2.0709696,3.497055
-38.362953,2.1061924,3.557066
-38.371002,2.1382298,3.6138077
-38.38527,2.167133,3.667387
-38.395737,2.197568,3.7224703
-38.395607,2.2325668,3.7819977
-38.376305,2.2758548,3.8494997
-38.3691,2.3132932,3.9111347
-38.37498,2.3446026,3.966752
-38.376965,2.3773627,4.023696
-38.377598,2.410431,4.0808535
-38.45448,2.4105577,4.1070266
-38.617893,2.3742962,4.099741
-38.75237,2.3512104,4.1055737
-38.898537,2.3240306,4.1084366
-39.08007,2.2831147,4.099692
-39.225433,2.2581046,4.10635
-39.391403,2.225584,4.107174
-39.587837,2.1818209,4.0990715
-39.75752,2.1498895,4.102535
-39.946297,2.1114268,4.1013813
-40.155212,2.0662322,4.095627
-40.39868,2.008947,4.080924
-40.612564,1.9644773,4.0785584
-40.85399,1.9108355,4.0699377
-41.140244,1.8418176,4.050242
-41.373356,1.7943165,4.0499372
-41.616165,1.7446091,4.049393
-41.87234,1.6914451,4.0477157
-42.16649,1.6260617,4.038171
-42.43965,1.5699384,4.0378013
-42.747334,1.5031681,4.031157
-43.08244,1.428585,4.0207505
-43.453373,1.3435276,4.0049
-43.814358,1.2640989,3.995801
-44.15514,1.1936748,3.9957738
-44.560535,1.103406,3.9840713
-44.976295,1.0120466,3.9745493
-45.462753,0.89971256,3.9536276
-45.927315,0.7974169,3.943111
-46.432213,0.6847303,3.9291477
-46.936554,0.5751567,3.9210262
-47.528214,0.44072127,3.9008007
-12.765966,0.6636114,4.112394
-13.424814,0.81207156,4.139413
-13.717342,0.8502815,4.0993595
-14.222751,0.9570148,4.1070824
-14.654072,1.0431182,4.1045575
-15.004245,1.1056323,4.088907
-15.472674,1.208456,4.1040673
-15.714386,1.2397599,4.071587
-17.124256,1.5288773,4.08218
-17.36288,1.5671155,4.0647354
-17.668724,1.6300409,4.0681014
-17.991974,1.7008679,4.079758
-18.30241,1.7690814,4.0914946
-18.530142,1.8095505,4.0828648
-18.837042,1.8799295,4.1001816
-19.0372,1.9132235,4.088815
-19.274742,1.961419,4.0911903
-19.490908,2.0030675,4.0895376
-19.654465,2.0262208,4.0734262
-19.857903,2.065396,4.07216
-20.018856,2.0894995,4.0589905
-20.29411,2.1586795,4.0865293
-20.508926,2.206025,4.0963445
-20.622269,2.2147088,4.072733
-20.745155,2.2277565,4.0537195
-20.961807,2.2791,4.0704346
-21.102345,2.3009572,4.0612383
-21.184914,2.2998886,4.0315123
-21.358833,2.3369112,4.037956
-21.555567,2.384518,4.055413
-21.609755,2.3733845,4.01801
-21.807974,2.4235964,4.039789
-21.934956,2.4445515,4.0343833
-22.02221,2.4490418,4.0136156
-22.21339,2.4993794,4.0383186
-22.289015,2.5000143,4.0149374
-22.435717,2.53264,4.023785
-22.607159,2.5773242,4.0455146
-22.675297,2.5762842,4.022039
-22.829659,2.6150305,4.0392933
-22.896593,2.6143827,4.017111
-23.035793,2.6477518,4.030221
-23.113148,2.6529043,4.0148673
-23.234074,2.679165,4.02185
-23.304426,2.681928,4.004852
-23.435211,2.714309,4.0193586
-23.497807,2.714221,4.000158
-23.638226,2.7528338,4.022427
-23.697987,2.7522388,4.0034537
-23.77058,2.7583551,3.9919586
-23.899078,2.793245,4.0119033
-23.963154,2.7960205,3.9975848
-24.096188,2.834797,4.0228624
-24.147913,2.8320727,4.003252
-24.22245,2.8415773,3.997334
-24.332788,2.870572,4.0133386
-24.381016,2.8669682,3.9935884
-24.495956,2.8997407,4.0146904
-24.5439,2.8966641,3.9960833
-24.622572,2.9107592,3.997024
-24.726936,2.9397016,4.0151253
-24.778263,2.939521,4.0005884
-24.819714,2.9339359,3.9800787
-24.931227,2.9687347,4.0060153
-24.986652,2.9718738,3.996022
-25.053146,2.9817762,3.994062
-25.110527,2.9866893,3.98659
-25.219364,3.022653,4.015493
-25.265192,3.0215147,4.0015306
-25.35255,3.045858,4.0176187
-25.362572,3.023306,3.9788897
-25.428467,3.0352216,3.9808524
-25.49123,3.045607,3.981266
-25.568724,3.0657282,3.9935045
-25.620295,3.069857,3.9869833
-25.675264,3.0764575,3.983611
-25.735666,3.086928,3.9850922
-25.784,3.0898397,3.9777012
-25.837765,3.0966156,3.9751518
-25.892735,3.1045237,3.9741726
-25.965267,3.1247115,3.9883232
-26.04959,3.1535878,4.013355
-26.091524,3.1538382,4.00373
-26.059734,3.1026132,3.9311273
-26.072113,3.0817745,3.8956704
-26.152916,3.10962,3.9202366
-26.138618,3.0694954,3.8610897
-26.057888,2.9801903,3.740847
-26.0565,2.9477334,3.6908107
-26.056324,2.915677,3.6412
-26.057354,2.8840275,3.59203
-26.061474,2.8542397,3.5451288
-26.055424,2.8161647,3.487774
-26.06192,2.7872155,3.4418063
-26.059626,2.7509096,3.3865194
-26.069054,2.7233183,3.3421698
-26.060043,2.6804855,3.2784781
-26.06998,2.6522949,3.2332706
-26.069597,2.6151848,3.1766825
-26.05796,2.568085,3.1072764
-26.069065,2.539227,3.0610647
-26.080091,2.5098438,3.0141559
-26.055582,2.4494398,2.9273973
-26.070263,2.4219148,2.88275
-26.08886,2.3973954,2.8419647
-26.075567,2.344137,2.764069
-26.052591,2.2811127,2.6733985
-26.069788,2.2533848,2.6283092
-26.07478,2.2139544,2.5680165
-26.082684,2.176497,2.510232
-26.076092,2.124666,2.433663
-26.078526,2.080399,2.3668613
-26.058372,2.0134234,2.2702765
-26.07795,1.9838829,2.2225847
-26.095968,1.9522762,2.1721802
-26.095446,1.9014859,2.096541
-26.053421,1.8074691,1.9638724
-26.040548,1.7412612,1.8676257
-26.067026,1.7145681,1.8234539
-26.085052,1.6784804,1.7668724
-26.08902,1.6266367,1.6893907
-26.078915,1.5584002,1.5900707
-26.090765,1.5126717,1.5205431
-26.110125,1.4742901,1.4607553
-26.110468,1.4136491,1.371274
-26.08132,1.3178599,1.2347617
-34.87406,0.7517116,0.5041528
-34.86033,0.8355236,0.62574863
-34.93292,0.82458305,0.62147903
-34.800407,1.0318675,0.90645266
-34.858418,1.0344722,0.92005825
-34.872074,1.0831356,0.9946227
-34.838997,1.1785538,1.1307726
-34.792778,1.2850895,1.281301
-34.85777,1.2784505,1.2828217
-34.784973,1.407774,1.4628644
-34.860657,1.3898847,1.449719
-34.790222,1.512948,1.6210508
-34.818916,1.5392663,1.6657352
-34.805195,1.6049387,1.7617059
-34.809494,1.6526036,1.834106
-34.81902,1.6945939,1.899066
-34.882088,1.6874039,1.9002743
-34.90582,1.7157757,1.9476433
-34.914814,1.7567501,2.0112844
-34.99547,1.7344086,1.9933467
-35.03663,1.7469134,2.0204597
-35.07644,1.7605221,2.0490808
-35.116043,1.7742298,2.0779185
-34.87735,2.2315292,2.726366
-34.851532,2.2919006,2.8134952
-34.876663,2.311788,2.8495417
-34.895782,2.336065,2.8911262
-34.870586,2.393593,2.9743013
-34.906513,2.4043272,2.9989014
-34.93261,2.422336,3.032642
-34.937614,2.45565,3.085421
-34.95644,2.4784496,3.1251278
-34.959732,2.5121493,3.1783009
-34.95912,2.548139,3.23423
-34.99796,2.5558388,3.2553449
-35.011154,2.5814512,3.2984986
-34.986706,2.632712,3.3729482
-35.045795,2.626123,3.3767867
-35.072845,2.641523,3.407524
-35.099655,2.6569815,3.4383888
-35.132477,2.6683621,3.4643898
-35.168625,2.6775436,3.487834
-35.207466,2.6850083,3.509324
-35.251865,2.688961,3.5267358
-35.300507,2.69035,3.5412416
-35.349888,2.6914618,3.5555873
-35.39498,2.6954415,3.5735006
-35.448727,2.694214,3.5854278
-35.49891,2.695411,3.6004019
-35.5535,2.6941311,3.612657
-35.611107,2.691291,3.6232972
-35.66807,2.68911,3.6349258
-35.728092,2.6853952,3.644998
-35.785244,2.683656,3.6575832
-35.846222,2.679967,3.6681528
-35.905052,2.6778107,3.680718
-35.968517,2.6733038,3.6908402
-36.03516,2.6673362,3.6995645
-36.105785,2.6595078,3.7064638
-36.175823,2.6523917,3.7144637
-36.240616,2.6485124,3.72639
-36.316406,2.6390152,3.7323217
-36.403343,2.6239834,3.7324438
-36.456837,2.6272018,3.753127
-36.52057,2.6252418,3.7683291
-36.575665,2.6280637,3.7890358
-36.635525,2.6286364,3.807519
-36.702614,2.625774,3.8225327
-36.78504,2.6154764,3.8298259
-36.851562,2.6135998,3.8465352
-36.943253,2.5995474,3.8505483
-36.99945,2.603464,3.8740716
-37.082558,2.5944867,3.8842273
-38.367542,2.0065804,3.2872567
-38.351353,2.0513232,3.3577414
-38.355114,2.0861232,3.4177213
-38.36664,2.1169703,3.4735508
-38.366028,2.1532059,3.534875
-38.3891,2.1782055,3.5846567
-38.401733,2.2078304,3.6391635
-38.392017,2.2473252,3.7035747
-38.37831,2.288202,3.7692146
-38.37331,2.3247955,3.83043
-38.378815,2.3564286,3.8866377
-38.38897,2.385785,3.9405627
-38.397827,2.4154882,3.9947948
-38.40796,2.4444284,4.0482597
-38.41938,2.472618,4.10098
-38.535175,2.4569154,4.1120276
-38.716404,2.4147081,4.0987625
-38.852108,2.3923454,4.1050944
-38.994293,2.3681183,4.110479
-39.153534,2.337832,4.1111236
-39.359005,2.2900193,4.096759
-39.49991,2.26903,4.1078362
-39.690704,2.2292678,4.1029696
-39.895424,2.1852465,4.095498
-40.04026,2.165484,4.110562
-40.297005,2.1038907,4.090189
-40.54481,2.0472603,4.075716
-40.766502,2.001895,4.0724025
-41.04827,1.9356108,4.0529113
-41.278633,1.8898871,4.0523605
-41.489723,1.8525009,4.0601587
-41.783905,1.7864461,4.0460286
-42.053528,1.7308962,4.0422964
-42.37498,1.6586549,4.0271316
-42.680954,1.5937352,4.0198827
-42.961212,1.5394983,4.0229764
-43.35884,1.446696,3.9985976
-43.7052,1.3736475,3.9918504
-44.058037,1.3004444,3.9874196
-44.41272,1.2286689,3.9865265
-44.86376,1.1272306,3.966854
-45.272408,1.0422516,3.96209
-45.754684,0.93588114,3.9454288
-46.22985,0.83458924,3.9357991
-46.73332,0.7270937,3.925539
-47.30172,0.6021826,3.9075818
-47.824654,0.49463773,3.9051733
-12.683323,0.79362226,4.1516457
-13.001604,0.8344834,4.110081
-13.412533,0.90504766,4.0905323
-13.948383,1.0160663,4.101322
-14.437945,1.115875,4.1083593
-14.787975,1.1749642,4.090475
-15.074813,1.216075,4.062297
-15.443066,1.2846589,4.056008
-16.536018,1.4991362,4.059057
-16.920898,1.5816524,4.073557
-17.202492,1.6318498,4.0655074
-17.474228,1.6803095,4.057973
-17.835083,1.7607591,4.07784
-18.191158,1.8417237,4.1005344
-18.42666,1.8828241,4.0928855
-18.62793,1.9132181,4.077864
-18.889536,1.9661679,4.0830617
-19.146751,2.0190873,4.0899057
-19.269642,2.024856,4.0578856
-19.522926,2.078933,4.068524
-19.665012,2.0934448,4.0460415
-19.915157,2.1490188,4.060781
-20.093058,2.178903,4.0540757
-20.316761,2.2272305,4.065093
-20.5122,2.266068,4.068806
-20.730907,2.3150983,4.0830607
-20.822708,2.3157942,4.053742
-20.961077,2.3353121,4.042542
-21.163107,2.3810081,4.056845
-21.291862,2.3984427,4.0454082
-21.361082,2.39237,4.0121183
-21.584045,2.449697,4.040508
-21.748077,2.484055,4.047782
-21.820103,2.4809122,4.0191326
-22.005608,2.5260172,4.0385756
-22.099545,2.533264,4.02132
-22.21979,2.5523183,4.016393
-22.395824,2.5963278,4.037315
-22.466846,2.5954099,4.013489
-22.637493,2.6389413,4.035515
-22.724922,2.6463928,4.0212727
-22.854097,2.6731489,4.027478
-22.938526,2.6803212,4.013915
-23.05856,2.704317,4.018417
-23.155773,2.7184644,4.0131264
-23.279114,2.7454267,4.0219193
-23.365784,2.755827,4.013642
-23.474335,2.7771664,4.0175233
-23.542522,2.7797165,4.0016446
-23.68451,2.8185358,4.0254426
-23.74735,2.819449,4.0085835
-23.855215,2.842995,4.01682
-23.918535,2.8449304,4.0017495
-24.020082,2.866502,4.008703
-24.126764,2.8913655,4.019796
-24.170477,2.8844864,3.9958897
-24.273315,2.908503,4.00686
-24.33571,2.911971,3.995112
-24.416718,2.925624,3.995171
-24.546343,2.9658246,4.025818
-24.576303,2.9531302,3.996581
-24.681793,2.981669,4.0147867
-24.745407,2.9878998,4.007745
-24.792871,2.985489,3.9909565
-24.865328,2.9973016,3.9908807
-24.9541,3.0188272,4.0024433
-25.015442,3.0252726,3.9967225
-25.06916,3.027648,3.9864597
-25.120562,3.02893,3.9751103
-25.228703,3.06393,4.0039005
-25.300928,3.0784278,4.0087886
-25.36262,3.0870795,4.006995
-25.401606,3.082308,3.9893713
-25.460115,3.089626,3.9863997
-25.506243,3.0896156,3.9748168
-25.590132,3.113441,3.9922223
-25.635939,3.1138632,3.9815784
-25.694382,3.1225564,3.9811592
-25.752611,3.1314812,3.9812424
-25.814108,3.1429048,3.984604
-25.853882,3.1404526,3.971152
-25.930119,3.1623769,3.9878607
-25.997002,3.1786551,3.9978936
-26.059456,3.1924424,4.0050955
-26.101355,3.192605,3.9956
-26.120405,3.1771264,3.9667497
-26.085752,3.1239276,3.8907948
-26.172485,3.1556172,3.9209702
-26.090338,3.0674996,3.8009887
-26.05552,3.0118723,3.7214823
-26.05866,2.9829466,3.6754646
-26.062956,2.9544394,3.6299257
-26.064556,2.9235003,3.581255
-26.052116,2.881507,3.5184636
-26.06122,2.855195,3.4755435
-26.076408,2.8331823,3.4380913
-26.061577,2.7875228,3.37035
-26.042038,2.7373528,3.296681
-26.033815,2.695262,3.2332501
-26.056068,2.6769278,3.2003489
-26.076824,2.6571598,3.1656237
-26.072256,2.6163282,3.1036386
-26.071987,2.5783424,3.0452557
-26.05656,2.5269475,2.9693594
-26.072369,2.501128,2.926651
-26.059765,2.4504802,2.8515182
-26.079018,2.4265695,2.811235
-26.072018,2.3791974,2.7402072
-26.036083,2.305156,2.634048
-26.038921,2.2644928,2.5715733
-26.074562,2.2529683,2.5474415
-26.074236,2.2081933,2.4794765
-26.0742,2.1628172,2.4106355
-26.055124,2.0985525,2.3166819
-26.083069,2.0778933,2.2804523
-26.064957,2.012341,2.184565
-26.082571,1.9803901,2.1332717
-26.097149,1.9448352,2.0771623
-26.068348,1.8649931,1.9618506
-26.06086,1.8050234,1.8729296
-26.071075,1.7619812,1.8065796
-26.09997,1.7375529,1.7651739
-26.078209,1.6591034,1.6511707
-26.080814,1.6049256,1.5696678
-26.086378,1.5527399,1.4907718
-26.09674,1.5046592,1.4173517
-26.096733,1.4439242,1.3267708
-26.081623,1.3646662,1.2110128
-34.85067,0.8327558,0.5158601
-34.834652,0.9179261,0.6405821
-34.884964,0.9305506,0.6675267
-34.836727,1.0466006,0.8335128
-34.852158,1.0939188,0.9069929
-34.86923,1.1386061,0.97690916
-34.826324,1.2430184,1.1266537
-34.7747,1.353765,1.2845664
-34.821312,1.3651962,1.3097792
-34.77479,1.4672348,1.4556618
-34.824947,1.4740787,1.474783
-34.772224,1.5786965,1.6236882
-34.81585,1.5906312,1.6495643
-34.800934,1.6567895,1.7471948
-34.785866,1.7217491,1.8430834
-34.813457,1.7467911,1.8862467
-34.872,1.7437859,1.8925753
-34.861687,1.8019748,1.9793496
-34.938118,1.7832258,1.9652433
-34.979313,1.7955835,1.9920368
-35.009884,1.8169677,2.030695
-35.0611,1.8672771,2.1179376
-35.058434,1.9602795,2.2604985
-34.856625,2.2502105,2.6669087
-34.850655,2.2952144,2.7353706
-34.816456,2.3612876,2.8306756
-34.873943,2.356042,2.8347158
-34.887955,2.3840153,2.881238
-34.955627,2.3714414,2.8762388
-34.910675,2.442757,2.9777722
-34.916748,2.475396,3.030129
-34.94893,2.4886322,3.057972
-34.951424,2.523106,3.1125937
-34.957935,2.5542262,3.162942
-34.977856,2.5754926,3.2009158
-34.99943,2.5953822,3.2371898
-34.995106,2.6329062,3.2954278
-35.016544,2.652322,3.3311028
-35.056076,2.6593509,3.3514795
-35.081116,2.6761215,3.383988
-35.108658,2.6911154,3.4143562
-35.145,2.7002614,3.4376116
-35.18332,2.708156,3.4594393
-35.224358,2.7143657,3.4793253
-35.2724,2.7162166,3.4940414
-35.321888,2.7173412,3.50804
-35.371407,2.7186427,3.5224214
-35.41951,2.7210085,3.5382547
-35.468346,2.7231019,3.553926
-35.51792,2.7249293,3.569448
-35.571907,2.7243068,3.5822277
-35.62964,2.7217042,3.5928545
-35.68376,2.7214937,3.606526
-35.743153,2.718458,3.6170707
-35.80115,2.7165124,3.6291218
-35.86149,2.7135038,3.640153
-35.918907,2.712436,3.653679
-35.977158,2.7111626,3.6671882
-36.04006,2.7075775,3.6782532
-36.10921,2.7008748,3.6859841
-36.170822,2.6986394,3.6991215
-36.237946,2.6937294,3.7094545
-36.31221,2.6853564,3.7161322
-36.402313,2.6690354,3.7141423
-36.473892,2.662961,3.724091
-36.536156,2.662084,3.7401733
-36.59372,2.6638925,3.7595062
-36.650505,2.6663275,3.7797713
-36.71289,2.6661615,3.7973928
-36.768093,2.6698463,3.8195128
-36.84991,2.6605928,3.8277068
-36.91572,2.6596146,3.8452811
-36.996243,2.6518035,3.8557472
-37.056507,2.6541386,3.8775082
-38.32556,2.0821195,3.284635
-38.348686,2.1078274,3.3352365
-38.363976,2.1370418,3.3895874
-38.381313,2.1650987,3.4427118
-38.387383,2.1981215,3.5010395
-38.385414,2.234508,3.5628057
-38.381203,2.271558,3.625153
-38.368828,2.3118806,3.6907444
-38.371056,2.3453474,3.7491775
-38.38382,2.373928,3.8025818
-38.395294,2.4028654,3.8563323
-38.398632,2.4350839,3.913342
-38.412643,2.4625092,3.9655275
-38.42624,2.4899325,4.0177073
-38.377205,2.5432553,4.095215
-38.520695,2.5165238,4.094628
-38.63245,2.5036063,4.1081514
-38.774105,2.479189,4.111298
-38.943302,2.4445548,4.1055665
-39.111305,2.4114175,4.1022234
-39.264862,2.3849614,4.106087
-39.429455,2.3550954,4.107695
-39.581223,2.3311315,4.115679
-39.76892,2.2942977,4.1128836
-39.991955,2.2452075,4.100212
-40.180874,2.2102544,4.101495
-40.42411,2.1562445,4.087149
-40.62051,2.1209192,4.090622
-40.930096,2.0455341,4.0607567
-41.16578,1.9986988,4.0572557
-41.42479,1.944918,4.0494
-41.622803,1.9142237,4.0624847
-41.93872,1.843365,4.0437183
-42.230988,1.7825973,4.0352716
-42.514946,1.7263975,4.0324473
-42.85104,1.6541317,4.018764
-43.15501,1.5946512,4.0173893
-43.525208,1.5148683,4.0023932
-43.880756,1.4420886,3.995304
-44.2104,1.3798218,3.9985914
-44.653103,1.2829006,3.978549
-45.087746,1.1911509,3.9654365
-45.555218,1.0915279,3.949811
-46.00992,0.99861693,3.942316
-46.46106,0.90941334,3.9407196
-47.01545,0.79108095,3.9226332
-47.656715,0.64954853,3.8932085
-48.16884,0.55055976,3.896513
-48.818787,0.4134431,3.879231
-11.5959,0.6354666,4.0051737
-12.669973,0.89015484,4.100929
-13.3100815,1.0237911,4.1235127
-13.652149,1.0726879,4.092842
-14.145813,1.1688814,4.097618
-14.537052,1.2368555,4.085943
-15.001363,1.3293867,4.0947905
-15.3646,1.3933187,4.0859485
-16.452988,1.5970008,4.0835395
-16.820137,1.6704512,4.0920224
-17.038517,1.6975887,4.0663633
-17.368952,1.7627528,4.072619
-17.738926,1.842978,4.093306
-18.029808,1.8988595,4.096419
-18.25585,1.9344445,4.0845194
-18.502367,1.9783041,4.081033
-18.771912,2.0315423,4.087113
-19.047024,2.0883098,4.0979457
-19.237057,2.1166964,4.085764
-19.453756,2.1556418,4.084049
-19.629318,2.1810367,4.071594
-19.814362,2.2108507,4.064166
-19.976536,2.2333217,4.0511703
-20.244658,2.295956,4.0759635
-20.398653,2.3175483,4.0643787
-20.626902,2.3680587,4.080696
-20.75869,2.3831656,4.064989
-20.954666,2.4237154,4.0742097
-21.054907,2.4282074,4.0499845
-21.162945,2.4362454,4.0297203
-21.357418,2.4791222,4.0439844
-21.494492,2.5002217,4.037957
-21.592949,2.5064864,4.01799
-21.796951,2.5563421,4.0420012
-21.92585,2.5765595,4.0373745
-22.013077,2.5801747,4.0166326
-22.189384,2.6216464,4.0348935
-22.28293,2.6291437,4.019255
-22.442726,2.6655025,4.0338855
-22.605265,2.7040787,4.0516663
-22.663134,2.698014,4.0236053
-22.806969,2.7300498,4.0359044
-22.88141,2.7321286,4.0172157
-23.029331,2.7675738,4.0344224
-23.099161,2.7685757,4.0154705
-23.212887,2.7900012,4.018847
-23.276625,2.7890182,3.9984903
-23.421797,2.8263223,4.020142
-23.509726,2.8376503,4.014051
-23.597406,2.8493593,4.0087876
-23.69215,2.8649623,4.008238
-23.791426,2.8833373,4.0112143
-23.901611,2.9076762,4.0213227
-23.95274,2.903554,3.9999585
-24.052626,2.9239478,4.006483
-24.13937,2.9383721,4.006692
-24.205221,2.9426987,3.9957771
-24.314293,2.9695609,4.0109415
-24.371838,2.970467,3.9967518
-24.47148,2.9936786,4.008558
-24.547337,3.0050063,4.007023
-24.604374,3.0067449,3.9946392
-24.713665,3.0369184,4.0157404
-24.751896,3.0292346,3.9928675
-24.817648,3.036756,3.98805
-24.916573,3.063058,4.0057287
-24.9697,3.0644374,3.9942229
-25.033257,3.0719662,3.99025
-25.088413,3.0750604,3.9812188
-25.190983,3.1057909,4.005599
-25.284805,3.1322448,4.025263
-25.334743,3.1336079,4.0149646
-25.36342,3.12257,3.9897895
-25.416952,3.1264362,3.9828463
-25.48553,3.1397045,3.9875898
-25.551655,3.1519365,3.9913304
-25.60107,3.1542838,3.9831653
-25.653942,3.1590338,3.978138
-25.711613,3.1671035,3.9774091
-25.771185,3.1767416,3.9788399
-25.816578,3.1776412,3.9696064
-25.884771,3.1935759,3.979303
-25.971893,3.2224588,4.005476
-25.976292,3.1972225,3.9640145
-26.019205,3.1974728,3.9546156
-26.102598,3.2253335,3.9802296
-26.09748,3.1933756,3.930407
-26.1156,3.177002,3.90029
-26.145248,3.1685195,3.8802428
-26.053974,3.0746536,3.7512813
-26.056587,3.0459824,3.7052717
-26.05906,3.016785,3.658535
-26.069134,2.992693,3.618311
-26.07515,2.9652812,3.5737886
-26.04355,2.909458,3.4925184
-26.064684,2.8923016,3.4611192
-26.07296,2.8651798,3.416812
-26.04756,2.811754,3.3382535
-26.035484,2.7677047,3.2717414
-26.027283,2.7259185,3.2080655
-26.049587,2.7076468,3.1750765
-26.078823,2.694731,3.1491442
-26.095118,2.6712034,3.1093144
-26.06561,2.6096892,3.0194335
-26.06783,2.5733447,2.9625845
-26.079458,2.5442765,2.9153
-26.054045,2.4832337,2.825611
-26.071623,2.4579625,2.7832456
-26.061815,2.4084644,2.7086473
-26.027037,2.336015,2.6033401
-26.03049,2.2961226,2.541284
-26.059582,2.2786005,2.5090923
-26.086773,2.2591329,2.4743385
-26.079538,2.2076077,2.3965878
-26.066826,2.149915,2.3104353
-26.070143,2.1061833,2.2429557
-26.08062,2.0684392,2.183488
-26.066704,2.0063105,2.0910306
-26.085567,1.9750233,2.0401764
-26.095266,1.934046,1.9761825
-26.07986,1.8669524,1.876689
-26.070782,1.8047988,1.7837644
-26.10316,1.7840981,1.7471652
-26.077873,1.7026963,1.6278324
-26.082403,1.650995,1.548871
-26.086,1.5971367,1.4668908
-26.08921,1.5416291,1.3825774
-26.12032,1.5156567,1.3386893
-26.114206,1.4475231,1.2369409
-34.830368,0.8412144,0.4198165
-34.830376,0.90976095,0.5232887
-34.83923,0.9673207,0.61164
-34.833763,1.0387092,0.71878767
-34.83384,1.1027398,0.81578207
-34.844685,1.1543305,0.8957472
-34.859604,1.2007339,0.96860456
-34.816483,1.3042378,1.1188769
-34.807426,1.3717666,1.2201424
-34.810093,1.4264352,1.3038812
-34.78911,1.5027676,1.4167786
-34.811253,1.5364592,1.4720154
-34.7958,1.6048923,1.5740008
-34.809334,1.6450088,1.6377845
-34.82322,1.6840801,1.7001314
-34.792847,1.7625594,1.8151984
-34.81102,1.7959561,1.8697977
-34.862255,1.7995472,1.884625
-34.87442,1.8374531,1.9452734
-34.92016,1.8456986,1.966464
-34.954273,1.8639152,2.0009904
-34.990417,1.880239,2.0330687
-35.00931,1.9108284,2.0840669
-35.039474,1.9316568,2.1221852
-35.05795,2.0064178,2.242031
-35.064964,2.0446806,2.3030386
-34.87261,2.3207302,2.695702
-34.857822,2.3715253,2.772284
-34.86976,2.4012468,2.8213997
-34.8856,2.4276252,2.866166
-34.913105,2.445029,2.899345
-34.896008,2.4949288,2.9743996
-34.92199,2.5127916,3.0081577
-34.935955,2.5391033,3.052781
-34.94816,2.5663311,3.0985603
-34.963852,2.5907545,3.140746
-34.98512,2.6110175,3.1776385
-34.978607,2.650169,3.238502
-35.01654,2.6584935,3.2602782
-35.038776,2.677433,3.2955437
-35.06548,2.693221,3.3268757
-35.090565,2.7099714,3.3594651
-35.12092,2.723159,3.3876438
-35.16081,2.7301292,3.4081407
-35.20272,2.7358816,3.42724
-35.24599,2.740878,3.4455295
-35.298428,2.740245,3.456997
-35.34523,2.7433417,3.4732375
-35.396328,2.7439573,3.4865851
-35.443863,2.7469513,3.503018
-35.492126,2.7496755,3.519278
-35.53966,2.7530046,3.5364375
-35.593052,2.7530367,3.5497613
-35.65313,2.7493858,3.5588293
-35.71481,2.7451093,3.5673666
-35.76247,2.7491922,3.5861602
-35.82209,2.746637,3.597188
-35.877293,2.7468529,3.6117396
-35.933304,2.7468555,3.6262412
-35.99545,2.7437127,3.6372385
-36.05771,2.7408142,3.648765
-36.12391,2.7360816,3.6583858
-36.18639,2.7336829,3.6709957
-36.244316,2.7340002,3.6870093
-36.313194,2.728804,3.696868
-36.378304,2.7259264,3.7096825
-36.479706,2.704647,3.7016506
-36.54518,2.702383,3.715796
-36.61472,2.6983728,3.7282252
-36.68039,2.6966436,3.7435284
-36.74774,2.6943817,3.7585068
-36.806335,2.6967425,3.7789512
-36.85443,2.7044437,3.8055897
-36.910557,2.708406,3.8282628
-36.970734,2.7106369,3.8492532
-37.04892,2.7045875,3.861405
-37.127254,2.6988678,3.874269
-38.358868,2.1581984,3.3063293
-38.375,2.1869512,3.360386
-38.380714,2.2202463,3.4193206
-38.38424,2.2542393,3.478941
-38.35457,2.3027675,3.5539217
-38.353554,2.3380353,3.6146483
-38.36803,2.3661864,3.6678147
-38.385468,2.392862,3.7194386
-38.3991,2.4210117,3.772603
-38.405487,2.4520624,3.8287425
-38.396835,2.4892116,3.8910632
-38.38074,2.5291133,3.956038
-38.36403,2.5688584,4.0206738
-38.360542,2.60277,4.0792885
-38.419037,2.6112175,4.112516
-38.565372,2.5845268,4.111392
-38.723526,2.5539968,4.107327
-38.85853,2.5335438,4.1139293
-38.987724,2.5161195,4.124197
-39.168373,2.4795012,4.1168756
-39.36465,2.4379814,4.1059656
-39.53587,2.4071624,4.106246
-39.72449,2.3708014,4.1023803
-39.91369,2.3353395,4.100463
-40.077496,2.3103426,4.109225
-40.343098,2.2491145,4.086235
-40.568245,2.2041373,4.0794287
-40.796776,2.159278,4.074119
-41.069412,2.1001377,4.057727
-41.283966,2.0630078,4.062135
-41.51998,2.0196435,4.0625525
-41.79492,1.9642522,4.05429
-42.062428,1.9130018,4.0512767
-42.395714,1.8411264,4.0329547
-42.673985,1.7895846,4.033452
-43.002678,1.7229776,4.0236535
-43.404255,1.6344507,3.9986358
-43.68866,1.5862298,4.007991
-44.0738,1.5073216,3.9955444
-44.445118,1.4350297,3.990816
-44.851814,1.3537581,3.9819436
-45.30992,1.2588503,3.9658723
-45.75802,1.1696682,3.9572458
-46.246563,1.0707405,3.9448838
-46.72694,0.9770701,3.9397812
-47.27426,0.8661761,3.9263282
-47.91806,0.7299619,3.8998098
-48.517227,0.61046624,3.889245
-49.08752,0.50270104,3.8908596
-11.402349,0.698364,3.9164872
-12.831551,1.0468488,4.083123
-13.433323,1.166153,4.100793
-13.924337,1.2567332,4.102468
-14.348399,1.3304365,4.095484
-14.810012,1.4176524,4.101437
-15.18059,1.4802027,4.092216
-15.571855,1.5510919,4.091898
-15.950057,1.6201999,4.092904
-16.246359,1.666116,4.0783415
-17.502556,1.8891884,4.072016
-17.735455,1.9230016,4.0571475
-18.07069,1.991788,4.0734177
-18.406742,2.06283,4.0937805
-18.576368,2.0799618,4.0694776
-18.806793,2.1186142,4.065101
-19.051163,2.1633623,4.067557
-19.257673,2.1964178,4.0610213
-19.473606,2.2339392,4.0597787
-19.661888,2.262937,4.0520263
-19.918053,2.3172204,4.0687714
-20.101597,2.3468852,4.0640616
-20.307903,2.385884,4.069214
-20.526052,2.4304595,4.0808725
-20.662548,2.4460406,4.0659757
-20.7766,2.45394,4.0443993
-20.965622,2.4908023,4.0517035
-21.124052,2.5171065,4.049681
-21.238976,2.5275307,4.03278
-21.37208,2.545644,4.024172
-21.568571,2.589461,4.0421658
-21.67816,2.5999646,4.0274315
-21.7858,2.610263,4.013052
-21.987436,2.6592388,4.039039
-22.07106,2.6612196,4.017398
-22.198383,2.681656,4.015422
-22.344994,2.7108874,4.023338
-22.439064,2.7188861,4.0095587
-22.622131,2.7652478,4.037059
-22.702806,2.7688453,4.019721
-22.835648,2.795465,4.027561
-22.918419,2.8009877,4.0132003
-23.047905,2.827591,4.0222015
-23.131865,2.8346872,4.010455
-23.265469,2.8646083,4.0242558
-23.315792,2.8574932,3.9976573
-23.460096,2.8937316,4.0195675
-23.511,2.887616,3.9947371
-23.65347,2.9245718,4.0186033
-23.702473,2.9183054,3.9942427
-23.808249,2.939313,4.001087
-23.907143,2.9576814,4.0054016
-23.97352,2.9608407,3.9927
-24.103767,2.9957306,4.0168753
-24.150522,2.99011,3.9947124
-24.248055,3.0100894,4.0025196
-24.33649,3.0261073,4.0061264
-24.404156,3.032074,3.9983141
-24.506056,3.056069,4.012035
-24.56856,3.0602477,4.002741
-24.62706,3.062642,3.9915726
-24.730148,3.0890124,4.009246
-24.77596,3.0854023,3.991444
-24.830173,3.0865061,3.9794726
-24.923784,3.1094143,3.9940279
-24.989723,3.1177135,3.9912739
-25.037422,3.1162233,3.9768705
-25.124704,3.137227,3.9900901
-25.226404,3.1670702,4.014496
-25.269814,3.1642244,3.999148
-25.341902,3.1781788,4.0046644
-25.380032,3.172716,3.9864357
-25.440754,3.180728,3.985054
-25.4897,3.1820655,3.9755843
-25.55726,3.1948771,3.980619
-25.613802,3.2014256,3.9780583
-25.677269,3.212576,3.9814858
-25.731283,3.2182665,3.978263
-25.783028,3.2228427,3.9738197
-25.840218,3.2311633,3.9743037
-25.926327,3.258406,3.9990566
-25.984972,3.2685924,4.002388
-26.03583,3.2740762,3.9999137
-26.085167,3.278853,3.996704
-26.111366,3.2684407,3.9741285
-26.092701,3.2276816,3.9124894
-26.097475,3.2022524,3.8705218
-26.13054,3.1959891,3.853351
-26.05239,3.112243,3.7356167
-26.043194,3.0754855,3.6786642
-26.049606,3.0492456,3.6353374
-26.057774,3.0238938,3.5931392
-26.058704,2.9929218,3.5435429
-26.057014,2.9595435,3.4907255
-26.070446,2.9368694,3.4519377
-26.05922,2.8953624,3.388278
-26.041302,2.8480544,3.3168292
-26.026121,2.8019989,3.2468982
-26.03201,2.7714744,3.197475
-26.048172,2.7485316,3.1581054
-26.064133,2.7251117,3.1181002
-26.078114,2.6997712,3.0755267
-26.105595,2.6850147,3.047123
-26.051546,2.6031618,2.9287052
-26.073765,2.5829804,2.892929
-26.076084,2.5458124,2.8342876
-26.055002,2.48809,2.74784
-26.050953,2.4438663,2.6794868
-26.020683,2.3759873,2.5789971
-26.034752,2.3457437,2.5293846
-26.052696,2.3184402,2.4837523
-26.064552,2.285197,2.4300299
-26.077568,2.2524164,2.376912
-26.068567,2.1987078,2.2951765
-26.065937,2.149847,2.2199612
-26.065302,2.1018753,2.1458764
-26.071867,2.059822,2.079835
-26.068867,2.0076413,1.999816
-26.058666,1.9472737,1.9084315
-26.070465,1.9074836,1.8453012
-26.092571,1.8772812,1.7953792
-26.105286,1.836921,1.7314124
-26.074465,1.7506611,1.6038404
-26.079453,1.6998911,1.5252833
-26.089275,1.6531329,1.4522333
-26.10286,1.6093924,1.3833318
-26.088549,1.5342252,1.2706313
-26.116718,1.5042505,1.2208042
-34.834274,0.89328074,0.38330555
-34.843403,0.95151186,0.47365093
-34.843163,1.0183461,0.5758648
-34.83377,1.0932059,0.6890955
-34.840252,1.1500776,0.77729034
-34.82511,1.2276595,0.8940282
-34.856003,1.2574525,0.9446597
-34.79896,1.3736138,1.1143208
-34.855244,1.3765569,1.1278849
-34.80414,1.4831278,1.2839351
-34.845165,1.499655,1.3161774
-34.804592,1.5927019,1.4532785
-34.85557,1.598743,1.4711647
-34.79544,1.7067676,1.6283717
-34.823402,1.7326317,1.6732783
-34.791313,1.8118744,1.790823
-34.809467,1.8450344,1.8455629
-34.82814,1.877197,1.8989382
-34.896667,1.8657691,1.8933125
-34.915756,1.8970599,1.9455948
-34.95331,1.9122796,1.9762001
-35.00717,1.9599109,2.0607204
-35.021362,1.9936621,2.1163406
-35.046867,2.017768,2.1590304
-35.06475,2.047652,2.2094598
-34.868908,2.4061217,2.7377014
-34.86267,2.4492912,2.804965
-34.89431,2.4637868,2.8343997
-34.911034,2.4890826,2.8780718
-34.966553,2.4860249,2.8846107
-34.92634,2.5517023,2.981124
-34.94555,2.5741708,3.021062
-34.963066,2.5975711,3.0622215
-34.975555,2.624182,3.1075487
-34.98892,2.6498587,3.1516485
-35.016582,2.6655176,3.182807
-35.041306,2.6830473,3.2164254
-35.067783,2.6992674,3.2484016
-35.096737,2.713744,3.2781925
-35.1296,2.725601,3.3046994
-35.164364,2.736209,3.3296938
-35.208733,2.7406974,3.3470073
-35.251675,2.7462182,3.3657598
-35.30655,2.7443922,3.3753672
-35.353012,2.7480326,3.3920388
-35.398033,2.7527063,3.410152
-35.455936,2.7497022,3.4188008
-35.505302,2.7521148,3.4344063
-35.552498,2.755997,3.4519997
-35.60625,2.7561781,3.4651613
-35.661522,2.755702,3.4776955
-35.7117,2.758412,3.4943447
-35.75743,2.7638445,3.5145025
-35.821766,2.758889,3.5221124
-35.87575,2.7600653,3.5374317
-35.932037,2.7601888,3.5516639
-35.991405,2.7588599,3.5643444
-36.052383,2.756932,3.5765238
-36.11192,2.7560658,3.5902066
-36.16999,2.7562487,3.6053667
-36.235073,2.7529805,3.6166363
-36.297165,2.751596,3.6303926
-36.360897,2.7496471,3.643722
-36.429424,2.7455363,3.6547613
-36.491783,2.7449048,3.6701498
-36.553417,2.7449164,3.686535
-36.629414,2.7380402,3.6951666
-36.6976,2.7354205,3.7090383
-36.765095,2.733468,3.7239585
-36.825424,2.7352984,3.7434874
-36.8971,2.731934,3.7573414
-36.960762,2.7327218,3.7762074
-37.003258,2.7437387,3.8068762
-37.057896,2.7491765,3.8314357
-37.11331,2.754443,3.8560214
-37.176117,2.756525,3.8772936
-38.372284,2.245931,3.3324423
-38.375477,2.28016,3.3926916
-38.358917,2.3228538,3.4621172
-38.35593,2.3591104,3.5243683
-38.37342,2.3861043,3.5765123
-38.39304,2.4120142,3.6275024
-38.39615,2.4448297,3.6858826
-38.414078,2.4711008,3.737258
-38.3906,2.514567,3.8067608
-38.37587,2.5539231,3.8717413
-38.38031,2.5849972,3.9279432
-38.376507,2.6191819,3.987297
-38.36611,2.6557171,4.048957
-38.370796,2.685884,4.1039896
-38.505795,2.6643138,4.1066985
-38.62281,2.6505582,4.1179724
-38.766407,2.6271324,4.120249
-38.957054,2.5864694,4.106301
-39.084824,2.57088,4.117987
-39.261574,2.5375457,4.1131454
-39.47352,2.4921403,4.0976934
