x,y,z
-30.347235,2.608381,2.8949094
-30.377953,2.6564214,2.9604
-30.409058,2.6873193,3.0027394
-30.442022,2.690401,3.0074878
-30.47528,2.6900077,3.0076022
-30.508553,2.6897001,3.0079017
-30.541054,2.6960003,3.017211
-30.572973,2.7059379,3.0315075
-30.606518,2.7029202,3.0283475
-30.640127,2.6999896,3.0253773
-30.67371,2.6977394,3.0233984
-30.706839,2.6985357,3.025609
-30.739853,2.7000089,3.0288033
-30.773521,2.6980195,3.0273905
-30.806644,2.6990738,3.0301585
-30.843367,2.683084,3.0099916
-30.87259,2.7026184,3.0378437
-30.906887,2.6986172,3.0340037
-30.940561,2.697657,3.034338
-30.974268,2.6967847,3.0348635
-31.008156,2.6954122,3.0347872
-31.042242,2.6935406,3.0341134
-31.076212,2.6923478,3.0344272
-31.109875,2.69242,3.0365171
-31.143904,2.6914062,3.0372195
-31.177784,2.6910691,3.0389056
-31.211872,2.6902359,3.039999
-31.246384,2.6883214,3.0397148
-31.280949,2.6864998,3.0396323
-31.315979,2.6836016,3.0381823
-31.350657,2.6819673,3.038506
-31.385603,2.6798427,3.03825
-31.419931,2.6795626,3.040543
-31.454744,2.6782093,3.0414753
-31.488892,2.6786952,3.0449467
-31.523048,2.6792727,3.048614
-31.558203,2.6776183,3.0493774
-31.594173,2.67432,3.0480275
-31.628927,2.6740186,3.050758
-31.66477,2.6714976,3.0506082
-31.70041,2.6696537,3.0514436
-31.735556,2.6690624,3.0540295
-31.782621,2.6443558,3.02463
-31.858215,2.5639603,2.9213743
-31.915403,2.5229692,2.8706856
-31.95211,2.5229566,2.874525
-31.990372,2.5201771,2.874782
-32.030582,2.51407,2.8707256
-32.06967,2.5103693,2.8699522
-32.10724,2.5096366,2.873197
-32.14682,2.5055878,2.8721523
-32.186844,2.5010846,2.8706064
-32.22528,2.4995418,2.8730617
-32.263084,2.4992433,2.8772473
-32.301273,2.4984837,2.8809185
-32.338787,2.4989643,2.886311
-32.379948,2.4939013,2.8845172
-32.417923,2.4940367,2.8896446
-32.45443,2.4965305,2.897953
-32.495464,2.492381,2.897656
-32.53084,2.4967694,2.9086213
-32.56109,2.508532,2.9292908
-32.596676,2.512536,2.9399047
-32.62941,2.520541,2.9558105
-32.671772,2.5152602,2.9545121
-32.715096,2.5089989,2.952054
-32.77235,2.484564,2.9261432
-32.8187,2.4752877,2.9200492
-32.857975,2.4755578,2.926436
-33.594383,1.5896068,1.7881222
-33.586143,1.6623623,1.8897982
-33.524075,1.7997801,2.0746331
-33.555645,1.8194664,2.1076488
-33.59188,1.8331926,2.13306
-33.903744,1.5200672,1.7393403
-33.954346,1.5210555,1.7492166
-33.978596,1.5526235,1.7983265
-34.015137,1.5695658,1.8287759
-33.30879,2.4207437,2.9226313
-33.357155,2.413253,2.9204087
-33.429325,2.3800778,2.8856993
-33.47582,2.3756576,2.8877163
-33.519924,2.3740666,2.8934503
-33.56562,2.3710098,2.8974571
-33.61859,2.3606331,2.8923607
-33.668697,2.3536325,2.8916826
-33.715836,2.349985,2.8953733
-33.76414,2.345431,2.8980684
-33.811504,2.3420932,2.902433
-33.860588,2.3373308,2.9051576
-33.911434,2.331156,2.9062705
-33.960793,2.3267255,2.9097166
-34.008617,2.324027,2.9154668
-34.076622,2.3027327,2.8982992
-34.12087,2.304037,2.9093442
-34.169674,2.3013356,2.9155717
-26.908373,2.3346596,2.7437625
-26.963392,2.348435,2.7543812
-27.021847,2.3667157,2.7710118
-27.081757,2.387367,2.790904
-27.144424,2.4120262,2.8162003
-27.197514,2.42606,2.827849
-27.252075,2.4424524,2.842733
-27.301416,2.453039,2.8501925
-27.341778,2.4528642,2.8437104
-27.389004,2.4615657,2.8489618
-27.434742,2.4687748,2.8523855
-27.488287,2.4865716,2.869845
-27.527754,2.486383,2.8638024
-27.568415,2.4879637,2.8601875
-27.618706,2.5029302,2.8743277
-27.665077,2.5130825,2.8822541
-27.713177,2.5261579,2.8941717
-27.74781,2.5204954,2.881425
-27.789778,2.5255015,2.8828902
-27.82898,2.5267308,2.8794518
-27.869978,2.5308669,2.8799682
-27.906479,2.5284097,2.8718238
-27.96889,2.5664136,2.9176025
-27.971035,2.5103176,2.8382306
-28.008764,2.5098238,2.8329349
-28.048187,2.5122514,2.831626
-28.087193,2.514229,2.8298097
-28.1258,2.5157528,2.827479
-28.164019,2.5168195,2.8246288
-28.20507,2.5230947,2.8288436
-28.243767,2.5255184,2.8279953
-28.283003,2.5291886,2.8289118
-28.322138,2.5329716,2.830071
-28.360577,2.5357273,2.8299422
-28.398352,2.5374496,2.8285122
-28.43635,2.5398493,2.8280807
-28.473995,2.5417824,2.8271093
-28.512949,2.546685,2.8302255
-28.550974,2.549978,2.831262
-28.588646,2.552803,2.8317542
-28.625723,2.5545838,2.8309197
-28.663998,2.5593436,2.834197
-28.701908,2.5636349,2.8369293
-28.73875,2.5657258,2.8367672
-28.773897,2.5638752,2.831346
-28.810425,2.5655847,2.8308272
-28.847565,2.569129,2.832878
-28.885044,2.5739338,2.8367233
-28.920937,2.5747848,2.8352823
-28.957201,2.5768921,2.8356261
-28.994,2.5808396,2.8385506
-29.02993,2.5825632,2.8385305
-29.065622,2.5838003,2.8379269
-29.10073,2.5833864,2.8351521
-29.136356,2.5848126,2.8349576
-29.172274,2.5874996,2.8365579
-29.20861,2.592033,2.840754
-29.244213,2.594329,2.8419757
-29.279753,2.5967195,2.8434033
-29.315666,2.6009593,2.8474302
-29.350784,2.602369,2.8476706
-29.385862,2.6038718,2.8481116
-29.420515,2.6037092,2.8463511
-29.45528,2.6042228,2.8455868
-29.489796,2.6036541,2.8434148
-29.524746,2.6055217,2.8446465
-29.559134,2.6045454,2.842061
-29.593336,2.6024842,2.8380604
-29.627846,2.6022727,2.8366628
-29.662777,2.6050882,2.8394818
-29.697247,2.605056,2.8384728
-29.731857,2.6062887,2.8392673
-29.766434,2.607611,2.8402572
-29.801039,2.6096115,2.8422465
-29.83543,2.609936,2.8420105
-29.869713,2.6091716,2.8403535
-29.904047,2.609084,2.839694
-29.938492,2.6108515,2.841649
-29.972834,2.61153,2.8421807
-30.007183,2.6128862,2.8437128
-30.041483,2.6137412,2.8446279
-30.075735,2.6135063,2.8441186
-30.109983,2.6127708,2.8429923
-30.144247,2.6133008,2.8436728
-30.178486,2.615687,2.8469687
-30.212719,2.6158042,2.8472219
-30.247066,2.6118853,2.842012
-30.281357,2.61159,2.8418403
-30.315628,2.6119716,2.8426676
-30.348356,2.6383545,2.8792129
-30.37916,2.6848373,2.943376
-30.413563,2.674283,2.9294133
-30.44586,2.6897187,2.9511428
-30.479376,2.6899333,2.9520779
-30.511723,2.700824,2.9677095
-30.544064,2.7100298,2.9810972
-30.576683,2.7157888,2.9898262
-30.60853,2.7263315,3.0051737
-30.64221,2.72344,3.00219
-30.673584,2.7353182,3.0194936
-30.70795,2.7284877,3.0112567
-30.741074,2.7293768,3.0136547
-30.77464,2.7280064,3.01303
-30.80836,2.7261372,3.011794
-30.841627,2.7266996,3.0139532
-30.874893,2.7273486,3.0162983
-30.908838,2.7251573,3.0148344
-30.942411,2.7248101,3.0159602
-30.975853,2.725136,3.0180745
-31.009918,2.7232118,3.017189
-31.04371,2.722546,3.0180926
-31.077198,2.7231352,3.0207791
-31.110687,2.723812,3.0236545
-31.145243,2.7210822,3.0219612
-31.179686,2.7190268,3.0212612
-31.213423,2.7193902,3.0239258
-31.24795,2.717518,3.0236225
-31.283138,2.7139978,3.0211549
-31.317787,2.712313,3.0212584
-31.35206,2.71188,3.023137
-31.386799,2.710382,3.0236435
-31.421583,2.7089767,3.0243535
-31.456644,2.7070885,3.0244842
-31.49129,2.7064495,3.0263858
-31.52572,2.7064803,3.0292692
-31.560917,2.7048762,3.0300164
-31.596165,2.7033682,3.030973
-31.631723,2.7013826,3.031363
-31.667873,2.6983473,3.030415
-31.703018,2.6977055,3.0327797
-31.738197,2.69716,3.0353522
-31.78503,2.6732721,3.0065646
-31.863022,2.5890229,2.8966684
-31.915594,2.5575476,2.8580027
-31.951385,2.5592818,2.86411
-31.988699,2.558269,2.866609
-32.027927,2.553953,2.8647623
-32.06759,2.5491834,2.8624034
-32.10575,2.5473607,2.8640852
-32.144966,2.5439506,2.8637333
-32.18528,2.53896,2.8613634
-32.224014,2.5369072,2.8630161
-32.26213,2.5360904,2.8664107
-32.30099,2.5342581,2.8685412
-32.339203,2.53366,2.8724074
-32.377094,2.5337293,2.877253
-32.419804,2.5266373,2.8726754
-32.461185,2.52191,2.871345
-32.49814,2.5239935,2.879149
-32.531227,2.5317404,2.8945374
-32.57474,2.5245788,2.8902783
-32.617245,2.5192168,2.8885107
-32.669926,2.5001562,2.8687801
-32.69492,2.5193746,2.899651
-32.726997,2.528714,2.9175525
-32.786095,2.5023806,2.8886275
-32.82542,2.502612,2.894763
-32.860485,2.508436,2.908329
-32.89026,2.5209122,2.9306855
-32.926853,2.5247245,2.9417677
-32.966972,2.5242817,2.947381
-33.008934,2.5217853,2.9504185
-33.056454,2.5129118,2.9452643
-33.121704,2.48364,2.9137235
-33.160046,2.4864628,2.924069
-33.194126,2.494242,2.9409351
-34.003628,1.6284039,1.8270392
-33.298584,2.4693189,2.9225783
-33.341976,2.4672918,2.927104
-33.423378,2.424313,2.8789902
-33.471302,2.4183967,2.8788385
-33.517876,2.4142315,2.8810754
-33.565586,2.4091573,2.8822803
-33.61446,2.4031832,2.882473
-33.66401,2.396845,2.8823462
-33.710583,2.3938277,2.8866014
-33.758842,2.3893876,2.8891811
-33.808296,2.3840606,2.8907776
-33.856815,2.379943,2.8940563
-33.903828,2.377547,2.8996592
-33.953125,2.373228,2.9029727
-34.003654,2.3680396,2.9053383
-34.054882,2.3625064,2.9074254
-34.104008,2.3592067,2.912478
-34.153244,2.356071,2.9178858
-26.904709,2.3748212,2.7255287
-26.974466,2.4048843,2.7579966
-27.028566,2.4181266,2.7685342
-27.07494,2.4229941,2.7681832
-27.129887,2.4381995,2.7816129
-27.20897,2.4826212,2.8338542
-27.258904,2.4934225,2.841824
-27.316105,2.5135672,2.86233
-27.364998,2.5241807,2.870346
-27.400682,2.518693,2.8570867
-27.441982,2.520363,2.8534374
-27.490368,2.5314083,2.862391
-27.538494,2.542613,2.8716922
-27.575695,2.5397708,2.8623486
-27.621414,2.5485275,2.8686123
-27.66333,2.5524943,2.8685799
-27.702766,2.5532916,2.8644013
-27.75108,2.566864,2.877472
-27.780722,2.554125,2.8553047
-27.832073,2.5729413,2.8756542
-27.872986,2.57699,2.8762546
-27.907928,2.572291,2.8651576
-27.965986,2.6032224,2.9022346
-27.982965,2.5709555,2.8540835
-28.019756,2.5693307,2.8473802
-28.056206,2.5672486,2.840139
-28.09537,2.569736,2.839172
-28.13478,2.5728965,2.8392086
-28.173122,2.574489,2.8372087
-28.212042,2.577313,2.8369708
-28.252449,2.583059,2.840797
-28.292402,2.588362,2.8441148
-28.331915,2.593217,2.846918
-28.369219,2.594235,2.8445811
-28.407934,2.598183,2.8463264
-28.445683,2.6005433,2.8459916
-28.48392,2.6041431,2.847436
-28.521507,2.6067162,2.8475618
-28.55875,2.6088257,2.8471375
-28.594608,2.608194,2.8430424
-28.631227,2.6093674,2.8414965
-28.668552,2.6123517,2.8425145
-28.706041,2.6160095,2.8445396
-28.743193,2.619201,2.8460064
-28.78049,2.6230674,2.8484826
-28.817003,2.6253192,2.8488212
-28.852781,2.6259506,2.8470097
-28.888527,2.6266778,2.8454056
-28.925081,2.6297982,2.8471732
-28.960527,2.630144,2.8451967
-28.996544,2.6323106,2.8458052
-29.03269,2.63515,2.8474178
-29.06951,2.6403923,2.8524237
-29.104755,2.6411214,2.8512774
-29.139269,2.6396337,2.8471441
-29.174643,2.641125,2.8471966
-29.210295,2.6438665,2.849052
-29.245878,2.6467032,2.8511128
-29.28048,2.6461608,2.8485737
-29.315804,2.6486058,2.8502398
-29.351065,2.6511445,2.852109
-29.385994,2.652616,2.8525734
-29.421135,2.6553402,2.854845
-29.455479,2.6546729,2.852489
-29.490057,2.6552558,2.8519363
-29.525158,2.6588368,2.8556104
-29.559555,2.6590197,2.8546443
-29.59384,2.6587102,2.8530645
-29.628122,2.658489,2.851675
-29.662657,2.660104,2.8529053
-29.696909,2.66006,2.8519015
-29.731083,2.6595225,2.8502817
-29.765192,2.6584902,2.848043
-29.799255,2.6569614,2.8451834
-29.83351,2.6572707,2.844945
-29.86805,2.6611688,2.8497624
-29.902328,2.6628225,2.8515296
-29.936533,2.6639807,2.8526778
-29.970676,2.6646435,2.8532066
-30.00465,2.661891,2.8490558
-30.038774,2.6621451,2.8491526
-30.073,2.6671586,2.8559337
-30.107065,2.6681726,2.8572235
-30.141106,2.6669378,2.855455
-30.175173,2.665207,2.8530645
-30.209297,2.6623957,2.8492413
-30.243347,2.6643434,2.8521013
-30.277515,2.6622915,2.8494701
-30.311785,2.6591606,2.845408
-30.345703,2.663122,2.8512712
-30.377827,2.691682,2.8913846
-30.410114,2.7109835,2.9186935
-30.445705,2.6895268,2.8894377
-30.480095,2.6844978,2.8830771
-30.51388,2.6859732,2.8858209
-30.546574,2.6962779,2.9008937
-30.579523,2.7031672,2.9112878
-30.60786,2.741594,2.9655247
-30.646078,2.710206,2.922915
-30.679445,2.7126884,2.9273872
-30.712467,2.7170005,2.934466
-30.74562,2.7202337,2.9401126
-30.77928,2.720645,2.9419131
-30.812346,2.7240477,2.9479275
-30.845476,2.7269542,2.953321
-30.87437,2.7485144,2.9846187
-30.908575,2.7457788,2.9823222
-30.942991,2.7425542,2.9794202
-30.975996,2.7452142,2.9847326
-31.01035,2.7427487,2.9830222
-31.043642,2.7444236,2.9871087
-31.079576,2.7369368,2.978599
-31.110678,2.7462988,2.9934464
-31.144989,2.74477,2.993312
-31.178793,2.7450633,2.9957647
-31.212606,2.745445,2.9984093
-31.247015,2.7441883,2.9988651
-31.280859,2.7447493,3.0018992
-31.31637,2.7408018,2.9987936
-31.351978,2.7369528,2.9958997
-31.386805,2.735496,2.9963756
-31.420324,2.7375708,3.0017838
-31.45359,2.7403054,3.0081663
-31.488953,2.73798,3.007668
-31.523409,2.738036,3.0105166
-31.558878,2.735903,3.0104346
-31.592628,2.737856,3.0160327
-31.627924,2.7364829,3.0171442
-31.662735,2.7363434,3.0200224
-31.701107,2.728916,3.0130062
-31.732983,2.7352133,3.0248418
-31.775534,2.7200646,3.0074458
-31.848227,2.6467853,2.910811
-31.899704,2.617297,2.8741364
-31.937359,2.6150668,2.874754
-31.975391,2.6123796,2.8748345
-32.01413,2.6086755,2.8736186
-32.053604,2.603959,2.871117
-32.092552,2.6004813,2.870391
-32.13127,2.5976748,2.870668
-32.170074,2.5949805,2.8711872
-32.206913,2.595749,2.8764868
-32.24619,2.5927155,2.8767262
-32.2845,2.5914667,2.8794708
-32.329304,2.5803244,2.8689437
-32.367825,2.5793114,2.8721995
-32.406025,2.5789628,2.876442
-32.445015,2.5776165,2.8794298
-32.48634,2.5730722,2.878209
-32.52548,2.571958,2.8816996
-32.56545,2.5698571,2.8839607
-32.60788,2.5645812,2.882063
-32.650444,2.559435,2.8804479
-32.69111,2.5571551,2.8827739
-32.73103,2.556088,2.8868208
-32.773933,2.5513253,2.8860369
-32.818237,2.5450647,2.883367
-32.861416,2.5405722,2.8831677
-32.90385,2.5372968,2.8846984
-32.942867,2.5384736,2.892249
-32.98546,2.5354507,2.8943267
-33.027695,2.5330966,2.8974013
-33.074127,2.5260403,2.8943706
-33.11704,2.523421,2.8973231
-33.16658,2.5134513,2.8907018
-33.197,2.5255136,2.9132204
-33.234856,2.5291312,2.9246988
-33.294888,2.5084376,2.9043665
-33.352924,2.4906137,2.8879852
-33.400013,2.4851527,2.8879576
-33.44625,2.4808989,2.8896408
-33.49262,2.4767964,2.8916488
-33.53402,2.478088,2.9008102
-33.597015,2.457532,2.8816857
-33.639183,2.4586072,2.8908334
-33.688705,2.4525237,2.8908195
-33.73363,2.4512794,2.8972096
-33.78557,2.443447,2.8952208
-33.836624,2.4368262,2.8949509
-33.884586,2.4334698,2.899032
-33.928814,2.4338665,2.908072
-33.979733,2.4282565,2.9095387
-34.035835,2.4182239,2.9055066
-34.093872,2.4068642,2.8999596
-34.146484,2.4007926,2.9013352
-26.792625,2.3315725,2.6165795
-26.93123,2.4352858,2.7472858
-26.988394,2.4513679,2.761818
-27.050825,2.4740076,2.785265
-27.09883,2.4809523,2.7879434
-27.158585,2.5018861,2.8094592
-27.212885,2.5171711,2.8235903
-27.262354,2.5273025,2.830967
-27.319551,2.5472372,2.8516426
-27.370617,2.5604002,2.8633833
-27.41619,2.5672834,2.8668137
-27.454756,2.5656905,2.8589392
-27.501741,2.575007,2.8658767
-27.544342,2.5790663,2.8658357
-27.584768,2.5805457,2.8624125
-27.632822,2.5924642,2.8732233
-27.677002,2.5996437,2.8777375
-27.721394,2.6075072,2.8832936
-27.760927,2.6089573,2.880247
-27.796185,2.604503,2.8692632
-27.840176,2.61275,2.875651
-27.876902,2.6107018,2.8681154
-27.924986,2.6258075,2.8840675
-27.955063,2.6140718,2.8634858
-27.983925,2.6001968,2.8400326
-28.024563,2.604625,2.8416772
-28.061987,2.604191,2.8367567
-28.100063,2.6049695,2.8335824
-28.140085,2.6091886,2.8352141
-28.178684,2.6112995,2.834045
-28.218174,2.6151924,2.835411
-28.257236,2.618641,2.8362575
-28.294962,2.6199675,2.8342705
-28.332327,2.6208398,2.8317409
-28.37054,2.6234972,2.8317552
-28.409548,2.6279454,2.8343272
-28.446718,2.629135,2.8324857
-28.48524,2.633241,2.8347554
-28.523376,2.6368923,2.8364835
-28.559797,2.6372678,2.8337612
-28.597765,2.6411304,2.835947
-28.634085,2.6417084,2.8336625
-28.670618,2.6429503,2.832377
-28.708332,2.6471248,2.8352394
-28.746178,2.6519725,2.8391185
-28.782965,2.6546557,2.840073
-28.819216,2.6563022,2.839665
-28.855412,2.658048,2.83947
-28.891335,2.659321,2.838695
-28.92679,2.6595516,2.8365421
-28.962835,2.6615884,2.8369784
-28.999813,2.6665778,2.841607
-29.035124,2.6670957,2.8400793
-29.070969,2.6694245,2.8411484
-29.10711,2.6729944,2.844026
-29.142982,2.6760893,2.8463154
-29.17776,2.67584,2.8440056
-29.21269,2.676255,2.8426957
-29.24791,2.677911,2.8431911
-29.282627,2.6779356,2.8414764
-29.317474,2.6786258,2.8407636
-29.353409,2.6840127,2.846695
-29.388552,2.6866164,2.848804
-29.423372,2.6881607,2.8494992
-29.457905,2.6886435,2.8487782
-29.491953,2.6869085,2.8450165
-29.526573,2.688147,2.845491
-29.560848,2.6877432,2.8437319
-29.59512,2.6874287,2.8421655
-29.629389,2.6872022,2.8407903
-29.664253,2.691111,2.8452873
-29.69847,2.691064,2.8442998
-29.732826,2.692261,2.845128
-29.767286,2.6947055,2.8477745
-29.80132,2.6937656,2.845737
-29.835142,2.6905966,2.8406348
-29.869274,2.690411,2.8397903
-29.903446,2.6908917,2.8399477
-29.937492,2.6897228,2.8378549
-29.97162,2.6897993,2.8375802
-30.00577,2.6905444,2.8383112
-30.040037,2.6954343,2.8449345
-30.074118,2.696934,2.8468604
-30.108158,2.6979423,2.8481627
-30.142174,2.6978786,2.8480244
-30.176182,2.6990616,2.8497038
-30.210173,2.6997523,2.8507605
-30.244219,2.6982112,2.8487458
-30.278296,2.6967585,2.8469214
-30.31226,2.6982913,2.8493605
-30.346159,2.70049,2.8528008
-30.380342,2.698141,2.8499188
-30.413921,2.7039897,2.8586216
-30.446852,2.7157152,2.8756437
-30.480309,2.719995,2.8822708
-30.513615,2.7249386,2.889896
-30.547037,2.7282314,2.895266
-30.580551,2.7304516,2.8991952
-30.614023,2.7327578,2.9033122
-30.644873,2.7519119,2.9311376
-30.680368,2.740516,2.916153
-30.714794,2.7367234,2.9119105
-30.752409,2.7162824,2.8843899
-30.786842,2.714412,2.882986
-30.821085,2.7137852,2.8833961
-30.852726,2.7253518,2.9009585
-30.879421,2.7577307,2.9477315
-30.911894,2.7631023,2.9567246
-30.947693,2.754747,2.946567
-30.981148,2.756265,2.9502993
-31.017988,2.745228,2.9365387
-31.049122,2.7555397,2.9527068
-31.08339,2.7544503,2.9529982
-31.11804,2.7523057,2.9518838
-31.151854,2.7531176,2.9549704
-31.18622,2.7523005,2.955852
-31.22062,2.751575,2.9569306
-31.25485,2.751512,2.9590049
-31.289303,2.7509685,2.9604793
-31.324823,2.7476652,2.9581795
-31.355293,2.7581341,2.975132
-31.394802,2.7447655,2.9589663
-31.42828,2.747439,2.9652042
-31.465199,2.7416768,2.9597845
-31.499641,2.7422614,2.9632626
-31.533606,2.7440717,2.968514
-31.567802,2.7454057,2.9731736
-31.605307,2.7394764,2.967833
-31.639826,2.7404342,2.9721212
-31.675146,2.7397912,2.9742632
-31.709957,2.7403715,2.9781747
-31.74756,2.7354176,2.9745064
-31.782164,2.7367547,2.9796157
-31.863998,2.646675,2.8585782
-31.899237,2.648881,2.8651295
-31.937769,2.6450214,2.8633924
-31.9761,2.6418326,2.8626666
-32.013584,2.6404274,2.8644838
-32.050804,2.639685,2.8672953
-32.08872,2.6379335,2.8688025
-32.12966,2.6312869,2.863675
-32.166744,2.6314232,2.8679495
-32.207264,2.6261218,2.8648539
-32.245144,2.6253672,2.8680806
-32.283424,2.624167,2.8707838
-32.321762,2.6230764,2.8737245
-32.36233,2.6187923,2.8723936
-32.40265,2.615179,2.872075
-32.441574,2.61388,2.8750052
-32.48132,2.611599,2.87669
-32.5223,2.6077945,2.8763986
-32.562218,2.6057498,2.8785973
-32.60499,2.6000109,2.8758793
-32.64308,2.6009278,2.8822885
-32.683228,2.5992403,2.8852606
-32.725098,2.595505,2.885563
-32.77001,2.5881155,2.881034
-32.81469,2.5814087,2.8775449
-32.8561,2.5791504,2.8801632
-32.897587,2.577017,2.8830538
-32.94004,2.5739374,2.8847766
-32.987495,2.5651052,2.8788886
-33.025692,2.5676374,2.888358
-33.072098,2.5606928,2.8852363
-33.115444,2.5576184,2.8874125
-33.160294,2.5530894,2.8877602
-33.209057,2.5444708,2.8827786
-33.253254,2.5412931,2.8851733
-33.303352,2.5319376,2.879477
-33.34538,2.5316803,2.8859935
-33.390903,2.5278845,2.88793
-33.438046,2.5226662,2.8881102
-33.484825,2.5181239,2.8893142
-33.529705,2.5158153,2.893592
-33.578274,2.5100172,2.8933988
-33.62752,2.5038638,2.892879
-33.680084,2.4947798,2.8886547
-33.72969,2.4889662,2.8888712
-33.775715,2.4869149,2.8941479
-33.82722,2.4798903,2.8930655
-33.873466,2.4781501,2.8990178
-33.920887,2.4755409,2.9039707
-33.973404,2.4685173,2.9033308
-34.027782,2.460157,2.9011188
-34.080677,2.453503,2.9012804
-34.128056,2.4520676,2.908337
-34.203663,2.4261897,2.884059
-25.801142,1.3659275,1.2569914
-26.869617,2.4506247,2.7084002
-26.93251,2.472012,2.7303677
-27.005861,2.5056727,2.7690969
-27.057796,2.5165288,2.7772222
-27.110863,2.5291395,2.7878666
-27.174656,2.554585,2.8160625
-27.226988,2.5675876,2.8275561
-27.276318,2.577593,2.8351216
-27.324074,2.5861716,2.840876
-27.379059,2.6039457,2.859291
-27.42239,2.6080596,2.859219
-27.464745,2.6112397,2.8579798
-27.514582,2.6241808,2.8701959
-27.550379,2.6195965,2.8585443
-27.592392,2.6231673,2.8581505
-27.642805,2.638169,2.8735514
-27.684477,2.6420162,2.8737578
-27.726818,2.6470706,2.8757262
-27.770966,2.6549618,2.881703
-27.810696,2.6570263,2.8797574
-27.851482,2.6608377,2.8803148
-27.891037,2.6631382,2.87888
-27.930143,2.6650097,2.876943
-27.954382,2.6446028,2.8442583
-27.991083,2.6428337,2.8374257
-28.028835,2.6428096,2.8330908
-28.068619,2.6461844,2.8335571
-28.108639,2.650225,2.83504
-28.14555,2.6494277,2.8298864
-28.183424,2.6503868,2.8272557
-28.222214,2.6531086,2.8271637
-28.261545,2.657048,2.828854
-28.298906,2.6577783,2.8261561
-28.336525,2.6591666,2.8244567
-28.374386,2.661216,2.823762
-28.412468,2.6639278,2.8240767
-28.450466,2.6667476,2.824623
-28.488659,2.6702316,2.8261833
-28.526476,2.6732657,2.8271956
-28.563665,2.6752875,2.8268695
-28.600523,2.6768527,2.8259816
-28.637323,2.6785197,2.8253145
-28.674566,2.6814096,2.8264427
-28.711727,2.684403,2.8277955
-28.7488,2.6874995,2.829371
-28.785551,2.6901357,2.8303766
-28.823368,2.69569,2.8355699
-28.85971,2.6979663,2.836224
-28.894249,2.695824,2.8307228
-28.931343,2.7005546,2.8349853
-28.968113,2.7048223,2.8386722
-29.003778,2.7063596,2.8385797
-29.039198,2.707426,2.8378944
-29.074017,2.7068841,2.8350077
-29.110096,2.7104087,2.8379393
-29.145733,2.7128947,2.839476
-29.180794,2.7137694,2.8388042
-29.215982,2.7153068,2.8391404
-29.251123,2.7169373,2.8396778
-29.285912,2.7175202,2.8388019
-29.320673,2.7181952,2.8381243
-29.355824,2.7206736,2.8400722
-29.390776,2.7226734,2.841411
-29.425547,2.724194,2.8421392
-29.460148,2.7252345,2.8422556
-29.495066,2.7280812,2.8450022
-29.529362,2.7281587,2.8438854
-29.56323,2.726035,2.8397098
-29.597525,2.7262895,2.838975
-29.631987,2.727779,2.840064
-29.666578,2.7305045,2.842976
-29.700706,2.7304523,2.842008
-29.734829,2.730489,2.8412309
-29.768942,2.7306132,2.8406444
-29.803167,2.7319741,2.8418818
-29.837248,2.7322748,2.8416777
-29.871265,2.7320893,2.8408475
-29.90524,2.7314167,2.8393888
-29.939222,2.7308316,2.83812
-29.973337,2.732632,2.840311
-30.007463,2.73567,2.8443289
-30.041462,2.7370715,2.8460832
-30.075338,2.734537,2.842301
-30.10927,2.7326643,2.8395247
-30.143248,2.7337527,2.8410287
-30.1772,2.7349293,2.842723
-30.211151,2.7350423,2.8429685
-30.245064,2.7363925,2.8450398
-30.279041,2.7355313,2.844028
-30.31298,2.7359061,2.844841
-30.346878,2.7369435,2.846662
-30.380838,2.7369184,2.847036
-30.415083,2.7335343,2.8426962
-30.448662,2.7382793,2.8499866
-30.482439,2.7402382,2.8533783
-30.51644,2.7399886,2.8536925
-30.550522,2.739252,2.8533802
-30.584316,2.7408984,2.856522
-30.61775,2.7449253,2.8631115
-30.651285,2.74789,2.868256
-30.684574,2.7520864,2.8752131
-30.717682,2.75694,2.8831668
-30.751232,2.7590141,2.8872366
-30.785088,2.759458,2.8890562
-30.819181,2.758846,2.8894415
-30.852922,2.7600374,2.8924522
-30.885994,2.7641718,2.8997035
-30.919127,2.7678187,2.9063268
-30.95434,2.7629924,2.9010005
-30.98743,2.7668133,2.9079995
-31.02309,2.7610319,2.9014587
-31.057917,2.7587643,2.8999677
-31.094307,2.7514699,2.8914304
-31.129309,2.749392,2.8903508
-31.164011,2.7485437,2.8910804
-31.197823,2.7506256,2.8960218
-31.23256,2.749959,2.8971453
-31.267326,2.749385,2.8984704
-31.301718,2.7500355,2.9015927
-31.334238,2.7558656,2.9120936
-31.368582,2.7566922,2.9155984
-31.402048,2.7598665,2.922481
-31.436144,2.7614357,2.9271674
-31.473475,2.7552087,2.9209442
-31.505009,2.7631543,2.9347458
-31.543222,2.7554386,2.9265804
-31.579868,2.751764,2.9241786
-31.614573,2.7526774,2.9283009
-31.648495,2.7553637,2.9349813
-31.68345,2.7559013,2.9387164
-31.71651,2.7604437,2.9481359
-31.758694,2.7466557,2.9319425
-31.803177,2.729099,2.910575
-31.859072,2.6905375,2.8599339
-31.896559,2.6883037,2.8602285
-31.934723,2.6850657,2.8592014
-31.972672,2.6824906,2.8591847
-32.0107,2.6800234,2.8594017
-32.04785,2.6793227,2.862164
-32.08602,2.6770704,2.8628464
-32.124264,2.674927,2.8637643
-32.162914,2.672342,2.8641553
-32.198917,2.6742637,2.8708897
-32.239773,2.6686058,2.8671856
-32.27866,2.6663554,2.8683004
-32.316906,2.6653106,2.8711734
-32.35593,2.6632845,2.8727746
-32.3991,2.6553807,2.8663402
-32.440212,2.6508737,2.8647041
-32.479164,2.6497474,2.867828
-32.519333,2.6471086,2.868957
-32.55763,2.6472933,2.8740668
-32.596752,2.646508,2.8779292
-32.63915,2.6415267,2.87612
-32.679237,2.6399019,2.8790202
-32.721046,2.6362498,2.8792367
-32.76213,2.6337967,2.8811965
-32.801598,2.6336052,2.8863473
-32.846706,2.6265962,2.8822823
-32.889816,2.6223927,2.8821597
-32.928196,2.6241665,2.8902864
-32.97551,2.6154501,2.884233
-33.017166,2.6137655,2.8878589
-33.06484,2.605348,2.882453
-33.110413,2.5997207,2.8809557
-33.152866,2.5979178,2.8847528
-33.19729,2.5941489,2.8860006
-33.246136,2.585816,2.8812056
-33.28939,2.5839057,2.8852
-33.33468,2.580049,2.8866863
-33.381573,2.574781,2.886395
-33.431114,2.5670776,2.882965
-33.47732,2.5631566,2.8847399
-33.524162,2.558871,2.8861518
-33.57165,2.5542243,2.8872094
-33.61876,2.5502472,2.8892899
-33.659687,2.5525594,2.8998685
-33.717056,2.5391881,2.8897166
-33.76296,2.5372121,2.8948507
-33.819218,2.525749,2.8875513
-33.86866,2.5210624,2.889378
-33.91494,2.5195677,2.895557
-33.96741,2.5126915,2.8947763
-34.016144,2.5095074,2.8990054
-34.070076,2.5019865,2.8976846
-34.118504,2.4996407,2.9033012
-34.17566,2.4900002,2.8995247
-25.805943,1.4179566,1.239522
-26.88366,2.501107,2.7098656
-26.952698,2.5289762,2.7412968
-27.006367,2.5410316,2.7512808
-27.064915,2.55899,2.7695074
-27.136545,2.5922697,2.8089414
-27.196407,2.613293,2.8317423
-27.241243,2.617786,2.8319569
-27.286392,2.6229444,2.8332014
-27.337605,2.635607,2.8449163
-27.389389,2.6494977,2.8584652
-27.430885,2.6514232,2.8555975
-27.4723,2.6534736,2.8530025
-27.51785,2.6609507,2.8580308
-27.563208,2.6685743,2.8633766
-27.595205,2.6593084,2.845358
-27.647236,2.6762552,2.8638768
-27.686468,2.6768146,2.859704
-27.734728,2.689803,2.8729534
-27.776455,2.6943681,2.874568
-27.81728,2.6979856,2.8749557
-27.863287,2.7092638,2.8861527
-27.899712,2.7072062,2.8787932
-27.939444,2.710112,2.8784661
-27.957767,2.6812005,2.8335924
-27.994793,2.679948,2.8275633
-28.035307,2.6842294,2.8293896
-28.07501,2.6875427,2.829945
-28.114271,2.6904266,2.8299856
-28.151442,2.69015,2.8256583
-28.188257,2.6894305,2.8207846
-28.226664,2.6915495,2.819994
-28.26689,2.6970665,2.8240862
-28.305107,2.6994085,2.82378
-28.34233,2.7002096,2.821374
-28.379211,2.7005632,2.8184137
-28.416348,2.7015698,2.816454
-28.455442,2.7065444,2.8201976
-28.493279,2.7094197,2.8210483
-28.530478,2.7112951,2.8205576
-28.567339,2.7127194,2.8195038
-28.604671,2.7153556,2.8202481
-28.642181,2.7186506,2.8220081
-28.680855,2.724832,2.8279543
-28.716913,2.7255552,2.8262095
-28.75341,2.7274914,2.8262649
-28.79008,2.7300856,2.827334
-28.827812,2.735574,2.8326063
-28.863848,2.7372534,2.83252
-28.901344,2.7429497,2.8382435
-28.936167,2.7420259,2.8345833
-28.971193,2.7417555,2.8319254
-29.006603,2.7426999,2.8310738
-29.04294,2.7465487,2.8344483
-29.078238,2.7476852,2.8340125
-29.113857,2.7500405,2.8353915
-29.148882,2.750802,2.8345575
-29.184044,2.75222,2.8347325
-29.21883,2.752602,2.8334904
-29.253592,2.7530763,2.8324475
-29.288631,2.7547722,2.8332243
-29.323328,2.7554295,2.8325782
-29.358694,2.7590067,2.836193
-29.393839,2.7621121,2.839198
-29.428007,2.7613459,2.836708
-29.462303,2.7612345,2.8352246
-29.496588,2.7612123,2.8339338
-29.53097,2.7618465,2.8336515
-29.565432,2.7631378,2.8343801
-29.599464,2.7622473,2.832035
-29.63369,2.7625806,2.8315153
-29.667898,2.7630026,2.8311882
-29.702168,2.7640817,2.831871
-29.736406,2.76525,2.832747
-29.770546,2.7659376,2.832996
-29.804539,2.7655752,2.8317957
-29.838644,2.7664392,2.832426
-29.872677,2.7668216,2.8324265
-29.906607,2.7661526,2.830976
-29.940584,2.7661407,2.830536
-29.974684,2.7684953,2.8335695
-30.008753,2.7715073,2.837615
-30.04266,2.7717574,2.8377438
-30.076532,2.7709556,2.8364186
-30.110405,2.7691,2.8336391
-30.144323,2.771322,2.8367996
-30.178207,2.7719207,2.8376832
-30.212101,2.771467,2.8371143
-30.24597,2.77224,2.838376
-30.279846,2.77253,2.8390045
-30.313776,2.7717679,2.83818
-30.34755,2.7739415,2.8416505
-30.381565,2.772214,2.839562
-30.415293,2.774561,2.8434076
-30.44945,2.77187,2.8400583
-30.483078,2.7749605,2.8451018
-30.516514,2.7792742,2.8519707
-30.55072,2.7768462,2.8491902
-30.585213,2.7728002,2.8441467
-30.6193,2.7722569,2.844211
-30.653137,2.7735064,2.8469205
-30.686954,2.7748427,2.8498178
-30.72045,2.7779696,2.8553548
-30.754208,2.7794788,2.8586273
-30.788282,2.779373,2.8596401
-30.822609,2.7782218,2.8592157
-30.856846,2.7777276,2.8598003
-30.892153,2.7727914,2.8540678
-30.92689,2.77078,2.8526073
-30.960247,2.7745168,2.8594656
-30.994883,2.773251,2.8592072
-31.029247,2.773206,2.8607664
-31.063627,2.7732515,2.8625216
-31.098856,2.7705665,2.8604279
-31.13329,2.770794,2.862578
-31.168093,2.7699854,2.8633103
-31.204224,2.765331,2.8586025
-31.237797,2.7686455,2.865375
-31.272696,2.7681143,2.8667083
-31.308027,2.7665536,2.8666377
-31.345915,2.7583604,2.8571577
-31.381634,2.7564359,2.8567133
-31.416307,2.7574067,2.860474
-31.45121,2.757909,2.8636355
-31.48612,2.7585046,2.8669977
-31.523184,2.754173,2.8634052
-31.556456,2.7588596,2.872738
-31.5909,2.7608478,2.8782911
-31.624813,2.7640383,2.8856225
-31.658684,2.767316,2.8931441
-31.694914,2.7656915,2.893763
-31.732296,2.7619514,2.8914523
-31.769222,2.759423,2.8909416
-31.820461,2.7293797,2.8514829
-31.85696,2.728751,2.8538485
-31.89409,2.7271218,2.8548713
-31.931887,2.7244954,2.8545618
-31.969149,2.7230754,2.8560395
-32.00741,2.7201145,2.8554177
-32.04544,2.7178104,2.8558083
-32.083553,2.7156153,2.8564334
-32.122066,2.7129831,2.8565245
-32.16033,2.711007,2.8576245
-32.19901,2.708596,2.8581958
-32.236378,2.7084708,2.8620663
-32.272724,2.7100782,2.868451
-32.311222,2.7085357,2.870491
-32.35197,2.70386,2.8682237
-32.39433,2.6971478,2.8631964
-32.430473,2.6997256,2.8712716
-32.472702,2.693798,2.8675313
-32.514313,2.6890736,2.865573
-32.553703,2.6876912,2.8683743
-32.59316,2.6864245,2.871426
-32.633484,2.6842058,2.8732438
-32.67471,2.6810424,2.8738399
-32.71728,2.6764083,2.8724914
-32.759567,2.6724372,2.8721647
-32.800697,2.670185,2.8743234
-32.839325,2.6712277,2.8811398
-32.882336,2.6671085,2.8809075
-32.925472,2.6631243,2.8809667
-32.9732,2.654024,2.874076
-33.014824,2.6524162,2.8776326
-33.060642,2.6462312,2.874991
-33.103386,2.6438456,2.877689
-33.148094,2.6395113,2.8778176
-33.192936,2.6353195,2.8782563
-33.239822,2.6291997,2.8761706
-33.283,2.627367,2.8800673
-33.322834,2.6292772,2.8891788
-33.371582,2.6220493,2.8859344
-33.420525,2.6149864,2.8830457
-33.46814,2.609622,2.8825989
-33.515907,2.6044154,2.882494
-33.561768,2.601403,2.8854885
-33.608776,2.597524,2.8874335
-33.653282,2.596331,2.8931298
-33.706356,2.5872002,2.8882446
-33.7543,2.5832906,2.8905377
-33.79534,2.5860682,2.901945
-33.839104,2.5864663,2.9102635
-33.90165,2.570024,2.896151
-33.94956,2.5672598,2.9005146
-34.007675,2.5557187,2.893301
-34.060978,2.5488436,2.8924794
-34.107616,2.5480793,2.8999343
-34.146835,2.5538645,2.9162054
-25.688393,1.411,1.1423144
-25.881502,1.5509255,1.3271899
-26.902483,2.563124,2.7225924
-26.951094,2.569161,2.7245088
-27.012869,2.5897276,2.7467575
-27.058622,2.5935435,2.745854
-27.132196,2.6284463,2.7884107
-27.189342,2.6460626,2.807054
-27.237885,2.6545577,2.8131037
-27.2907,2.668406,2.8267698
-27.342293,2.6813962,2.839373
-27.391815,2.6924772,2.8494334
-27.43196,2.69275,2.844438
-27.474192,2.6957593,2.8433824
-27.523926,2.708345,2.855907
-27.56543,2.7111065,2.8547115
-27.605186,2.7118855,2.8508148
-27.650164,2.7196462,2.8568673
-27.694538,2.727021,2.862483
-27.740297,2.7366564,2.8714046
-27.782309,2.74166,2.8738737
-27.824177,2.7467926,2.8766232
-27.864006,2.7493877,2.8758655
-27.902996,2.751033,2.8738465
-27.945587,2.7581413,2.8796816
-27.966295,2.733227,2.8400278
-28.002441,2.7308795,2.8325453
-28.041403,2.732933,2.83141
-28.080631,2.7356374,2.8312893
-28.11841,2.7362978,2.8283315
-28.15814,2.740307,2.8302417
-28.197098,2.7433505,2.830854
-28.235313,2.745422,2.8301592
-28.275349,2.7508597,2.8343682
-28.311823,2.7504354,2.830256
-28.349493,2.752289,2.8294868
-28.387392,2.7547944,2.8297305
-28.423742,2.7546763,2.8262825
-28.459202,2.753018,2.820692
-28.497202,2.756381,2.8223982
-28.534826,2.7593038,2.8235483
-28.573439,2.7645278,2.828092
-28.610329,2.7665656,2.8281207
-28.646116,2.7665048,2.8251953
-28.68415,2.7714984,2.8296385
-28.72082,2.7738419,2.8303308
-28.75621,2.773526,2.827251
-28.793226,2.777174,2.8299737
-28.829912,2.7803717,2.8321185
-28.86673,2.7842243,2.8352852
-28.902355,2.7854064,2.8346553
-28.937723,2.7861297,2.8334303
-28.973671,2.7886138,2.8348265
-29.009941,2.7923079,2.8380485
-29.044952,2.7927616,2.8366375
-29.079372,2.7916365,2.8330016
-29.11434,2.7922747,2.8319902
-29.149803,2.7946792,2.833613
-29.185028,2.7966206,2.8346305
-29.220848,2.8008916,2.8391023
-29.256243,2.8041406,2.842157
-29.290947,2.805246,2.8421593
-29.326048,2.8081229,2.8448057
-29.360373,2.808291,2.8435745
-29.394949,2.80967,2.8441706
-29.428968,2.8088958,2.8416934
-29.462748,2.8070862,2.8377705
-29.49748,2.8098578,2.8405871
-29.5317,2.810473,2.8403249
-29.56569,2.810052,2.8386145
-29.600067,2.81197,2.8403783
-29.633568,2.8089113,2.8349438
-29.667467,2.8081906,2.832983
-29.70193,2.8115008,2.8369675
-29.736092,2.8132102,2.8386788
-29.76987,2.8121896,2.8364658
-29.803911,2.8135118,2.8377366
-29.838083,2.8166144,2.84167
-29.871786,2.815292,2.8392015
-29.90538,2.8123634,2.8344483
-29.939219,2.8123426,2.834004
-29.972992,2.8112798,2.8320985
-30.00696,2.8142555,2.8361573
-30.04088,2.8178835,2.8412304
-30.074589,2.8159523,2.8382397
-30.108356,2.815802,2.837914
-30.14213,2.8174329,2.8402524
-30.175848,2.8214085,2.8460793
-30.209557,2.8215182,2.8463173
-30.243347,2.8188918,2.842617
-30.277126,2.8180456,2.8415813
-30.310926,2.817287,2.8407335
-30.344778,2.8160505,2.83925
-30.378576,2.81603,2.8396044
-30.41219,2.8183532,2.8434453
-30.445757,2.8207626,2.8474722
-30.479395,2.8221297,2.8500376
-30.513073,2.8230195,2.8519664
-30.547237,2.820051,2.8483224
-30.580854,2.8216782,2.8514528
-30.614357,2.8239553,2.8555913
-30.648355,2.8229399,2.8549862
-30.682766,2.819762,2.8512878
-30.716743,2.8194869,2.8518877
-30.750416,2.8209865,2.8551397
-30.784405,2.820887,2.8561206
-30.819002,2.8180678,2.8532
-30.85317,2.8175848,2.8537488
-30.88736,2.8171911,2.8544912
-30.92212,2.814644,2.8521614
-30.956083,2.8155515,2.854926
-30.990192,2.8159862,2.8570666
-31.025393,2.8125932,2.8536997
-31.059065,2.814886,2.8586712
-31.094044,2.8127964,2.8573322
-31.1296,2.8091247,2.8537607
-31.164894,2.8066654,2.8520193
-31.199516,2.8065298,2.8537211
-31.235304,2.8031452,2.8507714
-31.270786,2.8009708,2.8496475
-31.305725,2.800559,2.851149
-31.34111,2.7991302,2.8512435
-31.37633,2.7983508,2.8523474
-31.411806,2.7971127,2.8528538
-31.446196,2.7987378,2.8575745
-31.481037,2.7993467,2.8608894
-31.518988,2.792867,2.854023
-31.556364,2.7881508,2.8497834
-31.592863,2.7857456,2.848957
-31.627901,2.786744,2.8531175
-31.66268,2.7883863,2.8582735
-31.698786,2.7873743,2.8596706
-31.734118,2.788107,2.8636527
-31.772812,2.7823617,2.8583784
-31.809942,2.7800105,2.8580685
-31.845406,2.7810416,2.862699
-31.885323,2.7739856,2.8557792
-31.922695,2.771951,2.8561554
-31.959524,2.7711103,2.8583221
-31.996399,2.7703714,2.8607116
-32.035236,2.7664819,2.8586621
-32.07256,2.765413,2.860734
-32.110268,2.7639086,2.8622599
-32.148037,2.7625113,2.864019
-32.185528,2.7617605,2.8667798
-32.224457,2.7589636,2.8667006
-32.264187,2.7552056,2.8653355
-32.30223,2.7542467,2.8680458
-32.34325,2.7491143,2.8648968
-32.38404,2.7446404,2.8627782
-32.423454,2.742423,2.8639565
-32.46257,2.7408547,2.8661418
-32.503304,2.7372746,2.865562
-32.54297,2.7354083,2.8674998
-32.581913,2.7347183,2.871191
-32.6197,2.735727,2.877369
-32.66119,2.7320971,2.8770795
-32.702377,2.7291198,2.8778067
-32.74577,2.7236419,2.8751063
-32.787613,2.7203968,2.8756518
-32.82827,2.7188494,2.8786812
-32.870308,2.7158585,2.879778
-32.91201,2.7135184,2.8818855
-32.955147,2.7097466,2.8820877
-32.997494,2.707147,2.8840322
-33.041775,2.702609,2.88337
-33.082485,2.7023418,2.8887758
-33.130745,2.6939578,2.8829665
-33.17211,2.693441,2.8882303
-33.21833,2.6879253,2.8866458
-33.265675,2.6815379,2.8839693
-33.308296,2.6804075,2.888701
-33.353962,2.676357,2.8894958
-33.40076,2.6714396,2.8892074
-33.448715,2.6656637,2.887857
-33.49684,2.6600475,2.8868523
-33.54306,2.656607,2.888968
-33.59201,2.6508057,2.887961
-33.640076,2.6461706,2.8886847
-33.686157,2.6436942,2.8924928
-33.733414,2.640371,2.8952627
-33.7835,2.6347206,2.8949823
-33.833202,2.6297362,2.8957467
-33.88637,2.621956,2.8928437
-33.937523,2.6163335,2.8930216
-33.98828,2.6113777,2.894247
-34.03749,2.6080647,2.8978376
-34.09368,2.59906,2.8938746
-34.144344,2.5951233,2.8969111
-20.193165,0.7432201,1.1034708
-20.262836,0.72867656,1.0615077
-25.605072,1.4309299,1.096209
-25.727894,1.4958739,1.1783061
-25.917791,1.6315191,1.360004
-26.889267,2.5825562,2.6881065
-26.952988,2.6041634,2.7121658
-27.02622,2.6366904,2.7517877
-27.091646,2.6618533,2.781238
-27.146704,2.6765282,2.7960606
-27.19449,2.6837125,2.8004346
-27.246634,2.6961882,2.8124194
-27.297565,2.7078142,2.8233347
-27.347317,2.7185817,2.8331614
-27.391962,2.7238305,2.8352704
-27.433413,2.7255938,2.8325272
-27.47821,2.731636,2.8359718
-27.53045,2.747186,2.8530774
-27.567284,2.7441475,2.8437853
-27.609495,2.7480028,2.8444185
-27.656055,2.7577453,2.8535676
-27.704775,2.7707872,2.8675532
-27.747639,2.7766345,2.8713465
-27.784487,2.7747161,2.864098
-27.818645,2.7692082,2.85177
-27.85932,2.7727742,2.8525476
-27.89876,2.7748735,2.8513055
-27.948412,2.7919414,2.8717017
-27.967976,2.7656024,2.82966
-28.005882,2.765894,2.8260427
-28.046198,2.770026,2.8280482
-28.084665,2.7716067,2.8264542
-28.12476,2.7759726,2.8289676
-28.160387,2.7734914,2.8216558
-28.199642,2.777009,2.8231025
-28.239107,2.781179,2.8255768
-28.277185,2.7833104,2.8251777
-28.314253,2.7839332,2.8226647
-28.352188,2.7862787,2.822729
-28.388247,2.7854874,2.8183093
-28.425758,2.7875018,2.8180418
-28.463196,2.7896214,2.8180017
-28.501686,2.7940178,2.8213544
-28.539776,2.797981,2.824153
-28.573967,2.794431,2.8160696
-28.61006,2.794785,2.813747
-28.64715,2.7974207,2.8148265
-28.684156,2.8001592,2.8161278
-28.722065,2.8051884,2.8208532
-28.761045,2.813064,2.8298163
-28.79795,2.8166661,2.832605
-28.831085,2.8115883,2.822754
-28.867432,2.8142867,2.8243551
-28.903696,2.8170843,2.8261728
-28.94009,2.820532,2.8290133
-28.975359,2.8213243,2.8280268
-29.011189,2.823866,2.8296742
-29.046555,2.8253999,2.8299108
-29.081867,2.8270288,2.8303523
-29.117125,2.8287518,2.830998
-29.152502,2.8311236,2.832664
-29.18798,2.8341439,2.83535
-29.222555,2.834487,2.8341627
-29.257421,2.8360314,2.8348064
-29.290716,2.8321152,2.8274746
-29.325686,2.8343956,2.829328
-29.360872,2.8378806,2.833022
-29.395298,2.8386781,2.8328195
-29.430075,2.8412356,2.8352752
-29.464294,2.8416572,2.834643
-29.498377,2.8416102,2.833383
-29.532337,2.8410943,2.831491
-29.566193,2.8401082,2.8289676
-29.600353,2.840884,2.8291054
-29.634485,2.8417487,2.829434
-29.669104,2.8460536,2.8349051
-29.702822,2.844861,2.8323193
-29.736704,2.8448734,2.831573
-29.770916,2.8477688,2.8351479
-29.80481,2.848516,2.8356094
-29.838682,2.8493512,2.8362613
-29.87253,2.8502734,2.8371024
-29.90622,2.8496037,2.8356495
-29.939732,2.8462205,2.8302464
-29.973469,2.8457236,2.8291688
-30.007418,2.849794,2.8349032
-30.041176,2.8511512,2.8366885
-30.074863,2.8509147,2.8361754
-30.108517,2.8479643,2.8317094
-30.14225,2.8529432,2.8390274
-30.175951,2.8490448,2.8332787
-30.209595,2.8525162,2.8384876
-30.24335,2.8499115,2.834772
-30.276909,2.8535554,2.840355
-30.310507,2.8550448,2.842811
-30.344145,2.8555007,2.8437996
-30.378063,2.8521235,2.8391824
-30.411776,2.852193,2.8397193
-30.445383,2.8534687,2.8420987
-30.478966,2.8548307,2.8446655
-30.512592,2.8557189,2.8465915
-30.546417,2.8550167,2.8462276
-30.58003,2.856079,2.8485303
-30.613796,2.8561099,2.8493695
-30.647926,2.8539934,2.8470988
-30.682203,2.8514087,2.8441982
-30.71614,2.8511453,2.8447862
-30.7502,2.8504124,2.8447418
-30.784397,2.8492107,2.8440685
-30.818394,2.8492131,2.845231
-30.852526,2.848746,2.8457646
-30.88681,2.8478122,2.8456712
-30.921265,2.8464124,2.844953
-30.955332,2.8467698,2.846888
-30.989853,2.8455503,2.8465605
-31.02426,2.844976,2.8472476
-31.05853,2.8450477,2.8489475
-31.092983,2.8446548,2.8500266
-31.1285,2.84103,2.8464165
-31.163752,2.8386073,2.8446403
-31.197407,2.841256,2.8503828
-31.232933,2.8384671,2.848199
-31.267157,2.8396378,2.8518963
-31.303,2.8364866,2.8493128
-31.338095,2.8356373,2.850175
-31.373226,2.8348818,2.851241
-31.408615,2.8336704,2.8517046
-31.44337,2.8342025,2.8547893
-31.479301,2.8320837,2.8540587
-31.515776,2.8289678,2.8519382
-31.552584,2.8254054,2.8492355
-31.588991,2.823039,2.8483543
-31.624704,2.8224125,2.8500843
-31.660458,2.8218822,2.852026
-31.697048,2.8198154,2.8517933
-31.735352,2.8145864,2.847022
-31.773794,2.809468,2.8424907
-31.808949,2.810971,2.847682
-31.84439,2.8120267,2.8522882
-31.88251,2.8083081,2.8500195
-31.919827,2.80632,2.8503447
-31.956293,2.8060563,2.8532481
-31.994364,2.8031995,2.8524618
-32.03093,2.803141,2.855812
-32.069477,2.7999618,2.8547134
-32.105476,2.801184,2.860067
-32.144176,2.798222,2.859439
-32.184,2.7937694,2.8567371
-32.222557,2.7915688,2.8573742
-32.262257,2.787882,2.855947
-32.30099,2.7859087,2.8570757
-32.340168,2.783517,2.8576841
-32.380917,2.77912,2.8554902
-32.41652,2.7822518,2.8642116
-32.455917,2.7802,2.8655572
-32.496555,2.776683,2.8648849
-32.536915,2.773815,2.865233
-32.578968,2.7689676,2.862835
-32.621162,2.7642505,2.8607183
-32.659397,2.7648926,2.8663592
-32.69849,2.7646008,2.870748
-32.740574,2.760778,2.8701854
-32.7815,2.7586439,2.8721251
-32.824673,2.7540414,2.8706436
-32.867546,2.7500916,2.8701916
-32.909218,2.747825,2.8722296
-32.95098,2.7456858,2.8745446
-32.992382,2.7441888,2.8778653
-33.037064,2.739228,2.87638
-33.08097,2.7354343,2.8766522
-33.125473,2.7312694,2.876505
-33.169155,2.7282646,2.8781023
-33.211506,2.7269218,2.882145
-33.256847,2.7226703,2.882197
-33.303795,2.7170484,2.8804374
-33.34694,2.7156157,2.8846688
-33.394173,2.7102938,2.8835602
-33.44106,2.70563,2.8834915
-33.485535,2.7036233,2.8872514
-33.5363,2.6957695,2.8829699
-33.57841,2.6965516,2.8908458
-33.62635,2.6920033,2.8914132
-33.673904,2.6881096,2.8930154
-33.72213,2.68388,2.8942742
-33.776455,2.6743977,2.888393
-33.829937,2.6660895,2.8842845
-33.877567,2.6633537,2.88801
-33.92141,2.6641924,2.8967805
-33.97147,2.6598167,2.8984947
-34.030186,2.6483347,2.8905964
-34.08919,2.6370685,2.883165
-34.136364,2.6361449,2.8900461
-20.105648,0.818346,1.1005278
-20.199196,0.8157773,1.0733666
-20.247353,0.7898662,1.017559
-25.64409,1.5173485,1.126224
-25.836376,1.6514602,1.3082938
-26.780918,2.5519524,2.5820522
-26.913963,2.6430943,2.7055793
-26.995314,2.683065,2.7565036
-27.044737,2.6906185,2.7613406
-27.108582,2.7139914,2.7889357
-27.157879,2.722417,2.795291
-27.215252,2.7401407,2.815105
-27.263992,2.7489166,2.822219
-27.30889,2.7537768,2.823822
-27.354973,2.7603123,2.8279424
-27.39647,2.7618773,2.8250065
-27.4444,2.7712655,2.833447
-27.489513,2.7777262,2.8377762
-27.533594,2.7833004,2.8409276
-27.578766,2.7905636,2.846624
-27.623325,2.7974539,2.851884
-27.668098,2.8050044,2.8582034
-27.712267,2.8121789,2.864079
-27.756636,2.8200135,2.871014
-27.794157,2.819122,2.8653588
-27.834736,2.8225179,2.8660212
-27.874062,2.8244648,2.8646584
-27.90546,2.8155124,2.8474808
-27.971233,2.8555062,2.9018064
-27.975597,2.8078346,2.8282285
-28.014118,2.809146,2.826232
-28.053276,2.811625,2.8260226
-28.092342,2.8142178,2.8260603
-28.129955,2.8148038,2.8232365
-28.169525,2.818682,2.825316
-28.206676,2.8189535,2.8221817
-28.245077,2.8214595,2.8224034
-28.28244,2.8224754,2.8205109
-28.319435,2.8230615,2.818059
-28.359741,2.8296366,2.8244967
-28.397776,2.8325808,2.8256683
-28.434248,2.83295,2.8231187
-28.468374,2.8291218,2.814446
-28.50453,2.829148,2.8115249
-28.54314,2.8341222,2.8159804
-28.579449,2.8348913,2.8142982
-28.61783,2.8400817,2.819222
-28.655552,2.8443,2.8227844
-28.692396,2.8470008,2.824173
-28.728413,2.8481772,2.8233733
-28.763412,2.8472812,2.8195686
-28.800524,2.851369,2.8232188
-28.836834,2.8539279,2.8246727
-28.873062,2.8565865,2.8263416
-28.909645,2.8604345,2.829846
-28.946121,2.8643844,2.83357
-28.980635,2.8635185,2.8302035
-29.015545,2.863837,2.8286605
-29.050428,2.8642483,2.8273182
-29.085468,2.8653,2.826993
-29.121376,2.8691857,2.8309507
-29.157179,2.8731692,2.8351202
-29.191515,2.8728578,2.8329558
-29.226004,2.8731856,2.8318048
-29.260784,2.874704,2.8324904
-29.296732,2.8807173,2.8399448
-29.33107,2.8813207,2.8393922
-29.364117,2.8770554,2.831633
-29.398182,2.8767333,2.8298178
-29.43275,2.8787072,2.8314915
-29.467262,2.8807714,2.8333616
-29.500437,2.8768508,2.8263502
-29.535559,2.88241,2.8335633
-29.568672,2.8781092,2.8260999
-29.602848,2.8794248,2.8270907
-29.636984,2.8808293,2.8282752
-29.670908,2.8812156,2.8279953
-29.704973,2.8827972,2.8295631
-29.738329,2.8794801,2.8238611
-29.772429,2.8817916,2.8266373
-29.806097,2.8808646,2.8246279
-29.839891,2.8811328,2.8244662
-29.873821,2.8831532,2.8269844
-29.907701,2.8852613,2.8296938
-29.94172,2.8902316,2.8367467
-29.975433,2.8919597,2.839005
-30.008724,2.8854475,2.8289804
-30.042425,2.8867931,2.8307815
-30.076094,2.8882258,2.8327708
-30.10975,2.891411,2.8374434
-30.143322,2.8885741,2.8331542
-30.176907,2.8913765,2.8373685
-30.210527,2.8892682,2.8342857
-30.244246,2.8855796,2.8288956
-30.277792,2.8880858,2.83284
-30.31137,2.8890128,2.8344774
-30.344898,2.890581,2.837132
-30.378105,2.896119,2.84579
-30.412281,2.8889809,2.835525
-30.44603,2.888034,2.8345885
-30.479628,2.888838,2.8363318
-30.51321,2.8897283,2.8382616
-30.546925,2.8895965,2.8387213
-30.580568,2.8901057,2.840197
-30.61446,2.88904,2.839376
-30.648472,2.8875086,2.8379169
-30.682716,2.8849595,2.8349957
-30.716822,2.8836062,2.8339238
-30.750534,2.8845534,2.836349
-30.78492,2.882272,2.8340087
-30.818768,2.8828423,2.83599
-30.851482,2.8884678,2.84558
-30.885931,2.8864522,2.8438158
-30.920572,2.8839767,2.8414268
-30.955425,2.8810425,2.8384151
-30.990356,2.8782003,2.8356047
-31.023962,2.880403,2.8403802
-31.05899,2.8777452,2.8379674
-31.09342,2.8773775,2.8390322
-31.128222,2.8760037,2.8386593
-31.160198,2.8834963,2.8515534
-31.195925,2.87956,2.847487
-31.232712,2.8729846,2.8395596
-31.26808,2.8708878,2.8383632
-31.303514,2.8688867,2.8373747
-31.338175,2.8691645,2.8398385
-31.373064,2.868989,2.8416924
-31.408863,2.8667276,2.8405113
-31.442917,2.868918,2.846004
-31.477411,2.8701088,2.8500762
-31.513098,2.8686762,2.8503203
-31.549572,2.8657131,2.8483639
-31.586134,2.862852,2.8466277
-31.622528,2.8606334,2.845913
-31.657944,2.860678,2.8486142
-31.694994,2.8575795,2.846736
-31.73159,2.8556635,2.8466768
-31.769094,2.8522344,2.8444538
-31.803844,2.8542876,2.8503947
-31.841784,2.8505275,2.847827
-31.879536,2.8474126,2.8462858
-31.917082,2.844941,2.8457656
-31.954403,2.8431106,2.8462644
-31.988022,2.8477907,2.8564115
-32.024452,2.847761,2.8596969
-32.06287,2.844639,2.8585129
-32.10039,2.8432224,2.8599086
-32.138653,2.8408518,2.859981
-32.1746,2.8422992,2.8657246
-32.21264,2.8406725,2.8670373
-32.251812,2.8375723,2.866272
-32.290726,2.835114,2.8665266
-32.329,2.8338218,2.8685641
-32.36845,2.831065,2.8685431
-32.409126,2.8268535,2.866485
-32.448402,2.824857,2.8677406
-32.488533,2.821932,2.8677278
-32.530735,2.8165224,2.8641882
-32.5691,2.8164434,2.8684855
-32.608723,2.814919,2.8707638
-32.648827,2.8129933,2.8725457
-32.69026,2.809638,2.8723435
-32.730965,2.8074405,2.873908
-32.77304,2.8038228,2.873509
-32.81264,2.8034155,2.8778396
-32.853172,2.8021019,2.8809466
-32.897316,2.7968194,2.878428
-32.937584,2.79627,2.8828206
-32.98789,2.7846422,2.8713837
-33.02609,2.7868989,2.8800006
-33.067543,2.7857199,2.8837724
-33.110474,2.7831507,2.8856483
-33.154457,2.7797081,2.8863735
-33.197124,2.777914,2.8895578
-33.24279,2.773243,2.8887367
-33.28762,2.7697215,2.8896637
-33.331085,2.7678425,2.893035
