x,y,z
-26.350906,2.9119828,4.1363697
-26.400948,2.9215126,4.1361847
-26.44508,2.9265318,4.1312904
-26.488466,2.931187,4.126169
-26.544277,2.9465046,4.1328983
-26.602905,2.9646761,4.1429963
-26.653166,2.9762092,4.146028
-26.685427,2.9725587,4.1324763
-26.726242,2.9764502,4.127392
-26.786875,2.9980838,4.142179
-26.832132,3.0065894,4.14259
-26.865927,3.0050693,4.1319695
-26.903847,3.0074215,4.125799
-26.948132,3.0158343,4.126572
-27.002678,3.0341434,4.1386604
-27.045948,3.0423603,4.139572
-27.082205,3.0442064,4.1334324
-27.128014,3.0554419,4.138071
-27.171915,3.0652056,4.1412096
-27.214506,3.0740318,4.1434417
-27.252508,3.0786128,4.140978
-27.288221,3.0811183,4.1362686
-27.326569,3.086503,4.134983
-27.368544,3.0958948,4.138442
-27.407671,3.1026592,4.1390224
-27.454542,3.1179066,4.1495423
-27.482882,3.1138022,4.137826
-27.50766,3.1058629,4.1217384
-27.540731,3.1069527,4.1162148
-27.578815,3.1137652,4.1174603
-27.630268,3.1359105,4.136739
-27.667915,3.143014,4.1386175
-27.698547,3.1423252,4.1314893
-27.7248,3.1366258,4.118568
-27.755936,3.136676,4.1124797
-27.795116,3.1465,4.118002
-27.840672,3.1644473,4.1332493
-27.879372,3.174556,4.1393905
-27.908224,3.1727653,4.131563
-27.93391,3.167037,4.1191435
-27.96282,3.1654024,4.111655
-28.001047,3.1759565,4.11876
-28.041685,3.1901057,4.1302805
-28.077282,3.198031,4.1345043
-28.107155,3.1985357,4.1299644
-28.133202,3.1938996,4.1193495
-28.164312,3.1963158,4.1172624
-28.197002,3.2011585,4.118183
-28.228365,3.20435,4.117214
-28.267254,3.2187543,4.1298513
-28.299538,3.2239137,4.131459
-28.32781,3.2233016,4.1261873
-28.351852,3.2162986,4.113258
-28.379034,3.2140675,4.1061664
-28.409967,3.217811,4.106394
-28.446693,3.2311044,4.118312
-28.484959,3.2474809,4.134097
-28.51506,3.2509425,4.1342783
-28.537361,3.2414289,4.1187224
-28.562931,3.2373176,4.109808
-28.592636,3.2404194,4.1097717
-28.623268,3.245397,4.112113
-28.654448,3.2516608,4.116115
-28.688396,3.263403,4.1269236
-28.718302,3.2680655,4.1291437
-28.74156,3.2602205,4.1160784
-28.768316,3.2590358,4.1112566
-28.797781,3.2633362,4.1132545
-28.825676,3.2647107,4.1117277
-28.85122,3.2613404,4.1044207
-28.88219,3.2695045,4.111415
-28.914938,3.2819915,4.1238403
-28.941998,3.282481,4.12152
-28.965841,3.2757745,4.1103606
-28.993443,3.2776158,4.109844
-29.020489,3.2783186,4.1079874
-29.047009,3.2778797,4.1047816
-29.07717,3.2866364,4.113063
-29.107862,3.2973099,4.1238074
-29.13464,3.2983217,4.1226206
-29.16093,3.2981858,4.1200714
-29.181719,3.2828512,4.0986567
-29.208351,3.283452,4.0971427
-29.236835,3.2896307,4.10265
-29.263369,3.2903786,4.1014547
-29.291058,3.2948747,4.1050043
-29.321892,3.309874,4.121749
-29.347069,3.3071651,4.1164384
-29.371391,3.3014479,4.107424
-29.396854,3.29948,4.103156
-29.422344,3.2975774,4.0990314
-29.448832,3.2994342,4.099676
-29.474651,3.2988966,4.0973845
-29.500324,3.2978106,4.094466
-29.529316,3.3109772,4.1094904
-29.556393,3.3168204,4.1153984
-29.581108,3.31224,4.1082845
-29.605652,3.3064861,4.0997524
-29.63078,3.303265,4.09446
-29.656988,3.305675,4.0963035
-29.682388,3.3038216,4.0928493
-29.707714,3.301415,4.0887575
-29.736168,3.3188896,4.1097417
-29.762108,3.3215754,4.1121845
-29.787231,3.3187523,4.1077538
-29.812403,3.3159928,4.1034613
-29.837841,3.315158,4.1016507
-29.862492,3.3069446,4.0906043
-29.88839,3.3099613,4.0937653
-29.913895,3.3093216,4.092378
-29.939167,3.305644,4.087221
-29.965536,3.3169317,4.1009893
-29.991241,3.3208375,4.1055136
-30.016497,3.3173568,4.1007833
-30.041769,3.3126984,4.0946274
-30.067432,3.318044,4.1011467
-30.092716,3.3104095,4.0913553
-30.118103,3.2991118,4.0770035
-30.14374,3.305897,4.085516
-30.169226,3.3152328,4.0973063
-30.194555,3.323392,4.10767
-30.22006,3.31919,4.1025047
-30.24567,3.314433,4.0966988
-30.2714,3.3091223,4.090255
-30.297129,3.3057406,4.0863037
-30.32268,3.3061514,4.0871944
-30.347946,3.3103533,4.0929236
-30.373238,3.3133774,4.097227
-30.398298,3.3183274,4.104016
-30.42481,3.3084517,4.092182
-30.451023,3.3029885,4.0859714
-30.477573,3.2957346,4.0775685
-30.5027,3.3003283,4.0841475
-30.528011,3.303126,4.088524
-30.554775,3.2960787,4.0805683
-30.57948,3.302724,4.089905
-30.603636,3.3119054,4.1024876
-30.629745,3.309393,4.1004205
-30.656616,3.3032389,4.0938387
-30.684477,3.292832,4.081981
-30.710855,3.290533,4.0803766
-30.736877,3.2901547,4.0812483
-30.762064,3.293547,4.0869117
-30.787193,3.2970023,4.0927134
-30.811804,3.3023696,4.1009703
-30.838226,3.3004086,4.1000986
-30.865849,3.2942102,4.093984
-30.89411,3.2862432,4.0857263
-30.922886,3.2771277,4.076104
-30.9502,3.2736206,4.073571
-30.972876,3.2855268,4.09037
-30.999804,3.283383,4.0896664
-31.02378,3.2905002,4.1005907
-31.051542,3.2860456,4.097131
-31.081516,3.2755542,4.086216
-31.108002,3.2755368,4.0884323
-31.134274,3.2762003,4.0915613
-31.163754,3.268396,4.084219
-31.18963,3.2704248,4.089182
-31.21211,3.2810416,4.1048756
-31.239822,3.2783318,4.1040716
-31.268608,3.2732701,4.100422
-31.298792,3.2652574,4.093191
-31.329138,3.2573345,4.086155
-31.35776,3.2537389,4.0845585
-31.386187,3.2508297,4.083885
-31.412153,3.2534356,4.0900984
-31.437223,3.2579186,4.098691
-31.465147,3.2564397,4.099993
-31.502647,3.235786,4.07775
-31.530834,3.2344878,4.079443
-31.560606,3.2302682,4.0776186
-31.5911,3.2249365,4.074512
-31.615938,3.2304683,4.084816
-31.641014,3.2354646,4.0945196
-31.67265,3.2285862,4.0897493
-31.702742,3.2247849,4.088833
-31.738752,3.2109556,4.0757527
-31.770855,3.2043767,4.0716305
-31.800617,3.2020488,4.072782
-31.82756,3.2045465,4.079888
-31.850456,3.2136226,4.095059
-31.878021,3.2150729,4.101021
-31.93041,3.17769,4.0599737
-31.95488,3.1846528,4.072817
-31.988533,3.1775734,4.068736
-32.023117,3.169427,4.063469
-32.04792,3.1760306,4.076097
-32.07746,3.1756802,4.080409
-32.11071,3.1701646,4.0785923
-32.149464,3.1571813,4.0679092
-32.182602,3.15247,4.067274
-32.213295,3.1513448,4.0710316
-32.24532,3.148572,4.072909
-32.274364,3.1499434,4.079827
-32.308258,3.1450512,4.079363
-32.34851,3.1322064,4.069543
-32.383144,3.1269717,4.068899
-32.416985,3.1229954,4.0698566
-32.449066,3.1214147,4.0737553
-32.47933,3.1222172,4.080565
-32.511017,3.121398,4.085551
-32.553734,3.1075964,4.075347
-32.592857,3.098487,4.0708094
-32.62875,3.0934744,4.071212
-32.661797,3.091969,4.075837
-32.69439,3.0911305,4.0813437
-32.727024,3.090392,4.087068
-32.770885,3.0774114,4.078645
-32.81141,3.0685084,4.075118
-32.84796,3.0642133,4.077075
-32.876232,3.0689516,4.089603
-32.91608,3.061543,4.088189
-32.956615,3.0537174,4.0864363
-32.99947,3.0438213,4.0824475
-33.041435,3.0351825,4.0800567
-33.081387,3.028892,4.0805054
-33.112057,3.0320692,4.0919013
-33.14996,3.0282207,4.09539
-33.202038,3.0108528,4.083654
-33.246494,3.0013084,4.08099
-33.28885,2.994097,4.081131
-33.325577,2.9924505,4.087703
-33.366436,2.9871447,4.090287
-33.423862,2.9669046,4.0762672
-33.46331,2.9635382,4.0813646
-33.51657,2.9479918,4.0730124
-33.54967,2.9508052,4.085309
-33.59427,2.9436045,4.086602
-33.65307,2.924358,4.0747356
-33.70853,2.9085214,4.066883
-33.75003,2.9050374,4.072852
-33.79974,2.8948603,4.0716343
-33.86475,2.8722844,4.057058
-33.912426,2.8646128,4.059019
-33.956432,2.8602448,4.064762
-34.010178,2.8482418,4.0624027
-34.0894,2.8162503,4.038681
-34.123573,2.8207307,4.054593
-34.172127,2.8139982,4.05859
-34.219498,2.8084717,4.0640755
-34.289597,2.7857418,4.051419
-34.346718,2.7734923,4.0502152
-34.391273,2.7711124,4.0597053
-34.456226,2.7537143,4.0535374
-34.524906,2.7340603,4.0452957
-34.576096,2.7277532,4.051341
-34.6433,2.710124,4.0457997
-34.70665,2.695765,4.043967
-34.761177,2.6881235,4.049373
-34.8271,2.6727672,4.0470705
-34.88128,2.6660695,4.053961
-34.972576,2.6340153,4.035172
-35.01793,2.6341982,4.049656
-35.090633,2.6160007,4.045699
-35.152084,2.6058846,4.050248
-35.209362,2.59892,4.058251
-35.270424,2.5897675,4.064326
-35.350033,2.5688457,4.05897
-35.43,2.5482633,4.05435
-35.51032,2.5280213,4.050468
-35.58874,2.5095468,4.048727
-35.67273,2.4880939,4.0444736
-35.75105,2.47077,4.044665
-35.841026,2.4467425,4.0387735
-35.92455,2.4273095,4.0377727
-36.012985,2.4054446,4.0348783
-36.10486,2.3821094,4.031053
-36.192474,2.3619423,4.030714
-36.26878,2.3490405,4.037676
-36.349976,2.3337166,4.0427656
-36.458057,2.3032627,4.0342107
-36.56426,2.2746525,4.0279613
-36.669334,2.2474177,4.023568
-36.758163,2.2300806,4.0288024
-36.87597,2.197035,4.020262
-36.97667,2.1743116,4.0217066
-37.05843,2.1626616,4.033635
-37.17912,2.1301992,4.027487
-37.3003,2.0982845,4.0225234
-37.431732,2.061679,4.0141544
-37.570248,2.022199,4.0040593
-37.69212,1.992439,4.003206
-37.820194,1.9602182,4.0009627
-37.885086,1.961554,4.028087
-38.040405,1.9167042,4.016493
-38.22136,1.8598602,3.9957962
-38.36467,1.8232749,3.9931035
-38.480812,1.8011987,4.003277
-38.6141,1.7712944,4.007745
-38.7402,1.7457368,4.0165663
-22.461992,1.6434574,3.4162302
-22.5691,1.665416,3.412531
-22.930435,1.8336747,3.547278
-23.828857,2.3156676,3.9815722
-24.018066,2.3930118,4.035614
-23.951803,2.321642,3.9481812
-23.302656,1.9030669,3.5255966
-23.378834,1.9117374,3.512948
-24.047049,2.2788143,3.8498058
-24.041695,2.2418237,3.7949824
-23.74862,2.0271955,3.5652146
-23.760153,1.9981518,3.5171404
-23.824572,2.0019755,3.5017066
-23.860579,1.9881206,3.4689083
-23.893818,1.9724729,3.4344296
-23.925812,1.9559622,3.3991833
-23.957314,1.9390545,3.363628
-23.980307,1.9164722,3.3223891
-25.307835,2.7586617,4.164691
-25.351051,2.7573633,4.149186
-25.40718,2.7649465,4.143008
-25.47244,2.7790775,4.143854
-25.536726,2.7929864,4.1447706
-25.595814,2.8037243,4.1426725
-25.649784,2.8112519,4.137476
-25.710575,2.8239279,4.1379256
-25.76766,2.8343682,4.1362867
-25.831429,2.8500094,4.1404076
-25.881214,2.855923,4.134471
-25.972374,2.892591,4.1615605
-26.016905,2.8954654,4.1528964
-26.07681,2.9101067,4.157055
-26.113745,2.9077735,4.1431684
-26.156658,2.9101348,4.134495
-26.20675,2.9182556,4.1322403
-26.254713,2.9250321,4.128726
-26.311628,2.9391694,4.133448
-26.367626,2.9530168,4.138092
-26.398996,2.947461,4.121633
-26.47181,2.975671,4.142523
-26.51187,2.9776847,4.1347504
-26.557516,2.984528,4.1324844
-26.61983,3.0056562,4.146295
-26.654543,3.0039606,4.1348944
-26.697235,3.0092149,4.13139
-26.741024,3.0156763,4.1294
-26.789507,3.026529,4.1325173
-26.834772,3.0349104,4.133034
-26.871532,3.0360045,4.125476
-26.917099,3.0452285,4.1272674
-26.961302,3.0535474,4.1282024
-27.009396,3.065785,4.13377
-27.057241,3.0782027,4.1397276
-27.092278,3.0789237,4.132464
-27.132935,3.0851707,4.1316643
-27.176258,3.094273,4.1342964
-27.219395,3.1035318,4.1372676
-27.26399,3.1145816,4.142467
-27.296335,3.1137614,4.1340685
-27.333004,3.1174276,4.130983
-27.37387,3.125614,4.1332836
-27.424135,3.1438632,4.1474724
-27.45719,3.1446257,4.1414013
-27.484987,3.1399536,4.1290646
-27.516462,3.1392446,4.121459
-27.550993,3.1419697,4.1179876
-27.590513,3.1503835,4.121334
-27.638378,3.1684372,4.136203
-27.674969,3.1743433,4.1368704
-27.705046,3.1730702,4.1291447
-27.72929,3.1651316,4.113588
-27.767117,3.1730466,4.1169558
-27.8062,3.1827853,4.122623
-27.84696,3.1949248,4.1312885
-27.884218,3.2032332,4.135509
-27.911644,3.199719,4.125683
-27.940475,3.1979907,4.1180735
-27.97201,3.1997724,4.114764
-28.00349,3.2016492,4.111662
-28.041931,3.2127993,4.1198373
-28.077974,3.2212071,4.1248255
-28.105282,3.2182183,4.1161385
-28.134314,3.2176116,4.1104097
-28.166674,3.2217119,4.1104717
-28.197287,3.2235968,4.107938
-28.229063,3.227312,4.107718
-28.271975,3.2473965,4.1275406
-28.301044,3.247842,4.123541
-28.330475,3.2489548,4.120437
-28.359863,3.250153,4.1175175
-28.390348,3.2531924,4.1169343
-28.419636,3.2545638,4.1143904
-28.451452,3.2601295,4.1170793
-28.491121,3.2787282,4.135888
-28.518642,3.278031,4.1310663
-28.541588,3.269743,4.1169577
-28.566402,3.264461,4.1066093
-28.594362,3.2645655,4.102973
-28.626986,3.2730422,4.109766
-28.658115,3.2792473,4.113841
-28.692343,3.2914882,4.1254845
-28.721556,3.2949142,4.126292
-28.749126,3.2954464,4.1235843
-28.772993,3.288896,4.1121407
-28.800278,3.2889743,4.109
-28.825773,3.2855387,4.101551
-28.855371,3.2905521,4.1046977
-28.883722,3.2932541,4.1050386
-28.919235,3.311645,4.1250505
-28.94567,3.3109183,4.121269
-28.969173,3.3036444,4.1093593
-28.996452,3.3048592,4.1081314
-29.022673,3.3037367,4.104042
-29.050896,3.307513,4.106162
-29.078304,3.3095562,4.1061773
-29.10875,3.3195386,4.1162357
-29.137367,3.3253736,4.121163
-29.162695,3.322804,4.115591
-29.184317,3.309985,4.0971766
-29.211962,3.3136091,4.0995164
-29.238066,3.3130546,4.0966597
-29.266806,3.3204775,4.103926
-29.29342,3.3218942,4.1036863
-29.32535,3.340444,4.125149
-29.348206,3.330429,4.110606
-29.373936,3.329622,4.107753
-29.399324,3.32766,4.103499
-29.425076,3.3269863,4.100935
-29.451153,3.3276024,4.1000643
-29.4769,3.3270633,4.0977917
-29.501148,3.3204668,4.0879025
-29.530989,3.3372169,4.107668
-29.55677,3.337498,4.1066227
-29.582802,3.3390737,4.1072807
-29.607533,3.3345795,4.100295
-29.632343,3.3301473,4.093444
-29.658606,3.3331509,4.096094
-29.684479,3.3343797,4.096552
-29.708885,3.327066,4.086211
-29.736036,3.3364248,4.0971246
-29.76282,3.344627,4.1066313
-29.788591,3.3467433,4.1084623
-29.813213,3.3403034,4.099464
-29.838614,3.3394704,4.097658
-29.864223,3.3405519,4.0983477
-29.889322,3.3367677,4.092901
-29.91482,3.3367472,4.092305
-29.94056,3.3398762,4.0957794
-29.966494,3.3467734,4.1041136
-29.991884,3.3469515,4.1039476
-30.016893,3.3397899,4.0944886
-30.042141,3.3351603,4.088313
-30.067574,3.3336813,4.08621
-30.093136,3.3372056,4.090541
-30.118565,3.3352404,4.087935
-30.144033,3.3345752,4.087044
-30.169449,3.342617,4.097309
-30.194805,3.345169,4.100635
-30.220276,3.3416133,4.0962358
-30.246021,3.332569,4.084901
-30.271597,3.330997,4.083148
-30.296965,3.3338103,4.0870414
-30.322317,3.3360715,4.090289
-30.347862,3.3353133,4.0897484
-30.373213,3.337088,4.0924926
-30.398064,3.3438601,4.101659
-30.423622,3.342681,4.1007566
-30.450964,3.3261619,4.080389
-30.47695,3.3232718,4.0774326
-30.50201,3.3278399,4.0840273
-30.527601,3.3281617,4.085276
-30.55338,3.3273187,4.085104
-30.578176,3.3326938,4.0928965
-30.602982,3.3375163,4.1000423
-30.629822,3.3307233,4.0924854
-30.656565,3.325231,4.086647
-30.682428,3.324724,4.087202
-30.709993,3.3163066,4.077779
-30.735287,3.319005,4.082526
-30.761524,3.3174772,4.081972
-30.78603,3.3233695,4.090886
-30.811653,3.3244245,4.093725
-30.836151,3.3298287,4.102132
-30.86633,3.3138938,4.083582
-30.892548,3.3133235,4.0845523
-30.917902,3.315875,4.089533
-30.945772,3.3099504,4.0838594
-30.972069,3.3095896,4.0852847
-30.997602,3.3117352,4.089937
-31.021503,3.3188148,4.1008725
-31.046103,3.3235192,4.1088657
-31.080156,3.3009462,4.0825434
-31.105726,3.3033693,4.087797
-31.131708,3.3046455,4.091667
-31.160427,3.2987194,4.0865436
-31.189741,3.2916653,4.080076
-31.213902,3.297998,4.0904956
-31.237951,3.3043885,4.1010423
-31.265932,3.3011837,4.0996103
-31.298117,3.2884142,4.0862684
-31.327389,3.282969,4.0821867
-31.35543,3.2806158,4.0820494
-31.382978,3.279542,4.083583
-31.411966,3.2755444,4.081537
-31.437313,3.2794194,4.089387
-31.462309,3.2839575,4.0981226
-31.498865,3.2652485,4.0779715
-31.53032,3.2574062,4.071451
-31.558842,3.2556214,4.072547
-31.59025,3.248559,4.067165
-31.615389,3.2534828,4.0767365
-31.640776,3.257875,4.085708
-31.668423,3.258182,4.0896845
-31.702496,3.2473183,4.0799227
-31.735416,3.2389278,4.0733166
-31.764675,3.2371333,4.0749426
-31.795046,3.233655,4.0745735
-31.82154,3.2367387,4.082363
-31.847628,3.24048,4.091027
-31.876633,3.239597,4.094078
-31.911695,3.2294288,4.085824
-31.952702,3.210606,4.0670824
-31.975471,3.2199411,4.0829077
-32.016563,3.2019448,4.0654063
-32.042465,3.2067747,4.075878
-32.070316,3.2087688,4.0829606
-32.099785,3.2085218,4.08739
-32.13965,3.1938996,4.074444
-32.178967,3.1805701,4.063199
-32.21302,3.1748693,4.0613203
-32.24246,3.1756027,4.0673256
-32.269722,3.1792912,4.0769777
-32.30003,3.1790428,4.0819554
-32.3393,3.167448,4.073368
-32.377903,3.1571298,4.0664454
-32.41397,3.1503608,4.0639057
-32.446487,3.1482565,4.067068
-32.47064,3.1564596,4.082647
-32.49939,3.1590617,4.0915985
-32.547733,3.1385942,4.0731525
-32.58487,3.1318312,4.0711784
-32.62655,3.120133,4.063469
-32.66353,3.114191,4.062724
-32.692654,3.1173265,4.0728326
-32.725777,3.116078,4.0778484
-32.77066,3.1021204,4.068001
-32.806564,3.09833,4.070265
-32.84308,3.0941029,4.072135
-32.87655,3.093315,4.07815
-32.90741,3.0953903,4.0876145
-32.944668,3.0909529,4.0895805
-32.99336,3.0751133,4.0784082
-33.041275,3.0605516,4.0689054
-33.07684,3.058731,4.074337
-33.106365,3.0630178,4.0869417
-33.144226,3.0592394,4.090336
-33.202484,3.0360825,4.071575
-33.249805,3.0239658,4.0657187
-33.28704,3.0217266,4.0713444
-33.320873,3.022835,4.080921
-33.36637,3.013331,4.078521
-33.40795,3.0077348,4.0807323
-33.458546,2.994291,4.074204
-33.508213,2.9821026,4.0692945
-33.544266,2.9822896,4.0785265
-33.589447,2.974668,4.079106
-33.6513,2.95299,4.064103
-33.707394,2.936814,4.0555134
-33.73773,2.9428492,4.071909
-33.78174,2.9374876,4.075732
-33.851067,2.9114702,4.0568395
-33.89613,2.9059727,4.06092
-33.940674,2.9011552,4.065922
-34.00528,2.8805196,4.0537314
-34.0586,2.869396,4.052234
-34.114754,2.8564298,4.0489473
-34.15079,2.8595068,4.063344
-34.219864,2.837263,4.050425
-34.28069,2.821898,4.0452485
-34.332424,2.8138506,4.048214
-34.381626,2.8080149,4.053768
-34.43842,2.7968426,4.0538197
-34.50157,2.781392,4.0495615
-34.565697,2.765699,4.045329
-34.621815,2.7562256,4.0479603
-34.68994,2.738559,4.042208
-34.754894,2.723639,4.039652
-34.7976,2.7247014,4.054093
-34.86084,2.7117214,4.0540876
-34.930016,2.6950965,4.050593
-34.996628,2.6807005,4.0497246
-35.061344,2.668029,4.05094
-35.12484,2.6565843,4.0537114
-35.205296,2.6343524,4.045783
-35.25247,2.6344652,4.0609245
-35.336456,2.610931,4.0523796
-35.411972,2.5934517,4.0503435
-35.482586,2.579599,4.0523086
-35.576622,2.551448,4.0403748
-35.645584,2.5396476,4.0451336
-35.74421,2.5099254,4.032552
-35.82815,2.4899366,4.03004
-35.884987,2.4869735,4.0445814
-36.010845,2.4427452,4.019307
-36.059666,2.4454508,4.0400677
-36.16261,2.416345,4.030478
-36.245045,2.3999817,4.0336204
-36.318382,2.3894074,4.0426927
-36.427982,2.358392,4.032824
-36.497902,2.3507664,4.0455317
-36.6542,2.2947104,4.013372
-36.71363,2.2941105,4.033588
-36.84731,2.2525578,4.0163198
-36.91671,2.2473245,4.033111
-37.069916,2.1967459,4.0089645
-37.13176,2.196663,4.0314035
-37.274765,2.1533651,4.0153184
-37.371174,2.1358144,4.0230584
-37.518574,2.0920017,4.008064
-37.66581,2.0493011,3.9949288
-37.76174,2.034133,4.00673
-37.873627,2.0113263,4.0124536
-37.977543,1.9932394,4.022892
-38.186787,1.9227197,3.9891634
-38.32927,1.8870296,3.9862633
-38.458824,1.8586454,3.9903746
-38.59637,1.827131,3.9926662
-38.71152,1.8073492,4.005499
-22.031677,1.4985316,3.2288203
-22.49315,1.7145813,3.40839
-22.89507,1.9014466,3.5628743
-23.007553,1.9282496,3.5661206
-23.881062,2.3902018,3.989984
-24.01958,2.437463,4.0166073
-23.28172,1.976428,3.5479326
-23.336996,1.9724133,3.5230918
-24.055155,2.3609438,3.8856668
-24.046871,2.3229198,3.8295817
-23.830513,2.1589885,3.6478987
-23.772911,2.0888467,3.5587564
-23.790325,2.0637026,3.5144606
-23.831379,2.0529795,3.4847555
-23.867355,2.0391173,3.4520102
-23.902046,2.0244195,3.418529
-23.933992,2.0079348,3.3833256
-23.966915,1.9920032,3.3487825
-25.284859,2.8102055,4.17712
-25.326536,2.8077388,4.160477
-25.381239,2.8140259,4.153129
-25.437246,2.821486,4.1472483
-25.500248,2.8339841,4.1469126
-25.550219,2.8380308,4.1379356
-25.61705,2.8539183,4.141721
-25.67656,2.865208,4.1409163
-25.731657,2.8737998,4.1374903
-25.783802,2.8806431,4.132425
-25.841322,2.8916278,4.1320353
-25.908222,2.9097624,4.139617
-25.97342,2.9271803,4.146719
-26.047089,2.9513378,4.1614437
-26.096764,2.958317,4.157748
-26.1269,2.9509428,4.138532
-26.183037,2.9632788,4.1410723
-26.230352,2.9692726,4.136855
-26.284744,2.9810138,4.139181
-26.333693,2.9889016,4.1374555
-26.375362,2.991365,4.1298857
-26.430443,3.0047169,4.1346292
-26.483345,3.016745,4.138115
-26.534105,3.027433,4.14031
-26.589046,3.0419297,4.146996
-26.633722,3.0483527,4.144785
-26.666489,3.0450654,4.1317406
-26.708504,3.0496984,4.1278
-26.767487,3.0691183,4.1408577
-26.81459,3.0788112,4.1430464
-26.853086,3.081317,4.137183
-26.886742,3.0797338,4.1267586
-26.932219,3.0888374,4.1287436
-26.976917,3.0975766,4.130479
-27.026081,3.1107345,4.1374903
-27.069788,3.119277,4.139336
-27.104162,3.1194186,4.1315746
-27.143042,3.1239614,4.129052
-27.193617,3.1399326,4.1400127
-27.241646,3.1539402,4.1488657
-27.273373,3.1524467,4.139711
-27.30729,3.1532192,4.133317
-27.34279,3.155731,4.1290793
-27.380907,3.1610825,4.128311
-27.429016,3.1769438,4.140108
-27.464674,3.1803894,4.1373587
-27.487183,3.1702275,4.118553
-27.526407,3.1777267,4.1208267
-27.559834,3.1792922,4.116153
-27.601318,3.1898115,4.122284
-27.647604,3.2060196,4.1353717
-27.680643,3.2079554,4.1314993
-27.70772,3.2033129,4.1198196
-27.743616,3.2087893,4.1203976
-27.775534,3.209909,4.1158323
-27.807882,3.211688,4.112159
-27.862782,3.240532,4.141346
-27.89057,3.2375016,4.1320868
-27.91885,3.2351131,4.12368
-27.947605,3.2333694,4.1161346
-27.980871,3.2373734,4.115671
-28.020262,3.2494292,4.1251345
-28.061602,3.2644658,4.1383705
-28.096125,3.2710996,4.1414576
-28.12407,3.26928,4.1342854
-28.146103,3.2595296,4.117448
-28.176237,3.2607176,4.114107
-28.205502,3.2608469,4.1095457
-28.242067,3.2714162,4.117938
-28.282026,3.2872944,4.1329994
-28.314533,3.2929196,4.1355133
-28.338709,3.2865005,4.1232085
-28.365295,3.2836165,4.115342
-28.393057,3.282545,4.1097913
-28.426056,3.289689,4.1145234
-28.459269,3.29752,4.1202054
-28.49667,3.312455,4.1348352
-28.523397,3.310575,4.1286077
-28.550493,3.3093529,4.123268
-28.574476,3.3029313,4.1114964
-28.603336,3.3047833,4.110133
-28.631805,3.306131,4.108214
-28.662868,3.3122678,4.1123753
-28.702541,3.3344135,4.136721
-28.72745,3.3301358,4.127985
-28.754612,3.330059,4.124591
-28.779917,3.3265057,4.116886
-28.804972,3.3224244,4.108576
-28.83334,3.3249345,4.108639
-28.863964,3.3322783,4.1148787
-28.894714,3.3403087,4.1220703
-28.92446,3.3466454,4.1272016
-28.951067,3.3465095,4.124218
-28.973927,3.338088,4.1108
-29.000328,3.3374887,4.1073484
-29.027748,3.3393536,4.107089
-29.053621,3.3377004,4.1024294
-29.081707,3.3415117,4.1047754
-29.1128,3.3532047,4.117218
-29.1411,3.3583832,4.1214523
-29.165663,3.3540187,4.1136026
-29.189194,3.3467057,4.10205
-29.213928,3.3424613,4.0944614
-29.241241,3.3455164,4.0962443
-29.268484,3.3486466,4.0981903
-29.29901,3.362122,4.1134214
-29.326199,3.3660145,4.116482
-29.35089,3.3621144,4.109639
-29.376362,3.3606987,4.1060324
-29.40255,3.361774,4.105674
-29.428873,3.363525,4.106241
-29.45483,3.364132,4.1054068
-29.479204,3.3587341,4.0969305
-29.505476,3.3606892,4.0979424
-29.531271,3.3608894,4.0967627
-29.558435,3.3672428,4.103544
-29.584145,3.367581,4.102665
-29.609333,3.365551,4.0987997
-29.635157,3.366632,4.0989923
-29.661297,3.3696098,4.1016836
-29.687046,3.3708267,4.1021705
-29.711428,3.3641765,4.092593
-29.737482,3.3673563,4.095722
-29.765108,3.3816,4.113157
-29.789986,3.3781989,4.107934
-29.814528,3.3718047,4.0989113
-29.839703,3.369752,4.095537
-29.865181,3.3702106,4.095455
-29.890217,3.3664517,4.0899954
-29.915655,3.3664289,4.0894084
-29.941631,3.3732047,4.097644
-29.967257,3.3769875,4.1020803
-29.992765,3.380224,4.1058702
-30.01746,3.3688288,4.090846
-30.042727,3.3660707,4.087018
-30.068453,3.3762412,4.099924
-30.093685,3.3730016,4.0955887
-30.118979,3.3698263,4.0913944
-30.144348,3.3728423,4.095244
-30.16965,3.3771484,4.1008153
-30.194885,3.3802946,4.1049476
-30.220291,3.3749292,4.0981555
-30.245804,3.3696296,4.091506
-30.271362,3.365621,4.0865808
-30.29662,3.3684154,4.0904865
-30.32211,3.3669877,4.0890055
-30.348043,3.3601167,4.080563
-30.373173,3.3643303,4.0864716
-30.39828,3.3679962,4.0917306
-30.42319,3.3729494,4.0987034
-30.449127,3.3681793,4.0932035
-30.475163,3.3634782,4.0878515
-30.500801,3.362513,4.087373
-30.52646,3.3616145,4.087038
-30.551954,3.362004,4.0884204
-30.577246,3.36368,4.091516
-30.603037,3.3623698,4.0908265
-30.629307,3.3586867,4.0871453
-30.655184,3.3575125,4.0867515
-30.680346,3.3600621,4.0912037
-30.705723,3.3614578,4.094229
-30.7323,3.3574405,4.0903606
-30.759527,3.3510613,4.083523
-30.783789,3.3575244,4.093231
-30.809467,3.3579707,4.095275
-30.834347,3.3615193,4.101355
-30.862137,3.3542094,4.0935755
-30.889053,3.350616,4.090625
-30.91463,3.3519416,4.0940375
-30.94202,3.3472803,4.0898476
-30.967999,3.3475332,4.0920105
-30.994566,3.3460417,4.092004
-31.017563,3.3554916,4.106037
-31.043276,3.3565464,4.109401
-31.075552,3.3389807,4.089067
-31.10404,3.3329601,4.083544
-31.13064,3.332436,4.0850964
-31.15818,3.3295784,4.0837426
-31.184845,3.3291993,4.08561
-31.210323,3.3318913,4.091447
-31.235268,3.3358474,4.0989485
-31.261412,3.336873,4.102786
-31.29375,3.3236156,4.088566
-31.322926,3.318225,4.084408
-31.351406,3.3147082,4.0827017
-31.378864,3.3136573,4.084188
-31.407482,3.3103008,4.0828276
-31.43015,3.3195097,4.097415
-31.457047,3.3198636,4.100871
-31.49261,3.3030934,4.0828
-31.5206,3.3018384,4.0843825
-31.552658,3.292974,4.0764585
-31.581429,3.2907047,4.076918
-31.609617,3.2896976,4.0790377
-31.630976,3.301138,4.0968504
-31.659449,3.2996838,4.0985384
-31.691683,3.29185,4.092312
-31.727522,3.2782526,4.078968
-31.758049,3.274143,4.077588
-31.790445,3.267201,4.072757
-31.817585,3.269115,4.079058
-31.842144,3.2751818,4.0905986
-31.868464,3.2783992,4.098651
-31.896627,3.2787824,4.1032467
-31.941633,3.2537308,4.0763655
-31.970448,3.2537372,4.080682
-32.00479,3.2457352,4.0751667
-32.03212,3.2482276,4.0827217
-32.061043,3.2484908,4.087596
-32.09203,3.2459629,4.089108
-32.132633,3.2303333,4.074585
-32.17229,3.2165642,4.0624833
-32.204987,3.2126498,4.062603
-32.233032,3.2151117,4.0706306
-32.260612,3.218221,4.079523
-32.289043,3.2202687,4.08719
-32.328194,3.2087865,4.0784335
-32.36396,3.201968,4.075483
-32.399876,3.1952667,4.0727882
-32.428993,3.1971369,4.080608
-32.460434,3.196278,4.085202
-32.49334,3.1938322,4.087967
-32.529186,3.188129,4.086898
-32.575333,3.1708117,4.071944
-32.617905,3.1581252,4.062727
-32.655792,3.151153,4.06052
-32.67984,3.1598454,4.077215
-32.71082,3.1608443,4.0847597
-32.752003,3.1508896,4.079314
-32.798546,3.135571,4.0676165
-32.83499,3.1314178,4.069371
-32.864716,3.1345134,4.0798473
-32.897053,3.1349595,4.0872703
-32.933693,3.1311407,4.0897493
-32.981228,3.1165602,4.079653
-33.02306,3.108128,4.07697
-33.064518,3.1003857,4.0752454
-33.10004,3.0987296,4.0808
-33.136738,3.0961123,4.0853443
-33.185936,3.0818,4.0763683
-33.230858,3.0719595,4.0727835
-33.275986,3.062283,4.0695543
-33.307995,3.0650234,4.0808744
-33.345234,3.0630796,4.0868816
-33.401966,3.0437808,4.0730104
-33.449574,3.0331576,4.0693426
-33.495605,3.0242918,4.067872
-33.530968,3.0250468,4.0775776
-33.58214,3.012304,4.072004
-33.642757,2.9919286,4.0579486
-33.676613,2.9946933,4.070399
-33.720394,2.989264,4.073689
-33.77682,2.973648,4.065651
-33.826614,2.9639258,4.0644746
-33.883595,2.9487386,4.0573664
-33.931908,2.9409487,4.0587664
-33.97266,2.9394674,4.0673885
-34.027733,2.9269292,4.0638723
-34.09155,2.908011,4.053515
-34.139935,2.9014876,4.0571237
-34.189125,2.8946414,4.0605693
-34.25379,2.876428,4.0517406
-34.307396,2.8669877,4.0527887
-34.362537,2.8567567,4.053199
-34.41517,2.8487287,4.056234
-34.48437,2.8290153,4.0468435
-34.545685,2.8155115,4.0444613
-34.599644,2.8076637,4.048424
-34.662815,2.793654,4.0460205
-34.715744,2.7872233,4.05198
-34.794876,2.762999,4.039264
-34.85602,2.751711,4.0406103
-34.920944,2.7382545,4.039944
-34.981106,2.7284286,4.043384
-35.03208,2.72507,4.0538535
-35.117214,2.6994758,4.041394
-35.17437,2.6927872,4.048947
-35.21627,2.6962647,4.0672464
-35.317818,2.6616917,4.046615
-35.383667,2.6505847,4.050506
-35.440044,2.6458273,4.061169
-35.542927,2.6124077,4.0430393
-35.632835,2.5877974,4.034328
-35.70427,2.5751286,4.03806
-35.801006,2.547576,4.027271
-35.860798,2.5428948,4.0397153
-35.962116,2.5138211,4.0283175
-36.047733,2.4947338,4.0272775
-36.136,2.4746592,4.025711
-36.225388,2.4545174,4.0245347
-36.289318,2.4495518,4.038513
-36.402817,2.416737,4.025998
-36.462425,2.4150782,4.043918
-36.60289,2.3685617,4.0194483
-36.693966,2.350419,4.0226073
-36.802124,2.3234744,4.0179777
-36.917137,2.2935262,4.0111413
-36.989105,2.2875252,4.0271783
-37.117832,2.2515965,4.01598
-37.23574,2.222273,4.0115733
-37.329636,2.2063107,4.0199976
-37.477844,2.162675,4.0039244
-37.57327,2.1472487,4.014049
-37.701958,2.1153882,4.0100584
-37.869247,2.064835,3.9902835
-37.913353,2.0772033,4.0267825
-38.093376,2.0220985,4.00467
-38.254936,1.9773393,3.9926147
-38.370903,1.9559169,4.0015736
-38.554703,1.9023438,3.9838576
-38.64018,1.8971694,4.0081415
-38.79032,1.861651,4.007516
-22.311285,1.7058713,3.3477097
-22.60438,1.8279641,3.4415689
-22.917658,1.9637427,3.550427
-23.78584,2.4122977,3.9668922
-23.989407,2.494604,4.0284705
-23.95892,2.4454875,3.9612865
-23.326042,2.049832,3.5494518
-23.388115,2.0498192,3.528984
-24.049198,2.40034,3.8607788
-24.043966,2.3643494,3.8063297
-23.740376,2.1502144,3.5710816
-23.766579,2.1305902,3.5322018
-23.808176,2.1201818,3.5028214
-23.840147,2.1039252,3.467575
-23.873104,2.0882132,3.4329839
-23.909262,2.0744436,3.4005084
-23.943398,2.0593796,3.3667998
-24.008654,2.0640492,3.3538628
-25.30246,2.8573546,4.1708484
-25.326603,2.8435168,4.142418
-25.400896,2.8623924,4.1487536
-25.454683,2.8682785,4.141598
-25.529095,2.8882043,4.149687
-25.589615,2.8993475,4.1486893
-25.646378,2.90833,4.1456285
-25.696623,2.913194,4.1383543
-25.75025,2.92067,4.1341233
-25.800241,2.9259229,4.127694
-25.886726,2.957221,4.1499553
-25.964397,2.9830194,4.1665835
-26.010883,2.987038,4.1595726
-26.059978,2.9932003,4.155114
-26.097483,2.9911354,4.1417274
-26.150389,3.000618,4.141323
-26.19844,3.0068169,4.1374674
-26.247675,3.0141954,4.1351223
-26.289528,3.0162413,4.126979
-26.34044,3.0254824,4.127099
-26.384684,3.029867,4.121931
-26.449389,3.0506263,4.135494
-26.493265,3.0553834,4.1311326
-26.545265,3.0669284,4.134677
-26.598288,3.0796971,4.139825
-26.636684,3.0808678,4.13188
-26.678127,3.0847425,4.1271787
-26.728086,3.095993,4.131132
-26.7772,3.106916,4.134898
-26.82124,3.1138675,4.1342473
-26.856102,3.1131625,4.124858
-26.8993,3.1198869,4.124239
-26.941162,3.125719,4.1227326
-26.996977,3.1443152,4.1363225
-27.046017,3.157333,4.143582
-27.071693,3.149389,4.1263585
-27.11409,3.1568851,4.127413
-27.156887,3.1650648,4.129424
-27.211891,3.1851254,4.145665
-27.250872,3.1904354,4.1446
-27.280323,3.1867695,4.132983
-27.317488,3.1907125,4.1305246
-27.354008,3.1942406,4.1276937
-27.396355,3.2038324,4.132243
-27.437962,3.2130344,4.136471
-27.467752,3.210441,4.1266546
-27.4939,3.204125,4.1124363
-27.532053,3.210426,4.1135197
-27.566982,3.2135754,4.110914
-27.616049,3.2321875,4.127159
-27.655186,3.240545,4.131129
-27.693146,3.247936,4.1340513
-27.717644,3.240551,4.119087
-27.752974,3.245399,4.119117
-27.78433,3.2459266,4.1139717
-27.825665,3.2582216,4.123333
-27.86297,3.2662063,4.1275434
-27.906628,3.2821321,4.141633
-27.926443,3.269687,4.1209383
-27.95832,3.2718534,4.118299
-27.991936,3.2763658,4.1186476
-28.026775,3.2826734,4.1213183
-28.06543,3.2941709,4.1305237
-28.099932,3.300715,4.1337056
-28.127419,3.2983105,4.1258717
-28.152386,3.2925782,4.113967
-28.180786,3.2914562,4.1078663
-28.210424,3.2921238,4.104072
-28.25429,3.312848,4.125421
-28.289293,3.3217278,4.132095
-28.318157,3.3221323,4.128255
-28.34386,3.3180308,4.118839
-28.370779,3.3157206,4.111733
-28.4,3.3169374,4.10913
-28.432549,3.3234282,4.1132455
-28.470121,3.3381066,4.127775
-28.500845,3.3424995,4.1294384
-28.529318,3.3435087,4.1269093
-28.555988,3.3416977,4.120887
-28.581635,3.3382149,4.112812
-28.6104,3.3400388,4.1115236
-28.639782,3.3431106,4.111895
-28.670076,3.3480196,4.1146774
-28.70512,3.36179,4.12881
-28.731277,3.3598657,4.123066
-28.757454,3.3580112,4.1174726
-28.786106,3.3609233,4.118022
-28.80986,3.3545117,4.10674
-28.837864,3.356398,4.1061134
-28.867556,3.3618999,4.110181
-28.897694,3.3686697,4.115949
-28.927963,3.37612,4.1226683
-28.952612,3.3718286,4.1144123
-28.976257,3.3652303,4.103251
-29.004202,3.3681765,4.1043973
-29.03233,3.3717942,4.1064763
-29.058872,3.3719258,4.104141
-29.087109,3.3762932,4.1073217
-29.115007,3.3801455,4.109908
-29.144676,3.388845,4.118812
-29.16736,3.37973,4.104814
-29.193745,3.3802238,4.103264
-29.222904,3.3885603,4.1119056
-29.246864,3.3826199,4.10217
-29.274183,3.3863206,4.104954
-29.300035,3.3859005,4.1024704
-29.32742,3.390349,4.1063495
-29.35396,3.3924704,4.1072807
-29.380089,3.3934617,4.1068096
-29.406015,3.3939214,4.105709
-29.431921,3.3944488,4.1047573
-29.457808,3.3950448,4.1039524
-29.484453,3.3987222,4.107209
-29.510567,3.4006624,4.108271
-29.534033,3.3918107,4.0953684
-29.561268,3.398713,4.102997
-29.586634,3.3978367,4.1005726
-29.611881,3.3964214,4.0975037
-29.637997,3.3993044,4.100086
-29.664162,3.4028616,4.103606
-29.689379,3.4016457,4.1009693
-29.715027,3.4029171,4.1016293
-29.739672,3.3981962,4.0945387
-29.765678,3.4020238,4.0986433
-29.791605,3.4059196,4.1028976
-29.816578,3.403211,4.0985975
-29.841673,3.401173,4.095227
-29.867004,3.4010203,4.094372
-29.892826,3.4057894,4.099995
-29.91805,3.405161,4.0986323
-29.943287,3.4045973,4.09741
-29.968744,3.4071362,4.1002946
-29.993889,3.4054875,4.097769
-30.019001,3.402688,4.093795
-30.04457,3.409677,4.102659
-30.06971,3.407615,4.099761
-30.094862,3.4044018,4.095414
-30.120106,3.4036846,4.0943832
-30.145369,3.4054642,4.096669
-30.170614,3.4048765,4.0959196
-30.19587,3.404354,4.095311
-30.221052,3.4069357,4.098812
-30.246298,3.4065433,4.0984845
-30.271639,3.404392,4.0959167
-30.296883,3.404737,4.096665
-30.322407,3.4008942,4.0920014
-30.347588,3.4025843,4.094618
-30.373053,3.4006953,4.092619
-30.398323,3.401301,4.093932
-30.423586,3.4019716,4.095386
-30.448835,3.402707,4.096981
-30.474304,3.4016876,4.096342
-30.500456,3.395882,4.0895205
-30.526108,3.3943899,4.088382
-30.551039,3.3978128,4.093708
-30.575907,3.401299,4.0991697
-30.601984,3.397582,4.0953035
-30.62758,3.3969607,4.0955276
-30.653547,3.3945909,4.093534
-30.680187,3.3892667,4.0877557
-30.705639,3.3900573,4.0899944
-30.73149,3.389102,4.090019
-30.75864,3.3827822,4.08313
-30.783855,3.384982,4.0873756
-30.807806,3.3920689,4.0980244
-30.834337,3.3889725,4.095504
-30.861101,3.3853457,4.0923567
-30.887432,3.383596,4.091708
-30.913982,3.3813152,4.090432
-30.941319,3.3767042,4.0861993
-30.96781,3.375169,4.0860157
-30.993172,3.3773034,4.090643
-31.0179,3.3813002,4.0977364
-31.044834,3.3787737,4.0964518
-31.072462,3.3745267,4.0930085
-31.101933,3.3655753,4.0835595
-31.130466,3.3596964,4.0781493
-31.157518,3.3580737,4.0782995
-31.185085,3.3553333,4.0770755
-31.210785,3.357431,4.0821466
-31.235222,3.362568,4.0911884
-31.262354,3.3612318,4.0919604
-31.292631,3.3528507,4.083746
-31.320704,3.349893,4.082576
-31.349657,3.3452396,4.079299
-31.378164,3.3418517,4.0777187
-31.404495,3.3432693,4.0823646
-31.430815,3.3447566,4.087161
-31.45712,3.3463137,4.0921097
-31.49238,3.3302927,4.0746694
-31.519436,3.3308377,4.0784717
-31.549599,3.3255892,4.074954
-31.577667,3.3245318,4.0768533
-31.605452,3.3241374,4.079668
-31.629658,3.3302479,4.0908194
-31.65776,3.3294156,4.0932083
-31.688604,3.3240027,4.089857
-31.723013,3.3128662,4.0793386
-31.754154,3.3076496,4.0764136
-31.78577,3.301947,4.07296
-31.81535,3.299816,4.0741034
-31.840221,3.3052845,4.0849123
-31.866497,3.3085065,4.092947
-31.89613,3.306614,4.0946074
-31.939608,3.2841034,4.0704346
-31.968382,3.2841427,4.0747128
-32.001114,3.2785323,4.0719824
-32.035175,3.271309,4.0673265
-32.058052,3.2801833,4.0828996
-32.08776,3.2794197,4.086485
-32.127068,3.265657,4.0739408
-32.16708,3.2514634,4.0609856
-32.199276,3.248178,4.0617247
-32.226376,3.2517805,4.071108
-32.252987,3.2560203,4.0813484
-32.282642,3.2563872,4.0868607
-32.31724,3.250655,4.084914
-32.359226,3.2360566,4.07213
-32.396004,3.2283278,4.0679526
-32.428776,3.2257514,4.0702276
-32.458805,3.2266226,4.0768332
-32.48837,3.2281382,4.084312
-32.523205,3.2236333,4.0845017
-32.569298,3.206501,4.06937
-32.61133,3.1945143,4.060676
-32.647663,3.189294,4.060364
-32.676117,3.1929958,4.0710096
-32.70402,3.1973257,4.082494
-32.74004,3.1929722,4.083537
-32.78854,3.1756296,4.0689955
-32.82906,3.1671875,4.065368
-32.86345,3.1654096,4.0698986
-32.89259,3.1691632,4.0811815
-32.925972,3.1686738,4.0874577
-32.968586,3.1591196,4.0829906
-33.02505,3.1362686,4.0627956
-33.06103,3.134032,4.0673795
-33.090965,3.1378005,4.079219
-33.12815,3.1347165,4.083015
-33.176163,3.121644,4.0751123
-33.22558,3.1076908,4.066347
-33.264927,3.1034532,4.069214
-33.300316,3.103046,4.0767155
-33.34218,3.096963,4.0776787
-33.385944,3.0894542,4.0771217
-33.44058,3.0726833,4.065916
-33.484756,3.0655193,4.066106
-33.527283,3.0600755,4.0684547
-33.565063,3.0589333,4.0759354
-33.620068,3.0434377,4.066972
-33.669197,3.0333138,4.064413
-33.720406,3.0218334,4.0604854
-33.757427,3.0223324,4.0704775
-33.81089,3.0096748,4.065571
-33.871605,2.9916253,4.054737
-33.917297,2.9859993,4.058263
-33.958595,2.9840808,4.0661583
-34.0201,2.9666786,4.056728
-34.07998,2.9510317,4.0495343
-34.130943,2.9426367,4.050723
-34.162197,2.9494076,4.069072
-34.2354,2.924936,4.052701
-34.2916,2.9136603,4.0513134
-34.36087,2.8932204,4.040015
-34.39787,2.8966932,4.0554066
-34.468384,2.8762565,4.0446396
-34.52757,2.8644211,4.043612
-34.575207,2.861099,4.0521317
-34.64106,2.8453398,4.0473127
-34.71072,2.827434,4.04046
-34.759544,2.8242626,4.0498323
-34.807037,2.8222325,4.060629
-34.905987,2.785972,4.0349445
-34.96466,2.7772846,4.03917
-35.00907,2.7783127,4.0539765
-35.093422,2.7535224,4.0416327
-35.16654,2.7366242,4.0380135
-35.206203,2.7415862,4.0576806
-35.293037,2.716815,4.046426
-35.36325,2.7031112,4.047111
-35.429245,2.6924758,4.0513053
-35.49694,2.6811874,4.0551333
-35.591217,2.6541133,4.043076
-35.658707,2.6439075,4.0487266
-35.764435,2.6112242,4.0318456
-35.84549,2.593968,4.031119
-35.91917,2.5815697,4.035684
-36.01083,2.5591483,4.030571
-36.088917,2.545177,4.034346
-36.19764,2.514173,4.021632
-36.259132,2.5106924,4.0366225
-36.335644,2.4990745,4.043927
-36.464497,2.4587944,4.023679
-36.53768,2.4501417,4.0347915
-36.65883,2.4156885,4.021412
-36.724525,2.412099,4.038263
-36.875484,2.363093,4.0121975
-36.937645,2.362399,4.0327044
-37.09222,2.313295,4.0079994
-37.146667,2.3175802,4.034062
-37.30483,2.2683976,4.010759
-37.403057,2.2510765,4.0177526
-37.541092,2.2141025,4.0072923
-37.679707,2.1777651,3.9982142
-37.798134,2.1524217,3.9998684
-37.86364,2.1539838,4.026315
-38.02361,2.109491,4.012132
-38.200195,2.058,3.9927344
-38.30344,2.043035,4.006408
-38.436493,2.014406,4.008801
-38.621704,1.9619117,3.9914207
-38.725132,1.9490035,4.0090294
-22.519875,1.8763366,3.4331417
-22.895992,2.0425096,3.5738564
-22.946806,2.0343006,3.5438309
-23.853855,2.498272,3.984809
-24.0432,2.571723,4.039623
-23.946688,2.4862547,3.935317
-23.322292,2.1002958,3.5259295
-23.419268,2.1200075,3.5258732
-24.046347,2.446328,3.8400888
-24.031858,2.4052002,3.779955
-23.750765,2.206776,3.5570889
-23.782211,2.190371,3.5215206
-23.822971,2.1794822,3.4917984
-23.869896,2.1723607,3.4661684
-23.90044,2.155349,3.430303
-23.932724,2.1393304,3.3955712
-23.969685,2.1261587,3.363956
-25.282108,2.913659,4.1864586
-25.326523,2.9127922,4.1718426
-25.34687,2.8967004,4.141028
-25.408775,2.907329,4.1391096
-25.481998,2.9257274,4.1458855
-25.538387,2.9335818,4.1415186
-25.592468,2.9402375,4.136079
-25.659155,2.9556618,4.140483
-25.727654,2.972793,4.147059
-25.774113,2.975356,4.137841
-25.853207,3.0006928,4.154057
-25.893084,2.999338,4.14093
-25.98864,3.037362,4.171918
-26.039083,3.0442052,4.168414
-26.085299,3.0483136,4.162037
-26.11724,3.042308,4.1444316
-26.169365,3.051144,4.1437206
-26.220633,3.0596876,4.1428847
-26.262455,3.0614998,4.134587
-26.31144,3.0689223,4.1328487
-26.363522,3.079021,4.1343656
-26.41085,3.0858204,4.1322956
-26.468967,3.1013234,4.1404357
-26.506958,3.1014576,4.1310477
-26.56078,3.1143422,4.136568
-26.618746,3.1309824,4.1466637
-26.65136,3.12753,4.1335735
-26.688969,3.1282558,4.1254683
-26.73701,3.1378012,4.127823
-26.787899,3.150091,4.133581
-26.84521,3.1682339,4.1464267
-26.876265,3.1644177,4.133568
-26.907953,3.1612132,4.121525
-26.952116,3.1690052,4.122626
-27.00257,3.182684,4.130887
-27.060902,3.2038646,4.14828
-27.091057,3.2001472,4.1361446
-27.12469,3.1996698,4.127977
-27.170809,3.2108824,4.133948
-27.222324,3.2275457,4.1466413
-27.261768,3.2332897,4.1463585
-27.291658,3.230147,4.1354685
-27.323225,3.2286894,4.126704
-27.361858,3.2342656,4.1265674
-27.403053,3.2426493,4.129971
-27.444593,3.2517161,4.134345
-27.48435,3.259317,4.1370687
-27.510838,3.2535772,4.1236067
-27.547781,3.2587185,4.123545
-27.585625,3.2650676,4.1250834
-27.629932,3.278606,4.135587
-27.667915,3.285773,4.13839
-27.695768,3.2821555,4.128
-27.722183,3.2769752,4.115749
-27.756475,3.2806373,4.114518
-27.793568,3.2877069,4.1176195
-27.831451,3.296003,4.122361
-27.871515,3.3071876,4.1308174
-27.9062,3.312428,4.131991
-27.931986,3.307249,4.1202517
-27.96241,3.307692,4.115609
-27.995506,3.3115668,4.115349
-28.031178,3.3188932,4.119517
-28.070648,3.3313684,4.1302624
-28.102457,3.3344588,4.129321
-28.126448,3.3275456,4.115861
-28.15394,3.3251898,4.108205
-28.185225,3.3279808,4.1071234
-28.217672,3.33256,4.108392
-28.255314,3.3445926,4.119197
-28.287464,3.3493881,4.1209335
-28.317514,3.3514452,4.11928
-28.345543,3.3507485,4.1142035
-28.371634,3.3472834,4.105671
-28.402716,3.3513045,4.1067486
-28.4352,3.357707,4.1109495
-28.46458,3.35963,4.1095157
-28.497906,3.367948,4.1163416
-28.527107,3.3700528,4.1153016
-28.553423,3.3676414,4.1085434
-28.582197,3.3693328,4.1071167
-28.610577,3.37053,4.1051273
-28.641602,3.376432,4.1092625
-28.669188,3.3766398,4.106147
-28.697075,3.377504,4.1039453
-28.72716,3.3825102,4.1071577
-28.754622,3.382955,4.104556
-28.781748,3.3828943,4.1013675
-28.808556,3.3823252,4.0975857
-28.837433,3.3859143,4.0992537
-28.867382,3.391924,4.1041336
-28.895205,3.3939266,4.1038904
-28.922691,3.3954215,4.103056
-28.950678,3.3981657,4.1039114
-28.97699,3.3974655,4.100354
-29.003561,3.3974228,4.0977154
-29.031654,3.4009843,4.0998325
-29.058413,3.4016783,4.098281
-29.085875,3.4042149,4.099196
-29.114225,3.4091892,4.1033583
-29.140137,3.4083333,4.0999737
-29.166279,3.4081378,4.0975113
-29.192854,3.4091961,4.0967493
-29.220686,3.413883,4.1007977
-29.24569,3.4109335,4.0949135
-29.270536,3.4074545,4.0883884
-29.295635,3.404632,4.082779
-29.322891,3.4084191,4.0858946
-29.350803,3.4146624,4.0922985
-29.377861,3.4185998,4.0957413
-29.403088,3.416648,4.0915093
-29.428846,3.4165516,4.0897713
-29.455084,3.418314,4.090536
-29.479242,3.4123774,4.08123
-29.50562,3.4148722,4.0830736
-29.531067,3.413847,4.0803423
-29.55736,3.416481,4.0824857
-29.583591,3.4191842,4.0847807
-29.610016,3.4231563,4.088808
-29.635263,3.421801,4.0858693
-29.661451,3.425311,4.089405
-29.686583,3.4234877,4.0859604
-29.711843,3.4223294,4.0834494
-29.736734,3.4188323,4.0779047
-29.762325,3.4196062,4.0780544
-29.787386,3.4168382,4.0735817
-29.813208,3.4195485,4.076401
-29.83919,3.4241316,4.081753
-29.863596,3.4155402,4.069747
-29.889027,3.4154387,4.069018
-29.914068,3.411187,4.0628567
-29.940079,3.417842,4.071172
-29.965563,3.4191427,4.072464
-29.990757,3.4162912,4.068319
-30.015785,3.4092846,4.0587316
-30.041382,3.412589,4.0628395
-30.06689,3.4153566,4.0662932
-30.092371,3.4193962,4.071485
-30.11776,3.422898,4.076021
-30.143057,3.4168186,4.0679336
-30.16846,3.4126124,4.062381
-30.193714,3.4217362,4.074521
-30.218752,3.4321299,4.0883956
-30.244602,3.4154603,4.066518
-30.27004,3.4145305,4.065521
-30.295256,3.417885,4.0702457
-30.320446,3.420701,4.074314
-30.34549,3.4247863,4.0801153
-30.371084,3.4217072,4.076495
-30.3968,3.4180927,4.0722246
-30.422462,3.415749,4.0696907
-30.448244,3.412871,4.0665073
-30.473627,3.4136696,4.068239
-30.498835,3.4157372,4.071703
-30.524889,3.4118562,4.0673637
-30.55055,3.411049,4.0671425
-30.577139,3.4049017,4.059928
-30.602152,3.408434,4.065549
-30.627213,3.4114294,4.0705147
-30.653284,3.4090886,4.0684967
-30.679903,3.4044187,4.063465
-30.705843,3.4034157,4.0633287
-30.7314,3.4042778,4.065708
-30.756947,3.4052062,4.0682297
-30.783222,3.4032097,4.066957
-30.808159,3.406663,4.072916
-30.833996,3.4065948,4.0742965
-30.858849,3.4101758,4.080533
-30.886211,3.4048712,4.075145
-30.914223,3.3978539,4.0675716
-30.94128,3.3944898,4.064863
-30.968983,3.3894138,4.0599713
-30.993868,3.393335,4.066945
-31.019289,3.3955364,4.071718
-31.046125,3.3936472,4.071188
-31.073435,3.3906446,4.0692635
-31.10169,3.3853474,4.0644007
-31.126919,3.3884177,4.070548
-31.15302,3.3891866,4.073744
-31.180065,3.3876615,4.074003
-31.20691,3.3867998,4.075192
-31.232792,3.3883696,4.0796137
-31.261446,3.3835287,4.075742
-31.290209,3.3787708,4.072047
-31.317225,3.3782077,4.073884
-31.346972,3.3718495,4.06825
-31.372711,3.3743722,4.0742283
-31.399828,3.3740342,4.0765524
-31.42927,3.3690922,4.0729704
-31.459412,3.363069,4.0680614
-31.489388,3.357718,4.064102
-31.52101,3.3495436,4.056568
-31.547834,3.3507729,4.0612717
-31.57117,3.3584642,4.074381
-31.59953,3.3569288,4.075637
-31.63154,3.3491025,4.068857
-31.660389,3.3471594,4.0697384
-31.68963,3.3447208,4.070057
-31.720318,3.3400612,4.067595
-31.751463,3.3349185,4.064596
-31.779526,3.3350427,4.068432
-31.807964,3.3346725,4.071704
-31.839,3.3303714,4.0700216
-31.866041,3.3324566,4.07658
-31.898733,3.3260498,4.0723686
-31.933872,3.3163252,4.0640206
-31.961046,3.3186662,4.071134
-31.988197,3.321081,4.0784073
-32.03573,3.2946506,4.049123
-32.0554,3.3080196,4.070467
-32.082645,3.3106897,4.078294
-32.117775,3.3027196,4.072731
-32.15561,3.2914882,4.0631533
-32.191975,3.282632,4.0566883
-32.221607,3.2828674,4.061784
-32.252575,3.2815104,4.0649548
-32.280045,3.2847133,4.0739374
-32.309723,3.285205,4.0795884
-32.357574,3.2635412,4.057581
-32.390244,3.2609243,4.0595493
-32.425777,3.255087,4.0575914
-32.4544,3.2576537,4.0662136
-32.482998,3.260301,4.0750103
-32.51301,3.2613788,4.0819325
-32.565365,3.2373,4.0577455
-32.601025,3.2325892,4.05772
-32.63531,3.2296343,4.0599747
-32.668175,3.2284245,4.0644836
-32.69704,3.2316666,4.0745707
-32.731495,3.2290244,4.0775023
-32.774292,3.2178354,4.0700555
-32.81315,3.2111192,4.0682297
-32.84953,3.2072284,4.0699825
-32.887604,3.201847,4.0700326
-32.92098,3.201416,4.0762305
-32.962513,3.1930757,4.072922
-33.01079,3.1784885,4.0621815
-33.053852,3.1693978,4.0582657
-33.08876,3.168413,4.0642815
-33.118668,3.1722984,4.076271
-33.168915,3.1572921,4.0656424
-33.21319,3.148261,4.0623646
-33.255356,3.1414886,4.061945
-33.291283,3.140615,4.068712
-33.3255,3.1414237,4.0775976
-33.36859,3.1345453,4.0774593
-33.421955,3.1190126,4.0672164
-33.469032,3.109371,4.0641427
-33.515713,3.1004198,4.062056
-33.554054,3.0988312,4.068802
-33.59737,3.0932775,4.071024
-33.65814,3.073587,4.056862
-33.70496,3.0658453,4.0568886
-33.743786,3.0648704,4.064965
-33.785824,3.0615,4.0703936
-33.84452,3.0451758,4.0609818
-33.89199,3.038127,4.062512
-33.941555,3.0297537,4.0626974
-33.994553,3.0190725,4.0604267
-34.051704,3.0056129,4.055188
-34.10451,2.9958484,4.0543957
-34.15686,2.986782,4.054608
-34.214077,2.974471,4.051351
-34.28567,2.9520867,4.0369515
-34.334675,2.9466205,4.041911
-34.37699,2.946207,4.052733
-34.437172,2.933327,4.0497694
-34.506577,2.9144022,4.040324
-34.551357,2.9131079,4.050764
-34.59619,2.9119751,4.061555
-34.6755,2.8875768,4.0468645
-34.71993,2.8873334,4.0590725
-34.792824,2.8682702,4.0508547
-34.863934,2.8509312,4.0448484
-34.933933,2.8348317,4.0405083
-34.994843,2.8251188,4.0433946
-35.056675,2.8151832,4.0463066
-35.116516,2.8068924,4.0512567
-35.17653,2.7988403,4.056723
-35.230793,2.7947185,4.066636
-35.337154,2.7586393,4.042923
-35.407566,2.745462,4.0439014
-35.460217,2.7435136,4.0569997
-35.560448,2.7131796,4.0406466
-35.639233,2.6963944,4.038897
-35.726704,2.674996,4.0327487
-35.805374,2.6593523,4.0329647
-35.885094,2.6435974,4.033448
-35.970516,2.6250744,4.0314975
-36.061703,2.603826,4.0272036
-36.143124,2.5886965,4.0295515
-36.241272,2.5647178,4.023413
-36.309917,2.5577385,4.034772
-36.418247,2.5293453,4.025176
-36.49051,2.5213046,4.0362735
-36.588463,2.4998102,4.034501
-36.700405,2.471476,4.0265617
-36.797527,2.4517345,4.0275726
-36.91681,2.4209833,4.0184684
-37.00981,2.4046855,4.0238867
-37.123466,2.3783064,4.0201874
-37.24982,2.3461802,4.011667
-37.331516,2.3374703,4.0258975
-37.490887,2.2902732,4.00457
-37.60298,2.267662,4.007
-37.724583,2.2410562,4.0063744
