x,y,z
-23.278374,1.7247701,4.0876317
-23.403536,1.7666104,4.0967884
-23.48451,1.7816112,4.0851884
-23.577682,1.8048139,4.0806756
-23.67208,1.8294055,4.0778375
-23.756142,1.8479667,4.070614
-23.87359,1.8887659,4.0821924
-23.928043,1.8891504,4.0609646
-24.037037,1.9258289,4.0702934
-24.111576,1.940348,4.0616603
-24.186653,1.9556795,4.054121
-24.30854,2.0032654,4.074395
-24.391844,2.025444,4.07368
-24.482948,2.0535955,4.07856
-24.541283,2.059579,4.064791
-24.677797,2.1208541,4.0993714
-24.741356,2.1316204,4.090624
-24.801853,2.1405663,4.0806046
-24.908287,2.183044,4.1005015
-24.95751,2.18475,4.084813
-25.028776,2.2028775,4.0840034
-25.099762,2.2212973,4.0838284
-25.181023,2.2479215,4.091414
-25.220562,2.243658,4.071474
-25.2706,2.2474923,4.0590625
-25.360012,2.281887,4.0748057
-25.395231,2.2749615,4.053103
-25.45995,2.2912116,4.052904
-25.527126,2.3098736,4.0552597
-25.575087,2.3136892,4.0441437
-25.637747,2.329595,4.044535
-25.703482,2.3484669,4.048014
-25.77156,2.3697827,4.054119
-25.803734,2.3618484,4.032904
-25.87527,2.3869164,4.043133
-25.940552,2.4073277,4.049281
-25.999687,2.4230342,4.0512466
-26.0265,2.4112978,4.027136
-26.09488,2.4357114,4.037951
-26.145779,2.4453697,4.0348253
-26.221,2.476995,4.0532537
-26.249565,2.467494,4.031985
-26.30179,2.4794087,4.0317445
-26.361795,2.4988403,4.039112
-26.424522,2.5213318,4.0497713
-26.454788,2.514059,4.0313277
-26.502579,2.5233383,4.029385
-26.559145,2.541332,4.0363092
-26.62546,2.56925,4.053385
-26.65609,2.5630903,4.0366874
-26.700779,2.570792,4.0339975
-26.76323,2.5964897,4.0496016
-26.812641,2.6097443,4.052935
-26.848753,2.6098785,4.043199
-26.88879,2.6141863,4.0378313
-26.92595,2.6157231,4.029798
-26.977463,2.6325295,4.0374904
-27.031425,2.6524496,4.0485897
-27.069263,2.6555958,4.0427094
-27.10272,2.6541698,4.0322638
-27.142597,2.659905,4.029322
-27.19136,2.675799,4.0370407
-27.233025,2.6841881,4.03718
-27.272455,2.6903515,4.035166
-27.303017,2.6865542,4.022922
-27.339233,2.6893883,4.0177007
-27.378916,2.6965113,4.017101
-27.430952,2.7187076,4.0324683
-27.467268,2.7225351,4.0287333
-27.499586,2.7216773,4.0201874
-27.53578,2.7257264,4.0169334
-27.574764,2.7335067,4.0177565
-27.620712,2.750474,4.0284724
-27.655567,2.7536902,4.024749
-27.688034,2.753984,4.018032
-27.729652,2.7665234,4.024494
-27.766508,2.7731194,4.024757
-27.80189,2.7780051,4.023316
-27.845592,2.79461,4.034583
-27.878922,2.797292,4.031038
-27.904835,2.789651,4.0164766
-27.937275,2.791288,4.0120034
-27.972628,2.7973285,4.0123973
-28.007027,2.802248,4.0116987
-28.047499,2.8165364,4.021285
-28.083242,2.824158,4.0237713
-28.116432,2.828176,4.0224533
-28.146772,2.8279495,4.0166154
-28.180222,2.8327823,4.0163975
-28.21242,2.8358498,4.0143566
-28.247583,2.8440013,4.0179906
-28.29007,2.8647552,4.0355787
-28.316706,2.859384,4.024603
-28.343786,2.8547077,4.0144634
-28.376297,2.8595116,4.0148506
-28.410822,2.8681831,4.0196123
-28.444838,2.8763328,4.023912
-28.47972,2.8864775,4.0305314
-28.510384,2.8891604,4.0289936
-28.53835,2.8868766,4.0220366
-28.564396,2.880872,4.011023
-28.595318,2.8844337,4.010722
-28.623972,2.8836446,4.00567
-28.654474,2.8867445,4.005036
-28.693977,2.9090068,4.025894
-28.72329,2.9103925,4.023551
-28.750818,2.9080358,4.017103
-28.780945,2.9114943,4.0172486
-28.809322,2.9112048,4.0132785
-28.837694,2.9109921,4.0094748
-28.864983,2.9082944,4.002958
-28.905453,2.937716,4.032653
-28.933817,2.9384027,4.030129
-28.957886,2.928246,4.015463
-28.983843,2.9226453,4.005994
-29.012291,2.9235444,4.0039325
-29.041418,2.926453,4.004221
-29.068882,2.9249282,3.999578
-29.102385,2.9408994,4.014819
-29.130598,2.942117,4.0134478
-29.159838,2.9466429,4.0159063
-29.188782,2.9506028,4.017806
-29.216648,2.9514046,4.016202
-29.244104,2.950985,4.013286
-29.271559,2.9506364,4.0105257
-29.300657,2.9562016,4.0145693
-29.328232,2.9566512,4.01287
-29.35545,2.9558737,4.0098476
-29.38251,2.9545164,4.006236
-29.413572,2.9694982,4.0213366
-29.441597,2.9728491,4.0232534
-29.470144,2.9788814,4.028311
-29.498863,2.9862952,4.0350256
-29.525263,2.9833517,4.02998
-29.553015,2.9870014,4.032545
-29.576836,2.9704843,4.0121098
-29.604624,2.9742713,4.0149727
-29.630875,2.9696364,4.0082664
-29.657202,2.9650679,4.0017033
-29.68482,2.968415,4.00428
-29.711231,2.9639826,3.9980123
-29.736107,2.9478343,3.9783764
-29.766615,2.973652,4.0069447
-29.793472,2.972701,4.004883
-29.820414,2.972475,4.003723
-29.847424,2.972973,4.0034666
-29.874538,2.974852,4.004866
-29.901348,2.9735231,4.002653
-29.928371,2.9748864,4.003603
-29.955198,2.973695,4.001689
-29.982227,2.975853,4.0036936
-30.009062,2.9748006,4.0020804
-30.035841,2.971848,3.9983525
-30.062782,2.9729018,3.9993005
-30.089602,2.9687743,3.994363
-30.116486,2.9640598,3.9888206
-30.143465,2.9666333,3.9917269
-30.170404,2.9686203,3.9940286
-30.197222,2.9759269,4.0025163
-30.22371,2.9911768,4.0202045
-30.250484,2.990088,4.019181
-30.277504,2.983819,4.0122743
-30.313763,2.8024502,3.8042216
-19.713276,0.73941255,4.08828
-19.89208,0.78664374,4.0782814
-20.10878,0.8542857,4.082957
-20.322983,0.9220824,4.0892835
-20.521957,0.9834275,4.0927973
-20.73035,1.0510113,4.101948
-20.91517,1.1076028,4.1050143
-21.023716,1.1249328,4.0821147
-21.169739,1.1629021,4.0743837
-21.377865,1.2353048,4.092012
-21.50113,1.2630103,4.0791173
-21.608328,1.2826347,4.0611935
-21.80029,1.3497586,4.0785494
-21.980694,1.4118245,4.0934844
-22.136543,1.4613743,4.1003456
-22.22892,1.4760015,4.082103
-22.41866,1.5468259,4.106826
-22.489246,1.5503507,4.081602
-22.628351,1.5940404,4.087589
-22.749203,1.6279993,4.086939
-22.8368,1.643096,4.0723433
-23.007057,1.7080019,4.0973806
-23.058212,1.7025735,4.0678635
-23.244545,1.7793136,4.104097
-23.29293,1.77316,4.0749793
-23.451847,1.835349,4.101357
-23.49604,1.8273976,4.0716267
-23.630404,1.8761452,4.0885806
-23.676744,1.8701968,4.061222
-23.824722,1.9292824,4.0881014
-23.892979,1.9382293,4.073976
-23.951195,1.941012,4.055031
-24.067783,1.9823133,4.0689864
-24.127148,1.9866917,4.0521865
-24.217999,2.0123515,4.05392
-24.319683,2.0459497,4.063005
-24.425331,2.0830252,4.0756865
-24.536345,2.1246243,4.092916
-24.592981,2.1295717,4.0786653
-24.70155,2.1709995,4.0968385
-24.75921,2.1775398,4.0847254
-24.834164,2.1966505,4.084093
-24.927563,2.2294981,4.0961514
-24.968834,2.225442,4.0755243
-25.031548,2.2371254,4.0693054
-25.12315,2.2704546,4.083065
-25.186028,2.2832332,4.0785627
-25.24379,2.292584,4.071228
-25.304188,2.304267,4.066323
-25.382412,2.329944,4.074667
-25.412695,2.3193207,4.0496616
-25.479422,2.3370092,4.0512037
-25.549263,2.3576393,4.055836
-25.591038,2.3565745,4.0403795
-25.622734,2.3475847,4.017602
-25.730705,2.4001951,4.0534487
-25.792702,2.4164793,4.055232
-25.826733,2.410205,4.0357103
-25.87395,2.4149265,4.0268855
-25.96598,2.4575155,4.054808
-26.017242,2.4665275,4.0506835
-26.060638,2.4691353,4.040562
-26.107803,2.4752014,4.0339947
-26.16689,2.4919436,4.038085
-26.221914,2.5055902,4.0394087
-26.266092,2.5099926,4.0318623
-26.321959,2.525147,4.03514
-26.380026,2.5427542,4.041106
-26.4384,2.5611484,4.0481215
-26.47585,2.560646,4.0365148
-26.527126,2.573238,4.038181
-26.58057,2.5882838,4.042537
-26.634342,2.6041,4.047907
-26.67432,2.6070418,4.0404816
-26.720064,2.61582,4.0391364
-26.779526,2.6384807,4.052117
-26.825401,2.6481943,4.052143
-26.858587,2.645431,4.0395794
-26.896877,2.6479535,4.032558
-26.944057,2.6598406,4.035324
-26.998232,2.6794248,4.0462356
-27.040518,2.6870294,4.0449743
-27.075577,2.6872182,4.036182
-27.111156,2.6880999,4.0282326
-27.1558,2.6990304,4.0308967
-27.204483,2.7148063,4.0388093
-27.246582,2.7237139,4.039718
-27.278109,2.7209969,4.028568
-27.310177,2.7189608,4.018238
-27.35094,2.7270703,4.0187297
-27.407211,2.753687,4.038971
-27.448505,2.7633,4.041409
-27.478231,2.7593687,4.0295978
-27.506536,2.7537303,4.0160584
-27.542196,2.757132,4.0122595
-27.59314,2.7798095,4.0292196
-27.63608,2.7930765,4.036293
-27.67408,2.8004813,4.0372286
-27.701717,2.794756,4.0241575
-27.732653,2.7933288,4.0158052
-27.769045,2.7992492,4.0154943
-27.8134,2.8161945,4.0272565
-27.854786,2.8296545,4.035405
-27.885397,2.8286572,4.0279837
-27.916012,2.8277476,4.0207534
-27.949192,2.830589,4.017712
-27.98231,2.8335314,4.0148883
-28.021202,2.845151,4.0216775
-28.065233,2.86488,4.0375023
-28.094671,2.8632464,4.030015
-28.120512,2.856151,4.016605
-28.149231,2.8534384,4.008093
-28.186577,2.864397,4.0147624
-28.22256,2.8736205,4.019642
-28.263306,2.8910177,4.0336986
-28.29512,2.8942745,4.032215
-28.322807,2.8907862,4.0233364
-28.350903,2.8879933,4.0153093
-28.382256,2.8908887,4.0136995
-28.414602,2.8957496,4.014378
-28.450666,2.9075866,4.022953
-28.482069,2.9113975,4.02267
-28.518766,2.9253354,4.0338273
-28.542646,2.915525,4.0184727
-28.569937,2.9120584,4.0102983
-28.60015,2.9143298,4.008651
-28.633448,2.9229932,4.014287
-28.661957,2.9222877,4.00947
-28.704082,2.9501061,4.0369196
-28.730259,2.9451585,4.027508
-28.757093,2.9415445,4.0196724
-28.78484,2.9399033,4.014141
-28.81232,2.9376998,4.008048
-28.843676,2.9444704,4.0122113
-28.879734,2.9627914,4.029585
-28.912563,2.9742184,4.039242
-28.940285,2.9736242,4.035324
-28.963726,2.9622478,4.019205
-28.989574,2.9566772,4.009755
-29.017916,2.957569,4.0077443
-29.045294,2.9559746,4.0029736
-29.075438,2.9621453,4.0071497
-29.108362,2.9767423,4.0210505
-29.136015,2.9766686,4.018261
-29.16366,2.9766684,4.015631
-29.191296,2.976741,4.0131598
-29.219723,2.9794621,4.0138006
-29.248676,2.9841933,4.016828
-29.277536,2.9890041,4.0200286
-29.305387,2.9906683,4.0196924
-29.332668,2.9904695,4.017289
-29.36046,2.99228,4.017272
-29.386227,2.9864063,4.008479
-29.414167,2.9890072,4.0095177
-29.444054,3.0000992,4.020421
-29.474474,3.0145152,4.035243
-29.501642,3.0154061,4.034546
-29.527971,3.012477,4.0295095
-29.55565,3.0161037,4.032115
-29.578897,2.9970813,4.0086184
-29.605688,2.9956484,4.0055118
-29.633064,2.9975333,4.0063114
-29.66051,3.0001397,4.0080194
-29.68699,2.9969654,4.003108
-29.714859,3.002967,4.00889
-29.740467,2.9934218,3.9967396
-29.768835,3.0041237,4.008111
-29.795763,3.0044808,4.007571
-29.822105,2.9996963,4.001141
-29.849522,3.004753,4.0061893
-29.876541,3.0066223,4.007614
-29.903198,3.0046504,4.0046515
-29.929937,3.003399,4.002595
-29.956867,3.004824,4.0037146
-29.983732,3.0056672,4.0042267
-30.01064,3.0078835,4.006404
-30.037382,3.0069075,4.004944
-30.064028,3.0020847,3.9990888
-30.09081,2.9999404,3.9964118
-30.117682,3.002433,3.999188
-30.144512,3.0089111,4.0066586
-30.171265,3.0102363,4.008219
-30.197927,3.0155463,4.014472
-30.224295,3.0287552,4.0299644
-30.250986,3.0257177,4.0266657
-30.278044,3.015572,4.0151854
-30.315908,2.8032622,3.7691517
-19.381958,0.7230449,4.094687
-19.650816,0.81159997,4.109877
-19.897984,0.8912225,4.1211877
-20.054989,0.9274726,4.105569
-20.242382,0.9799509,4.101907
-20.391651,1.0142643,4.0872517
-20.53373,1.0457828,4.0716996
-20.760986,1.1221092,4.0881243
-20.93581,1.1727185,4.0881524
-21.135252,1.2373917,4.0993137
-21.276878,1.2728355,4.0909834
-21.38716,1.2924302,4.0721636
-21.5738,1.353729,4.0843983
-21.752186,1.4118555,4.095562
-21.814945,1.4079521,4.0619326
-22.002937,1.473361,4.080497
-22.2114,1.5515251,4.109941
-22.292961,1.5600557,4.087782
-22.432228,1.6016376,4.091469
-22.599323,1.6600554,4.1090717
-22.67193,1.6653278,4.0863028
-22.822512,1.7161906,4.0997863
-22.896282,1.7231939,4.0794787
-23.04018,1.7719536,4.0929193
-23.149235,1.8010314,4.091435
-23.271336,1.838671,4.0975447
-23.351938,1.852048,4.084604
-23.471579,1.8897237,4.09208
-23.54929,1.9024335,4.0796294
-23.678915,1.9478428,4.0948405
-23.709583,1.932221,4.0596786
-23.86145,1.9931711,4.089226
-23.89048,1.9770479,4.054268
-24.001427,2.0135508,4.0643654
-24.114115,2.0520267,4.076805
-24.16196,2.0489287,4.0539556
-24.297888,2.1041484,4.082048
-24.35886,2.1105995,4.0682864
-24.446552,2.135319,4.0709033
-24.536093,2.161923,4.075672
-24.628912,2.1914363,4.08352
-24.740356,2.2345219,4.1040177
-24.7891,2.2348914,4.08675
-24.8509,2.2446241,4.078169
-24.950813,2.281744,4.0947657
-24.985514,2.273045,4.070098
-25.057476,2.291275,4.07026
-25.148323,2.3237782,4.0839458
-25.18922,2.3203115,4.064814
-25.256844,2.3367915,4.0644083
-25.329086,2.3572075,4.06802
-25.392668,2.3716238,4.0663667
-25.451181,2.382607,4.0617857
-25.497166,2.384307,4.048694
-25.571737,2.4084382,4.057134
-25.605267,2.4009647,4.0357676
-25.672562,2.4202738,4.0402064
-25.760279,2.456453,4.061216
-25.797544,2.4527273,4.044105
-25.845423,2.4577425,4.035619
-25.91158,2.478065,4.0422544
-25.991081,2.5100403,4.060605
-26.022785,2.502652,4.040712
-26.073887,2.5117192,4.037141
-26.12291,2.5193362,4.032361
-26.202871,2.5540237,4.0546546
-26.235645,2.5483189,4.0371237
-26.284756,2.557064,4.0341444
-26.325014,2.5582395,4.0237856
-26.407759,2.5978594,4.052258
-26.438452,2.591062,4.0342937
-26.492918,2.6061275,4.0385637
-26.54049,2.6152418,4.0370307
-26.60105,2.6368816,4.048457
-26.641651,2.6401825,4.0414176
-26.685715,2.647008,4.0381484
-26.72731,2.651725,4.0328884
-26.798353,2.6855276,4.057781
-26.84181,2.692881,4.055656
-26.867462,2.6827033,4.0355244
-26.905132,2.6845975,4.0280166
-26.957317,2.7015219,4.036319
-27.018087,2.72784,4.0546618
-27.055271,2.7301989,4.048161
-27.084759,2.7245913,4.0334215
-27.128384,2.7341201,4.034722
-27.172365,2.7443829,4.036969
-27.217747,2.756546,4.041401
-27.262379,2.7682893,4.045567
-27.283342,2.7538896,4.02209
-27.323114,2.7606177,4.0211897
-27.36684,2.772176,4.0256014
-27.408834,2.7821236,4.0284557
-27.454147,2.796345,4.0360584
-27.486301,2.7953615,4.027474
-27.517965,2.7938821,4.018459
-27.557896,2.8025854,4.0205503
-27.596214,2.8096392,4.021002
-27.645811,2.8311238,4.0372553
-27.683727,2.8384595,4.038318
-27.707539,2.8279672,4.020087
-27.741177,2.8301198,4.01572
-27.78386,2.8443918,4.0247235
-27.820883,2.8515887,4.0261316
-27.862652,2.8655405,4.035086
-27.900646,2.8748033,4.0390368
-27.923708,2.863609,4.0205736
-27.954664,2.863381,4.0142717
-27.991114,2.8711405,4.016899
-28.034935,2.8899732,4.031919
-28.076347,2.9059126,4.043893
-28.103205,2.900618,4.0324135
-28.13416,2.9015107,4.027896
-28.162306,2.8982036,4.0187893
-28.192451,2.8980408,4.013274
-28.22683,2.904727,4.01551
-28.268303,2.923221,4.0310874
-28.299309,2.9252052,4.02829
-28.327309,2.9223363,4.020135
-28.355343,2.9195437,4.0121427
-28.385565,2.9205427,4.008502
-28.41858,2.926592,4.010648
-28.452515,2.9346063,4.015118
-28.495874,2.9601507,4.039528
-28.523281,2.9571805,4.0317974
-28.547749,2.9486659,4.0178537
-28.577236,2.9495826,4.014678
-28.611494,2.959967,4.022352
-28.641464,2.9623132,4.0209866
-28.672926,2.9678814,4.0233784
-28.709732,2.9848485,4.038872
-28.736998,2.982439,4.032357
-28.763126,2.9775832,4.023119
-28.790188,2.9746835,4.0161877
-28.819254,2.9762728,4.01447
-28.849655,2.9811015,4.0165505
-28.886692,3.001831,4.036975
-28.917282,3.0081174,4.040925
-28.94465,3.0068855,4.036318
-28.96976,3.0000148,4.0252924
-28.995724,2.9951105,4.016595
-29.023932,2.9959934,4.014638
-29.04929,2.9893153,4.00403
-29.080267,2.9979877,4.011219
-29.110628,3.005475,4.017127
-29.138231,3.0053914,4.0143642
-29.166462,3.007297,4.013979
-29.194443,3.0086393,4.0130177
-29.222994,3.0119762,4.0144453
-29.250889,3.0134702,4.013812
-29.279505,3.017602,4.0163174
-29.308405,3.0230947,4.020483
-29.33578,3.0235333,4.018852
-29.362278,3.0208325,4.0136433
-29.391472,3.028482,4.0205483
-29.419079,3.030425,4.02089
-29.452501,3.0568926,4.049883
-29.476093,3.0429013,4.031808
-29.504492,3.0495784,4.037896
-29.53249,3.0550437,4.0426474
-29.55842,3.0509114,4.0362687
-29.580296,3.0255513,4.00516
-29.609415,3.0370326,4.017147
-29.635828,3.034386,4.0126996
-29.663036,3.0363293,4.0136867
-29.689291,3.032527,4.0080233
-29.717043,3.0384903,4.0138545
-29.744234,3.0412931,4.01606
-29.771036,3.0415788,4.015389
-29.797592,3.039992,4.0125937
-29.824968,3.0455956,4.0182905
-29.851576,3.0447946,4.016554
-29.877893,3.0408225,4.0111685
-29.904444,3.0388618,4.0082073
-29.931124,3.038265,4.006913
-29.957981,3.0403295,4.008809
-29.984764,3.0418153,4.0100946
-30.011423,3.0414248,4.009248
-30.038013,3.0391579,4.0062685
-30.064531,3.033067,3.99887
-30.091576,3.0478,4.015971
-30.118149,3.0444407,4.011915
-30.144787,3.0424476,4.009528
-30.17144,3.0431166,4.0103345
-30.197933,3.052936,4.021944
-30.224314,3.0602274,4.0306554
-30.250786,3.061101,4.031904
-30.277496,3.0562062,4.026454
-19.045492,0.72226095,4.0976405
-19.261368,0.7812059,4.0923343
-19.479176,0.84242606,4.09007
-19.685036,0.8992369,4.0864453
-19.903168,0.96333885,4.089166
-20.101635,1.0191662,4.087826
-20.296865,1.0746548,4.087643
-20.529856,1.1503112,4.1027994
-20.729565,1.2107472,4.1089277
-20.87084,1.2427475,4.096299
-20.996513,1.2675774,4.0794806
-21.161497,1.3134851,4.0787115
-21.362854,1.3794572,4.0936894
-21.510641,1.4186182,4.0902777
-21.619568,1.4380865,4.0731893
-21.781437,1.4865172,4.0785213
-21.994,1.5634239,4.106483
-22.110676,1.5896766,4.097164
-22.212223,1.6083269,4.0827174
-22.40767,1.6795733,4.109761
-22.501026,1.695252,4.094549
-22.633167,1.7333024,4.097563
-22.751839,1.7645991,4.096026
-22.832209,1.7747214,4.0782294
-22.991096,1.830644,4.0979137
-23.067673,1.839777,4.080496
-23.252373,1.9128795,4.115979
-23.306042,1.9097626,4.0896654
-23.454466,1.9634992,4.1109176
-23.486603,1.9482262,4.0752797
-23.612844,1.9901811,4.0880203
-23.701088,2.0097575,4.0825214
-23.80145,2.0373955,4.0844064
-23.883652,2.0543842,4.077714
-23.967905,2.073174,4.073031
-24.067932,2.102529,4.07801
-24.106634,2.0932808,4.0497565
-24.225754,2.136096,4.0675163
-24.326138,2.1676419,4.0759845
-24.379534,2.1690097,4.0581307
-24.521713,2.2295768,4.093563
-24.564949,2.2251034,4.071246
-24.689508,2.2757354,4.099015
-24.745668,2.2807956,4.0860157
-24.813438,2.2941267,4.080852
-24.90281,2.3228898,4.090226
-24.950497,2.3231335,4.0737214
-25.037014,2.351035,4.083117
-25.096613,2.3604069,4.0756803
-25.164593,2.3761654,4.074519
-25.218163,2.3819103,4.0642657
-25.28218,2.3956032,4.06178
-25.366947,2.4250946,4.0746245
-25.399788,2.4164777,4.0515265
-25.460394,2.4288244,4.0486465
-25.53178,2.449785,4.054349
-25.582333,2.455284,4.0454545
-25.640247,2.4667673,4.0425944
-25.716843,2.493279,4.0546556
-25.768202,2.5004866,4.0482025
-25.798782,2.4913905,4.025957
-25.867207,2.5128078,4.033913
-25.941181,2.5393248,4.0472455
-25.999039,2.5532553,4.048432
-26.037193,2.5512462,4.0339813
-26.09662,2.5671988,4.0376587
-26.163448,2.589892,4.048379
-26.219082,2.603611,4.050368
-26.249868,2.5962718,4.0313
-26.297045,2.603244,4.0268607
-26.357767,2.6224575,4.035085
-26.419388,2.6430125,4.044955
-26.445107,2.6318052,4.022548
-26.48255,2.6311746,4.0110874
-26.570684,2.6772828,4.0479736
-26.6179,2.6864853,4.0471077
-26.647114,2.6791172,4.02924
-26.687046,2.6819017,4.02203
-26.757912,2.7145581,4.0461516
-26.809063,2.728942,4.051473
-26.841536,2.7254682,4.038264
-26.879755,2.7277462,4.031217
-26.921879,2.7341194,4.028634
-26.97678,2.7537122,4.040203
-27.025211,2.7672486,4.0455794
-27.057398,2.7643948,4.0337152
-27.093987,2.7662187,4.026944
-27.129984,2.767586,4.0198164
-27.183117,2.7874846,4.0326786
-27.223654,2.7943168,4.0317206
-27.267744,2.805335,4.035423
-27.293356,2.7962244,4.0175614
-27.324793,2.7935658,4.0067506
-27.376736,2.814288,4.0214005
-27.425766,2.8322887,4.0333014
-27.460915,2.83468,4.0283937
-27.490538,2.8307354,4.0166864
-27.530045,2.8386204,4.018012
-27.569397,2.8466392,4.019626
-27.609552,2.8559694,4.0228233
-27.655722,2.8731208,4.034777
-27.691204,2.877408,4.0327177
-27.71867,2.8717175,4.0197473
-27.751749,2.873236,4.014839
-27.79025,2.882006,4.018082
-27.831734,2.8950832,4.026249
-27.878311,2.9154825,4.0427217
-27.903835,2.9078813,4.0281334
-27.930344,2.9015431,4.0150213
-27.96167,2.9018893,4.009465
-27.995092,2.9053416,4.0074854
-28.04477,2.9324431,4.0321817
-28.085682,2.9476326,4.043666
-28.1108,2.939938,4.0295067
-28.136038,2.9323049,4.0154796
-28.164574,2.9295955,4.007082
-28.195494,2.930618,4.0029902
-28.236042,2.94698,4.016386
-28.280092,2.9695902,4.037021
-28.308699,2.9678793,4.0301566
-28.334358,2.9613428,4.0178776
-28.36267,2.959167,4.0106363
-28.396038,2.9656744,4.013391
-28.426443,2.9673586,4.0107346
-28.467598,2.9882448,4.030154
-28.501165,2.9963055,4.035014
-28.52918,2.994576,4.028741
-28.552238,2.9836335,4.0119553
-28.581347,2.9839025,4.0081224
-28.613642,2.9904609,4.0116186
-28.646118,2.9977386,4.0160413
-28.682472,3.0132062,4.030022
-28.713675,3.0188189,4.0327287
-28.74208,3.0189066,4.0291333
-28.768717,3.0153224,4.021363
-28.796553,3.0143094,4.0166426
-28.823832,3.0121183,4.0106306
-28.856647,3.0225396,4.019346
-28.89007,3.034943,4.030469
-28.918505,3.0361385,4.0286446
-28.948196,3.040557,4.0306544
-28.972742,3.032465,4.018156
-28.999155,3.0288434,4.010934
-29.026827,3.028444,4.007546
-29.055908,3.0319085,4.0087485
-29.085606,3.03735,4.0123453
-29.11385,3.0390787,4.0116777
-29.14118,3.03835,4.0082064
-29.170214,3.0427654,4.0108395
-29.19895,3.046626,4.0129023
-29.227606,3.0505667,4.0151367
-29.25501,3.0507722,4.0130596
-29.28259,3.0516865,4.0118885
-29.311249,3.0564928,4.0153694
-29.339098,3.05883,4.016021
-29.36827,3.0663414,4.0228443
-29.39481,3.0643663,4.0185623
-29.425701,3.0796924,4.0347586
-29.453218,3.082336,4.0360737
-29.479937,3.0818572,4.0337744
-29.509798,3.0955148,4.0482464
-29.536526,3.0958228,4.0470214
-29.562458,3.0923595,4.041405
-29.586319,3.0780747,4.0230503
-29.61306,3.077942,4.0215
-29.63957,3.0765963,4.0185823
-29.666315,3.076601,4.017331
-29.692446,3.0728257,4.011669
-29.718927,3.0710423,4.0084333
-29.746155,3.0744634,4.0114346
-29.772308,3.0702477,4.0054493
-29.79916,3.0712392,4.005706
-29.82635,3.0755138,4.009927
-29.853456,3.079859,4.0143023
-29.880058,3.0797741,4.013488
-29.906279,3.0752559,4.007475
-29.932674,3.0720901,4.0031347
-29.959425,3.0734959,4.0042906
-29.986109,3.074328,4.0048323
-30.012838,3.076515,4.0070515
-30.039425,3.0761967,4.006361
-30.066093,3.078522,4.0088797
-30.092638,3.077053,4.006956
-30.11923,3.0775838,4.007476
-30.145819,3.0814018,4.0119686
-30.172338,3.0846448,4.0158453
-30.198736,3.0918179,4.02446
-30.225052,3.0971274,4.030925
-30.251516,3.0954232,4.029122
-30.278383,3.0854197,4.017525
-18.663988,0.7091224,4.099263
-18.950512,0.7970395,4.111021
-19.234262,0.88553095,4.1252565
-19.406311,0.9234164,4.1080995
-19.613556,0.97897696,4.1039767
-19.823616,1.0371749,4.103107
-20.055435,1.1071863,4.1118126
-20.21495,1.1435962,4.0988574
-20.353445,1.1706557,4.080431
-20.537819,1.2211671,4.0795474
-20.724976,1.2742448,4.08176
-20.937815,1.3414392,4.095462
-21.117607,1.3933389,4.0994377
-21.222454,1.4081244,4.0772204
-21.355732,1.4381096,4.066988
-21.572458,1.5122671,4.0908513
-21.719704,1.5515575,4.089693
-21.799843,1.5563297,4.063033
-22.020092,1.6361501,4.0948577
-22.187199,1.6890366,4.1071424
-22.30502,1.7163703,4.100412
-22.42411,1.7451298,4.095539
-22.595093,1.8032598,4.114875
-22.64402,1.7947466,4.0816135
-22.79682,1.8446152,4.0959897
-22.881916,1.8572774,4.0808864
-23.049644,1.9175658,4.1055183
-23.151657,1.9413031,4.100859
-23.254921,1.9664152,4.097946
-23.358618,1.9924477,4.0964136
-23.48328,2.0315495,4.1065636
-23.534164,2.0275893,4.0807076
-23.662693,2.070458,4.0953255
-23.722702,2.0727491,4.075622
-23.845592,2.113761,4.0899153
-23.904463,2.1162052,4.07116
-23.971758,2.1241481,4.057543
-24.076462,2.1559355,4.0654035
-24.154758,2.171763,4.0596294
-24.27909,2.217503,4.081092
-24.330235,2.217061,4.0616293
-24.439228,2.254453,4.076707
-24.525959,2.2780972,4.079864
-24.604877,2.2971861,4.0793123
-24.707914,2.3329306,4.0945187
-24.753695,2.3308985,4.0753093
-24.837578,2.354947,4.080577
-24.940014,2.3923612,4.0987873
-24.983885,2.3900557,4.0802197
-25.039309,2.3959684,4.069602
-25.126877,2.4248583,4.0810485
-25.170498,2.4231548,4.0637865
-25.231848,2.4343424,4.059055
-25.307096,2.4559999,4.0646887
-25.367973,2.467708,4.061086
-25.411236,2.466784,4.045513
-25.471804,2.4789288,4.0428567
-25.550053,2.5047932,4.0539117
-25.588877,2.5013323,4.03654
-25.650175,2.515226,4.036442
-25.72001,2.5361712,4.0436153
-25.782104,2.5516229,4.045663
-25.833256,2.558886,4.039824
-25.87565,2.5594654,4.027509
-25.952257,2.5877824,4.0432663
-26.016605,2.6068401,4.050047
-26.052032,2.6026607,4.033585
-26.106224,2.6141267,4.033158
-26.167257,2.63171,4.03921
-26.212067,2.6360621,4.0319934
-26.27511,2.65625,4.041224
-26.317091,2.658798,4.032563
-26.36773,2.6691036,4.032087
-26.434875,2.6943243,4.0472965
-26.473953,2.695205,4.037487
-26.518478,2.7011523,4.033114
-26.58465,2.727062,4.0498166
-26.631165,2.735588,4.048566
-26.664413,2.732112,4.034862
-26.724283,2.7536993,4.047744
-26.770874,2.7632859,4.048177
-26.815538,2.771369,4.0471992
-26.851395,2.771223,4.037631
-26.896954,2.7807233,4.038493
-26.943462,2.791512,4.040914
-26.992577,2.805287,4.046727
-27.033073,2.8107686,4.0438104
-27.06627,2.809025,4.033244
-27.104956,2.8130603,4.0290427
-27.144093,2.8177943,4.0257373
-27.193346,2.833502,4.034507
-27.23751,2.844244,4.038061
-27.274605,2.8476894,4.0338116
-27.307436,2.846657,4.0247903
-27.344408,2.8503332,4.021041
-27.38745,2.861058,4.0251756
-27.435364,2.8777218,4.036017
-27.475424,2.885861,4.037629
-27.505365,2.8825102,4.026663
-27.539288,2.8839054,4.0210524
-27.57853,2.891827,4.022809
-27.620024,2.9028063,4.028112
-27.65844,2.9104114,4.0297976
-27.694344,2.915207,4.0284767
-27.722672,2.910697,4.0168486
-27.75937,2.9168828,4.0173078
-27.80142,2.930281,4.0260053
-27.837345,2.9361262,4.026343
-27.87315,2.9420865,4.0269303
-27.902216,2.939243,4.017681
-27.936106,2.9430327,4.0160294
-27.97249,2.950508,4.018668
-28.00915,2.9586987,4.0222425
-28.052357,2.9765933,4.0369864
-28.083214,2.9772377,4.032216
-28.112406,2.9755676,4.0248947
-28.137978,2.9685597,4.01155
-28.169231,2.970059,4.008016
-28.204762,2.9782958,4.012307
-28.241676,2.9890676,4.019626
-28.280289,3.0029912,4.030694
-28.31073,3.0042925,4.0273485
-28.337421,2.9996002,4.0171747
-28.366741,2.99924,4.0120764
-28.40001,3.0056725,4.014921
-28.43527,3.0158725,4.0222344
-28.471031,3.0274086,4.0312104
-28.501417,3.0298681,4.0297594
-28.531404,3.0318024,4.0277843
-28.55669,3.025219,4.015978
-28.586655,3.027312,4.014349
-28.618172,3.032571,4.0164995
-28.646738,3.032371,4.0123644
-28.684282,3.0501647,4.0293574
-28.714794,3.0544736,4.0306816
-28.742228,3.0526774,4.024937
-28.76968,3.0509536,4.01935
-28.798012,3.051166,4.0161095
-28.824919,3.0483475,4.0093813
-28.856005,3.054933,4.013793
-28.891012,3.0709553,4.0294113
-28.919891,3.073367,4.02909
-28.945868,3.068991,4.020835
-28.972164,3.0653057,4.013462
-28.999012,3.0629387,4.0077133
-29.02565,3.0600152,4.0013742
-29.052567,3.057787,3.9959266
-29.08573,3.0725713,4.0107117
-29.116589,3.0818043,4.0190115
-29.14355,3.0804403,4.01482
-29.169462,3.0760002,4.007044
-29.200624,3.0873692,4.0181255
-29.22734,3.0855937,4.0136595
-29.254469,3.0851493,4.0108447
-29.283304,3.0904574,4.014952
-29.311481,3.0939498,4.0169744
-29.339407,3.0968869,4.0184083
-29.36589,3.0948377,4.0139656
-29.39407,3.0991883,4.0172296
-29.424088,3.1112175,4.0297427
-29.450472,3.109386,4.0257716
-29.47852,3.1145997,4.0302916
-29.506176,3.1186204,4.0334578
-29.53334,3.12081,4.034505
-29.557701,3.1097279,4.0197287
-29.584015,3.1076043,4.0157404
-29.610004,3.1036398,4.009612
-29.637083,3.1054678,4.0104914
-29.664124,3.1073666,4.011525
-29.69041,3.1048784,4.0073633
-29.71616,3.0986342,3.998759
-29.743374,3.102015,4.001773
-29.770773,3.1073806,4.0072384
-29.79744,3.107716,4.0067315
-29.823591,3.1036534,4.0010076
-29.850147,3.1028488,3.9992628
-29.877136,3.1065812,4.0030375
-29.903782,3.1071916,4.0031266
-29.930607,3.1104243,4.0064363
-29.956984,3.1079783,4.002983
-29.983292,3.1036835,3.9973712
-30.010113,3.1084003,4.0026646
-30.036892,3.1144652,4.0096474
-30.063232,3.1097353,4.003708
-30.089727,3.1082683,4.001761
-30.116297,3.111343,4.005344
-30.142807,3.1138468,4.0083065
-30.169323,3.1093886,4.002957
-30.195665,3.120338,4.0162115
-30.22189,3.1281586,4.0257673
-30.248348,3.1251817,4.0223966
-30.274607,3.1280243,4.026093
-18.316963,0.70428276,4.114857
-18.605177,0.7887554,4.122651
-18.820251,0.84196734,4.1122494
-19.047016,0.90180874,4.1077576
-19.228462,0.94219136,4.091913
-19.452204,1.0032699,4.0913115
-19.653473,1.0552342,4.0860677
-19.890549,1.1253498,4.09478
-20.075754,1.1723104,4.0889654
-20.305208,1.2416663,4.100264
-20.476229,1.2842383,4.0940046
-20.664707,1.3363945,4.095827
-20.78338,1.3553746,4.0746965
-20.94863,1.3981361,4.0718718
-21.169302,1.469712,4.091612
-21.310432,1.5026219,4.0837526
-21.429241,1.5250173,4.0688186
-21.568747,1.5587311,4.0633073
-21.77639,1.6286364,4.086682
-21.963919,1.689508,4.104377
-22.060106,1.7035384,4.086423
-22.204096,1.7435057,4.0896335
-22.374731,1.7987261,4.105959
-22.449354,1.8032153,4.082435
-22.640882,1.8718377,4.111494
-22.69049,1.8637888,4.078925
-22.8587,1.9216962,4.101078
-22.92828,1.9256263,4.0793653
-23.05818,1.9639398,4.0868506
-23.200348,2.0101528,4.101788
-23.276379,2.0193996,4.08616
-23.399971,2.056613,4.094888
-23.483433,2.0712423,4.0848846
-23.581652,2.0950599,4.083313
-23.70619,2.1351829,4.0965357
-23.747314,2.1261635,4.067304
-23.871784,2.1676736,4.0829287
-23.934462,2.1723852,4.06654
-24.00939,2.1849449,4.0574903
-24.107128,2.2121224,4.061995
-24.218182,2.248348,4.0752316
-24.302082,2.2682414,4.0742226
-24.3645,2.2749739,4.0616097
-24.487736,2.3212166,4.0856814
-24.539883,2.3222742,4.0686245
-24.627748,2.3469777,4.073813
-24.74115,2.3892267,4.0958757
-24.776478,2.3802865,4.070445
-24.865461,2.4075365,4.07934
-24.950354,2.4326906,4.0867133
-25.00001,2.4343042,4.072072
-25.055397,2.4401007,4.061661
-25.153728,2.476212,4.0806985
-25.187962,2.4679403,4.057321
-25.242886,2.474429,4.048412
-25.332964,2.5064878,4.064709
-25.39375,2.5180678,4.0613966
-25.4362,2.5166075,4.045532
-25.50153,2.5322099,4.0467076
-25.569344,2.5501332,4.050497
-25.612192,2.549752,4.0363674
-25.66864,2.5598774,4.032925
-25.744518,2.585291,4.0450926
-25.799122,2.5948591,4.041652
-25.856888,2.6072528,4.0413127
-25.91642,2.6214461,4.043061
-25.984266,2.6427183,4.052297
-26.019651,2.6383862,4.0356483
-26.063543,2.641054,4.0263157
-26.119,2.6534436,4.027178
-26.194117,2.6825755,4.0455937
-26.227308,2.6772578,4.0286226
-26.290306,2.6972542,4.0381165
-26.332844,2.7002847,4.0301747
-26.400879,2.7255907,4.0457373
-26.430698,2.7181559,4.027199
-26.482744,2.730348,4.0294456
-26.526022,2.735114,4.0240583
-26.59099,2.7596889,4.0398498
-26.633291,2.7642667,4.0346584
-26.672512,2.7662463,4.0268564
-26.714634,2.77111,4.022285
-26.78833,2.805935,4.0500216
-26.835802,2.816708,4.0522165
-26.861134,2.8065603,4.032028
-26.904364,2.8137283,4.0306387
-26.94631,2.819932,4.028367
-26.994883,2.8329954,4.0337133
-27.04209,2.8451166,4.038225
-27.07358,2.8416634,4.025901
-27.114975,2.8484516,4.024897
-27.158401,2.8576427,4.0266848
-27.206493,2.8720865,4.034419
-27.24631,2.8781881,4.0331354
-27.280712,2.8787317,4.0258484
-27.31456,2.8788114,4.018162
-27.349422,2.8801403,4.011971
-27.390402,2.8884583,4.01368
-27.446466,2.9141574,4.034933
-27.473364,2.9072444,4.019944
-27.507837,2.909059,4.014809
-27.543736,2.9127173,4.011856
-27.579062,2.9159107,4.008501
-27.627832,2.9354846,4.0237303
-27.669546,2.9470882,4.0301433
-27.697327,2.9419153,4.017718
-27.726114,2.9379852,4.0067787
-27.76281,2.9440947,4.007327
-27.80349,2.955607,4.014147
-27.852528,2.978435,4.0340123
-27.886847,2.9825852,4.032731
-27.913132,2.9762132,4.0195193
-27.940384,2.9710908,4.0078087
-27.975029,2.9761167,4.007822
-28.014242,2.9877844,4.015583
-28.057426,3.0055337,4.030484
-28.091152,3.010323,4.030589
-28.116177,3.002678,4.0164323
-28.148592,3.0058596,4.014865
-28.178143,3.0049448,4.008649
-28.21634,3.0173173,4.0179386
-28.256618,3.033424,4.0316963
-28.285505,3.032205,4.025427
-28.316656,3.0346856,4.023549
-28.343662,3.030613,4.014113
-28.374384,3.032661,4.011902
-28.40541,3.0354042,4.0105934
-28.43637,3.038238,4.0094814
-28.474598,3.0539265,4.0235434
-28.508053,3.0618296,4.028584
-28.532896,3.054596,4.0159245
-28.563509,3.0577998,4.0156145
-28.595028,3.0629263,4.017659
-28.623547,3.0626373,4.013404
-28.650476,3.0593615,4.0056973
-28.692648,3.0862296,4.033718
-28.71848,3.0812893,4.0242157
-28.746477,3.0807214,4.019961
-28.771246,3.073452,4.0078278
-28.803036,3.0810456,4.0134077
-28.832981,3.0850294,4.0147886
-28.856766,3.0754962,4.000166
-28.897211,3.1037745,4.0306406
-28.924942,3.1036868,4.027427
-28.949036,3.0949898,4.0140123
-28.975555,3.0919375,4.007394
-29.00336,3.0920622,4.0046406
-29.031876,3.0941277,4.0042815
-29.061049,3.09814,4.0063295
-29.093363,3.1109624,4.0190144
-29.119139,3.1064088,4.010955
-29.146519,3.1062922,4.0082836
-29.174744,3.108749,4.008773
-29.202913,3.1112828,4.009429
-29.230824,3.113267,4.0094976
-29.257513,3.1115654,4.005204
-29.286882,3.1187146,4.011635
-29.315372,3.1234355,4.015219
-29.343233,3.1263502,4.0167017
-29.369307,3.123054,4.0107636
-29.397764,3.1286306,4.015599
-29.426592,3.1361742,4.022884
-29.454805,3.1419082,4.02806
-29.481268,3.1407855,4.0250216
-29.508314,3.1422544,4.0251827
-29.535877,3.1463184,4.028552
-29.561779,3.1428797,4.0229106
-29.586863,3.135085,4.0120573
-29.6134,3.134304,4.009758
-29.639944,3.133591,4.0076084
-29.66628,3.1316817,4.0040727
-29.693157,3.1330042,4.0045223
-29.718756,3.1261654,3.9951372
-29.74709,3.1377592,4.0081806
-29.772844,3.131689,3.999856
-29.80043,3.1396275,4.008602
-29.825983,3.1311545,3.9974885
-29.853481,3.1398687,4.0073123
-29.879545,3.135335,4.00111
-29.906507,3.1403842,4.0066156
-29.933083,3.141696,4.0076456
-29.959671,3.1437116,4.009598
-29.986109,3.1438916,4.0093822
-30.01245,3.142234,4.0069985
-30.038645,3.1361995,3.9993567
-30.065044,3.1334076,3.9957213
-30.091639,3.137669,4.0007277
-30.118189,3.1451745,4.0097446
-30.144583,3.1451263,4.0096407
-30.170977,3.1451464,4.0096846
-30.19737,3.145234,4.0098743
-30.22351,3.154916,4.0217967
-30.249924,3.1519637,4.0184183
-30.276535,3.1459048,4.0113287
-18.117962,0.7314508,4.1062236
-18.416115,0.81729865,4.114703
-18.61163,0.85958767,4.096842
-18.869255,0.9307468,4.0995293
-19.114616,0.9979999,4.101447
-19.338146,1.0568757,4.099414
-19.56971,1.1208227,4.102454
-19.764778,1.1693692,4.096382
-19.961864,1.220052,4.093167
-20.14101,1.2635248,4.0861607
-20.298042,1.297605,4.073595
-20.514032,1.3608077,4.0833116
-20.718918,1.4200752,4.0916023
-20.893969,1.4661736,4.0914745
-21.036888,1.497621,4.0814905
-21.185352,1.5326667,4.075164
-21.353674,1.578537,4.0780935
-21.52898,1.6290157,4.0856857
-21.639711,1.6478767,4.0697308
-21.797108,1.6912534,4.073768
-21.97144,1.744415,4.0865855
-22.191608,1.8226594,4.120625
-22.28722,1.8370794,4.104516
-22.4074,1.8650413,4.1000032
-22.568306,1.9155288,4.1147203
-22.641655,1.9199381,4.092303
-22.789202,1.965043,4.1042323
-22.849129,1.963111,4.0775414
-23.013515,2.0192115,4.100284
-23.117416,2.0427713,4.096293
-23.257103,2.0871396,4.110771
-23.320965,2.08945,4.0897245
-23.46362,2.1371894,4.108551
-23.501694,2.1255436,4.0761943
-23.618088,2.159598,4.084299
-23.69388,2.1705937,4.0726085
-23.797668,2.1986237,4.0765343
-23.87921,2.2140534,4.06972
-23.95353,2.2256122,4.059844
-24.078602,2.2685268,4.078868
-24.106977,2.2529607,4.0451183
-24.239565,2.3019814,4.070867
-24.306702,2.311122,4.060484
-24.428205,2.3549695,4.0827155
-24.517366,2.379199,4.087283
-24.555899,2.37151,4.062322
-24.684053,2.4220357,4.0925193
-24.745344,2.429894,4.0829096
-24.826431,2.4511685,4.0864
-24.903492,2.4703388,4.0882874
-24.961964,2.4775414,4.0790324
-25.019579,2.4844792,4.0697966
-25.09441,2.503531,4.0726132
-25.161009,2.5174265,4.070762
-25.212357,2.521111,4.0592093
-25.278551,2.5355074,4.0584464
-25.347319,2.5521834,4.0602555
-25.401041,2.558545,4.0521383
-25.452543,2.5635924,4.042949
-25.537271,2.5932236,4.0586367
-25.581463,2.5936437,4.0453343
-25.626999,2.595243,4.0334053
-25.703167,2.62011,4.045277
-25.772127,2.640144,4.0525928
-25.800335,2.629446,4.0288053
-25.870178,2.6509788,4.0381846
-25.936983,2.6707177,4.0460434
-25.99683,2.6855075,4.049094
-26.044601,2.6911066,4.0428753
-26.08574,2.6916256,4.031566
-26.154675,2.714952,4.0442414
-26.212267,2.7295713,4.0481076
-26.24342,2.7226698,4.029591
-26.293045,2.7312875,4.0275483
-26.362011,2.7566333,4.04342
-26.412405,2.7667396,4.043421
-26.445236,2.7620013,4.0278187
-26.49844,2.7751312,4.031415
-26.549564,2.7868443,4.033716
-26.613808,2.8106656,4.0492415
-26.639702,2.8005266,4.0284424
-26.695606,2.8176863,4.037224
-26.735193,2.820315,4.030488
-26.80939,2.8553944,4.0591717
-26.840979,2.8512383,4.0454226
-26.877821,2.8521318,4.0372934
-26.915197,2.8536978,4.0300303
-26.96219,2.8647988,4.033372
-27.01968,2.8866198,4.048706
-27.051609,2.8836188,4.0368714
-27.086895,2.8840613,4.028948
-27.125443,2.887973,4.024993
-27.167166,2.8953776,4.0250587
-27.218985,2.91361,4.0373487
-27.258701,2.9196389,4.0362086
-27.289288,2.9161985,4.0246034
-27.327778,2.9213405,4.0227256
-27.364597,2.9249084,4.0192094
-27.41368,2.9422526,4.031352
-27.457846,2.9546463,4.038089
-27.487143,2.9506202,4.026399
-27.518986,2.9495406,4.018137
-27.555767,2.954298,4.0166073
-27.600267,2.9683824,4.025826
-27.645462,2.983779,4.036707
-27.676954,2.9831562,4.029435
-27.707016,2.9808893,4.0203753
-27.740843,2.9833517,4.0168304
-27.78109,2.9940605,4.022876
-27.819748,3.0031588,4.0272064
-27.859129,3.013555,4.033166
-27.89338,3.0176482,4.031974
-27.916924,3.00778,4.0147233
-27.948927,3.0091243,4.0105314
-27.983906,3.0146828,4.0113325
-28.024303,3.028017,4.0212936
-28.067808,3.0462148,4.0370626
-28.099745,3.048591,4.034515
-28.122595,3.0380206,4.0169277
-28.15938,3.0476909,4.0230904
-28.192375,3.0521276,4.023235
-28.225666,3.0572612,4.0242987
-28.260786,3.0654821,4.0290947
-28.293823,3.070825,4.030613
-28.319948,3.0654902,4.019638
-28.352478,3.0704193,4.020849
-28.377937,3.0640316,4.008776
-28.417574,3.0811737,4.024626
-28.445505,3.0791664,4.0179043
-28.483603,3.0947368,4.0321226
-28.514854,3.0989509,4.0329676
-28.538897,3.0905457,4.0188894
-28.572075,3.098563,4.0244284
-28.597225,3.092114,4.012814
-28.627312,3.0948439,4.01222
-28.665558,3.113486,4.0307293
-28.701271,3.1279902,4.0444107
-28.727848,3.1249113,4.0371428
-28.748175,3.1090693,4.014638
-28.778482,3.113454,4.016447
-28.806675,3.1136394,4.013295
-28.835415,3.1151276,4.0117855
-28.867714,3.1246774,4.020056
-28.899008,3.1324816,4.0263166
-28.927223,3.1336079,4.0246143
-28.953068,3.1292677,4.016388
-28.979233,3.125609,4.0090475
-29.004957,3.120782,4.0003576
-29.034883,3.1265259,4.0045214
-29.063742,3.129881,4.0058737
-29.096685,3.144462,4.020908
-29.12056,3.134971,4.006843
-29.149649,3.1398044,4.0102167
-29.179064,3.145961,4.015275
-29.206482,3.146607,4.013715
-29.235493,3.1523025,4.018366
-29.26321,3.154344,4.0186462
-29.29107,3.1570833,4.019848
-29.317577,3.1555336,4.015895
-29.344284,3.154676,4.0128517
-29.37186,3.1570103,4.013768
-29.400387,3.1631677,4.01942
-29.42879,3.169404,4.025243
-29.454117,3.16383,4.016711
-29.482378,3.1702147,4.0228558
-29.51037,3.1760507,4.0284023
-29.537004,3.176321,4.027212
-29.562838,3.172898,4.0215673
-29.588348,3.1676576,4.013758
-29.614914,3.1675038,4.0122404
-29.641245,3.1661627,4.0093327
-29.667597,3.164889,4.0065713
-29.693863,3.1630542,4.0031857
-29.719582,3.1575134,3.9953172
-29.749197,3.1784625,4.020012
-29.775202,3.1755779,4.0155344
-29.801334,3.17339,4.0119743
-29.827723,3.1731572,4.0108786
-29.85411,3.1729927,4.0099297
-29.88068,3.174787,4.0114503
-29.907213,3.1766496,4.0131207
-29.933168,3.1716466,4.0064187
-29.959688,3.1736455,4.0083833
-29.985983,3.1725597,4.0066204
-30.012327,3.172172,4.00578
-30.038801,3.175006,4.0089645
-30.0652,3.1772776,4.0115213
-30.091518,3.1777241,4.0118976
-30.117779,3.1744533,4.007766
-30.1441,3.1699877,4.002229
-30.170462,3.1712682,4.003821
-30.19659,3.1852348,4.0210757
-30.222834,3.1847577,4.0206327
-30.249153,3.1824546,4.018009
-30.27512,3.1890516,4.026389
-40.858353,0.60276675,3.312018
-40.844933,0.6551938,3.3907495
-40.865658,0.6902697,3.456142
-40.91746,0.7099297,3.5100203
-41.00494,0.71234274,3.5513744
-41.109535,0.70686316,3.5874586
-41.245193,0.6870568,3.6137996
-17.61139,0.73105097,4.162239
-17.706,0.7252574,4.1092434
-17.954243,0.7851007,4.0992084
-18.308613,0.8919215,4.1217127
-18.570288,0.9609449,4.1217613
-18.797514,1.0165582,4.1146836
-19.02409,1.0732574,4.109961
-19.22975,1.1220546,4.1013904
-19.44799,1.1777205,4.099049
-19.688313,1.2447014,4.106221
-19.87195,1.2874024,4.0977187
-20.068985,1.3373611,4.095711
-20.30442,1.4063368,4.108942
-20.463745,1.4412858,4.09865
-20.59246,1.4627535,4.0793457
-20.756138,1.5015535,4.073939
-20.936443,1.549331,4.0764422
-21.141718,1.6103442,4.090316
-21.316397,1.6578038,4.095019
-21.389544,1.6564238,4.062568
-21.56327,1.705261,4.0702596
-21.77337,1.7734661,4.0945263
-21.954834,1.8286867,4.1097035
-22.076168,1.8545201,4.1021748
-22.206303,1.8856099,4.0996895
-22.363386,1.9314905,4.1102123
-22.472683,1.9534578,4.10181
-22.61214,1.9919875,4.1079473
-22.71986,2.0145674,4.1014524
-22.827248,2.0376267,4.0959954
-22.957907,2.073946,4.1025386
-23.050726,2.0904887,4.0927734
-23.173983,2.1243434,4.098593
-23.255714,2.135958,4.085652
-23.387722,2.1762118,4.098416
-23.48243,2.1963167,4.0940633
-23.529976,2.190096,4.0667114
-23.669323,2.236854,4.087223
-23.718994,2.232582,4.062365
-23.860413,2.2822294,4.0868306
-23.891054,2.2674868,4.053132
-23.991804,2.2945251,4.0580378
-24.09135,2.3215423,4.063473
-24.180458,2.3429236,4.0641985
-24.292192,2.3787665,4.078951
-24.361433,2.3891945,4.0703673
-24.462349,2.4197774,4.0812244
-24.518993,2.4232514,4.066807
-24.590584,2.4364846,4.061996
-24.72097,2.4878519,4.094234
-24.760576,2.4816294,4.071501
-24.843153,2.5035415,4.076265
-24.934189,2.5316215,4.0874715
-24.972069,2.525065,4.0651684
-25.039873,2.5386586,4.062872
-25.1306,2.5682182,4.0767093
-25.165396,2.560277,4.053714
-25.238241,2.5786247,4.057105
-25.302221,2.5913258,4.055184
-25.364557,2.6032887,4.0528173
-25.420341,2.6110053,4.0464435
-25.482271,2.6234488,4.04512
-25.545362,2.6371465,4.045358
-25.585392,2.6344354,4.0290833
-25.651554,2.6511118,4.032894
-25.737215,2.6827998,4.0525
-25.785,2.6867988,4.0438423
-25.82123,2.682271,4.026516
-25.880964,2.695835,4.0281987
-25.968407,2.7312784,4.0530586
-26.000992,2.7247033,4.034182
-26.053375,2.7337875,4.0319285
-26.110147,2.746713,4.03396
-26.168621,2.761426,4.0381327
-26.209436,2.7622278,4.0277414
-26.257246,2.7689488,4.023829
-26.309359,2.7795334,4.024252
-26.376392,2.8030033,4.038748
-26.426102,2.81243,4.0383916
-26.456987,2.806086,4.0211706
-26.507072,2.8163686,4.022092
-26.563076,2.8321872,4.029243
-26.621817,2.8509073,4.039794
-26.649467,2.8424137,4.0208
-26.702358,2.8566594,4.02685
-26.782864,2.8965445,4.0613413
-26.813793,2.8917253,4.046848
-26.84011,2.8826418,4.027731
-26.884514,2.8905427,4.0275335
-26.91899,2.8892999,4.017329
-26.988773,2.9221838,4.0453043
-27.022377,2.920696,4.0351477
-27.055424,2.9187605,4.024597
-27.092918,2.92135,4.0192366
-27.131443,2.9251719,4.015393
-27.188955,2.9485776,4.0337925
-27.22874,2.9543767,4.032503
-27.259834,2.9513726,4.021369
-27.29361,2.95126,4.013616
-27.328413,2.9523747,4.007368
-27.387625,2.9800456,4.0315504
-27.426739,2.9865181,4.0317206
-27.463161,2.9902954,4.0289364
-27.493433,2.9873915,4.0185966
-27.525232,2.9862785,4.0104074
-27.563957,2.9932294,4.011614
-27.61282,3.0122902,4.026948
-27.65017,3.0183823,4.0274496
-27.678274,3.0137115,4.0155888
-27.70834,3.0114138,4.006563
-27.753902,3.0281901,4.0198317
-27.788471,3.0318692,4.017989
-27.834875,3.05068,4.0339365
-27.873661,3.060397,4.0394087
-27.899702,3.0540013,4.0261183
-27.93425,3.058715,4.025943
-27.960817,3.0530548,4.0136704
-27.991789,3.0532987,4.008423
-28.039808,3.0770185,4.0309687
-28.07557,3.084515,4.034516
-28.104101,3.0821526,4.0265045
-28.134298,3.0822191,4.021451
-28.161232,3.0776625,4.010993
-28.194628,3.082615,4.0119104
-28.228306,3.0882616,4.0137563
-28.264585,3.098156,4.020769
-28.297977,3.1040182,4.023082
-28.326706,3.1028566,4.0170975
-28.362144,3.1124825,4.024105
-28.387106,3.1055393,4.0113606
-28.419048,3.1099944,4.0123568
-28.454096,3.119925,4.020025
-28.489992,3.1317637,4.030097
-28.517027,3.1287308,4.0223656
-28.543085,3.123968,4.012616
-28.572216,3.124682,4.0095444
-28.605913,3.1339083,4.01684
-28.63684,3.1384153,4.018525
-28.674643,3.156296,4.036499
-28.703377,3.1573749,4.0342174
-28.729935,3.1542969,4.026965
-28.755335,3.1488628,4.0169163
-28.789654,3.161699,4.029151
-28.816788,3.16006,4.0238647
-28.843372,3.1572757,4.017251
-28.874987,3.165525,4.0241613
-28.90453,3.1695995,4.026065
-28.932121,3.1694856,4.022929
-28.957623,3.1645558,4.013974
-28.983456,3.1603017,4.005905
-29.011097,3.1604004,4.003231
-29.041153,3.1667047,4.008235
-29.067045,3.162661,4.0006237
-29.100405,3.1783423,4.017294
-29.128721,3.181213,4.01832
-29.157848,3.186624,4.022542
-29.183655,3.1828759,4.015571
-29.209938,3.1804264,4.0102596
-29.238482,3.1848326,4.01346
-29.266144,3.1868472,4.0137844
-29.293188,3.1870828,4.011984
-29.319847,3.1861515,4.0088105
-29.35045,3.1989102,4.0226097
-29.376995,3.1981282,4.019759
-29.403881,3.1986556,4.018592
-29.433651,3.2104204,4.031392
-29.460392,3.2110965,4.0305476
-29.48816,3.2161913,4.035239
-29.512516,3.2070646,4.0223837
-29.538967,3.2067037,4.020447
-29.565947,3.2089007,4.0217443
-29.590355,3.198717,4.0077505
-29.617353,3.2010503,4.009343
-29.64293,3.1959758,4.0018063
-29.67033,3.2009418,4.006798
-29.698347,3.2103472,4.01737
-29.721643,3.1904988,3.9916646
-29.750746,3.2081606,4.0126295
-29.776546,3.2040455,4.006596
-29.80305,3.2049932,4.0069184
-29.829456,3.2053857,4.0066133
-29.855585,3.2033455,4.0033455
-29.881931,3.2032485,4.0025563
-29.908384,3.2044692,4.0034704
-29.934616,3.2032561,4.001419
-29.961126,3.205865,4.0041866
-29.987509,3.2072906,4.0055447
-30.013615,3.2037778,4.0008163
-30.040112,3.208468,4.006365
-30.066305,3.2063415,4.0034866
-30.092577,3.20616,4.0030937
-30.118853,3.2060466,4.0028477
-30.145138,3.2103832,4.0082054
-30.171364,3.211656,4.0098104
-30.1975,3.2167535,4.016241
-30.223558,3.2212906,4.022036
-30.249731,3.2202616,4.02096
-30.275894,3.2199254,4.0208087
-41.127235,0.2061286,2.6313243
-40.751,0.639699,3.1733928
-40.75792,0.6821275,3.2445908
-40.763386,0.72491336,3.3159852
-40.77928,0.7622218,3.3830137
-40.811684,0.79123926,3.4436183
-40.846222,0.81909513,3.503437
-40.91467,0.8306556,3.5510287
-41.017357,0.82618284,3.5869641
-41.155464,0.8055389,3.6115203
-41.250504,0.8056617,3.6522207
-41.441067,0.7621093,3.6617641
-41.628674,0.7210431,3.674389
-41.787926,0.6939285,3.6982007
-17.219894,0.69592047,4.101878
-17.580166,0.79763436,4.116746
-17.82188,0.8523965,4.1036286
-18.087109,0.91842103,4.099716
-18.394348,1.0037973,4.1107154
-18.633896,1.0622613,4.1056232
-18.85325,1.1134913,4.0972443
-19.073761,1.1665335,4.091667
-19.291866,1.2198563,4.0878253
-19.483826,1.2629714,4.0781927
-19.705053,1.3202567,4.080124
-19.942158,1.3860531,4.0898037
-20.133987,1.4328625,4.087053
-20.313927,1.475419,4.082407
-20.514091,1.5283997,4.086838
-20.715286,1.583132,4.0939407
-20.899406,1.6311529,4.0971975
-21.044289,1.6617846,4.0881085
-21.14261,1.6710563,4.0631332
-21.337929,1.7275088,4.076219
-21.52483,1.7811759,4.0883374
-21.621294,1.7917919,4.06684
-21.784224,1.835742,4.0731044
-21.980139,1.8972054,4.0948005
-22.136665,1.9402337,4.1024466
-22.259209,1.967066,4.097516
-22.406296,2.0072105,4.1045437
-22.52713,2.0347872,4.101789
-22.637661,2.0577555,4.0958056
-22.763462,2.089418,4.0979667
-22.845413,2.0986648,4.081389
-22.987545,2.14051,4.093796
-23.067339,2.1497293,4.078285
-23.228657,2.2037244,4.102948
-23.29171,2.2049832,4.081448
-23.406057,2.234918,4.086061
-23.491991,2.24975,4.0776486
-23.593586,2.2739148,4.0782027
-23.671047,2.2850196,4.067346
-23.756207,2.300972,4.0613647
-23.865433,2.3313742,4.0692434
-23.953075,2.3499422,4.0666785
-24.034971,2.3656793,4.0619206
-24.096478,2.3697958,4.0466166
-24.20721,2.4037445,4.059932
-24.305885,2.4312243,4.0676737
-24.371294,2.4390883,4.0571156
-24.485922,2.477652,4.076492
-24.546259,2.483349,4.0646157
-24.674158,2.5317745,4.0946693
-24.732431,2.5371737,4.0832725
-24.798038,2.5475597,4.077056
-24.88419,2.5715928,4.08465
-24.936783,2.5744076,4.0715947
-25.006893,2.5889816,4.0705123
-25.064352,2.5956244,4.061814
-25.149948,2.6214218,4.0726695
-25.194729,2.6203017,4.056717
-25.243807,2.6222756,4.0440927
-25.324902,2.646523,4.054405
-25.382183,2.6548548,4.048804
-25.447758,2.669345,4.0497937
-25.514465,2.6850934,4.052385
-25.56696,2.6911504,4.0452323
-25.621403,2.698906,4.040075
-25.673626,2.705366,4.033795
-25.744175,2.7256181,4.042207
-25.791935,2.7294884,4.0336943
-25.855131,2.7451944,4.0378833
