x,y,z
-38.013336,3.2905428,3.9646642
-38.089394,3.293972,3.9867976
-38.1479,3.3035789,4.017168
-38.309475,3.279439,4.00454
-38.430923,3.2693193,4.0104485
-38.56686,3.2551837,4.0117745
-38.71117,3.239128,4.01126
-38.854095,3.2243109,4.0129137
-39.025154,3.2015123,4.0052567
-39.150043,3.1939154,4.017152
-39.344513,3.1657655,4.004338
-39.51793,3.1450784,4.001517
-39.69182,3.125216,4.0004845
-39.833477,3.1158073,4.0128345
-40.020027,3.0940711,4.0110903
-40.225323,3.0679708,4.005043
-40.452244,3.0368702,3.9940846
-40.61924,3.0239,4.005416
-40.841766,2.9963791,4.0006714
-41.054733,2.9727204,4.001465
-41.344032,2.9295125,3.9810162
-41.58598,2.900648,3.9782596
-41.83781,2.870498,3.9752922
-42.105156,2.8376732,3.9706507
-42.363815,2.808567,3.9714952
-54.400196,0.36689734,1.8797235
-54.567078,0.40147996,1.9877129
-54.216682,0.7661462,2.638091
-54.13338,0.85426545,2.796142
-54.159462,0.91857934,2.9322333
-54.16821,0.9863255,3.071383
-54.262848,1.0362508,3.1951003
-54.26104,1.1058657,3.3359814
-54.309532,1.1651776,3.4681902
-54.49775,1.1971035,3.5784116
-54.795197,1.2087238,3.6737466
-8.319269,1.2812138,2.834403
-8.590647,1.275903,2.7635074
-9.301878,1.3688879,2.7935443
-10.754343,1.6314588,3.0014505
-11.967138,1.7934718,3.0604448
-12.645002,1.7358208,2.797948
-13.975779,1.9068704,2.851955
-14.275216,1.9322126,2.838273
-14.5312395,1.9479833,2.815033
-14.532372,1.8987007,2.7174282
-14.524063,1.8466446,2.6164865
-14.526731,1.7971647,2.5184526
-12.762711,1.2702441,1.8517723
-13.667089,1.4609087,2.0373778
-14.470496,1.6292081,2.2002897
-14.480967,1.5805156,2.102746
-14.494015,1.5322902,2.0057302
-14.492328,1.4795928,1.9031544
-14.446996,1.4138873,1.7842994
-14.549367,1.3908429,1.7185178
-14.591523,1.3502727,1.6310406
-14.627073,1.3076468,1.5410533
-14.638139,1.257462,1.441493
-14.637461,1.203373,1.336873
-14.639429,1.1497185,1.2327089
-14.606679,1.0847838,1.113822
-14.566144,1.0167451,0.99063873
-14.606284,0.97392154,0.90022373
-14.508759,0.88626003,0.75080013
-25.81155,3.1561239,3.0088987
-25.994698,3.2440088,3.1412845
-26.054623,3.252498,3.1484952
-26.115513,3.2620492,3.1575236
-26.164354,3.2638726,3.154419
-26.214909,3.2671292,3.1536927
-26.261045,3.2676103,3.148652
-26.31433,3.2733343,3.1520576
-26.367397,3.2792518,3.1558833
-26.422623,3.2870698,3.162856
-26.470522,3.2899518,3.1620474
-26.514185,3.289992,3.1567807
-26.558924,3.29104,3.1532125
-26.612173,3.2987304,3.1603956
-26.65663,3.3001013,3.1575265
-26.69703,3.2985706,3.1500711
-26.748009,3.305475,3.1562805
-26.794323,3.3090532,3.1572237
-26.837732,3.3105896,3.1549578
-26.881577,3.3127115,3.153717
-26.926916,3.3163075,3.154944
-26.970499,3.3187253,3.1543446
-27.01237,3.3199506,3.1518912
-27.051523,3.3190775,3.1461048
-27.103579,3.3295326,3.1587949
-27.13686,3.323991,3.1455631
-27.173756,3.321698,3.137671
-27.221188,3.3290114,3.1454964
-27.255955,3.3251517,3.135182
-27.29468,3.32503,3.1310244
-27.336748,3.32822,3.1323428
-27.368576,3.3219445,3.11825
-27.41761,3.3322577,3.1313634
-27.454113,3.3307922,3.1252646
-27.491053,3.3298955,3.1201563
-27.525654,3.3267987,3.1114955
-27.56481,3.3284328,3.1106577
-27.605213,3.3315816,3.1123743
-27.645927,3.3353233,3.1151333
-27.682554,3.3349953,3.1112585
-27.7187,3.3343072,3.1068463
-27.754805,3.3337262,3.102666
-27.803505,3.3473506,3.121985
-27.858065,3.3682113,3.1533422
-27.8887,3.3623607,3.1406574
-27.926298,3.3646328,3.1414475
-27.971771,3.3765032,3.1581807
-28.017698,3.389479,3.1768222
-28.058615,3.3968968,3.1863341
-28.1016,3.4073095,3.20088
-28.143538,3.4169083,3.214148
-28.187054,3.4290404,3.2316918
-27.83693,2.9242477,2.3905535
-27.836287,2.869284,2.296207
-27.83017,2.8050697,2.1864252
-27.840836,2.7619762,2.1117306
-27.845282,2.7086847,2.0200338
-27.854975,2.661135,1.9378672
-27.862434,2.6086822,1.8475041
-27.928957,2.6427329,1.9013748
-27.947035,2.604437,1.8346491
-27.612278,2.015722,0.84903145
-27.660465,2.0112162,0.83828783
-27.752178,2.0773299,0.9456172
-27.8162,2.100646,0.98156786
-27.84739,2.069663,0.9268031
-28.014374,2.2723272,1.2630291
-27.957504,2.0886035,0.9527807
-28.055779,2.177235,1.0984669
-28.08731,2.1467211,1.0447192
-28.123173,2.1231782,1.0026789
-28.171282,2.122486,0.9989872
-28.219856,2.122915,0.997241
-28.272753,2.1324134,1.0107775
-28.935799,3.4207635,3.1711564
-29.00112,3.4928443,3.2906928
-29.030197,3.4889333,3.2826996
-29.052315,3.46913,3.2480373
-29.08449,3.4718418,3.2512403
-29.115328,3.4716423,3.24959
-29.144331,3.467019,3.2405405
-29.175571,3.4679804,3.240921
-29.21568,3.4925985,3.2811556
-29.244705,3.4887292,3.2734966
-29.27238,3.4809134,3.2592278
-29.297304,3.464614,3.2307014
-29.326405,3.4599447,3.2217941
-29.357353,3.460889,3.2223825
-29.392405,3.4755292,3.2460928
-29.42458,3.4816937,3.2555656
-29.453192,3.475828,3.2447948
-29.480165,3.4634643,3.2230983
-29.508455,3.455208,3.2083611
-29.538528,3.453598,3.2048697
-29.569212,3.4545968,3.2058187
-29.59919,3.4526362,3.2018113
-29.629515,3.4522736,3.2005377
-29.664196,3.4743018,3.237105
-29.695267,3.479688,3.2456183
-29.72472,3.4765267,3.2397385
-29.754478,3.4749644,3.2365947
-29.784565,3.4755108,3.2370486
-29.812155,3.4578393,3.2067647
-29.84116,3.4483674,3.1903653
-29.871855,3.452189,3.1964617
-29.902298,3.454565,3.2001524
-29.933609,3.4677045,3.2220697
-29.963757,3.4697309,3.2252479
-29.993338,3.4636922,3.2148309
-30.023033,3.45722,3.2037187
-30.052979,3.4533677,3.1970701
-30.082998,3.4490843,3.1897292
-30.113235,3.4525151,3.195465
-30.143421,3.4667172,3.2194424
-30.173388,3.4672475,3.2203493
-30.203382,3.4658191,3.2179823
-30.233698,3.4558122,3.2011523
-30.26423,3.446393,3.1853542
-30.294615,3.4436712,3.1809134
-30.324717,3.4461174,3.1852446
-30.353651,3.4623795,3.2129579
-30.383713,3.4624326,3.213316
-30.413618,3.4640887,3.2164211
-30.445091,3.4520936,3.1964974
-30.475943,3.4472995,3.1887798
-30.506844,3.443095,3.1820974
-30.536299,3.4491298,3.1927485
-30.564196,3.4638698,3.2181363
-30.593184,3.470555,3.2299542
-30.62346,3.4697034,3.2290812
-30.656218,3.4567626,3.2078376
-30.688862,3.4459403,3.1902137
-30.718582,3.4493902,3.1967192
-30.749556,3.447347,3.1939936
-30.774656,3.4691591,3.2315521
-30.804672,3.4702976,3.2342625
-30.836061,3.4664617,3.228623
-30.872467,3.445548,3.19423
-30.903973,3.4429038,3.1906872
-30.93368,3.4463925,3.1975212
-30.962997,3.450963,3.206214
-30.989529,3.4636571,3.2286267
-31.019789,3.4648476,3.2316947
-31.055096,3.452053,3.2112546
-31.089235,3.4433784,3.1977997
-31.122257,3.4383106,3.190463
-31.15304,3.4393456,3.193437
-31.177685,3.45547,3.221827
-31.20702,3.4596488,3.2301574
-31.239527,3.456413,3.2260613
-31.27814,3.4398043,3.199542
-31.31078,3.4372633,3.1967092
-31.341867,3.438295,3.1999202
-31.370075,3.4453719,3.213317
-31.394207,3.4604557,3.24018
-31.425314,3.4612134,3.2430396
-31.462107,3.4511652,3.2278256
-31.504179,3.4318392,3.1971178
-31.530832,3.4417746,3.215495
-31.561966,3.4433901,3.2199717
-31.590559,3.449518,3.232041
-31.619041,3.455716,3.2442622
-31.652977,3.4526596,3.2410426
-31.6924,3.4408822,3.2232952
-31.726349,3.4385254,3.2213488
-31.760698,3.4357777,3.2187982
-31.792936,3.4365427,3.2221603
-31.815207,3.452485,3.2508855
-31.847631,3.4529154,3.253765
-31.889425,3.4398544,3.2342076
-31.932245,3.4259634,3.2133374
-31.966808,3.424299,3.212893
-31.991276,3.4367251,3.235941
-32.018703,3.444866,3.2518883
-32.053585,3.4429781,3.2512026
-32.093704,3.4344788,3.2395878
-32.136684,3.4227574,3.222692
-32.1705,3.423124,3.2259207
-32.19974,3.4293084,3.2388425
-32.22537,3.4398475,3.2590156
-32.256336,3.4437954,3.2683053
-32.298504,3.434561,3.2558284
-32.342567,3.423577,3.240531
-32.378685,3.422176,3.2411427
-32.404423,3.4326472,3.261413
-32.43039,3.4427042,3.2810278
-32.458317,3.450476,3.296905
-32.491333,3.4527078,3.3036914
-32.54725,3.430794,3.2707806
-32.59036,3.4230423,3.2612743
-32.610683,3.4390929,3.2909636
-32.648502,3.4371266,3.2910805
-32.682262,3.439432,3.2982693
-32.731453,3.426644,3.2807646
-32.780052,3.4149523,3.2651486
-32.810806,3.4208336,3.2783875
-32.83858,3.4295363,3.2962828
-32.86768,3.436939,3.3120894
-32.912483,3.429883,3.304335
-32.973995,3.4080374,3.2725458
-33.007805,3.41172,3.2824779
-33.03292,3.423155,3.30508
-33.06608,3.4274592,3.316115
-33.101803,3.4296196,3.3237205
-33.14858,3.4225163,3.3163495
-33.21098,3.4026759,3.2884207
-33.23585,3.414572,3.3120232
-33.268627,3.419887,3.3250074
-33.307903,3.4200058,3.3296452
-33.368748,3.403116,3.3068972
-33.413357,3.3996022,3.3058486
-33.45138,3.4014792,3.313569
-33.478664,3.4117417,3.334846
-33.513786,3.4159973,3.3465075
-33.566753,3.4069633,3.3368983
-33.617092,3.40028,3.3311682
-33.65182,3.4053657,3.3443851
-33.680595,3.4148302,3.3646626
-33.72056,3.4162712,3.3721676
-33.798428,3.3910975,3.3372989
-33.873314,3.3687873,3.3071795
-33.852283,3.413372,3.383646
-33.916492,3.3989925,3.3663416
-33.973045,3.3903065,3.3582158
-34.02487,3.385169,3.3558383
-34.073112,3.382713,3.3578143
-34.104992,3.3911796,3.3771439
-34.14827,3.392321,3.384974
-34.21478,3.378846,3.3698726
-34.257683,3.3807516,3.379115
-34.286907,3.391345,3.4020839
-34.328472,3.3943162,3.4131498
-34.383965,3.388955,3.4112597
-34.475006,3.3625143,3.376564
-34.49019,3.3820662,3.4138455
-34.526646,3.3888764,3.4312878
-34.5712,3.3910413,3.4415784
-34.63634,3.3815174,3.4338284
-34.704536,3.3706832,3.4242082
-34.735607,3.3812509,3.4478521
-34.806316,3.3697064,3.4374232
-34.880882,3.3565137,3.4246368
-34.914146,3.3663938,3.4475188
-34.96434,3.367154,3.456468
-35.021046,3.3646584,3.4605489
-35.095882,3.3528728,3.45057
-35.128384,3.3637273,3.4753227
-35.17602,3.3667667,3.4882383
-35.261745,3.3504906,3.4719315
-35.310383,3.3535972,3.4852376
-35.333145,3.369863,3.518558
-35.40774,3.3603387,3.5129957
-35.467674,3.3584676,3.5191612
-35.52248,3.3593884,3.529675
-35.54863,3.3743207,3.5613213
-35.598114,3.3781142,3.5763597
-35.69499,3.3598094,3.5585752
-35.754726,3.3594432,3.567758
-35.799137,3.366419,3.587994
-35.90555,3.3452778,3.5667357
-35.950157,3.3527255,3.5879936
-36.004887,3.3557868,3.6029067
-36.1053,3.3389096,3.5887022
-36.15241,3.3459606,3.6098313
-36.20185,3.3521526,3.6298265
-36.320694,3.3288345,3.6070123
-36.367184,3.3369262,3.6301537
-36.424072,3.3408017,3.647318
-36.48665,3.3425522,3.6615767
-36.567974,3.336894,3.665371
-36.62178,3.3428335,3.6860366
-36.722275,3.3302367,3.6803842
-36.788578,3.3318067,3.6952267
-36.82438,3.3456564,3.7276888
-36.973663,3.3154435,3.697956
-37.00789,3.3304524,3.7324443
-37.102966,3.322339,3.7345657
-37.191597,3.3171735,3.7411308
-37.243355,3.3262024,3.767765
-37.383026,3.303012,3.7498507
-37.421368,3.317611,3.7846684
-37.507256,3.3151274,3.7960753
-37.600143,3.3105745,3.8049421
-37.67262,3.3137002,3.8246174
-37.801155,3.2975821,3.8183885
-37.840187,3.3131003,3.8554409
-37.982277,3.2934937,3.8452973
-38.041275,3.3027768,3.8744287
-38.159607,3.2924519,3.877596
-38.260715,3.2884588,3.8896232
-38.351456,3.2883637,3.9071836
-38.444954,3.2878127,3.9244838
-38.527943,3.2910671,3.9471157
-38.65892,3.2795346,3.950828
-38.71631,3.2916987,3.9857192
-38.853065,3.279535,3.9895234
-38.965973,3.2753947,4.004153
-39.114105,3.2611885,4.006448
-39.29235,3.2388005,3.999035
-39.421425,3.231929,4.01188
-39.621418,3.2050366,4.000298
-39.775673,3.1924686,4.0073614
-39.980385,3.1663442,3.9984188
-40.18843,3.1404343,3.9906702
-40.353996,3.12751,3.999641
-40.596138,3.0944035,3.985049
-40.78282,3.0777397,3.9912639
-41.01329,3.0503178,3.9855914
-41.244358,3.0240123,3.9823408
-41.488983,2.9954247,3.9775457
-41.66356,2.986321,3.9965043
-42.023834,2.9306169,3.962851
-42.26471,2.9071345,3.9676652
-42.433075,2.9030368,3.9955301
-54.13115,0.4985454,1.734158
-54.185135,0.5583043,1.8659153
-54.996212,0.59709334,2.1230469
-54.043518,1.012847,2.7514205
-54.146477,1.0611057,2.8723593
-54.155174,1.1286542,3.0115147
-54.17061,1.1946144,3.1491733
-54.194748,1.2586627,3.2851214
-54.279957,1.3107762,3.4107666
-54.36634,1.3628676,3.5368514
-54.63559,1.3809175,3.6351237
-8.244057,1.3949568,2.755755
-10.658556,1.7841456,3.0403771
-11.167831,1.8371518,3.0417733
-11.633263,1.8832421,3.0384521
-12.064537,1.9242039,3.0320082
-12.179447,1.8958049,2.9512463
-12.174625,1.8403342,2.8407974
-14.263663,2.075823,2.8876586
-14.3964405,2.059129,2.8277063
-14.545206,2.047004,2.7737765
-14.450583,1.9736195,2.646875
-14.515687,1.9404852,2.568181
-12.74468,1.4286785,1.9053125
-13.631607,1.6068232,2.0825438
-13.6684,1.5631971,1.9890976
-14.470383,1.726444,2.153902
-14.4845085,1.678935,2.057519
-14.502105,1.6321535,1.9620275
-14.48035,1.5741239,1.8522
-14.458622,1.5156183,1.7415686
-14.629821,1.5120046,1.7015238
-14.620288,1.4567015,1.5950956
-14.637754,1.4089112,1.498332
-14.638901,1.3560266,1.3948612
-14.631941,1.3003411,1.287602
-14.639266,1.248575,1.1854162
-14.631395,1.1917996,1.0764799
-14.626228,1.135416,0.9679365
-14.677678,1.09642,0.8827019
-14.615117,1.0210814,0.7483659
-14.570552,0.9506712,0.62037563
-25.824024,3.2037907,3.0050926
-25.81926,3.1690056,2.942922
-25.99727,3.25313,3.072322
-26.052364,3.258155,3.0745354
-26.105394,3.2621405,3.0751824
-26.156403,3.2650726,3.0742297
-26.21334,3.2723541,3.080422
-26.271227,3.280683,3.0884304
-26.321047,3.283771,3.0880442
-26.370113,3.286613,3.0873532
-26.416082,3.2875123,3.083592
-26.463116,3.2894158,3.0815516
-26.516392,3.2961657,3.0875063
-26.56598,3.300545,3.0896907
-26.614246,3.304241,3.0908508
-26.661219,3.3072433,3.0909643
-26.702446,3.3060899,3.0843515
-26.750826,3.3106992,3.087264
-26.796274,3.3133032,3.0869722
-26.838863,3.313881,3.0834274
-26.878668,3.312411,3.0765843
-26.93391,3.3237894,3.0909762
-26.966082,3.316445,3.074595
-27.002539,3.312718,3.0642295
-27.057144,3.3245976,3.0797067
-27.09755,3.3246844,3.0757833
-27.158697,3.343163,3.1023712
-27.187181,3.333282,3.0820894
-27.221298,3.3283966,3.0701256
-27.25989,3.3276505,3.0650816
-27.301348,3.3297257,3.064784
-27.335955,3.325608,3.0542574
-27.37773,3.3283837,3.0552502
-27.421724,3.3335648,3.0603166
-27.454834,3.3284156,3.0482378
-27.49398,3.3292933,3.046258
-27.532585,3.3298335,3.0437732
-27.571117,3.3304915,3.0415454
-27.616219,3.338169,3.0511103
-27.647507,3.3316977,3.0370793
-27.698774,3.3465776,3.0588331
-27.726154,3.3361466,3.0382733
-27.767626,3.3411086,3.0435486
-27.809753,3.3471339,3.050673
-27.85086,3.3523607,3.0565243
-27.891788,3.3577194,3.0626602
-27.939316,3.3711772,3.0824733
-27.978992,3.3758721,3.0876274
-28.02471,3.388224,3.1057281
-28.078487,3.4111114,3.1416454
-28.114721,3.412919,3.142139
-28.138252,3.3987267,3.115707
-28.184717,3.4140089,3.1390185
-27.847874,2.922902,2.3076725
-27.833767,2.8488865,2.179861
-27.842617,2.8038313,2.100905
-27.843933,2.7467682,2.001625
-27.852285,2.697763,1.9159317
-27.858118,2.6434216,1.8211827
-27.926323,2.6794226,1.879365
-27.94475,2.641964,1.8132248
-27.950853,2.5842323,1.7127237
-27.705635,2.129601,0.9392195
-27.763266,2.141776,0.95693684
-27.822617,2.1575222,0.98079777
-27.872242,2.1579134,0.9786763
-27.910141,2.1385,0.9429803
-27.993298,2.1975899,1.0407157
-28.048256,2.2091799,1.0578494
-28.076998,2.1735487,0.99475765
-28.142557,2.2054584,1.0465837
-28.187147,2.1988888,1.0330243
-28.23384,2.1963556,1.0263891
-28.368343,2.3712468,1.3219771
-28.427156,2.398688,1.3666272
-28.96135,3.4395952,3.1385283
-29.01215,3.480945,3.207623
-29.041292,3.4760857,3.198
-29.064976,3.4584527,3.1666226
-29.091547,3.4468002,3.1454697
-29.122807,3.4461002,3.1430368
-29.15699,3.4529166,3.1534767
-29.194586,3.4692574,3.1802263
-29.224602,3.466344,3.174139
-29.254488,3.463011,3.1673684
-29.286148,3.4647288,3.1692643
-29.311455,3.4476087,3.138998
-29.340343,3.440509,3.1258898
-29.3746,3.4504385,3.1419358
-29.410513,3.4669545,3.1692934
-29.440351,3.4635944,3.1626935
-29.470661,3.4618096,3.158824
-29.496986,3.4445953,3.128582
-29.52556,3.4349475,3.111318
-29.556345,3.433883,3.1087813
-29.58736,3.4339006,3.1081343
-29.620356,3.4435258,3.1239781
-29.65439,3.4597638,3.1511903
-29.68709,3.4710784,3.1700106
-29.71447,3.453355,3.1391225
-29.74598,3.4588065,3.1479716
-29.77608,3.4557965,3.1423597
-29.804047,3.4367745,3.1093402
-29.834278,3.432404,3.1014633
-29.865057,3.4321353,3.1006527
-29.895933,3.4329522,3.1017385
-29.92771,3.4444196,3.121119
-29.958632,3.448419,3.1277347
-29.98926,3.449477,3.1293435
-30.019367,3.4410448,3.1147156
-30.049576,3.430171,3.0959368
-30.08033,3.4299526,3.0954628
-30.111116,3.4318285,3.0986166
-30.141903,3.4504073,3.1304464
-30.172379,3.453952,3.1365333
-30.202864,3.4530413,3.135015
-30.233763,3.4406233,3.1138015
-30.265125,3.4247608,3.086719
-30.295853,3.4266071,3.0900364
-30.325905,3.4375958,3.109064
-30.356066,3.4441276,3.1204863
-30.385406,3.4577823,3.1441522
-30.4171,3.44635,3.1248484
-30.44872,3.4380217,3.1109014
-30.480087,3.4332972,3.1031713
-30.510498,3.4361951,3.1085415
-30.541937,3.4321368,3.1020255
-30.567686,3.4628177,3.1550703
-30.59982,3.4538891,3.1402802
-30.630255,3.455084,3.142871
-30.663742,3.4413104,3.1198606
-30.695948,3.4351509,3.1099305
-30.727629,3.4320838,3.1053371
-30.75506,3.4471269,3.1317859
-30.78518,3.4502223,3.1378112
-30.816563,3.4483926,3.1354446
-30.849394,3.44165,3.1247082
-30.884718,3.4270082,3.1005006
-30.917398,3.4224494,3.093586
-30.945505,3.4329367,3.112441
-30.97256,3.4459798,3.1356955
-31.002869,3.4486308,3.141214
-31.036976,3.4404185,3.1282048
-31.07257,3.4288256,3.1094666
-31.106783,3.4218047,3.0985847
-31.138489,3.421824,3.0997677
-31.167433,3.4288616,3.1129713
-31.196438,3.4354749,3.125482
-31.228256,3.4352374,3.1263375
-31.26119,3.432616,3.1231666
-31.295996,3.4261403,3.1134663
-31.330755,3.4202569,3.104823
-31.35982,3.4267752,3.1173563
-31.385628,3.4397523,3.1409235
-31.417068,3.4410036,3.1445503
-31.44876,3.4418478,3.147523
-31.483303,3.4373927,3.141519
-31.523531,3.4227717,3.11827
-31.557934,3.419507,3.114389
-31.584997,3.4295006,3.1330886
-31.607063,3.4478295,3.165975
-31.641668,3.4443228,3.1617994
-31.674631,3.443828,3.1627822
-31.71662,3.4288905,3.1393032
-31.752903,3.4237652,3.1325316
-31.78748,3.421646,3.130906
-31.812962,3.4336069,3.153184
-31.846256,3.433588,3.155199
-31.885502,3.425014,3.142777
-31.927666,3.4127269,3.1241322
-31.960312,3.4144626,3.1292653
-31.991922,3.4177203,3.137014
-32.019985,3.4258318,3.1530023
-32.05432,3.42544,3.1546655
-32.093063,3.419445,3.1469212
-32.134205,3.4107265,3.1346421
-32.166252,3.413972,3.1425924
-32.200924,3.4139972,3.1451607
-32.229477,3.4216638,3.1606402
-32.2622,3.4242249,3.167564
-32.300457,3.4203062,3.1636372
-32.348915,3.4048011,3.140298
-32.38189,3.407688,3.1479282
-32.40741,3.4190567,3.1698356
-32.436478,3.426292,3.1848378
-32.468403,3.4303508,3.194552
-32.507156,3.4270897,3.19205
-32.552574,3.4170234,3.1782203
-32.58859,3.417248,3.181676
-32.621975,3.420337,3.1899729
-32.65444,3.4244366,3.200004
-32.684128,3.4313686,3.2148056
-32.731743,3.4205909,3.200118
-32.78436,3.4054332,3.1782174
-32.8265,3.4009018,3.1741037
-32.841522,3.4222953,3.213179
-32.873043,3.4278977,3.2260103
-32.911346,3.4272852,3.2285666
-32.987823,3.3922486,3.1740737
-33.019184,3.398686,3.1884875
-33.051468,3.4043138,3.2016034
-33.083176,3.4104745,3.2156467
-33.117382,3.4145036,3.2262096
-33.172924,3.4005046,3.2070508
-33.208866,3.4034636,3.2159786
-33.23896,3.4113631,3.2331061
-33.285034,3.4061985,3.2287621
-33.321007,3.4094906,3.2384129
-33.37666,3.3972216,3.2225475
-33.424942,3.391236,3.2171073
-33.446148,3.4066088,3.2467842
-33.483925,3.4090846,3.2553496
-33.523987,3.409959,3.2613583
-33.584126,3.395981,3.2431579
-33.630238,3.392901,3.2428756
-33.652637,3.407409,3.2713618
-33.693558,3.4084005,3.2778516
-33.732162,3.411214,3.2873778
-33.841797,3.3641043,3.2158465
-33.841297,3.3949995,3.271183
-33.885044,3.3949227,3.27627
-33.911755,3.4066389,3.300531
-33.985104,3.3869276,3.274013
-34.037254,3.3819635,3.271473
-34.10087,3.3697913,3.2574162
-34.13017,3.380392,3.2801728
-34.169476,3.3845406,3.292594
-34.22029,3.3815024,3.2935443
-34.271904,3.378244,3.2942467
-34.311993,3.3824282,3.3069735
-34.364494,3.379118,3.3077917
-34.413868,3.3779993,3.3122196
-34.464684,3.3762631,3.3157644
-34.500942,3.3834274,3.3335824
-34.56065,3.3768966,3.329702
-34.591507,3.3874838,3.3531137
-34.686222,3.3614028,3.3184953
-34.71514,3.3734875,3.3444676
-34.77147,3.3701468,3.3461347
-34.823803,3.3693342,3.35191
-34.89232,3.3598857,3.3442168
-34.94146,3.3614128,3.3539238
-34.99632,3.360074,3.3592458
-35.059135,3.3547797,3.3585029
-35.13004,3.3455899,3.3518262
-35.17389,3.3509307,3.3679743
-35.227856,3.3511999,3.3763256
-35.30304,3.3409119,3.3684096
-35.336803,3.3519769,3.3937721
-35.39841,3.3491838,3.3977666
-35.441666,3.3557668,3.4163804
-35.49977,3.3552275,3.42412
-35.543015,3.3621438,3.4434547
-35.59976,3.3627338,3.4531875
-35.658108,3.3628268,3.4622974
-35.723404,3.3599439,3.467011
-35.794224,3.354846,3.4685225
-35.861416,3.351798,3.4733353
-35.959682,3.335029,3.4575357
-36.013397,3.3388658,3.473164
-36.060116,3.3460164,3.4939227
-36.14676,3.3357987,3.4886727
-36.195934,3.3423595,3.5088367
-36.2609,3.3423038,3.5192242
-36.359367,3.3283243,3.509016
-36.382374,3.3466678,3.5471888
-36.450024,3.346373,3.5577426
-36.582264,3.3198278,3.529657
-36.603477,3.3393598,3.5699492
-36.67317,3.339283,3.5814333
-36.770733,3.328432,3.5773225
-36.79812,3.3458054,3.6147633
-36.92736,3.323432,3.5943503
-36.99269,3.3265314,3.6113496
-37.046448,3.3343296,3.6353397
-37.196022,3.3061416,3.607574
-37.228294,3.322722,3.6446662
-37.34436,3.3083563,3.6375031
-37.4271,3.3068445,3.649074
-37.476967,3.3176236,3.6783843
-37.602364,3.3015418,3.669785
-37.64632,3.3149962,3.7032976
-37.727783,3.3154273,3.718624
-37.840294,3.305504,3.7197232
-37.890167,3.31763,3.751954
-38.0377,3.2968478,3.738646
-38.09546,3.3069806,3.768611
-38.24288,3.2876348,3.7581897
-38.32524,3.2904396,3.7786622
-38.44889,3.2802536,3.781705
-38.503334,3.2928843,3.8161716
-38.648582,3.276948,3.8122292
-38.697723,3.2918952,3.850348
-38.848858,3.2754192,3.8466063
-38.93181,3.2806377,3.872312
-39.067516,3.2702696,3.877701
-39.14885,3.2768753,3.9059577
-39.30211,3.262579,3.9071703
-39.363773,3.2758632,3.944881
-39.520256,3.2619896,3.9476953
-39.642654,3.2586832,3.9647403
-39.729763,3.2659361,3.9957712
-39.89709,3.251217,3.9992645
-40.066643,3.2367883,4.0038443
-40.304417,3.2047162,3.9870749
-40.442722,3.2007174,4.0062737
-40.67981,3.1711924,3.9945693
-40.874146,3.1542034,3.9993095
-41.106865,3.128313,3.9941158
-41.347603,3.101653,3.9890795
-41.568466,3.0813346,3.9927676
-41.82804,3.0525446,3.9874547
-42.15087,3.0095935,3.9667423
-42.36779,2.9942112,3.9797635
-54.17649,0.48992395,1.3684459
-54.109203,0.5775423,1.530777
-54.095688,0.6524594,1.6788187
-54.086746,0.72593546,1.8251066
-54.288475,0.7535169,1.9226003
-54.066864,1.151818,2.6838465
-54.11207,1.211992,2.8159132
-54.143837,1.274751,2.950615
-54.177586,1.3370175,3.0849342
-54.200737,1.4011993,3.2211208
-54.245255,1.4612379,3.3535795
-54.285004,1.52213,3.4869747
-54.429832,1.5639234,3.603859
-54.744423,1.5759628,3.6962085
-8.27025,1.5940716,2.8383374
-8.470549,1.5709391,2.7518177
-10.81406,1.9326849,3.0285354
-11.390078,1.997443,3.0476542
-11.784914,2.0264716,3.029735
-12.126831,2.0460727,3.0031404
-12.174322,2.0025194,2.9059286
-12.175129,1.9485435,2.796815
-14.202564,2.157764,2.8305335
-14.519546,2.1848633,2.824903
-14.542255,2.1415436,2.7339725
-14.567471,2.098711,2.643671
-14.597965,2.0570812,2.5549078
-12.758854,1.5393872,1.8662696
-13.655529,1.7148669,2.0488725
-13.6627655,1.6636398,1.9457178
-13.701103,1.6203537,1.8527207
-14.444541,1.7656043,2.0040083
-14.470419,1.7210903,1.9111309
-14.446855,1.6628683,1.8002968
-14.598709,1.6528196,1.75284
-14.617711,1.5538568,1.5543156
-14.629729,1.5046723,1.4553747
-14.623653,1.4499469,1.3489146
-14.623835,1.3966577,1.2442832
-14.613415,1.2857101,1.0287585
-14.617107,1.2323174,0.9236884
-14.615469,1.1769114,0.815752
-14.626201,1.124949,0.71250105
-14.621061,1.0676455,0.60173273
-14.573934,0.9964862,0.47140598
-25.838453,3.2515197,3.0042648
-25.865826,3.2376573,2.975706
-25.821156,3.1772814,2.8708978
-25.996088,3.2589002,2.9990902
-26.073696,3.2784722,3.0256958
-26.11636,3.275413,3.0152125
-26.174843,3.2831872,3.022656
-26.225193,3.2858117,3.0217156
-26.27539,3.288614,3.0211606
-26.329594,3.294505,3.0258036
-26.394182,3.3081076,3.0433183
-26.444326,3.3119042,3.0447054
-26.511108,3.328073,3.0667129
-26.54638,3.3217154,3.0514312
-26.580574,3.3146126,3.0349607
-26.621069,3.3122787,3.0264783
-26.682806,3.326274,3.0452714
-26.702524,3.3084202,3.011054
-26.775902,3.3322217,3.0464025
-26.803432,3.3205767,3.0226517
-26.875935,3.3448505,3.0590234
-26.915188,3.3429778,3.051754
-26.935888,3.3260093,3.0192423
-26.97735,3.3260763,3.0153236
-27.046745,3.349898,3.0513573
-27.10009,3.3608305,3.0658627
-27.11295,3.3371894,3.0223055
-27.157486,3.3409011,3.0247917
-27.199371,3.342548,3.0238695
-27.234745,3.338557,3.013506
-27.27258,3.3368933,3.0071182
-27.32339,3.3473978,3.0213366
-27.358158,3.3433077,3.0109715
-27.398138,3.3442538,3.009172
-27.435234,3.342624,3.0030704
-27.473682,3.3424578,2.9995017
-27.510704,3.34105,2.9938836
-27.543652,3.335669,2.9815745
-27.58776,3.3417454,2.9887595
-27.62114,3.3370254,2.9776697
-27.647644,3.3250828,2.9543438
-27.687624,3.3273976,2.9552984
-27.751106,3.355553,3.0003
-27.777634,3.3439047,2.9776125
-27.815472,3.3447695,2.9762783
-27.854448,3.3471339,2.9775548
-27.903698,3.3616676,2.9996538
-27.946629,3.369405,3.0102262
-27.997086,3.3865914,3.0370073
-28.030615,3.383898,3.0298839
-28.090172,3.413549,3.0781307
-28.140789,3.4331212,3.1092281
-28.17479,3.4322212,3.105352
-27.835789,2.944204,2.2669325
-27.830643,2.8827024,2.1588283
-27.835997,2.833356,2.0715175
-27.84592,2.788673,1.9921775
-27.852152,2.7373106,1.9013495
-27.849964,2.6721148,1.7867336
-27.917027,2.705728,1.8418574
-27.950914,2.6914654,1.8147845
-27.989174,2.6834793,1.7985387
-27.714745,2.190405,0.9476571
-27.763117,2.188036,0.94080925
-27.811487,2.1857975,0.93424463
-27.890669,2.2346036,1.0156798
-27.943533,2.2413635,1.0247746
-27.959906,2.1856458,0.92621565
-28.038218,2.2370117,1.0123429
-28.11148,2.2818944,1.0874109
-28.13472,2.2365527,1.0068569
-28.179195,2.229494,0.9924078
-28.33085,2.43069,1.3377237
-28.375463,2.4289854,1.3327441
-28.387747,2.3612442,1.2136774
-28.93608,3.4165654,3.0363255
-28.999289,3.4827278,3.1494026
-29.02853,3.4773686,3.1388526
-29.056591,3.46915,3.1233854
-29.082952,3.456593,3.1004386
-29.114037,3.4548697,3.0962749
-29.15023,3.4659767,3.114366
-29.184605,3.4732633,3.1258864
-29.21657,3.4747522,3.1274033
-29.248117,3.4753428,3.1274014
-29.276705,3.4676502,3.1130743
-29.303633,3.4546065,3.0895004
-29.333096,3.4485264,3.0780287
-29.362684,3.4425187,3.0667148
-29.400679,3.4642413,3.1035442
-29.432024,3.464826,3.1037426
-29.46415,3.468461,3.10927
-29.490204,3.4494145,3.0754623
-29.520664,3.446273,3.0692925
-29.550594,3.4407306,3.0589871
-29.58165,3.439726,3.0565953
-29.613977,3.444755,3.0647182
-29.648748,3.4627774,3.09545
-29.679802,3.463515,3.0961947
-29.710302,3.4613528,3.0919333
-29.740356,3.456285,3.0826578
-29.770975,3.4542775,3.078732
-29.801767,3.4533432,3.076707
-29.83201,3.4480085,3.0670657
-29.861694,3.4367774,3.0472064
-29.892302,3.4320927,3.0387602
-29.924973,3.4494011,3.0685873
-29.956753,3.4608183,3.0882087
-29.987474,3.460361,3.0872169
-30.017992,3.4559968,3.079465
-30.048292,3.443735,3.0580134
-30.079056,3.4375322,3.047131
-30.110233,3.4483562,3.0658937
-30.141111,3.4492905,3.067492
-30.171982,3.4483104,3.0657945
-30.202993,3.4419265,3.0547338
-30.233894,3.443598,3.0577164
-30.2653,3.433387,3.04007
-30.29673,3.4272451,3.0295339
-30.3266,3.4455984,3.0616264
-30.356842,3.4540622,3.0765538
-30.386787,3.4635978,3.093378
-30.418903,3.4508026,3.071412
-30.450684,3.4435694,3.0591512
-30.482716,3.4359226,3.0462093
-30.513939,3.4353251,3.0455556
-30.5427,3.45072,3.0727305
-30.572432,3.4582298,3.0862327
-30.603159,3.459355,3.0886717
-30.634731,3.4560897,3.0835176
-30.66864,3.44199,3.0595775
-30.701178,3.4359221,3.0496306
-30.732733,3.4348993,3.0484834
-30.756151,3.46765,3.1060143
-30.79053,3.4543931,3.0836883
-30.820614,3.4585528,3.091638
-30.852966,3.4543822,3.0851626
-30.891071,3.4310303,3.0454412
-30.919682,3.4408739,3.0633607
-30.950417,3.4433844,3.068591
-30.98176,3.4440029,3.0705733
-31.012266,3.4471648,3.0770006
-31.044811,3.4445,3.0733624
-31.079067,3.437499,3.0622478
-31.116318,3.4232292,3.0385814
-31.144115,3.434093,3.0584989
-31.17187,3.4445293,3.0777035
-31.205122,3.4413195,3.0733118
-31.236584,3.4426033,3.076737
-31.270424,3.4385962,3.0710435
-31.309952,3.4224858,3.044456
-31.34213,3.4230695,3.046791
-31.366121,3.4407759,3.078765
-31.396198,3.4453995,3.0881472
-31.428656,3.445243,3.0893044
-31.457869,3.4514773,3.1015391
-31.500383,3.4326026,3.070456
-31.53468,3.4298265,3.0672174
-31.562868,3.4382536,3.0833488
-31.595297,3.4390311,3.086318
-31.624645,3.4451919,3.0986066
-31.65733,3.445656,3.1011095
-31.6962,3.4361296,3.0864444
-31.73384,3.4291198,3.076167
-31.767117,3.4294028,3.0784907
-31.797628,3.434075,3.088408
-31.83028,3.4354885,3.0927544
-31.861973,3.4384174,3.0997481
-31.902824,3.4281254,3.084064
-31.938292,3.426029,3.0825133
-31.978947,3.4169333,3.0689955
-32.005703,3.427344,3.0890012
-32.035416,3.4335678,3.101853
-32.07216,3.430449,3.0987282
-32.118084,3.415694,3.0757203
-32.153,3.415633,3.077941
-32.18909,3.414268,3.0779772
-32.21387,3.42702,3.102203
-32.24764,3.428635,3.1074157
-32.28103,3.4308102,3.1136289
-32.322742,3.4233336,3.1034079
-32.3671,3.413215,3.0887418
-32.398304,3.4184902,3.1003933
-32.423645,3.4302988,3.1232166
-32.454624,3.4357216,3.1351871
-32.49401,3.4320495,3.1317172
-32.53526,3.4266717,3.1254053
-32.570168,3.4282749,3.1310205
-32.611702,3.4231486,3.1252537
-32.644497,3.4272428,3.1352005
-32.676796,3.43188,3.14611
-32.724133,3.421691,3.1319327
-32.778717,3.4049056,3.1066632
-32.81738,3.4040582,3.1084619
-32.8424,3.416332,3.1325073
-32.871975,3.4241853,3.1491055
-32.91498,3.4196262,3.1447825
-32.966484,3.407651,3.128017
-32.999043,3.4131546,3.1408052
-33.043537,3.4081368,3.1359153
-33.07407,3.4156117,3.152123
-33.115723,3.4134963,3.1522417
-33.156982,3.4119554,3.1533923
-33.203037,3.406616,3.1482334
-33.238235,3.4105818,3.1587567
-33.27501,3.4133468,3.1673193
-33.301056,3.424879,3.1906118
-33.39028,3.3859944,3.1296191
-33.434025,3.3840408,3.1305175
-33.465744,3.3916626,3.1474705
-33.497917,3.3989413,3.1638937
-33.540676,3.3982182,3.1670313
-33.58693,3.395091,3.1662412
-33.637913,3.3887417,3.1601758
-33.678158,3.3905818,3.1678019
-33.710873,3.3980083,3.1847591
-33.734104,3.412218,3.2130013
-33.82042,3.3818698,3.1675224
-33.868134,3.3792977,3.1681495
-33.882298,3.4000635,3.207397
-33.928814,3.3985639,3.2099218
-34.00908,3.374642,3.1755948
-34.054867,3.374372,3.1803575
-34.08025,3.3877056,3.2075553
-34.129814,3.3852627,3.20889
-34.17322,3.3870394,3.217235
-34.22747,3.382118,3.2146926
-34.291527,3.3713827,3.2027545
-34.31531,3.3860579,3.2324333
-34.357025,3.3896427,3.2440567
-34.40398,3.3901963,3.2508192
-34.477352,3.3751428,3.232298
-34.510056,3.3847318,3.253944
-34.56133,3.3834658,3.2580447
-34.605328,3.386668,3.2694798
-34.684536,3.3698726,3.2486792
-34.718594,3.3792496,3.2702937
-34.7731,3.3772063,3.2735648
-34.83603,3.370781,3.2699013
-34.915874,3.3554728,3.2521114
-34.95983,3.360187,3.266611
-35.010113,3.361658,3.2760043
-35.105736,3.3393114,3.2474465
-35.123684,3.3584292,3.2852612
-35.18927,3.3526824,3.283496
-35.230606,3.359759,3.3022618
-35.323315,3.3408692,3.2799158
-35.33933,3.361152,3.3198276
-35.403355,3.3574228,3.3217955
-35.460197,3.3575668,3.3300238
-35.53641,3.3485646,3.3239808
-35.55483,3.3678176,3.3625164
-35.60887,3.369988,3.374281
-35.690086,3.3596044,3.366527
-35.754234,3.357668,3.3721695
-35.811684,3.3591409,3.383277
-35.905167,3.3444545,3.3694034
-35.957573,3.3488865,3.3854299
-36.018494,3.3497224,3.3960123
-36.10669,3.3388073,3.3886037
-36.160904,3.3432546,3.4050918
-36.226116,3.3431664,3.41474
-36.297745,3.3406463,3.420827
-36.360844,3.3420992,3.433175
-36.413685,3.3481236,3.4526548
-36.50007,3.3404684,3.451458
-36.58032,3.3358097,3.455048
-36.633377,3.3425837,3.4761524
-36.717182,3.337236,3.479104
-36.784954,3.338688,3.4925194
-36.8471,3.3426547,3.50989
-36.9708,3.3230233,3.4921393
-37.00608,3.338062,3.5264573
-37.110645,3.3268585,3.5218463
-37.203114,3.3207936,3.5251675
-37.27082,3.3244128,3.543068
-37.403038,3.3046472,3.5267386
-37.446705,3.3178315,3.5591736
-37.55519,3.3078392,3.5578303
-37.6259,3.3118668,3.5772586
-37.694946,3.3167825,3.598184
-37.8229,3.3015282,3.590138
-37.863075,3.3171642,3.6270332
-37.993313,3.3022728,3.620202
-38.06187,3.3088446,3.644505
-38.227386,3.2834892,3.6235414
-38.276276,3.297434,3.6589112
-38.38602,3.2917418,3.6666765
-38.472397,3.294125,3.6861753
-38.598343,3.2843437,3.6889257
-38.677074,3.2900615,3.7137303
-38.804398,3.2810388,3.718339
-38.895702,3.2837443,3.7396064
-39.053745,3.2666337,3.733953
-39.09635,3.2850075,3.7774258
-39.287174,3.2595477,3.7613707
-39.335117,3.2770233,3.8041806
-39.463802,3.2712443,3.8158226
-39.60897,3.261413,3.8225293
-39.723698,3.260953,3.8422809
-39.845818,3.258986,3.8604774
-39.945354,3.2638547,3.888145
-40.12156,3.2482753,3.8894484
-40.235985,3.2502859,3.9143426
-40.36517,3.2489119,3.9353216
-40.49267,3.2486172,3.9582138
-40.635963,3.2448435,3.9771974
-40.848763,3.2239714,3.9751527
-41.04077,3.2095206,3.982111
-41.264748,3.188097,3.9812243
-41.53486,3.1565008,3.968763
-41.696518,3.1528265,3.9918134
-42.02575,3.1096494,3.967505
-42.293102,3.0830088,3.964718
-42.476532,3.0774865,3.9884682
-54.15377,0.5605016,1.1563196
-54.087654,0.64771247,1.3195248
-54.089455,0.7192738,1.4644141
-54.129158,0.78229237,1.5995517
-54.049812,0.87058234,1.7629566
-54.165695,0.91700816,1.8796597
-54.0845,1.3526394,2.7512403
-54.12882,1.4129117,2.883418
-54.18483,1.4709625,3.0135603
-54.205128,1.5356288,3.1503453
-54.208954,1.6031215,3.2898355
-54.283665,1.6577084,3.4171743
-54.414,1.7026772,3.5360646
-54.608948,1.7369452,3.6460867
-54.96237,1.7450845,3.734324
-8.256969,1.7083526,2.7750173
-9.037678,1.7988698,2.8161125
-9.70171,1.8702872,2.8398185
-11.111683,2.096925,3.0435057
-11.528109,2.1267262,3.028036
-12.063805,2.183671,3.0461922
-12.122137,2.1422768,2.9514365
-13.975943,2.241892,2.819253
-14.383449,2.2871475,2.8378916
-14.539429,2.2751815,2.78612
-14.54067,2.2268457,2.6887274
-14.516612,2.172104,2.5830507
-14.465588,2.1103013,2.4680724
-12.760286,1.6359336,1.8165588
-12.752312,1.5784898,1.7030215
-14.454559,1.9068506,2.0631943
-14.384385,1.8375266,1.9371138
-14.386134,1.7346876,1.7321596
-14.602776,1.7414179,1.7085123
-14.604188,1.690048,1.6063428
-14.618174,1.6418476,1.5084438
-14.656349,1.6002116,1.4195709
-14.61515,1.5358448,1.2992334
-14.618954,1.4838257,1.1958551
-14.616449,1.4296207,1.0893426
-14.616608,1.3758118,0.9832864
-14.61675,1.3216166,0.8765931
-14.609815,1.26489,0.76621294
-14.619698,1.2128644,0.66242266
-14.646255,1.1656649,0.56549215
-14.619199,1.1014497,0.4440813
-25.885714,3.2838724,2.9770355
-25.934555,3.2837543,2.971374
-25.980804,3.282199,2.9633965
-26.026373,3.280396,2.955083
-26.077414,3.282388,2.953196
-26.125874,3.2829351,2.948975
-26.186916,3.292214,2.959484
-26.238647,3.2955828,2.9601817
-26.290798,3.2995458,2.961967
-26.34453,3.3049326,2.9662385
-26.396286,3.3092709,2.9688373
-26.442627,3.3100533,2.965528
-26.487133,3.3097408,2.960446
-26.530418,3.3087385,2.9542685
-26.584373,3.3158555,2.9618912
-26.63919,3.324009,2.9713616
-26.684292,3.3251755,2.9690857
-26.73038,3.3273401,2.9685736
-26.768162,3.3232746,2.9575562
-26.816208,3.3274362,2.9605722
-26.854454,3.3240504,2.950829
-26.902754,3.3289454,2.955236
-26.947187,3.3309886,2.9548602
-26.991493,3.333178,2.954803
-27.033096,3.3333442,2.9513597
-27.074621,3.333642,2.9482007
-27.120085,3.3375626,2.9512963
-27.162888,3.339447,2.9509764
-27.203602,3.3397126,2.947949
-27.244234,3.3401058,2.9451976
-27.289602,3.3450406,2.9502912
-27.33192,3.3474698,2.9511538
-27.368456,3.344708,2.943163
-27.409643,3.3465035,2.9430513
-27.449339,3.3470898,2.9409184
-27.491678,3.3504822,2.9436703
-27.530724,3.3508701,2.9413075
-27.562147,3.3437304,2.9260273
-27.610338,3.3538055,2.940464
-27.645664,3.350936,2.932641
-27.680569,3.3477132,2.9242525
-27.72477,3.3545814,2.9333377
-27.766659,3.3593178,2.9388018
-27.805908,3.3614492,2.9398189
-27.840588,3.3586679,2.9323874
-27.87807,3.3591926,2.9307218
-27.922182,3.3676393,2.9428296
-27.96098,3.3702435,2.9448724
-28.01994,3.3974245,2.9895906
-28.052917,3.393841,2.98102
-28.108582,3.4186144,3.021719
-28.147495,3.4231606,3.0273714
-28.182646,3.4231725,3.0251956
-27.847874,2.9365532,2.1769376
-27.83626,2.865288,2.0504518
-27.849993,2.8261619,1.9798355
-27.846424,2.7616909,1.8650765
-27.852001,2.7079077,1.768887
-27.871212,2.671936,1.7037082
-27.939533,2.707145,1.762629
-27.945393,2.6500428,1.660645
-27.961843,2.6070604,1.5832682
-27.990181,2.5811164,1.5356255
-27.828152,2.2495809,0.9543443
-27.89426,2.2769468,0.9996629
-28.019161,2.4040337,1.2193508
-27.995262,2.282751,1.0050411
-28.04202,2.27966,0.99733734
-28.090935,2.2805176,0.99659395
-28.15075,2.301623,1.0313435
-28.328196,2.3689547,1.1430941
-28.339325,2.2969277,1.0149555
-28.920464,3.4073176,2.9593854
-28.993816,3.4934862,3.1091747
-29.01974,3.4804072,3.085021
-29.05194,3.4809287,3.0847502
-29.076204,3.4631321,3.052372
-29.105118,3.4555645,3.0379648
-29.13458,3.4490361,3.025412
-29.174809,3.4697871,3.0607939
-29.206593,3.469752,3.0597177
-29.238886,3.4712617,3.061389
-29.271116,3.472858,3.0632482
-29.297483,3.457472,3.035294
-29.32788,3.4533684,3.0271983
-29.358202,3.4488535,3.0184093
-29.395262,3.4664137,3.0484748
-29.42804,3.470874,3.0555434
-29.456758,3.4612248,3.037825
-29.486084,3.4531136,3.0228415
-29.514235,3.439681,2.9985218
-29.546339,3.4415212,3.001111
-29.578716,3.4449189,3.0064754
-29.611622,3.4513495,3.0172153
-29.646437,3.4681885,3.0463161
-29.677193,3.4659507,3.0418653
-29.70877,3.4682186,3.045381
-29.739393,3.4651563,3.0395422
-29.769928,3.461187,3.032137
-29.800346,3.455818,3.0222979
-29.82876,3.4337752,2.9831142
-29.860533,3.4364393,2.9874892
-29.89193,3.4362285,2.9868321
-29.924297,3.4469464,3.005465
-29.956888,3.464161,3.0355825
-29.987188,3.4528522,3.0154676
-30.018282,3.4514875,3.012909
-30.048811,3.4354002,2.984435
-30.080133,3.4337,2.9813495
-30.111591,3.4384954,2.9897456
-30.142973,3.4576833,3.023539
-30.174044,3.4591856,3.0261965
-30.205217,3.4543526,3.0177193
-30.236462,3.4510803,3.0120258
-30.26859,3.4306207,2.9760752
-30.299921,3.4324458,2.9794316
-30.33061,3.4427364,2.9977388
-30.361214,3.4511304,3.012735
-30.392656,3.4487553,3.0087862
-30.423468,3.4528692,3.0163045
-30.455494,3.4462206,3.0048933
-30.487167,3.4435983,3.000608
-30.519703,3.4356413,2.98696
-30.546833,3.4632106,3.0359244
-30.579172,3.4563982,3.0243568
-30.609798,3.4600005,3.031166
-30.641499,3.4577808,3.0277548
-30.675621,3.4443452,3.004631
-30.706944,3.4452457,3.0067825
-30.738487,3.4452448,3.0073814
-30.767153,3.4570959,3.028872
-30.798704,3.4567611,3.0289483
-30.83134,3.452591,3.0223079
-30.86618,3.4411678,3.0029464
-30.899,3.4376683,2.997562
-30.93253,3.4323034,2.9889321
-30.958368,3.4514444,3.0234265
-30.990107,3.4516103,3.0245867
-31.024397,3.4445477,3.0130782
-31.056606,3.443913,3.0129027
-31.095007,3.4268205,2.9838524
-31.128057,3.4249146,2.981522
-31.154041,3.4410646,3.010932
-31.18542,3.4432,3.0157623
-31.21472,3.450262,3.0292711
-31.24936,3.4448097,3.020854
-31.284376,3.4389722,3.0118003
-31.321793,3.4284058,2.9944968
-31.352636,3.4324222,3.0028043
-31.380123,3.4432607,3.0231009
-31.410984,3.446943,3.0308843
-31.444498,3.4454186,3.029581
-31.484901,3.4310303,3.0057926
-31.52285,3.4220414,2.9915085
-31.554178,3.4256098,2.9992456
-31.580591,3.4378595,3.0222015
-31.61005,3.4444387,3.0352654
-31.643896,3.4434662,3.0351596
-31.679245,3.44021,3.0311022
-31.720583,3.4275568,3.010675
-31.754484,3.4273653,3.0120616
-31.782932,3.4357896,3.0285254
-31.81246,3.442389,3.041832
-31.848839,3.4386802,3.0371943
-31.89084,3.4270725,3.0188336
-31.92397,3.4287655,3.0237055
-31.966461,3.4174082,3.0058885
-31.993973,3.4272692,3.0250664
-32.024746,3.4325154,3.036241
-32.054386,3.4392395,3.0500197
-32.093193,3.4339268,3.0429058
-32.144886,3.4124658,3.0077863
-32.176136,3.4176326,3.0189886
-32.207687,3.4224167,3.0295615
-32.23423,3.433288,3.0507298
-32.268272,3.434996,3.056035
-32.30311,3.4358802,3.0599537
-32.36536,3.4051952,3.0092397
-32.394203,3.413676,3.0264268
-32.418,3.4277072,3.053245
-32.44316,3.4399567,3.0770016
-32.47982,3.4395232,3.078864
-32.527164,3.4278567,3.0613775
-32.563232,3.428574,3.0653358
-32.60675,3.4217227,3.0562868
-32.635494,3.4303281,3.0739427
-32.66811,3.434958,3.084783
-32.709263,3.4311633,3.0811605
-32.76476,3.4136486,3.0539966
-32.802685,3.4137225,3.0571604
-32.83224,3.421913,3.074318
-32.861664,3.4301755,3.0916314
-32.912037,3.419059,3.0757375
-32.957897,3.4125314,3.0677905
-33.009865,3.400885,3.0511498
-33.041386,3.4078364,3.0664206
-33.0693,3.4179287,3.087101
-33.10362,3.42242,3.0982409
-33.149654,3.4170175,3.092533
-33.231,3.382321,3.0369267
-33.238678,3.4097085,3.087298
-33.27158,3.4159641,3.1016607
-33.30281,3.4235961,3.1184096
-33.379044,3.395384,3.0742579
-33.42892,3.388801,3.0669932
-33.460426,3.396842,3.0846276
-33.474693,3.4180942,3.124699
-33.528114,3.4093728,3.1139975
-33.595318,3.3907523,3.0866404
-33.63524,3.392939,3.0945845
-33.671757,3.397758,3.1070356
-33.700153,3.408513,3.1295524
-33.735367,3.414358,3.143826
-33.81459,3.3893123,3.1061406
-33.862503,3.3868291,3.106563
-33.891445,3.3976395,3.1294017
-33.954544,3.3852265,3.1132994
-33.997993,3.3864944,3.1202526
-34.06475,3.372496,3.1017141
-34.077663,3.3943105,3.1432056
-34.12806,3.3915675,3.1436653
-34.169216,3.3950171,3.1545477
-34.230576,3.385827,3.144433
-34.27826,3.3856199,3.1493888
-34.320282,3.389142,3.1606297
-34.364246,3.3916197,3.1702056
-34.43164,3.3801124,3.1566687
-34.49417,3.3720014,3.1488924
-34.52865,3.3808696,3.1693215
-34.57098,3.3851857,3.1822839
-34.62801,3.381155,3.181552
-34.693977,3.3723462,3.1730647
-34.721653,3.3855917,3.2009826
-34.79411,3.373783,3.1877918
-34.8937,3.3474956,3.1510177
-34.911148,3.3668892,3.1892624
-34.985924,3.3551462,3.1766148
-35.031013,3.3597698,3.190843
-35.104244,3.3496795,3.181179
-35.13393,3.3628201,3.2094698
-35.20045,3.3568969,3.2068372
-35.273666,3.3479419,3.1994343
-35.32846,3.3487592,3.208014
-35.368847,3.3570309,3.2287517
-35.423008,3.3585804,3.238718
-35.475048,3.3614073,3.2508526
-35.53377,3.3612123,3.2582393
-35.578526,3.3679867,3.2769318
-35.639637,3.3671472,3.2835197
-35.72712,3.3542557,3.2709846
-35.766033,3.3644357,3.2954597
-35.857857,3.350431,3.2815118
-35.94555,3.338894,3.2717137
-35.98846,3.347989,3.294837
-36.047443,3.350059,3.306933
-36.14593,3.3350463,3.2922025
-36.179607,3.3488064,3.3230367
-36.238083,3.3519292,3.3372164
-36.3586,3.32894,3.310595
-36.385933,3.3459272,3.346826
-36.45024,3.3474994,3.3590446
-36.556023,3.3323076,3.345326
-36.58632,3.348483,3.380597
-36.65011,3.3511634,3.395018
-36.758335,3.3364358,3.382707
-36.811104,3.3442035,3.405355
-36.908592,3.3347354,3.4016433
-37.00152,3.3275826,3.4017506
-37.06025,3.3339682,3.4228039
-37.161015,3.324738,3.42021
-37.24804,3.3211966,3.4265451
-37.371845,3.304547,3.4132705
-37.421043,3.3158417,3.4425645
-37.48437,3.3221784,3.4645119
-37.610775,3.306271,3.453246
-37.655758,3.3198237,3.486435
-37.783646,3.3045642,3.4767742
-37.834576,3.3165894,3.5080528
-37.931496,3.3130763,3.5164528
-38.04234,3.3053641,3.5189505
-38.16811,3.2932718,3.515357
-38.2632,3.2919996,3.5280137
-38.382706,3.2832353,3.530034
-38.451252,3.2915416,3.5572534
-38.517143,3.300961,3.586285
-38.642487,3.2918997,3.588862
-38.725132,3.2968087,3.6119184
-38.879173,3.280106,3.6043344
-38.972717,3.282677,3.6247244
-39.091175,3.278191,3.6354198
-39.259674,3.25944,3.6263971
-39.327885,3.271095,3.6606765
-39.47206,3.2609496,3.6647067
-39.558243,3.2682073,3.6934566
-39.71733,3.2551708,3.6944222
-39.808212,3.262096,3.7234516
-39.919918,3.263656,3.745453
-40.11889,3.2418947,3.7361116
-40.190067,3.2557495,3.7757597
-40.35422,3.2450628,3.7826219
-40.50866,3.237803,3.7947106
-40.580784,3.2527578,3.836946
-40.76868,3.238225,3.8404717
-40.93209,3.2309084,3.854239
-41.056023,3.2343247,3.882668
-41.219875,3.2284498,3.8995607
-41.366325,3.2276595,3.9236755
-41.51106,3.2280035,3.9498482
-41.724068,3.2128081,3.9569435
-41.959946,3.193366,3.959638
-42.238525,3.1652913,3.9526234
-42.38149,3.169743,3.9871008
-54.14538,0.5529697,0.80870533
-54.130695,0.62919426,0.96015835
-54.07039,0.7149694,1.1229115
-54.08265,0.78430104,1.2656255
-54.102417,0.8517456,1.4060507
-54.068848,0.9301865,1.5593061
-54.08554,0.99764824,1.6995692
-54.127964,1.059607,1.8335061
-54.27184,1.1010208,1.9443192
-54.078754,1.4867213,2.6980987
-54.123997,1.5468376,2.8300424
-54.155785,1.6093721,2.9646273
-54.200214,1.6695507,3.0969076
-54.239887,1.7305479,3.2301598
-54.28547,1.7904806,3.3625064
-54.3292,1.8507247,3.495329
-54.53676,1.8835306,3.6024952
-54.82972,1.9031806,3.6987572
-8.23667,1.8989573,2.8424206
-8.946089,1.9695168,2.8657255
-10.87295,2.2208507,3.052188
-11.210552,2.231133,3.0157557
-11.590723,2.2516582,2.9931946
-13.880455,2.3693123,2.848318
-14.492146,2.408722,2.8268719
-14.50581,2.363577,2.7332497
-14.569607,2.3299515,2.6547856
-14.538923,2.2741108,2.5470529
-11.985367,1.6132679,1.6311002
-12.743467,1.7400284,1.7631059
-14.422754,2.0978289,2.2107868
-14.449253,2.0542479,2.1188898
-14.449749,2.0039747,2.0178556
-14.4327,1.9489155,1.9101486
-14.427521,1.8965054,1.805963
-14.540841,1.8748021,1.7444558
-14.584324,1.8349848,1.6579399
-14.64381,1.7994266,1.5775084
-14.613334,1.7394571,1.4626756
-14.639783,1.6946199,1.3691654
-14.606668,1.6330082,1.2516994
-14.614949,1.5824974,1.1499634
-14.615992,1.529614,1.0447512
-14.615222,1.4758444,0.93817425
-14.615335,1.421951,0.83132744
-14.621643,1.3695078,0.7265134
-14.629691,1.3172371,0.62189007
-14.664112,1.2726169,0.5284791
-14.602733,1.1984587,0.3914051
-25.625801,3.1935294,2.7462926
-25.661097,3.183124,2.7231765
-25.895918,3.2978487,2.9126372
-25.971184,3.3142846,2.935491
-26.024887,3.3175044,2.935987
-26.03723,3.2941694,2.8913212
-26.101868,3.3048842,2.9047332
-26.15042,3.305386,2.9008203
-26.195255,3.303631,2.893125
-26.24956,3.3085108,2.896851
-26.30719,3.3160286,2.9051833
-26.355759,3.3176317,2.9034724
-26.408838,3.3226812,2.907752
-26.459398,3.3262756,2.9096155
-26.510918,3.330872,2.9132838
-26.571844,3.3426952,2.92947
-26.608858,3.3372836,2.9160695
-26.658686,3.341577,2.9194503
-26.700068,3.3397639,2.9123697
-26.7474,3.342702,2.9135523
-26.792416,3.3441148,2.91217
-26.838913,3.3469453,2.9133043
-26.8842,3.3490834,2.913309
-26.928299,3.3505206,2.9121642
-26.970205,3.3503945,2.9083705
-27.01563,3.3533986,2.910068
-27.054796,3.3513992,2.9031386
-27.08487,3.3417628,2.8829865
-27.129047,3.344299,2.8840394
-27.177029,3.350447,2.8914409
-27.217468,3.350238,2.8878388
-27.254463,3.347103,2.879188
-27.295273,3.347572,2.8768716
-27.331755,3.344223,2.8679423
-27.368244,3.3409786,2.85924
-27.40198,3.3351934,2.8461418
-27.456264,3.3493876,2.8680248
-27.501587,3.3553576,2.8755956
-27.547136,3.3619208,2.8842688
-27.582802,3.3588364,2.8760996
-27.635805,3.3737142,2.8994637
-27.658863,3.357894,2.8690534
-27.683937,3.3439052,2.8418727
-27.73262,3.3551521,2.8590326
-27.777264,3.3625069,2.869423
-27.824905,3.373624,2.886486
-27.853415,3.3636131,2.8664484
-27.908527,3.3840835,2.9000864
-27.94403,3.3824594,2.894897
-27.96764,3.3668,2.8650212
-28.046297,3.4174383,2.952026
-28.070862,3.403372,2.9250484
-28.110361,3.407706,2.9305549
-28.152939,3.416299,2.9436283
-27.831448,2.9523396,2.122201
-27.836452,2.9034994,2.0335355
-27.84776,2.8615277,1.9569831
-27.84554,2.7995918,1.8451128
-27.854416,2.7510104,1.756824
-27.869003,2.708886,1.6799407
-27.868576,2.6434395,1.5617547
-27.662943,2.2707822,0.8993807
-27.92394,2.5903165,1.4630628
-27.97961,2.605724,1.4881325
-27.831541,2.2999873,0.94380665
-27.877234,2.294088,0.93101597
-27.931849,2.3028939,0.944366
-28.060452,2.4372294,1.1806073
-28.10884,2.4394686,1.1824975
-28.15685,2.44137,1.1838417
-28.18802,2.4131088,1.1316438
-28.228535,2.4010124,1.1081967
-28.245323,2.3434396,1.003932
-28.294706,2.3466842,1.0078168
-28.341578,2.3453066,1.0035324
-28.387274,2.3416703,0.99527884
-28.967403,3.4666042,2.9958248
-29.01184,3.4922688,3.0403543
-29.040197,3.4836445,3.023878
-29.06749,3.4722133,3.002429
-29.095848,3.4627612,2.9845276
-29.127745,3.4615316,2.9813066
-29.160406,3.462307,2.981691
-29.198172,3.4766335,3.006269
-29.233418,3.4852974,3.0207934
-29.26412,3.4820187,3.0140538
