x,y,z
-33.437847,3.0087106,0.9998102
-33.49153,3.0081651,0.998518
-33.54147,3.0111682,1.004961
-33.59407,3.0120666,1.0068121
-33.645,3.0146189,1.0122681
-33.67043,3.038561,1.064362
-33.565033,3.169129,1.3489547
-33.557438,3.217208,1.4536839
-33.57784,3.2418878,1.5073905
-33.600937,3.263992,1.5554819
-33.62732,3.2831786,1.5972099
-33.6499,3.3049557,1.644587
-33.709423,3.2987034,1.6308393
-33.76385,3.29665,1.6262436
-33.82941,3.2868178,1.6046839
-33.8537,3.3071365,1.6488748
-33.9019,3.31024,1.6555223
-33.97887,3.2934566,1.618793
-34.023834,3.2994251,1.6316843
-34.069813,3.3048143,1.6433086
-34.11208,3.3128154,1.6606283
-34.20764,3.2856925,1.6013355
-34.25618,3.2902029,1.6110377
-34.29712,3.2997565,1.6317377
-34.33409,3.3118577,1.6579928
-34.40967,3.2997704,1.6314836
-34.46059,3.3035147,1.6395049
-34.54148,3.289191,1.6081104
-34.573967,3.304637,1.641654
-34.625706,3.308554,1.6500463
-34.710537,3.2932837,1.6165752
-34.776695,3.2895045,1.6081705
-34.813652,3.3027909,1.6369963
-34.867046,3.3067863,1.6455483
-34.97385,3.281277,1.5897226
-34.999386,3.3013582,1.6333671
-35.03061,3.3181655,1.669868
-35.12723,3.2998521,1.6297302
-35.191772,3.299278,1.6282978
-35.2403,3.3074007,1.6458406
-35.325237,3.2968807,1.6226959
-35.377743,3.3034608,1.6368666
-35.43791,3.3063612,1.643004
-35.54061,3.2884097,1.6036286
-35.609722,3.2877111,1.6019039
-35.658844,3.2970562,1.6220961
-35.71644,3.3024693,1.6337037
-35.8303,3.2815242,1.5877738
-35.850414,3.305182,1.6392012
-35.96594,3.2846594,1.5941815
-36.028954,3.2889028,1.6032209
-36.076427,3.3003948,1.6280837
-36.171677,3.2907684,1.6068354
-36.230938,3.297536,1.621376
-36.317257,3.2927997,1.6107945
-36.42068,3.281244,1.5853186
-36.45871,3.2980027,1.6216636
-36.56639,3.2856688,1.5944767
-36.662598,3.2787685,1.5791492
-36.7278,3.2850742,1.5926552
-36.827576,3.277726,1.5763383
-36.90323,3.2805636,1.5822616
-36.98414,3.2816894,1.5844412
-37.0543,3.2873862,1.596601
-37.186363,3.2696679,1.5576062
-37.27481,3.2693243,1.55656
-37.354603,3.2726712,1.5635676
-37.476463,3.2608635,1.5374627
-37.586914,3.2539682,1.5220819
-37.684227,3.25244,1.5184197
-37.799355,3.2450929,1.5020361
-37.888996,3.247359,1.5066519
-38.000374,3.2425256,1.4957457
-38.134575,3.2304945,1.469101
-38.25779,3.2229872,1.4523339
-38.37061,3.2196565,1.4446855
-38.517532,3.2056918,1.413784
-38.651,3.1969943,1.3943853
-38.76684,3.194729,1.389039
-38.90295,3.186648,1.3709669
-39.028435,3.1826658,1.3618479
-39.178444,3.171778,1.3376169
-39.29364,3.172387,1.3385158
-39.44317,3.1632323,1.3180528
-39.56485,3.163211,1.317553
-39.716286,3.1550741,1.2992916
-39.86422,3.1487992,1.28509
-40.011047,3.1436503,1.2733402
-40.16005,3.1386836,1.2619748
-40.326187,3.1297486,1.2419143
-40.462936,3.1298153,1.2415366
-40.628548,3.1227558,1.2255516
-40.7813,3.1200404,1.2190609
-40.912582,3.1237974,1.2267199
-41.06704,3.1221642,1.222569
-41.2211,3.121437,1.220387
-41.36022,3.1252875,1.2282128
-41.53822,3.120113,1.2162647
-41.728836,3.1127806,1.1995745
-41.89247,3.1130302,1.1994686
-42.05741,3.1138062,1.2005005
-42.23146,3.1132708,1.1986427
-42.43477,3.106825,1.1838193
-42.59408,3.1115544,1.193459
-42.787094,3.1094532,1.1881146
-42.98152,3.1080403,1.1842585
-43.34004,3.0716434,1.1037025
-43.503197,3.07953,1.1201782
-43.754715,3.069399,1.0971351
-43.920456,3.0785987,1.1164494
-44.073906,3.0911283,1.1430469
-44.3236,3.084813,1.1282959
-44.579414,3.0785928,1.1137223
-46.416893,2.7623477,0.41894054
-46.40146,2.8163223,0.536283
-46.36415,2.8740792,0.66193104
-46.390457,2.9193935,0.7602763
-46.21961,3.0009537,0.9381952
-46.276012,3.03998,1.022747
-46.371372,3.07214,1.0922132
-11.859968,3.3293474,1.3581309
-11.858511,3.2229264,1.1256666
-12.047695,3.19838,1.0754561
-12.411049,3.2018316,1.0895324
-13.047638,3.2505498,1.2074113
-13.317711,3.243524,1.1968946
-13.5179405,3.2263584,1.1629539
-13.851719,3.2325344,1.1824026
-14.161613,3.2363915,1.1963434
-14.419336,3.2328074,1.1930771
-14.661864,3.2278519,1.1865306
-14.974149,3.2366664,1.2113161
-15.175421,3.2268417,1.1933684
-15.412659,3.224692,1.1928296
-15.700913,3.233404,1.2169328
-15.860188,3.2188663,1.1879048
-16.09037,3.2189202,1.1920276
-16.336103,3.223252,1.2057714
-16.500664,3.2125096,1.1851053
-16.762129,3.2224085,1.2112837
-16.944546,3.2172709,1.2031732
-17.165539,3.221198,1.2155604
-17.307302,3.2092915,1.1919103
-17.516647,3.212767,1.2030878
-17.702562,3.2121658,1.2049294
-17.880112,3.2106457,1.2046041
-18.03194,3.2041738,1.1929874
-18.209503,3.2043946,1.1964569
-18.394348,3.2072458,1.205801
-18.545012,3.2029371,1.1988745
-18.696186,3.199502,1.1938605
-18.873512,3.2032306,1.2049737
-19.075832,3.2141147,1.2321749
-19.206036,3.2079585,1.2208219
-19.379961,3.2136009,1.2360468
-19.388134,3.1772463,1.1564565
-19.441456,3.1525102,1.1030741
-19.424046,3.1090193,1.0073977
-19.533226,3.099265,0.9877634
-19.522058,3.057064,0.8949995
-19.45973,3.0002687,0.76938343
-19.476799,2.9649954,0.69225407
-19.484684,2.9268978,0.6087694
-19.48759,2.8870764,0.5214138
-19.482346,2.8445415,0.42796373
-30.362822,2.9212713,0.704453
-30.382866,3.2200396,1.3661308
-30.420012,3.258517,1.4513206
-30.454369,3.3114657,1.5685568
-30.492544,3.3229828,1.5940256
-30.528605,3.3469174,1.6469932
-30.566654,3.3540993,1.6628537
-30.60142,3.3790252,1.718009
-30.640984,3.3749015,1.7088189
-30.679346,3.3774428,1.7143865
-30.718733,3.3751647,1.7092748
-30.755611,3.3840485,1.7288804
-30.793577,3.3877003,1.7368946
-30.832108,3.3889952,1.7396822
-30.870968,3.389162,1.7399683
-30.88839,3.4621363,1.9015241
-30.87618,3.6236646,2.259241
-30.902191,3.6528993,2.3239102
-30.930273,3.67362,2.369718
-30.960665,3.686253,2.3976078
-30.991768,3.6961076,2.4193377
-31.16603,3.4351442,1.8409872
-31.220995,3.3964448,1.7551255
-31.255606,3.407752,1.7800436
-31.295721,3.4061913,1.7764502
-31.33218,3.4128222,1.7909985
-31.37699,3.4017825,1.7663913
-31.416395,3.402566,1.7679753
-31.455826,3.4034536,1.7697849
-31.505632,3.3847451,1.728168
-31.54149,3.393097,1.7465053
-31.593227,3.3726654,1.7010565
-31.622244,3.3932393,1.7464685
-31.666933,3.3862782,1.7308588
-31.698141,3.4022005,1.7659559
-31.754139,3.3775344,1.7110953
-31.789677,3.3864806,1.7307229
-31.833555,3.3824024,1.721477
-31.874706,3.3828123,1.7221751
-31.914827,3.384919,1.7266273
-31.959381,3.3808107,1.7172976
-32.001865,3.379988,1.7152457
-32.043,3.381253,1.7178159
-32.08829,3.377129,1.7084336
-32.13258,3.374708,1.7028203
-32.177322,3.3720243,1.6966181
-32.219727,3.3725967,1.697629
-32.268543,3.3654912,1.6816096
-32.31539,3.3612604,1.6719575
-32.359486,3.3606648,1.6703596
-32.40502,3.3586469,1.6656008
-32.45036,3.3571496,1.6619906
-32.494446,3.3573282,1.6620903
-32.53932,3.3568637,1.6607571
-32.578934,3.3622868,1.6724768
-32.622112,3.3639848,1.6759286
-32.664963,3.366187,1.6804929
-32.708225,3.3681293,1.6844735
-32.751904,3.3698142,1.6878772
-32.79757,3.3697293,1.6873484
-32.83902,3.3739374,1.6963377
-32.876472,3.382028,1.7139373
-32.894012,3.4086308,1.772614
-32.941963,3.406735,1.768043
-33.425446,3.0601113,0.99792814
-33.482403,3.0566916,0.9899006
-33.53269,3.0593827,0.9954281
-33.587833,3.0581574,0.9922538
-33.630756,3.0674157,1.0123477
-33.691006,3.0624647,1.000884
-33.58015,3.1960561,1.2970505
-33.582,3.2362983,1.385951
-33.60089,3.262261,1.4431434
-33.61679,3.2900274,1.5043421
-33.638176,3.3130748,1.5550618
-33.69649,3.3080509,1.5434203
-33.775013,3.2885158,1.4995317
-33.833134,3.2846556,1.4904532
-33.886543,3.2845542,1.4897156
-33.94713,3.2796555,1.4783082
-34.006992,3.2756732,1.4689264
-34.06507,3.2733047,1.4631209
-34.108875,3.2809603,1.4795852
-34.186073,3.2663596,1.4465666
-34.220024,3.2809632,1.4784594
-34.269695,3.2852287,1.4873629
-34.30001,3.3020878,1.524261
-34.338684,3.3134918,1.5490255
-34.395294,3.313681,1.5488415
-34.517986,3.2734363,1.4587097
-34.600113,3.2592182,1.426444
-34.65463,3.2622435,1.4325242
-34.70923,3.265446,1.4389887
-34.784004,3.2570806,1.4196997
-34.85284,3.2526712,1.4092007
-34.92374,3.247514,1.3970222
-34.987907,3.2465909,1.3942542
-35.030304,3.258087,1.4191222
-35.08693,3.2618237,1.4267073
-35.153294,3.2605243,1.4230642
-35.225372,3.2565382,1.4134245
-35.29224,3.2557287,1.4108458
-35.41191,3.227809,1.3478575
-35.488358,3.223134,1.3366289
-35.565147,3.2187474,1.326025
-35.627724,3.2219403,1.3322959
-35.70636,3.2174666,1.321465
-35.77699,3.2173696,1.320373
-35.85949,3.2119143,1.3073182
-35.920864,3.217019,1.3177919
-36.012505,3.2081356,1.2970548
-36.073574,3.2140455,1.3092928
-36.151997,3.212226,1.304275
-36.232048,3.2100973,1.2985477
-36.30768,3.2103872,1.2981997
-36.383533,3.2109609,1.2984653
-36.466454,3.2088354,1.2926869
-36.534542,3.2135544,1.3021717
-36.617977,3.212032,1.2977023
-36.69613,3.213178,1.2991695
-36.77871,3.2128725,1.2973757
-36.862263,3.2125957,1.2956266
-36.946087,3.2126436,1.2945795
-37.037315,3.210159,1.2878509
-37.139668,3.2037787,1.2723885
-37.23525,3.2006402,1.2641459
-37.315933,3.2037709,1.2698984
-37.389484,3.2099934,1.2825465
-37.49035,3.20626,1.2728987
-37.623417,3.191134,1.2377253
-37.74012,3.182857,1.2178435
-37.804268,3.194294,1.2420673
-37.894688,3.1965466,1.2457047
-39.159393,3.1291869,1.078743
-39.178944,3.1595552,1.1451426
-39.364803,3.138735,1.0965505
-39.722485,3.0670435,0.93357754
-40.308926,3.00838,0.79561186
-40.272556,3.0577593,0.90457153
-40.10308,3.144251,1.0970864
-41.00197,2.9303894,0.613461
-40.388535,3.1401815,1.0836034
-41.030605,3.0033522,0.7730937
-40.984306,3.0557752,0.88884544
-41.099277,3.0648255,0.9068389
-41.14548,3.0923607,0.96648264
-41.192135,3.1198034,1.0259066
-41.300236,3.1316607,1.0501385
-41.356552,3.1569605,1.1046867
-41.60972,3.1337261,1.0495744
-41.75009,3.1394405,1.0597787
-42.07132,3.102406,0.97327137
-42.478706,3.046897,0.8448291
-42.521023,3.079041,0.9145603
-42.55504,3.1130865,0.9885874
-42.708878,3.1199281,1.000988
-43.017906,3.0928767,0.9365072
-43.602226,3.0070636,0.73864174
-43.557964,3.060964,0.8574443
-43.78662,3.0560699,0.8428259
-43.889156,3.0788758,0.8910074
-43.980873,3.1043043,0.945106
-44.344543,3.074671,0.87397337
-44.90928,3.00679,0.7156396
-44.841877,3.0669148,0.8483968
-46.406776,2.809501,0.25790167
-46.402245,2.8613436,0.37141752
-46.383213,2.9155912,0.4904356
-46.43495,2.9563606,0.57871485
-46.382305,3.0659075,0.81924105
-11.790718,3.2136993,0.81519794
-12.159332,3.2161179,0.8322234
-12.51499,3.2184403,0.8485985
-13.349953,3.2486444,0.94139385
-13.592157,3.2382417,0.9261298
-13.923841,3.2440457,0.9493127
-14.167691,3.2366047,0.94057083
-14.4484625,3.2368042,0.94977856
-14.663925,3.226912,0.934711
-14.942517,3.2294397,0.9489336
-15.208583,3.231134,0.96090984
-15.397255,3.2198157,0.94180393
-15.673766,3.2260308,0.96402264
-15.86963,3.218205,0.95279264
-16.120533,3.2221093,0.96908855
-16.31009,3.2151504,0.9595356
-16.58987,3.227347,0.9949579
-16.744686,3.2154398,0.97339535
-16.947834,3.2143326,0.97710323
-17.176834,3.2197418,0.99595404
-17.36826,3.2183022,0.9985361
-17.498,3.2043867,0.97170687
-17.777416,3.2242093,1.0238328
-17.881227,3.206129,0.98699474
-18.092308,3.212947,1.0083251
-18.214756,3.2003787,0.98418045
-18.410057,3.2054822,1.0012197
-18.588436,3.2076006,1.0111465
-18.738972,3.203926,1.0074325
-18.91715,3.2077901,1.0211773
-19.077803,3.2082474,1.0268607
-19.272503,3.218141,1.0543871
-19.359016,3.2014174,1.0198822
-19.381233,3.1683152,0.94726753
-19.546362,3.1726987,0.96169996
-19.470495,3.1136346,0.8287773
-19.446375,3.0677001,0.72638273
-19.456114,3.0305521,0.6443877
-19.473106,2.9951606,0.5664716
-19.49482,2.960889,0.4911518
-19.402737,2.8939173,0.34017467
-30.364584,2.9535208,0.66595125
-30.384485,3.2510905,1.3358412
-30.424225,3.2643192,1.3655691
-30.459938,3.3088675,1.4658022
-30.496342,3.338089,1.5315228
-30.534435,3.3499703,1.5581951
-30.572512,3.35992,1.5805101
-30.61066,3.367939,1.5984712
-30.648039,3.3788853,1.6230145
-30.685188,3.389518,1.6468439
-30.72429,3.390135,1.6481142
-30.762817,3.393277,1.6550617
-30.801886,3.394094,1.6567655
-30.84063,3.3962228,1.6614151
-30.879679,3.397241,1.6635551
-30.91981,3.3947341,1.6577487
-30.885427,3.629445,2.186151
-30.907314,3.672006,2.2818394
-30.936552,3.6896698,2.3214545
-31.192974,3.40622,1.6822472
-31.231644,3.4089499,1.6881657
-31.27115,3.4097822,1.6898007
-31.314663,3.4019403,1.6718874
-31.356771,3.397809,1.6623225
-31.3948,3.4025526,1.6727419
-31.436121,3.4006333,1.6681423
-31.472416,3.4087522,1.686151
-31.511477,3.4114072,1.6918397
-31.556812,3.402682,1.671876
-31.59398,3.4091146,1.6860585
-31.629864,3.4176123,1.7048888
-31.686249,3.391507,1.6457219
-31.730217,3.38724,1.6357608
-31.76894,3.3917434,1.6455598
-31.807842,3.3959541,1.6546893
-31.848495,3.397523,1.6578541
-31.891022,3.396464,1.655086
-31.935272,3.3931828,1.647296
-31.978863,3.3911972,1.6424179
-32.023716,3.3877814,1.6343026
-32.06413,3.3907058,1.6404748
-32.10865,3.388315,1.6346493
-32.15422,3.3848927,1.6264868
-32.199974,3.3816047,1.6186156
-32.24497,3.3796074,1.6136436
-32.294556,3.372362,1.5968204
-32.343155,3.3668046,1.5837922
-32.391018,3.3625445,1.5736775
-32.428036,3.3710258,1.5923038
-32.471367,3.3723605,1.5947919
-32.51544,3.3730567,1.595829
-32.558884,3.3746371,1.5988507
-32.608105,3.37029,1.5884795
-32.655006,3.3687358,1.5844011
-32.697247,3.3722134,1.5916705
-32.74249,3.3728046,1.592413
-32.784,3.3772712,1.6018944
-32.82587,3.381477,1.6107769
-32.86419,3.3891485,1.6274776
-32.90238,3.3969164,1.6443872
-32.927536,3.4166307,1.6882787
-33.310207,3.1132572,1.0021257
-33.363747,3.1122284,0.9990511
-33.416607,3.1120985,0.99799347
-33.468323,3.1132274,0.99976635
-33.525314,3.110132,0.99197435
-33.571167,3.1166782,1.0059662
-33.628906,3.1135566,0.9980831
-33.685986,3.1113431,0.9922385
-33.729664,3.1201255,1.0112462
-33.58829,3.273793,1.3579922
-33.616066,3.2927063,1.3999453
-33.641052,3.3134415,1.4460163
-33.698338,3.309662,1.4366059
-34.03027,3.1037073,0.969573
-34.116398,3.0826564,0.9209609
-34.16549,3.0890346,0.9344182
-34.197166,3.107825,0.97596884
-34.227936,3.127015,1.0184207
-34.265896,3.141031,1.0491467
-34.30513,3.1540902,1.0776982
-34.346725,3.1655138,1.1025338
-34.380295,3.182203,1.1392922
-34.27091,3.2914941,1.385942
-34.306667,3.3052087,1.4159813
-34.350796,3.3135629,1.4338574
-34.397552,3.320347,1.4481616
-34.64901,3.2014906,1.1774664
-34.70259,3.2060554,1.1866536
-34.761242,3.2077777,1.1893759
-34.82962,3.204035,1.1796741
-34.89602,3.201862,1.173512
-34.981052,3.1893635,1.1438813
-35.073025,3.173582,1.106761
-35.206573,3.1352742,1.0184379
-35.071617,3.2466254,1.2700601
-35.147385,3.2405355,1.2548976
-35.143257,3.2779367,1.3385563
-35.376774,3.188454,1.1337743
-35.508488,3.1549966,1.0562716
-35.558575,3.165009,1.0775747
-35.604866,3.1770658,1.1035132
-35.641033,3.1942844,1.1411843
-35.68695,3.2065718,1.1676226
-35.75107,3.209957,1.1737809
-35.805107,3.2185202,1.1917057
-35.857185,3.228177,1.2121038
-35.948025,3.2196083,1.1909604
-36.008724,3.2257242,1.2032413
-36.079315,3.2274988,1.2056031
-36.1653,3.2225964,1.1927133
-36.289604,3.2009482,1.1415896
-36.570293,3.110704,0.93390846
-37.347046,3.1427908,0.98680353
-37.402374,3.1566095,1.016192
-37.438774,3.1777906,1.0624194
-37.92098,3.1036513,0.88537073
-38.0535,3.091403,0.85476303
-37.932346,3.1710558,1.0349574
-39.016552,3.1281893,0.9112663
-39.165054,3.1178765,0.8843827
-39.262287,3.1244125,0.8962579
-39.397655,3.1196532,0.8820243
-39.488255,3.129236,0.90080976
-39.638817,3.121224,0.8789153
-39.76194,3.1221786,0.8776431
-39.861256,3.130709,0.8938098
-40.002792,3.1275167,0.8828039
-40.15702,3.121475,0.8651142
-40.27184,3.127332,0.87487555
-40.390175,3.1327593,0.8835716
-40.571346,3.1216059,0.85375166
-40.706978,3.1237364,0.8546252
-40.861248,3.121602,0.8455076
-41.045204,3.112507,0.8201189
-41.090088,3.1403468,0.88044596
-41.17995,3.1567464,0.91414595
-41.606438,3.0889678,0.7518668
-41.641594,3.120773,0.82119703
-41.92114,3.0928843,0.75137997
-41.987793,3.1178536,0.8046398
-42.196377,3.1093342,0.7796879
-42.45646,3.0899224,0.72912693
-42.50708,3.1202145,0.79456854
-42.906303,3.0714753,0.675055
-43.26758,3.0336115,0.5806737
-43.290443,3.0723724,0.6655917
-43.604942,3.0477538,0.6018181
-43.674026,3.0773273,0.6650262
-43.73043,3.1097312,0.73484516
-44.26545,3.0431361,0.571723
-44.381046,3.0651946,0.6168823
-44.66912,3.0531156,0.5814786
-44.916245,3.0506814,0.56857157
-46.41538,2.908681,0.20955276
-46.425316,2.9575512,0.31692982
-0.6871681,3.4454198,0.54073
-2.319519,3.5097299,0.7579756
-2.5145092,3.4519844,0.6401844
-3.1320457,3.4346423,0.630754
-11.923714,3.1746306,0.45943022
-12.598049,3.225822,0.60277176
-13.051865,3.245701,0.66696405
-13.374859,3.2468424,0.68383217
-13.612848,3.235639,0.6695657
-13.888733,3.2319822,0.6736541
-14.220362,3.2392752,0.70443106
-14.470245,3.2340965,0.703938
-14.764788,3.238101,0.72573185
-14.992623,3.2316322,0.72134924
-15.250529,3.2318258,0.73302794
-15.457518,3.2238646,0.7243643
-15.704298,3.22448,0.73643446
-15.960185,3.2281384,0.75562525
-16.201073,3.2302103,0.77061605
-16.40494,3.2261724,0.7704115
-16.678902,3.2373607,0.80702066
-16.817284,3.222159,0.77914333
-17.05111,3.227522,0.801033
-17.174057,3.210607,0.76863194
-17.395353,3.2154171,0.78870535
-17.566446,3.2104244,0.78481483
-17.773438,3.2142663,0.8020754
-17.97974,3.219057,0.8213935
-18.1012,3.2055292,0.79633856
-18.3115,3.2131844,0.82215214
-18.461365,3.2077374,0.81623316
-18.631247,3.207823,0.8234482
-18.781155,3.2039447,0.8209777
-18.977,3.2121348,0.84728575
-19.096565,3.202348,0.83034134
-19.293663,3.2127602,0.8616104
-19.381737,3.1962566,0.8283458
-19.41018,3.1645353,0.75866604
-19.425125,3.1291373,0.6802068
-19.444012,3.0945835,0.6037679
-19.45943,3.0588996,0.52464056
-19.468182,3.0211568,0.44062376
-30.362526,3.0366344,0.74955845
-30.396254,3.1641688,1.0411325
-30.425222,3.3001626,1.3520484
-30.465218,3.307726,1.3692541
-30.502962,3.3305926,1.4214449
-30.539959,3.353947,1.4747419
-30.57829,3.3649948,1.4998827
-30.615656,3.3797321,1.5334516
-30.653912,3.3877695,1.5516858
-30.699585,3.3595755,1.4870405
-30.731361,3.3969457,1.5723405
-30.769812,3.4020789,1.5838981
-30.808332,3.4065115,1.5938411
-30.847286,3.4090497,1.5994396
-30.88596,3.412484,1.6070747
-30.925041,3.4144256,1.6112847
-30.965738,3.4113023,1.6038961
-30.99448,3.4444118,1.679388
-30.94447,3.6996682,2.2631354
-31.156185,3.4349027,1.6564913
-31.203083,3.4177856,1.6170025
-31.244625,3.4146223,1.6094317
-31.288412,3.4068425,1.5912809
-31.32686,3.4113934,1.6013379
-31.366903,3.4125016,1.6035037
-31.407154,3.4133224,1.6049986
-31.451416,3.4064043,1.5887637
-31.49471,3.4019644,1.578187
-31.536291,3.4011676,1.5759368
-31.578604,3.399311,1.5712466
-31.622593,3.394841,1.5605569
-31.664946,3.3936129,1.5572753
-31.704807,3.396778,1.5640445
-31.745115,3.3992712,1.5692592
-31.786402,3.4003198,1.5711527
-31.83582,3.3890946,1.5449142
-31.878138,3.389227,1.5446796
-31.92052,3.3894763,1.5446973
-31.968925,3.3813717,1.525558
-32.01101,3.382638,1.5278759
-32.05426,3.382485,1.526926
-32.097595,3.3824525,1.526238
-32.143066,3.3798661,1.5196805
-32.1872,3.3793192,1.5177813
-32.231735,3.3785162,1.5152802
-32.27513,3.3793592,1.5165396
-32.32653,3.37085,1.4963317
-32.36566,3.3772516,1.5103054
-32.4116,3.3758273,1.5063157
-32.493534,3.3342588,1.4102025
-32.524677,3.3504734,1.4466414
-32.55958,3.3622482,1.4728827
-32.599506,3.3684916,1.4864202
-32.6354,3.378939,1.5095944
-32.679077,3.3812857,1.5141602
-32.72131,3.3852391,1.522399
-32.765022,3.3878272,1.5274882
-32.808002,3.3912768,1.5345392
-32.849052,3.3966858,1.5460773
-32.910053,3.3834825,1.5148373
-32.91944,3.4184482,1.5942593
-33.244244,3.167163,1.0157971
-33.31298,3.1522381,0.9804449
-33.3653,3.152437,0.9798312
-33.394627,3.172697,1.0253258
-33.467754,3.1554747,0.984612
-33.518677,3.1575823,0.98832655
-33.567055,3.1619918,0.99731684
-33.618973,3.1636794,1.0000262
-33.662918,3.171937,1.0178347
-33.7258,3.165394,1.0015583
-33.772507,3.1718066,1.0150828
-33.63065,3.3215759,1.3587141
-33.728603,3.2876804,1.2794285
-33.938927,3.1722016,1.0121384
-34.03378,3.1442873,0.94648457
-34.074257,3.1564114,0.9730568
-34.15087,3.1429803,0.9407058
-34.187344,3.158153,0.97426796
-34.224518,3.1727126,1.0064054
-34.24772,3.1966078,1.0600667
-34.302124,3.199339,1.0648956
-34.343674,3.210744,1.0897193
-34.387135,3.2208982,1.1116405
-34.395596,3.253439,1.1852341
-34.439503,3.263059,1.2059016
-34.510216,3.2560606,1.1881628
-34.585133,3.2469862,1.1655903
-34.641296,3.2498074,1.1704726
-34.70255,3.2498353,1.16887
-34.766777,3.2484255,1.1639132
-34.83519,3.2449443,1.1541333
-34.89992,3.2439911,1.1501665
-34.97234,3.239042,1.1369176
-35.091446,3.2084992,1.0643778
-35.287067,3.1369584,0.89681864
-35.327785,3.1518168,0.9292717
-35.374794,3.1632667,0.95381165
-35.43065,3.1700883,0.9676056
-35.47745,3.1818209,0.9927583
-35.5162,3.1977649,1.0276604
-35.546085,3.218173,1.072906
-35.582367,3.2352035,1.1103063
-35.627075,3.247981,1.1378202
-35.681038,3.2562635,1.1548758
-35.73877,3.2628787,1.1680312
-35.802906,3.2666392,1.1745205
-35.869087,3.2697127,1.1793804
-35.941883,3.2700083,1.1777406
-36.01295,3.271469,1.1787701
-36.083565,3.2734861,1.1810536
-36.178814,3.2648027,1.1583786
-36.25661,3.2644517,1.1550517
-36.514267,3.1859508,0.9695525
-36.680836,3.1491146,0.8809924
-37.874847,3.1041756,0.7387123
-37.90334,3.1299684,0.7956815
-37.93356,3.1549964,0.85084915
-37.96555,3.179274,0.9042468
-38.119083,3.1606708,0.8568816
-38.206226,3.1661344,0.86597157
-38.302563,3.1688378,0.86850834
-38.42637,3.1627085,0.85018396
-38.533997,3.1626935,0.8461609
-38.627464,3.1679094,0.85438156
-38.75645,3.161987,0.83626795
-38.861286,3.1645565,0.8380871
-38.983475,3.1621375,0.82804346
-39.104553,3.1607225,0.82027245
-39.244072,3.1542478,0.8004389
-39.385757,3.1478975,0.7807803
-39.494812,3.1521637,0.7861357
-39.651806,3.1427128,0.75889826
-39.79034,3.1395729,0.7464843
-39.914146,3.1414397,0.7458291
-40.08987,3.1291144,0.71136284
-40.2397,3.1250978,0.69647837
-40.37464,3.126027,0.69322014
-40.527134,3.122838,0.6800356
-40.65885,3.1260788,0.6820264
-40.856796,3.112327,0.6433749
-40.96302,3.1238189,0.66477585
-41.016205,3.1495125,0.72000885
-41.202446,3.1412754,0.6940732
-41.53926,3.096131,0.57961416
-41.693092,3.0985293,0.5786867
-41.89966,3.0887947,0.54850626
-41.917313,3.1257944,0.6302953
-42.168125,3.1071527,0.5783806
-42.338966,3.1086895,0.5747304
-42.460606,3.1224635,0.60036707
-42.909065,3.062404,0.44786787
-43.15461,3.0505717,0.4112401
-43.317093,3.05843,0.42191267
-43.501633,3.0622802,0.42270756
-43.633434,3.078351,0.45289707
-43.787193,3.0903683,0.4731083
-44.187008,3.0520303,0.37084198
-44.48559,3.0366898,0.3239951
-44.610302,3.0579526,0.3659153
-44.894573,3.0481563,0.331944
-3.243473,3.615715,0.57603455
-3.2690182,3.5448914,0.42120123
-4.775505,3.611376,0.66212654
-5.238617,3.5862217,0.6353831
-5.610098,3.5543838,0.58809185
-12.730818,3.206983,0.2522478
-13.2607765,3.2401316,0.35784435
-13.546787,3.2361095,0.3658905
-13.821201,3.2316144,0.37214613
-14.109402,3.2308753,0.38756514
-14.453623,3.2413554,0.43132496
-14.600693,3.218864,0.3897004
-14.980798,3.238898,0.4568529
-15.171796,3.2264473,0.4401865
-15.531726,3.246343,0.50576353
-15.679782,3.2281544,0.47365856
-15.902977,3.225081,0.47974586
-16.168804,3.2314897,0.50951576
-16.260473,3.2047088,0.45476484
-16.219131,3.1513686,0.33273888
-16.523952,3.1685247,0.38874292
-17.072151,3.2381406,0.57640266
-17.185349,3.218926,0.53971434
-17.416986,3.2256594,0.56802034
-17.579733,3.2185946,0.56137276
-17.757553,3.2156763,0.5648637
-17.950264,3.217022,0.5787463
-18.127857,3.2159274,0.58625555
-18.283693,3.2107027,0.58321476
-18.428146,3.2035723,0.57521296
-18.577324,3.1982749,0.5715685
-18.784838,3.2078724,0.60468245
-18.950558,3.2083406,0.6148777
-19.095757,3.204556,0.6143217
-19.267904,3.2083282,0.6322546
-19.351942,3.1903882,0.5963545
-19.388403,3.1603413,0.5305052
-19.401619,3.1240935,0.4493637
-30.365408,3.0309365,0.6103835
-30.404053,3.1095924,0.7935462
-30.430044,3.2856617,1.2036638
-30.467857,3.3183448,1.2796898
-30.505205,3.347176,1.3467274
-30.544895,3.3548331,1.3644137
-30.58278,3.372034,1.4043221
-30.62425,3.3669047,1.3921804
-30.66465,3.3681757,1.3949361
-30.714968,3.3231838,1.2898631
-30.743673,3.3784897,1.41851
-30.783316,3.3824222,1.4274182
-30.82286,3.3864546,1.436544
-30.862957,3.388235,1.4404044
-30.903603,3.3881605,1.4399238
-30.943314,3.3913224,1.4469714
-30.983847,3.3918486,1.4478564
-31.023598,3.3948243,1.4544363
-31.064823,3.3936076,1.4512239
-31.100172,3.4084895,1.4855304
-31.18658,3.396452,1.4566269
-31.226372,3.3995562,1.4634204
-31.266787,3.4012086,1.4668121
-31.305618,3.4064572,1.4785743
-31.346148,3.4079285,1.4815092
-31.38818,3.4064093,1.4774508
-31.429922,3.4057775,1.4754429
-31.473135,3.402556,1.4673743
-31.52061,3.3917444,1.4415741
-31.568058,3.3818452,1.41788
-31.626745,3.3528678,1.3496323
-31.67522,3.3432808,1.3266153
-31.720158,3.3403544,1.3191228
-31.772547,3.3256924,1.2842097
-31.81508,3.3276227,1.2880125
-31.859106,3.3273778,1.2867155
-31.904478,3.3253493,1.2812338
-31.951538,3.3211687,1.2707038
-31.994564,3.3231952,1.274652
-32.03679,3.3264732,1.2815032
-32.081203,3.3268387,1.2815309
-32.130497,3.3209121,1.2668314
-32.17717,3.3188994,1.2612567
-32.224285,3.3166454,1.2550945
-32.27456,3.3107767,1.240458
-32.323574,3.3069324,1.2305293
-32.388714,3.284186,1.1763649
-32.462605,3.2523513,1.100904
-32.550533,3.2059164,0.99123526
-32.58794,3.2184477,1.0194898
-32.597565,3.2614143,1.1189609
-32.634266,3.2736678,1.1465473
-32.67242,3.2841578,1.1699939
-32.712116,3.292899,1.1893287
-32.754513,3.2988036,1.202003
-32.793194,3.3084755,1.2234836
-32.830204,3.3196983,1.2485819
-32.866978,3.3310046,1.27386
-32.91228,3.3340485,1.2797585
-32.951412,3.3430092,1.2995057
-33.135582,3.2185636,1.0064168
-33.203144,3.2039838,0.9708524
-33.243835,3.214038,0.9930334
-33.29458,3.2152472,0.9944439
-33.354546,3.2087598,0.97776556
-33.45972,3.209499,0.9764981
-33.507103,3.2145255,0.98676014
-33.556213,3.218276,0.993999
-33.615093,3.2144427,0.9833932
-33.64735,3.2318034,1.0225635
-33.718674,3.2188678,0.9905014
-33.77678,3.2166204,0.9835253
-33.831856,3.2169874,0.9826627
-33.8852,3.2189083,0.9854245
-33.936264,3.2227125,0.9925895
-33.9972,3.2598157,1.0762868
-34.0607,3.2551217,1.0633674
-34.172695,3.2177546,0.97342396
-34.215744,3.2281473,0.9959574
-34.25103,3.2436986,1.0306315
-34.28959,3.256974,1.0599246
-34.3305,3.2686682,1.0854712
-34.37436,3.2784681,1.1065278
-34.420204,3.28706,1.1247096
-34.469166,3.2938004,1.1384959
-34.52079,3.2990417,1.1487117
-34.574066,3.3034596,1.1569524
-34.632336,3.3051133,1.1586251
-34.6924,3.3059864,1.1584144
-34.75208,3.307384,1.1594048
-34.8136,3.308017,1.1585455
-34.88839,3.3015013,1.1407208
-34.956123,3.299403,1.1333022
-35.049618,3.2836003,1.0933657
-35.285812,3.1915166,0.8725467
-35.333004,3.2028875,0.8968177
-35.375904,3.2165751,0.92655945
-35.438366,3.220112,0.9321885
-35.4792,3.2349954,0.9647126
-35.505787,3.257056,1.0142651
-35.539276,3.2754674,1.0551405
-35.579838,3.2902858,1.08746
-35.6582,3.286718,1.0760264
-35.741302,3.281335,1.0602117
-35.920395,3.231001,0.9373083
-36.21611,3.1278102,0.6883273
-36.15944,3.1903074,0.8339057
-36.16447,3.2234995,0.9096966
-36.213688,3.2363727,0.93703413
-36.271954,3.245306,0.9549365
-36.426044,3.2124028,0.87288713
-36.393745,3.2614334,0.98646116
-36.539104,3.233714,0.9166069
-37.873344,3.0973427,0.54359865
-37.86336,3.1376476,0.6358962
-37.904064,3.1591058,0.68280363
-37.948814,3.17909,0.72613287
-38.054314,3.1776679,0.7177577
-38.163166,3.175644,0.70782375
-38.26128,3.1778984,0.7081218
-38.384354,3.172175,0.68901825
-38.507977,3.1669707,0.671041
-38.607185,3.170528,0.67416286
-38.73249,3.1660564,0.6577101
-38.84915,3.165064,0.6495652
-38.968533,3.1638255,0.6406965
-39.096832,3.1604242,0.6264372
-39.217106,3.1602068,0.6197815
-39.368187,3.151216,0.5916171
-39.479237,3.1551507,0.5947938
-39.65354,3.1408327,0.5532942
-39.779694,3.141668,0.54860306
-39.90943,3.142117,0.54281855
-40.044376,3.1417496,0.5348811
-40.195816,3.137446,0.51713467
-40.327705,3.139394,0.5145378
-41.243965,3.092581,0.35948753
-41.2807,3.1236832,0.4276867
-41.46805,3.1168346,0.40199995
-41.65947,3.1100042,0.37609816
-41.75202,3.1283882,0.4124508
-41.963005,3.1185818,0.37869358
-42.216187,3.0999274,0.32262945
-42.62567,3.0892954,0.27586174
-42.917717,3.0658114,0.20664644
-43.207497,3.0886955,0.2417922
-3.2117672,3.6891823,0.34611273
-5.5557003,3.6861749,0.5176816
-15.922321,3.2239542,0.24979544
-16.16256,3.225223,0.26959562
-17.044697,3.226568,0.3343544
-17.160515,3.2075777,0.29937983
-17.403343,3.216451,0.33628845
-17.552013,3.206039,0.32293463
-17.742146,3.205552,0.33490038
-17.946943,3.2093718,0.35759544
-18.123943,3.2079198,0.36638165
-18.291965,3.2052965,0.3718543
-18.441032,3.1990569,0.3677807
-18.634,3.2040787,0.392231
-18.81125,3.206327,0.40927267
-18.959686,3.2024107,0.41031408
-19.101921,3.19769,0.4090681
-30.365107,3.0543025,0.55580044
-30.403639,3.136577,0.7504597
-30.43741,3.2395325,0.9940667
-30.477669,3.2624798,1.0482378
-30.508474,3.3492415,1.2534785
-30.54904,3.354488,1.2657065
-30.591555,3.3474133,1.2487397
-30.626354,3.3835254,1.334012
-30.672558,3.3572638,1.2715707
-30.710968,3.3710642,1.3039722
-30.750225,3.3795323,1.3237267
-30.789722,3.3861601,1.3391056
-30.829445,3.3913388,1.3510303
-30.870115,3.3927505,1.3540139
-30.911228,3.3927212,1.3535624
-30.951168,3.39666,1.3624902
-30.99127,3.3999279,1.3698087
-31.031038,3.4040687,1.3791742
-31.072933,3.4021494,1.3741598
-31.116085,3.397264,1.3620944
-31.156866,3.3990297,1.3657684
-31.195751,3.4055085,1.3805909
-31.235779,3.4090152,1.3883481
-31.276249,3.4114738,1.3936019
-31.34978,3.3417158,1.2276301
-31.395855,3.3349152,1.2108698
-31.435835,3.341224,1.2251687
-31.475477,3.3480132,1.2405849
-31.516754,3.3514724,1.2480855
-31.558594,3.3538966,1.2531099
-31.602318,3.3530135,1.2502656
-31.645481,3.3533864,1.2503772
-31.688694,3.3538752,1.2507391
-31.731499,3.3552368,1.2531486
-31.774326,3.3567126,1.255805
-31.818382,3.356418,1.2542372
-31.86252,3.356245,1.2529321
-31.908504,3.3535645,1.245647
-31.954649,3.3510144,1.238646
-32.000156,3.3497188,1.2345967
-32.046864,3.3470564,1.2272749
-32.092632,3.34602,1.2237868
-32.14586,3.335439,1.1975913
-32.19172,3.3350513,1.1955886
-32.252686,3.3158941,1.1489367
-32.301743,3.3124754,1.1396656
-32.353447,3.3062499,1.1236863
-32.401077,3.3053384,1.1203146
-32.474556,3.2748015,1.0464339
-32.550392,3.2430696,0.9696512
-32.595074,3.2474644,0.97879267
-32.63972,3.2519786,0.9881921
-32.68774,3.2529712,0.989182
-32.734795,3.25519,0.993063
-32.785767,3.253555,0.9877362
-32.83046,3.2585769,0.99823713
-32.877293,3.261556,1.0038433
-32.919346,3.2693388,1.0208721
-33.138805,3.2538793,0.97758865
-33.190907,3.2534602,0.97489834
-33.235085,3.2602696,0.9894295
-33.274273,3.271425,1.0143142
-33.343918,3.256666,0.9772768
-33.38854,3.2635276,0.9918442
-33.4582,3.2499018,0.95741796
-33.508167,3.252888,0.9626527
-33.557312,3.2567148,0.96986437
-33.61356,3.2551484,0.96414423
-33.650753,3.2685869,0.99428797
-33.7194,3.2580519,0.9670286
-33.77156,3.2604308,0.97063684
-33.827053,3.2605789,0.9688654
-33.88176,3.261582,0.96910286
-33.936127,3.263095,0.97052336
-33.980038,3.2722046,0.99011993
-34.10445,3.22559,0.8760319
-34.12789,3.2495484,0.9311552
-34.18003,3.2538176,0.93901587
-34.207626,3.2745392,0.9863467
-34.24792,3.2866783,1.0130534
-34.286987,3.2995734,1.0415554
-34.326336,3.3122315,1.0694652
-34.37331,3.3200722,1.0857682
-34.41758,3.3296762,1.1062803
-34.47932,3.3286872,1.1012688
-34.54505,3.325645,1.0912633
-34.608356,3.3244426,1.0856338
-34.66586,3.3269823,1.0889692
-34.731785,3.3249235,1.0811744
-34.800213,3.3218265,1.070816
-34.868942,3.3189723,1.0609851
-34.935696,3.317623,1.0547266
-35.008442,3.3133745,1.04141
-35.066483,3.317498,1.0482574
-35.31382,3.221294,0.81246805
-35.290596,3.2698157,0.926507
-35.32425,3.287997,0.9671664
-35.441383,3.2634454,0.90432453
-35.48045,3.2792275,0.93908596
-35.52594,3.2917714,0.9659729
-35.584766,3.2978158,0.9770632
-36.10363,3.0812821,0.44790792
-36.161762,3.0909827,0.46746826
-36.194103,3.113008,0.5169277
-36.192482,3.1506946,0.6044507
-36.226887,3.1712613,0.6503606
-36.24549,3.1988804,0.7134204
-36.26154,3.2273471,0.7785516
-36.30496,3.2433975,0.8134289
-36.475414,3.2040112,0.71307516
-36.562847,3.2018228,0.7032933
-36.51626,3.2571208,0.833807
-37.938435,3.1650717,0.540534
-38.02975,3.1688995,0.54395056
-38.11618,3.1748722,0.55255985
-38.22557,3.173295,0.5423989
-38.35608,3.165102,0.5157213
-38.456005,3.1679764,0.5162964
-30.365591,3.0871694,0.5160208
-30.40349,3.177076,0.73240805
-30.437378,3.277784,0.97479105
-30.479488,3.285472,0.9931178
-30.521046,3.2955635,1.0172071
-30.562,3.3076715,1.0461297
-30.598007,3.3466616,1.139782
-30.643726,3.3272166,1.0926495
-30.692108,3.297961,1.0218534
-30.736002,3.293679,1.011188
-30.783922,3.2730956,0.9612193
-30.82322,3.2896605,1.0007257
-30.878038,3.2464526,0.8961773
-30.90831,3.2948651,1.0123777
-30.943806,3.3208551,1.0745296
-31.017212,3.358604,1.1644773
-31.05187,3.3810153,1.2179484
-31.096107,3.3754175,1.2038794
-31.140997,3.3688037,1.1873298
-31.20061,3.32596,1.0833879
-31.243607,3.3268228,1.0847979
-31.282553,3.337245,1.1092372
-31.321384,3.3473814,1.1329637
-31.358192,3.3613794,1.1659842
-31.39569,3.3731992,1.1937284
-31.434921,3.380967,1.2116752
-31.47531,3.3862004,1.2234821
-31.516384,3.390034,1.2318869
-31.557806,3.3932238,1.2387104
-31.600874,3.3935282,1.2385411
-31.643778,3.3943214,1.2395253
-31.68583,3.3967214,1.2443604
-31.72833,3.3984866,1.2476358
-31.772017,3.3985062,1.2466655
-31.815773,3.398645,1.2459531
-31.859352,3.3992732,1.2463946
-31.90349,3.3992805,1.2453051
-31.948997,3.3975625,1.240016
-31.994375,3.3963418,1.2358952
-32.040955,3.393777,1.2284927
-32.086037,3.393549,1.2267098
-32.1346,3.3890498,1.214561
-32.18974,3.3766491,1.1832542
-32.255066,3.352382,1.1231813
-32.31676,3.3338087,1.0768342
-32.440907,3.2420347,0.8531766
-32.513916,3.2703154,0.9186373
-32.556194,3.2775288,0.93455315
-32.619736,3.261438,0.89395666
-32.661133,3.2699966,0.9130664
-32.68875,3.2929938,0.9671626
-32.73305,3.2981424,0.9779587
-32.778713,3.3019824,0.98554754
-32.825798,3.3045237,0.98995256
-32.87692,3.3032942,0.98516893
-32.928936,3.3015103,0.97899914
-32.976635,3.3041189,0.98345804
-33.023235,3.3079183,0.9907751
-33.07254,3.3093908,0.9924016
-33.13408,3.3001578,0.9679632
-33.188496,3.2977614,0.96009827
-33.244736,3.2941442,0.94921637
-33.276703,3.311518,0.9893718
-33.348026,3.295746,0.94882345
-33.38641,3.3078122,0.97599745
-33.458157,3.2928152,0.9372196
-33.507694,3.2962334,0.9432502
-33.555958,3.3008204,0.95209026
-33.592735,3.3143923,0.9828062
-33.63818,3.3212595,0.99714375
-33.68809,3.32487,1.0034986
-33.742165,3.325596,1.0027704
-33.790813,3.3305187,1.0122461
-33.844627,3.3319025,1.0130367
-33.89951,3.3327868,1.0125613
-33.955013,3.333513,1.0116491
-34.010178,3.334746,1.0119276
-34.065964,3.3358226,1.0117769
-34.12487,3.3351085,1.0071898
-34.18849,3.3316445,0.9958124
-34.241764,3.335238,1.0016704
-34.287426,3.343862,1.0198159
-34.350063,3.34195,1.0120792
-34.42288,3.3341386,0.98980236
-34.523056,3.3102539,0.9279804
-34.578903,3.3138912,0.93365717
-34.634293,3.3180227,0.9404969
-34.70062,3.3160033,0.9321594
-34.76996,3.312641,0.92044973
-34.834633,3.3123455,0.9162183
-34.910145,3.306344,0.89786625
-34.984375,3.301552,0.88241196
-35.075474,3.2880676,0.84544086
-35.26018,3.2251053,0.68627787
-35.176308,3.306259,0.88267326
-35.343952,3.2543406,0.750494
-35.39107,3.2662299,0.77581024
-35.41311,3.290915,0.83273983
-35.46092,3.3023956,0.856987
-35.56714,3.2850506,0.80980396
-35.962524,3.127366,0.4146986
-36.035255,3.1296601,0.4157133
-36.083458,3.1439624,0.44644642
-36.13084,3.158685,0.47818327
-36.18806,3.1688826,0.49863625
-36.219933,3.1908164,0.5482187
-36.244354,3.2159576,0.60576725
-36.279793,3.2359633,0.65052414
-36.349766,3.2406938,0.6571903
-36.602856,3.1663084,0.46644545
-36.57733,3.2135513,0.57891226
-36.560463,3.2563577,0.6803789
-30.368568,3.1195457,0.48118448
-30.404287,3.232405,0.75730896
-30.44985,3.2214036,0.73017645
-30.480328,3.334029,1.0056887
-30.52409,3.3270035,0.98823404
-30.566307,3.3314168,0.9987545
-30.608664,3.334428,1.0058122
-30.651371,3.335284,1.0075631
-30.695162,3.330974,0.99663115
-30.751455,3.271407,0.850337
-30.795567,3.2711265,0.84920025
-30.840773,3.2668216,0.83817434
-30.883387,3.272789,0.85227585
-30.927248,3.2739782,0.85464287
-30.972937,3.2692747,0.8425398
-31.017004,3.27032,0.8444896
-31.061075,3.2714798,0.84668636
-31.107271,3.266763,0.8344488
-31.141174,3.295841,0.9050069
-31.18084,3.3077872,0.9335542
-31.210356,3.3440943,1.0217981
-31.246746,3.3614197,1.063489
-31.284088,3.3754692,1.097125
-31.322378,3.3866243,1.1236396
-31.359833,3.398983,1.1530809
-31.397484,3.410313,1.1799726
-31.436317,3.4187622,1.1997747
-31.476675,3.4239726,1.2116003
-31.518118,3.427065,1.2182002
-31.560135,3.4291568,1.2223115
-31.603626,3.4287777,1.2203264
-31.645674,3.4310937,1.2249236
-31.68749,3.4338875,1.2306643
-31.73066,3.4345884,1.2312312
-31.774817,3.4339397,1.2284493
-31.819067,3.4334128,1.2259307
-31.86341,3.4330075,1.2236776
-31.908348,3.4319956,1.2198958
-31.954176,3.4300175,1.2137027
-31.998823,3.4299848,1.212256
-32.04437,3.428989,1.2084031
-32.090584,3.4273977,1.2030478
-32.14174,3.419799,1.1828704
-32.192364,3.4134393,1.1656947
-32.246525,3.4032776,1.139113
-32.319412,3.3713984,1.058989
-32.439007,3.2864354,0.8480034
-32.49726,3.2755818,0.8194976
-32.52232,3.3027024,0.884542
-32.53011,3.3479755,0.99434185
-32.627373,3.295249,0.86245584
-32.674553,3.2977772,0.8667741
-32.680546,3.343161,0.97681284
-32.728825,3.3440833,0.9771199
-32.776485,3.345847,0.9794631
-32.831367,3.3407385,0.9647889
-32.885082,3.3372004,0.95394325
-32.930542,3.3418438,0.96327114
-32.978226,3.3445263,0.967711
-33.01872,3.353929,0.98873234
-33.069855,3.3537526,0.9860215
-33.11603,3.3582096,0.99473286
-33.162994,3.362107,1.0020194
-33.213596,3.363053,1.0019546
-33.26349,3.364833,1.0039091
-33.31388,3.3664198,1.0053396
-33.365208,3.3674784,1.0054116
-33.416645,3.3686907,1.0058188
-33.47035,3.3683727,1.0023785
-33.52159,3.3702383,1.0043068
-33.576027,3.3699133,1.0007443
-33.63242,3.368424,0.9942355
-33.68449,3.3704417,0.99638796
-33.737114,3.3722868,0.9980607
-33.8033,3.364714,0.9762454
-33.850655,3.3708663,0.98852634
-33.916023,3.364692,0.97006035
-33.97168,3.365605,0.9691825
-34.03477,3.361813,0.9565172
-34.096687,3.3592088,0.9467435
-34.16632,3.3519692,0.92533255
-34.22133,3.3546271,0.9285555
-34.310394,3.3359954,0.87852955
-34.391045,3.3234537,0.8436141
-34.43144,3.336315,0.87213373
-34.81389,3.1420567,0.38227463
-34.888912,3.1370912,0.36579514
-34.91582,3.1609337,0.42140532
-34.951317,3.179486,0.46374655
-34.947304,3.220485,0.5623741
-34.934486,3.265676,0.6715722
-34.961365,3.2878873,0.72311544
-34.989414,3.3092008,0.7723956
-35.058136,3.3082652,0.7657118
-35.226086,3.254721,0.6265502
-35.242264,3.2829363,0.693017
-35.315624,3.281041,0.68361616
-35.377037,3.2856932,0.6906347
-35.420876,3.299481,0.72063494
-35.543465,3.2739756,0.65136766
-35.68332,3.2410307,0.5631132
-35.887287,3.1782002,0.39905596
-35.952465,3.1839628,0.40827084
-36.038574,3.1800792,0.39297247
-36.07503,3.1998873,0.4376135
-36.105503,3.222345,0.48895073
-36.18698,3.2214477,0.48097324
-36.2283,3.2390063,0.5197849
-36.30755,3.2397373,0.5157609
-36.595028,3.1499147,0.28111792
-36.61103,3.1799166,0.35124683
-36.603546,3.2195764,0.4460187
-30.408648,3.2080286,0.56441355
-30.447527,3.2678194,0.71345663
-30.493053,3.2600996,0.6939111
-30.524431,3.3527389,0.9249134
-30.564556,3.3719409,0.972528
-30.606691,3.3763995,0.98329306
-30.649273,3.3779986,0.9868827
-30.694704,3.3659956,0.9564643
-30.752897,3.2996716,0.7903285
-30.79718,3.2997973,0.790112
-30.840141,3.305216,0.803082
-30.88807,3.2922597,0.77010775
-30.931904,3.294952,0.7761898
-30.973625,3.3044,0.7991152
-31.021461,3.2944026,0.7734113
-31.062702,3.3048046,0.7986498
-31.108948,3.3005807,0.7872944
-31.143858,3.3270075,0.8525262
-31.177654,3.354236,0.91973925
-31.217237,3.365374,0.9466953
-31.248812,3.394571,1.0187874
-31.286482,3.4080708,1.0515966
-31.324265,3.4205565,1.081841
-31.361515,3.4334931,1.1131859
-31.400206,3.4428642,1.1355772
-31.439205,3.451233,1.1554308
-31.47876,3.4582384,1.1718411
-31.519938,3.4620702,1.1802707
-31.564537,3.4598367,1.1734748
-31.607378,3.460988,1.1751175
-31.64916,3.4640632,1.18154
-31.69225,3.465078,1.182765
-31.73652,3.4644053,1.1797194
-31.784649,3.4580927,1.1624932
-31.84776,3.4299922,1.0905819
-31.902248,3.416107,1.0542521
-31.950195,3.4124248,1.0434613
-31.99136,3.4185357,1.057198
-32.023407,3.436884,1.1016183
-32.062244,3.4456701,1.1220112
-32.11,3.4428163,1.1131392
-32.15117,3.4486167,1.1259594
-32.211838,3.4304452,1.0785055
-32.263496,3.424139,1.0608044
-32.326862,3.404594,1.0097623
-32.412994,3.3599405,0.89549303
-32.44025,3.3837113,0.95325613
-32.484924,3.3875508,0.9608488
-32.531193,3.3897629,0.9643035
-32.578487,3.3910582,0.9654026
-32.626522,3.3917918,0.96503973
-32.671925,3.3954363,0.97196627
-32.71698,3.3995512,0.9800329
-32.770466,3.3955078,0.96748257
-32.818844,3.396791,0.96831226
-32.865486,3.3999298,0.9737754
-32.918797,3.3970385,0.9639673
-32.96896,3.3973837,0.9622741
-33.024952,3.3927727,0.94800425
-33.07119,3.3971617,0.9564223
-33.12095,3.3986342,0.95741844
-33.17636,3.3955305,0.946784
-33.23202,3.3926024,0.93652964
-33.287514,3.3901856,0.92750645
-33.342407,3.388613,0.9205575
-33.400864,3.384548,0.9072275
-33.452377,3.3863173,0.9086232
-33.51088,3.3829465,0.89692116
-33.570095,3.3794367,0.88479567
-33.620304,3.383023,0.89061785
-33.693382,3.370053,0.8543191
-33.758907,3.3632224,0.8335295
-33.80787,3.3686502,0.84383297
-33.8777,3.3596382,0.81733656
-33.94519,3.3528106,0.7963095
-34.001225,3.3542583,0.79627466
-34.068436,3.3485138,0.7778387
-34.09719,3.368533,0.825027
-34.170128,3.3596597,0.7984662
-34.26786,3.3355372,0.7328615
-34.338017,3.3297794,0.7140312
-34.45569,3.2950654,0.6210675
-34.733433,3.1639013,0.28114986
-34.7965,3.1660872,0.28210592
-34.846657,3.176228,0.30336046
-34.888256,3.1914449,0.337574
-34.92318,3.2104433,0.38145018
-34.961464,3.2273588,0.41995668
-34.97931,3.255621,0.48758078
-35.007957,3.2774885,0.53877735
-35.051598,3.2909365,0.5683007
-35.098934,3.3023896,0.5926442
-35.278,3.2440283,0.43705988
-35.30348,3.2679737,0.4933715
-35.324387,3.2940025,0.5550537
-35.379383,3.3023517,0.57108164
-35.457703,3.2991476,0.55717754
-35.615257,3.2571707,0.44285345
-35.659355,3.2721446,0.47568512
-35.801956,3.239634,0.3854251
-35.87776,3.24016,0.38058567
-35.980587,3.2284021,0.34374237
-36.042408,3.2363517,0.35792637
-36.10734,3.2430882,0.3688717
-36.176697,3.248075,0.37516737
-36.639706,3.2283673,0.28825665
-30.451736,3.2682154,0.59714174
-30.491638,3.309295,0.70119095
-30.536198,3.3091326,0.7004299
-30.572527,3.3599036,0.8290334
-30.613594,3.3749323,0.86679316
-30.654682,3.3875022,0.89826965
-30.706482,3.3479664,0.7972951
-30.754852,3.329385,0.74951696
-30.792902,3.3554273,0.8151059
-30.846912,3.3177803,0.718771
-30.886591,3.3360147,0.7644353
-30.933374,3.3285031,0.7446079
-30.985132,3.3062124,0.68715286
-31.040804,3.27463,0.6060109
-31.07026,3.3216224,0.7246504
-31.10786,3.3421764,0.77602434
-31.148836,3.3523026,0.80083895
-31.183878,3.376641,0.8617816
-31.215593,3.4071932,0.9385104
-31.25229,3.4240708,0.9804168
-31.289454,3.438863,1.0169821
-31.3282,3.449412,1.0427155
-31.368921,3.4553728,1.0567284
-31.410769,3.458919,1.0645533
-31.481903,3.4062178,0.9290414
-31.530169,3.3996587,0.9110069
-31.573944,3.401829,0.91516733
-31.610334,3.4169815,0.95237875
-31.661053,3.4072266,0.926054
-31.706097,3.4076014,0.9255042
-31.740723,3.4248197,0.9678755
-31.787436,3.4225686,0.9605427
-31.83571,3.418321,0.9480643
-31.885654,3.412088,0.93046427
-31.93416,3.4084759,0.91950035
-31.972008,3.4201708,0.94757986
-32.02662,3.4087121,0.91647196
-32.077732,3.4026964,0.89920664
-32.12671,3.3999903,0.89034224
-32.19217,3.3767745,0.8289757
-32.23182,3.4446583,0.9984946
-32.29593,3.4243243,0.9443288
-32.34224,3.425729,0.9457412
-32.464394,3.3413877,0.72746277
-32.46867,3.3916128,0.85379267
-32.511654,3.3979723,0.86771727
-32.557766,3.4010017,0.8730607
-32.602577,3.4055297,0.8821964
-32.64769,3.409835,0.89071417
-32.69652,3.4105072,0.88985634
-32.74649,3.4102983,0.88667965
-32.79307,3.4136314,0.8925438
-32.84682,3.410321,0.88127995
-33.0215,3.390645,0.82200384
-33.057743,3.4044416,0.8545041
-33.12763,3.3889356,0.8114872
-33.172726,3.3953125,0.82476854
-33.229675,3.3918545,0.81264067
-33.277218,3.3965173,0.82138824
-33.360703,3.3722951,0.7555237
-33.41121,3.3753436,0.7599535
-33.455894,3.3831253,0.77655363
-33.50643,3.3864527,0.78158855
-33.57468,3.3765852,0.7524314
-33.63558,3.3727942,0.7389002
-33.7034,3.3643563,0.71325064
-33.75424,3.3687143,0.7206564
-33.816875,3.364877,0.7067523
-33.87753,3.362847,0.6974478
-33.94261,3.3581495,0.6811342
-33.999596,3.3593845,0.68013525
-34.0776,3.3468902,0.6433749
-34.128876,3.3526323,0.6539173
-34.206345,3.3415859,0.62070656
-34.319218,3.3086436,0.5303507
-34.367474,3.3175497,0.5488434
-34.590023,3.218758,0.28643322
-34.669807,3.2101724,0.25896454
-34.725033,3.216932,0.27144146
-34.785423,3.2207952,0.2762766
-34.835472,3.2309406,0.29745674
-34.884876,3.2415254,0.31972456
-34.9283,3.2555642,0.35098124
-34.96126,3.2754164,0.39742804
-35.008984,3.2869425,0.42200994
-35.06204,3.2956178,0.43904972
-35.148777,3.2863736,0.40892792
-35.32902,3.2662332,0.34387684
-35.373726,3.2804778,0.37517023
-35.397564,3.3052912,0.4342823
-35.582176,3.249468,0.2805605
-35.686726,3.2350218,0.23575544
-35.722046,3.2550309,0.28186274
-35.75933,3.2739627,0.32508898
-35.86384,3.260988,0.28374672
-35.94436,3.2599714,0.2739153
-30.454449,3.2952912,0.54265165
-30.494675,3.3350313,0.6450968
-30.535166,3.3640583,0.7197919
-30.580032,3.360786,0.7108879
-30.620707,3.3813741,0.7636676
-30.665287,3.379044,0.7571087
-30.70523,3.3987532,0.80752945
-30.748133,3.4031096,0.81818056
-30.790466,3.409369,0.8337116
-30.836073,3.4028206,0.81604624
-30.87928,3.405715,0.82277393
-30.922855,3.4072862,0.82603025
-30.966642,3.4082549,0.8276777
-31.010435,3.4093368,0.82957125
-31.056004,3.4055297,0.8187542
-31.099092,3.4089847,0.8266978
-31.143496,3.4089835,0.82563925
-31.18216,3.423348,0.8617592
-31.219482,3.439935,0.90360117
-31.258015,3.452691,0.9354806
-31.297958,3.4616294,0.95742273
-31.351667,3.4412284,0.90324116
-31.413471,3.40612,0.8108387
-31.452654,3.4179125,0.840024
-31.496918,3.4195495,0.8428197
-31.533474,3.435413,0.8824916
-31.576519,3.4390237,0.8903198
-31.621357,3.4395797,0.8901677
-31.674892,3.4258556,0.8528743
-31.720078,3.4266741,0.85329247
-31.787151,3.3933043,0.7648101
-31.831873,3.3961697,0.7704196
-31.880098,3.393919,0.7626753
-31.90995,3.418623,0.8249812
-31.9536,3.4228535,0.8340039
-31.995424,3.4296267,0.84959364
-32.04538,3.4254189,0.8365507
-32.093193,3.424468,0.83192635
-32.148975,3.4136467,0.80152845
-32.215443,3.3902612,0.73831224
-32.33472,3.4210618,0.81142426
-32.385075,3.4188805,0.8032284
-32.45456,3.3957312,0.7402215
-32.508755,3.3904967,0.7238984
-32.5531,3.396276,0.7362776
-32.596718,3.4028463,0.7506738
-32.639904,3.4098647,0.7661929
-32.688328,3.411609,0.7678642
-32.739197,3.4111404,0.76368284
-32.790905,3.410152,0.7580719
-32.83433,3.417329,0.7737837
-32.88122,3.421287,0.7810092
-32.943367,3.4114308,0.7519498
-33.00931,3.3988025,0.71552515
-33.055225,3.4045572,0.72724724
-33.110977,3.4018764,0.71676254
-33.16349,3.4023232,0.7144141
-33.232193,3.3895142,0.677145
-33.29037,3.3860781,0.66441774
-33.353657,3.3789258,0.6418247
-33.418163,3.3713372,0.6179843
-33.48144,3.365258,0.59802055
-33.536705,3.3658292,0.595489
-33.600193,3.360473,0.57724285
-33.663177,3.3559678,0.5611434
-33.719517,3.3567693,0.55896187
-33.774242,3.359016,0.5605154
-33.842487,3.3519366,0.5373273
-33.897583,3.354549,0.53967524
-33.955067,3.3557587,0.53822756
-34.015022,3.3555841,0.5330248
-34.0733,3.3568482,0.5315442
-34.128414,3.3604696,0.5362301
-34.25363,3.3191128,0.4213853
-34.302406,3.3278694,0.43946743
-34.37021,3.324797,0.4260211
-34.476006,3.2987413,0.35128736
-34.598953,3.2633796,0.25155067
-34.658558,3.2673013,0.2562847
-34.727974,3.2656786,0.24613428
-34.782692,3.2730002,0.25974655
-34.837395,3.2804818,0.2737069
-34.91053,3.2777092,0.26015806
-34.945137,3.2968163,0.30505228
-35.006207,3.3012378,0.3105693
-35.137383,3.2680008,0.21498728
-30.497215,3.3445225,0.5483613
-30.538721,3.369934,0.61483574
-30.580965,3.3858743,0.65632296
-30.623137,3.3994362,0.69149876
-30.665216,3.4113302,0.7222333
