x,y,z
-26.362637,3.3135588,2.3672943
-26.381977,3.29263,2.324757
-26.451542,3.3075001,2.35083
-26.508806,3.3140473,2.3610125
-26.569498,3.3235402,2.376895
-26.589357,3.3029835,2.335163
-26.639313,3.3049238,2.336629
-26.728256,3.3371108,2.396234
-26.764229,3.3291562,2.3787918
-26.791733,3.3145247,2.3485355
-26.850975,3.3251255,2.3668208
-26.903904,3.3311286,2.3763123
-26.959991,3.3401284,2.3916154
-26.998827,3.335203,2.3801537
-27.019535,3.3150086,2.339305
-27.06289,3.31391,2.335259
-27.12673,3.3308594,2.3660355
-27.177557,3.3370192,2.3760624
-27.207142,3.3245108,2.3501182
-27.254547,3.3280823,2.3552175
-27.303547,3.333454,2.3638296
-27.353191,3.339813,2.3743863
-27.39737,3.341367,2.3756995
-27.42727,3.3293555,2.3508315
-27.472218,3.331979,2.3542676
-27.528704,3.3464298,2.3806067
-27.575243,3.3514557,2.3887615
-27.608967,3.3436255,2.3720784
-27.633202,3.3257852,2.336041
-27.683126,3.334961,2.3523135
-27.728441,3.3396542,2.359943
-27.776243,3.3474545,2.3736243
-27.81733,3.3481917,2.3736572
-27.844164,3.3328807,2.3426142
-27.884178,3.3325443,2.3406124
-27.926655,3.3353155,2.3446622
-27.980362,3.3519197,2.3755722
-28.020966,3.353257,2.376905
-28.0453,3.3344967,2.3392644
-28.091375,3.3429255,2.3544064
-28.13018,3.3424306,2.3522563
-28.177425,3.3532953,2.372191
-28.21886,3.3569422,2.3781395
-28.246906,3.3424683,2.3489118
-28.281466,3.336753,2.3367147
-28.32279,3.340715,2.343348
-28.371983,3.3565903,2.373167
-28.410194,3.3568783,2.372715
-28.444054,3.3506994,2.3597097
-28.473267,3.3371425,2.3323717
-28.511284,3.3372755,2.3316808
-28.557022,3.3502836,2.3560658
-28.600784,3.3607888,2.3756132
-28.64114,3.3661284,2.3851342
-28.67955,3.3684886,2.3888803
-28.714918,3.3656406,2.3825097
-28.748646,3.3597798,2.3702912
-28.779465,3.3482275,2.3470073
-28.81825,3.3518677,2.3533325
-28.855131,3.352053,2.3529515
-28.898403,3.3657165,2.3788552
-28.939388,3.3754926,2.397213
-28.970348,3.363933,2.37401
-29.001974,3.3533387,2.352704
-29.038994,3.354914,2.3551402
-29.078701,3.3633163,2.3709102
-29.115828,3.365996,2.3755455
-29.150433,3.3624842,2.3681269
-29.185268,3.3595107,2.3617778
-29.216942,3.3476205,2.3380547
-29.255388,3.3547323,2.3514175
-29.298061,3.3754828,2.3914156
-29.336168,3.3837214,2.4070263
-29.37062,3.3807707,2.4008245
-29.405388,3.3788126,2.3965793
-29.440308,3.377396,2.3934097
-29.480782,3.3973503,2.4319754
-29.445343,3.1120524,1.8746867
-29.44705,2.952978,1.5637584
-39.341133,2.0924213,0.25127268
-39.273773,2.1649384,0.39322948
-39.284893,2.204003,0.47303295
-39.299824,2.2411432,0.5492511
-39.29879,2.284378,0.6367264
-39.29844,2.3268743,0.7227955
-39.30343,2.3668199,0.8041172
-39.307648,2.4066703,0.88523245
-39.34461,2.4335544,0.9424448
-39.31459,2.4857783,1.046277
-39.300808,2.5312345,1.1375895
-39.305878,2.5691743,1.2150526
-39.31421,2.6055715,1.2896595
-39.32905,2.639297,1.3593554
-39.338474,2.6747105,1.4321237
-39.350475,2.7089226,1.5026793
-39.3748,2.7385614,1.5648847
-39.39944,2.767937,1.6266189
-39.434196,2.7937102,1.6818137
-39.484123,2.8143008,1.7276325
-39.568344,2.8235133,1.7528939
-39.62697,2.8415015,1.794147
-39.72274,2.8475256,1.8138652
-39.827778,2.8509912,1.829114
-39.772358,2.9059722,1.9372602
-39.7091,2.962678,2.0483608
-39.72816,2.9930499,2.1120582
-39.749252,3.0226426,2.1743608
-39.763065,3.0543075,2.2403717
-39.789986,3.0818653,2.2990441
-39.83274,3.1046607,2.3492527
-39.87862,3.1265802,2.3979526
-40.806442,2.89437,1.995811
-40.918064,2.900866,2.018217
-41.047173,2.9029553,2.0330262
-41.185226,2.9031928,2.0448003
-41.343666,2.898531,2.048203
-41.536724,2.8853297,2.036909
-41.59745,2.9085276,2.0897522
-41.715313,2.916804,2.1166062
-41.800476,2.9341216,2.1594405
-42.777992,2.7225688,1.8043394
-42.808605,2.7573316,1.8787327
-42.80201,2.801322,1.9691181
-42.806328,2.8422992,2.0542426
-42.81266,2.8825407,2.1380668
-42.83458,2.9188151,2.2150521
-43.106644,2.8956988,2.1903858
-43.277004,2.8978584,2.2094607
-43.377537,2.916954,2.2577167
-43.6194,2.9043157,2.2523417
-43.84815,2.8959038,2.254664
-43.959953,2.9145274,2.3030705
-44.180206,2.909984,2.3128018
-44.42579,2.9011347,2.3158379
-44.62197,2.9040198,2.3390312
-44.810993,2.9093668,2.3667784
-45.0504,2.9052851,2.3793693
-45.266014,2.9072435,2.4025097
-45.53327,2.8999822,2.4110475
-45.789803,2.8962088,2.42597
-46.09272,2.8847795,2.429091
-46.34735,2.884117,2.4504676
-46.60234,2.8846726,2.474484
-46.94359,2.870612,2.4757175
-47.21927,2.8702269,2.4997501
-47.427032,2.883349,2.546019
-47.806824,2.8672702,2.5466971
-48.133057,2.8624191,2.5661368
-48.468338,2.8576992,2.5867429
-48.785927,2.8576412,2.6155972
-49.166107,2.848927,2.6320462
-49.5334,2.844241,2.6558585
-49.947285,2.8340597,2.6724558
-50.29341,2.836534,2.7095408
-50.730476,2.826877,2.729526
-51.22798,2.8104167,2.7408304
-51.623676,2.8114872,2.7797685
-52.098183,2.8031979,2.8063412
-52.593605,2.7943819,2.833829
-53.070137,2.7907195,2.8705316
-53.584087,2.784401,2.9051957
-54.028366,2.7899702,2.9585862
-54.712944,2.7664714,2.9730363
-1.8255482,2.4749672,2.3053613
-2.0275726,2.4228716,2.178341
-2.0529194,2.3488958,2.0191207
-2.0920048,2.2766142,1.8624859
-1.9378929,2.178354,1.6662731
-2.0802536,2.119595,1.5302482
-2.091669,2.0430484,1.3670454
-2.097477,1.9654858,1.2022257
-2.0851593,1.8850331,1.032815
-2.0711994,1.803973,0.8623395
-2.0960178,1.7283893,0.70047
-2.0921993,1.6482306,0.5312791
-1.9688492,1.5489988,0.331285
-13.238689,3.0220275,2.5577245
-13.168852,2.9600363,2.432612
-12.989344,2.7757542,2.0588508
-13.653084,2.8497891,2.1635127
-14.063036,2.8788624,2.1932182
-14.526922,2.920673,2.2455997
-14.704565,2.9083924,2.206328
-15.153253,2.9514253,2.2625303
-14.801132,2.8335474,2.0421247
-16.063797,3.0477457,2.3955808
-16.26927,3.0472448,2.3790846
-16.502888,3.053787,2.3752646
-16.790993,3.073346,2.3946424
-16.986824,3.0742083,2.3818564
-17.209642,3.0820804,2.3817568
-17.49284,3.104775,2.4081836
-17.704403,3.1126184,2.4089427
-17.888313,3.1151514,2.4007006
-18.071827,3.1185377,2.3943086
-18.30526,3.1348045,2.4111547
-18.42236,3.1241696,2.380475
-18.69486,3.152225,2.4191113
-18.859457,3.1549816,2.4129448
-18.93045,3.1349726,2.366212
-19.085714,3.136734,2.358725
-19.284733,3.1506286,2.3733582
-19.483097,3.1654527,2.3900075
-19.697435,3.1856327,2.4166765
-19.745024,3.1621108,2.3645048
-19.903458,3.1689136,2.367447
-20.09959,3.186989,2.3911443
-20.138542,3.1621747,2.337008
-20.32252,3.1785011,2.3580012
-20.545269,3.2070162,2.4015718
-20.62852,3.1963034,2.3736534
-20.724546,3.1896899,2.3533688
-20.903622,3.2082741,2.3795104
-20.942492,3.1855788,2.3299685
-21.152592,3.2152379,2.3769379
-21.187233,3.191902,2.3264256
-21.374235,3.2162786,2.36412
-21.406452,3.1927164,2.3133688
-21.55998,3.2080579,2.3347397
-21.726059,3.2283847,2.3655806
-21.782917,3.213807,2.3317962
-21.821095,3.193168,2.2867956
-21.934498,3.197878,2.289051
-22.043482,3.201695,2.2897906
-22.207022,3.2249224,2.3269196
-22.248362,3.20652,2.2864342
-22.402754,3.2280989,2.320827
-22.440083,3.208805,2.2788272
-22.606884,3.2363584,2.3247485
-22.719883,3.2453237,2.3359804
-22.81044,3.2466338,2.3329592
-22.817146,3.2169824,2.271768
-22.972126,3.2432976,2.3160114
-23.030273,3.233506,2.2923532
-23.102318,3.2293012,2.2792988
-23.248537,3.2545516,2.3219876
-23.252949,3.2244482,2.2601523
-23.419361,3.2591825,2.3210568
-23.460276,3.244078,2.2877226
-23.629593,3.2818627,2.3547392
-23.658268,3.262357,2.3132014
-23.796274,3.2888353,2.359054
-23.862589,3.2857544,2.348857
-23.86353,3.25478,2.285635
-23.986862,3.2768426,2.3234205
-24.067375,3.2808874,2.3269992
-24.081287,3.2556474,2.2747865
-24.188107,3.272141,2.302257
-24.29003,3.2871377,2.326984
-24.29086,3.2560852,2.2637596
-24.416853,3.283205,2.3118405
-24.488117,3.2853951,2.3123188
-24.512596,3.265567,2.2706685
-24.638908,3.2949476,2.3233995
-24.701164,3.2939458,2.3179612
-24.720352,3.2718756,2.272119
-24.840813,3.3004417,2.323587
-24.893112,3.2953818,2.3105226
-24.915997,3.2753963,2.2687821
-25.01221,3.2933824,2.3001585
-25.061016,3.287158,2.284988
-25.122257,3.2877114,2.2829218
-25.173586,3.2832367,2.2712102
-25.25002,3.2926497,2.2863426
-25.32029,3.2991834,2.2959871
-25.347668,3.2822032,2.2602582
-25.442186,3.303071,2.2977157
-25.490942,3.2985406,2.2861342
-25.528496,3.2876928,2.2623634
-25.579132,3.2845364,2.2535095
-25.690842,3.3178444,2.315343
-25.745117,3.3177316,2.3125024
-25.772785,3.3016977,2.2788267
-25.838932,3.3092444,2.2909184
-25.894682,3.3107626,2.2913632
-25.95084,3.3128462,2.2929497
-25.975975,3.2954018,2.2566342
-26.06028,3.3161092,2.294496
-26.10616,3.3123975,2.2849417
-26.155413,3.3110893,2.2800956
-26.174803,3.2899065,2.236596
-26.25308,3.3085778,2.2707143
-26.30095,3.3069897,2.265428
-26.37114,3.3212304,2.2910285
-26.39428,3.3027394,2.2528625
-26.460146,3.3146996,2.2741055
-26.509117,3.3149252,2.2725005
-26.569002,3.3234546,2.2871418
-26.592113,3.3049574,2.2490468
-26.648066,3.31109,2.259077
-26.724136,3.3330913,2.3001633
-26.758123,3.3231535,2.2788677
-26.790272,3.3117216,2.2546673
-26.85819,3.3288538,2.2863698
-26.90355,3.328379,2.2836661
-26.952684,3.331232,2.287506
-27.000683,3.3334463,2.2901301
-27.03387,3.3233953,2.2687569
-27.080776,3.3250782,2.2703958
-27.140926,3.338599,2.2952728
-27.18647,3.3398054,2.2960453
-27.208443,3.3200727,2.255775
-27.262918,3.3296344,2.2729893
-27.313084,3.3357158,2.283409
-27.364294,3.3431883,2.296597
-27.40235,3.3385346,2.2860045
-27.426899,3.3208323,2.2498007
-27.481075,3.3320131,2.270358
-27.54228,3.3508167,2.3059354
-27.576468,3.3429182,2.2890606
-27.618402,3.3429947,2.2878857
-27.652348,3.3348696,2.2706041
-27.696173,3.3372595,2.2740288
-27.747917,3.3485677,2.2950282
-27.79171,3.3516638,2.299899
-27.82528,3.3435478,2.282721
-27.855694,3.3317227,2.2582545
-27.90044,3.3364258,2.2663574
-27.952805,3.350573,2.293096
-27.993874,3.3517551,2.2943182
-28.03071,3.3479595,2.2857537
-28.058786,3.3331928,2.255581
-28.111797,3.3500469,2.2877674
-28.152197,3.351266,2.2891545
-28.197954,3.3598814,2.3051543
-28.234274,3.356197,2.296916
-28.262283,3.341003,2.2659822
-28.30551,3.3469641,2.276813
-28.346432,3.3500352,2.2819648
-28.3945,3.3640306,2.3087068
-28.429558,3.3591316,2.2981687
-28.458252,3.3443482,2.268126
-28.491129,3.3357027,2.250218
-28.527136,3.3319204,2.2419338
-28.586267,3.3665771,2.3096232
-28.626719,3.3713322,2.3182578
-28.664238,3.3713968,2.3176436
-28.701706,3.3715632,2.3172507
-28.731968,3.3586822,2.2910814
-28.758812,3.338843,2.251165
-28.796118,3.3383906,2.249598
-28.838465,3.3481598,2.2682667
-28.888227,3.3739178,2.3185878
-28.925774,3.3755739,2.321257
-28.958776,3.367614,2.3049197
-28.990974,3.3575225,2.2843795
-29.026077,3.353704,2.276268
-29.07084,3.3730218,2.3139653
-29.107725,3.3742876,2.3159552
-29.144194,3.374763,2.3164
-29.17812,3.3686671,2.303853
-29.20865,3.3528652,2.2721038
-29.247913,3.361181,2.288125
-29.290775,3.3811975,2.3273368
-29.329649,3.3906343,2.3456206
-29.364155,3.3867853,2.3376098
-29.400558,3.3892794,2.3421793
-29.435507,3.3869512,2.337216
-29.469904,3.3824756,2.3280134
-29.478354,3.2737522,2.112298
-29.445353,2.9768002,1.523643
-39.272964,2.231437,0.3653159
-39.271965,2.275125,0.45451117
-39.28985,2.3107817,0.52847147
-39.299427,2.3494236,0.60806656
-39.30443,2.3894913,0.6903343
-39.318684,2.425589,0.76508284
-39.298927,2.4743633,0.8637161
-39.33427,2.5017548,0.92201614
-39.356644,2.5338805,0.9892421
-39.31628,2.588907,1.099504
-39.321407,2.6266248,1.1771798
-39.34091,2.6588252,1.2444835
-39.360645,2.6907294,1.3112283
-39.387836,2.7198067,1.3726816
-39.392796,2.756466,1.4483128
-39.428623,2.7822142,1.5035539
-39.47705,2.8036323,1.5507455
-39.54886,2.817264,1.5834832
-39.596817,2.8390276,1.6314244
-39.67905,2.8496265,1.6586761
-39.76624,2.858942,1.6836476
-39.85512,2.868073,1.708385
-39.94154,2.878347,1.7353506
-40.048054,2.8827062,1.751502
-40.133724,2.8939748,1.7805395
-39.74621,3.0493991,2.075152
-39.786835,3.073091,2.126855
-39.817772,3.099668,2.1838918
-39.85854,3.1233106,2.2355714
-40.74163,2.903408,1.841609
-40.862175,2.9073625,1.8581381
-40.98723,2.9106205,1.8735771
-41.141926,2.9062285,1.8752766
-41.286606,2.9053974,1.8836918
-41.45253,2.899535,1.8832073
-41.59878,2.8998148,1.894114
-41.67424,2.9195406,1.9404011
-41.77329,2.933352,1.9761243
-42.785828,2.7123423,1.5893073
-42.81683,2.747344,1.6642771
-42.79128,2.7964454,1.7645397
-42.79962,2.8367047,1.8488975
-42.808193,2.876687,1.9327383
-42.79905,2.9207168,2.0237646
-43.056465,2.9011173,2.0017033
-43.213593,2.9064255,2.0242662
-43.358246,2.915371,2.0535436
-43.585636,2.9061468,2.0510468
-43.7881,2.9037192,2.0609407
-43.929794,2.9157767,2.09663
-44.17865,2.905095,2.0928164
-44.39231,2.9032955,2.1049943
-44.582443,2.9075696,2.1281614
-44.76083,2.9152293,2.1575823
-45.016167,2.9079168,2.1614914
-45.22567,2.9112182,2.184225
-45.503315,2.9019575,2.1858373
-45.78621,2.893115,2.1887732
-46.06315,2.8868973,2.1968145
-46.275074,2.8944917,2.228941
-46.556633,2.8900623,2.2411952
-46.89792,2.8760567,2.2379613
-47.181484,2.8743184,2.2561345
-47.42109,2.8818717,2.290516
-47.789627,2.867955,2.2897363
-48.10672,2.864849,2.3077908
-48.48035,2.8537602,2.313477
-48.733707,2.864681,2.3562493
-49.139862,2.8517766,2.360763
-49.518997,2.845335,2.3768606
-49.93604,2.8348393,2.3874354
-50.26834,2.8396645,2.4237747
-50.741272,2.8246999,2.429432
-51.12446,2.8256252,2.4616704
-51.56494,2.8200703,2.4847984
-52.095802,2.8037438,2.492361
-52.516182,2.8057775,2.5301013
-53.0261,2.7975333,2.5532608
-53.58515,2.7852347,2.5718179
-54.06131,2.786834,2.613305
-54.75103,2.7630372,2.6180696
-2.0253677,2.5067666,1.9426904
-2.0411243,2.431484,1.7811942
-2.0560665,2.3559315,1.6192513
-2.076027,2.2808607,1.458076
-2.0835476,2.2039678,1.2939181
-2.0961113,2.127534,1.1304779
-2.0596275,2.044042,0.9553342
-2.0851936,1.9688954,0.79392385
-2.0801353,1.8891499,0.62482643
-2.082075,1.8101103,0.45684385
-13.252691,3.1731741,2.6216888
-13.216934,3.1180024,2.507185
-13.144428,2.9560382,2.16923
-13.112347,2.8998744,2.052575
-13.668421,2.9015293,2.02075
-13.984003,2.9115794,2.0219965
-14.299822,2.9233296,2.0268621
-14.70221,2.9536235,2.065431
-14.862516,2.9381895,2.0228376
-14.855516,2.8898468,1.921411
-14.805075,2.8323374,1.8034291
-16.040104,3.0406883,2.1652536
-16.295559,3.0503924,2.1698313
-16.54488,3.0601404,2.1749206
-16.788094,3.0698884,2.1804237
-17.015217,3.077391,2.1822343
-17.209118,3.0786817,2.1730676
-17.554548,3.1152513,2.2287703
-17.787758,3.1280444,2.2414298
-17.97892,3.1323156,2.2387934
-18.204578,3.1457255,2.253274
-18.41167,3.1559234,2.2621737
-18.483627,3.134451,2.2128515
-18.662373,3.139469,2.2126646
-18.846848,3.1468558,2.2171297
-19.055502,3.1613395,2.235046
-19.165829,3.1517975,2.2085466
-19.301498,3.1493263,2.195373
-19.503304,3.16492,2.2161107
-19.695677,3.1791363,2.2345529
-19.817093,3.1752732,2.219397
-19.92706,3.1688657,2.1996255
-20.101496,3.1808302,2.214501
-20.220385,3.17818,2.202115
-20.339897,3.1762896,2.1913066
-20.532433,3.1960144,2.2214155
-20.693598,3.2077239,2.2366366
-20.737497,3.1857162,2.1882968
-20.934965,3.209672,2.227027
-20.96962,3.1855292,2.1748195
-21.170063,3.212186,2.219059
-21.223904,3.1945794,2.1794324
-21.376553,3.2081451,2.199161
-21.41634,3.1866958,2.152379
-21.60188,3.2122002,2.195158
-21.707924,3.2129536,2.1909127
-21.790876,3.2066307,2.1732607
-21.914293,3.2141874,2.1822433
-21.998493,3.209178,2.1673012
-22.090614,3.2072587,2.1583676
-22.194536,3.2098756,2.1582308
-22.301329,3.2140486,2.1611924
-22.426792,3.2254255,2.1781135
-22.497261,3.2178063,2.1586194
-22.621098,3.229856,2.1770668
-22.713114,3.2309544,2.1745377
-22.823532,3.2393749,2.1862245
-22.869267,3.2240896,2.1522532
-23.002953,3.242382,2.1832
-23.047834,3.2273102,2.1497602
-23.201103,3.2545831,2.19831
-23.251085,3.2421577,2.1701236
-23.344162,3.2470603,2.1755662
-23.45714,3.2605295,2.1977148
-23.500174,3.246122,2.165854
-23.638336,3.2711244,2.210588
-23.67898,3.25629,2.1780095
-23.83792,3.2915924,2.2430005
-23.880463,3.2782311,2.213408
-23.921719,3.2643669,2.1828637
-24.030914,3.2803538,2.2105403
-24.074268,3.2678566,2.1827521
-24.109928,3.2519693,2.148376
-24.254864,3.2857308,2.2109928
-24.275549,3.263508,2.1643329
-24.343502,3.263102,2.1603403
-24.46479,3.2881477,2.2062044
-24.505116,3.275558,2.178493
-24.601171,3.2898746,2.203516
-24.66531,3.2892947,2.1994228
-24.70897,3.2789235,2.176175
-24.808563,3.2965715,2.2079382
-24.878777,3.3001156,2.2120938
-24.906925,3.2825422,2.1748223
-24.98809,3.2923121,2.1913018
-25.058357,3.29692,2.1976962
-25.125732,3.3004177,2.2019591
-25.134808,3.273014,2.1454477
-25.25138,3.3036487,2.2032237
-25.310404,3.3036866,2.2008157
-25.328268,3.281115,2.1538825
-25.419203,3.2994547,2.1876287
-25.49582,3.310373,2.2068052
-25.536852,3.3013058,2.1865935
-25.574924,3.2905698,2.1631079
-25.673199,3.3154802,2.210063
-25.743568,3.3245745,2.2258387
-25.766392,3.3053305,2.185636
-25.84287,3.3188398,2.2102222
-25.894188,3.3173115,2.2051115
-25.957047,3.323288,2.2148871
-25.959595,3.291206,2.1493402
-26.049826,3.3152294,2.1949253
-26.108082,3.3192115,2.200862
-26.157106,3.3174393,2.1954284
-26.17765,3.2967534,2.1525135
-26.242765,3.3061128,2.1692104
-26.31023,3.3175972,2.1901674
-26.36101,3.3179874,2.1891465
-26.381622,3.2972884,2.1462731
-26.45844,3.316605,2.182898
-26.516203,3.3228405,2.1935816
-26.57888,3.3331156,2.2123327
-26.593742,3.3082,2.161147
-26.647938,3.3126285,2.1683283
-26.735722,3.3432133,2.2275863
-26.7736,3.336041,2.2117586
-26.804148,3.3231184,2.1845012
-26.85205,3.3239615,2.184669
-26.922546,3.3434153,2.2219372
-26.965147,3.340682,2.215043
-27.010551,3.3404474,2.2131505
-27.031559,3.3197415,2.1704702
-27.092752,3.3332427,2.1960082
-27.154844,3.3481612,2.2244115
-27.196583,3.3457088,2.218195
-27.222698,3.3293414,2.1842299
-27.261486,3.3242786,2.1728373
-27.331165,3.3479583,2.2188535
-27.373932,3.3472319,2.2161708
-27.41959,3.349471,2.2194352
-27.439606,3.327049,2.173449
-27.488596,3.3327682,2.1837053
-27.5532,3.3545864,2.226169
-27.599873,3.3590229,2.2339206
-27.632494,3.349229,2.2132397
-27.660234,3.3341584,2.182015
-27.714428,3.3472078,2.2070575
-27.771967,3.3645802,2.2407813
-27.80807,3.3589294,2.2284608
-27.84315,3.352126,2.2138476
-27.869663,3.335411,2.1794062
-27.920393,3.346717,2.2010837
-27.972134,3.3598642,2.2264757
-28.012083,3.3593457,2.2245212
-28.046898,3.3526368,2.2101836
-28.07484,3.3371723,2.1783137
-28.12177,3.3458097,2.1947584
-28.178347,3.3677008,2.2377958
-28.219437,3.369881,2.2413464
-28.249884,3.357751,2.2162228
-28.280598,3.3456862,2.1912394
-28.31843,3.3434842,2.18605
-28.372898,3.3657057,2.2298737
-28.413822,3.368879,2.2355084
-28.447039,3.36061,2.2182016
-28.475489,3.3446994,2.185573
-28.513979,3.344309,2.1841035
-28.557148,3.351768,2.198409
-28.611343,3.378317,2.251061
-28.647217,3.3748403,2.2434535
-28.68778,3.3796687,2.2525392
-28.725777,3.3802853,2.2531838
-28.752304,3.3597667,2.2113934
-28.786152,3.3523145,2.195858
-28.826782,3.357983,2.2066956
-28.87043,3.3702948,2.2308993
-28.9162,3.3879666,2.2658958
-28.950697,3.3826604,2.2547364
-28.98333,3.3730726,2.2349863
-29.017141,3.3657482,2.2197967
-29.05444,3.3663847,2.2206244
-29.0974,3.381143,2.2498565
-29.135775,3.3855026,2.2582016
-29.171164,3.3825028,2.2517672
-29.203228,3.370364,2.2269692
-29.24023,3.371496,2.2288704
-29.281473,3.3854954,2.2566643
-29.318457,3.3877158,2.2607875
-29.35644,3.393563,2.2722201
-29.393063,3.3955417,2.2758875
-29.430225,3.399826,2.2842088
-29.465946,3.3993483,2.2829642
-29.480278,3.3144805,2.1119604
-29.444427,3.010072,1.49926
-39.244144,2.3098407,0.3558526
-39.269444,2.3425834,0.42470026
-39.287315,2.3780153,0.49875593
-39.30452,2.4134142,0.57274055
-39.341026,2.4411225,0.6318493
-39.366272,2.4729917,0.6990094
-39.301003,2.538564,0.8312216
-39.32935,2.5684857,0.8945756
-39.368145,2.5944247,0.95026255
-39.333347,2.6469014,1.0570545
-39.344093,2.6824193,1.1311584
-39.35894,2.7161963,1.2019029
-39.39233,2.7432575,1.2597461
-39.41165,2.775076,1.3267279
-39.479546,2.7901556,1.3616371
-39.509293,2.8182676,1.4215498
-39.578403,2.8331907,1.4562583
-39.6172,2.858277,1.5104423
-39.74579,2.854211,1.5090275
-39.812206,2.8707469,1.5470238
-39.89831,2.8812394,1.5735774
-39.992733,2.8894749,1.5959296
-40.076393,2.9014378,1.6254644
-40.23535,2.8907566,1.6121278
-40.341103,2.8969867,1.6310306
-40.46049,2.899643,1.6432905
-40.55555,2.9100232,1.6702929
-39.930634,3.1296191,2.0923257
-40.859245,2.8994408,1.6655402
-40.96936,2.9071562,1.6879387
-41.12944,2.901416,1.6851778
-41.228733,2.9132783,1.7156696
-41.42241,2.8998756,1.6989217
-41.51683,2.9141974,1.7343311
-41.646088,2.9196599,1.7532978
-41.726532,2.938499,1.7973952
-41.844566,2.9479082,1.8240218
-42.78528,2.748322,1.462111
-42.782467,2.7919478,1.5532413
-42.789536,2.8328145,1.6392193
-42.801247,2.8723073,1.7226324
-42.819435,2.9100347,1.802772
-43.007027,2.9073021,1.8083291
-43.201324,2.9039598,1.8130484
-43.35646,2.910681,1.8365431
-43.583107,2.9018278,1.8317351
-43.733383,2.9113507,1.8608894
-43.91738,2.914097,1.8779111
-44.179085,2.9007769,1.8659773
-44.391277,2.899519,1.8763909
-44.56451,2.9076064,1.9040933
-44.74068,2.9159098,1.9324713
-45.00171,2.9075794,1.931148
-45.215347,2.9102273,1.9500318
-45.503326,2.8990896,1.9445581
-45.79013,2.8897002,1.9427361
-46.036663,2.8896093,1.9580326
-46.269623,2.8933525,1.9806046
-46.54214,2.8908343,1.992506
-46.89098,2.8756177,1.9824767
-47.1768,2.8736882,1.9965534
-47.431114,2.8788445,2.0236406
-47.813927,2.862686,2.0139213
-48.15884,2.8550894,2.01993
-48.468407,2.855278,2.0401897
-48.750908,2.8615527,2.0716405
-49.123047,2.8545294,2.0807586
-49.499626,2.848709,2.0927625
-49.905426,2.8401985,2.1010094
-50.298504,2.835758,2.1171107
-50.723763,2.828421,2.1292162
-51.188057,2.8174307,2.136166
-51.568497,2.8211527,2.1689286
-52.001328,2.819246,2.193222
-52.53403,2.8054407,2.198841
-53.090736,2.79107,2.204895
-53.55828,2.7916718,2.236979
-54.093185,2.785699,2.2595806
-2.01614,2.521085,1.5337901
-2.0118885,2.443009,1.3670878
-2.033062,2.3679028,1.205481
-2.0505257,2.2921631,1.0427699
-2.0536842,2.2143369,0.87639475
-2.065752,2.1374626,0.71165323
-2.0828438,2.0610673,0.54773474
-2.0482635,1.977138,0.37043858
-13.092657,3.1537018,2.318317
-13.277914,3.1349401,2.2691455
-12.986574,3.0356631,2.0726018
-13.635439,2.9005456,1.7534657
-14.009752,2.9212456,1.778996
-14.222732,2.9130356,1.751143
-14.629556,2.9436193,1.7961144
-14.755756,2.9209287,1.7418642
-15.144167,2.9514384,1.7876415
-14.854468,2.845755,1.5777998
-16.012291,3.037832,1.9286222
-16.286165,3.0510364,1.9433837
-16.46557,3.0455513,1.9231582
-16.778046,3.0697718,1.9594393
-16.967361,3.0686586,1.9480491
-17.203196,3.0788784,1.958435
-17.53817,3.1127934,2.0142298
-17.752615,3.120965,2.0213585
-17.945004,3.1251476,2.0211272
-18.170763,3.1382146,2.0381165
-18.358494,3.143413,2.0403042
-18.47754,3.1329312,2.0126324
-18.645042,3.1349092,2.0090194
-18.866665,3.1512563,2.033228
-19.028755,3.1537905,2.0310893
-19.14325,3.144967,2.0072274
-19.284622,3.1436472,1.9979701
-19.485558,3.158718,2.0205407
-19.723793,3.1848724,2.064777
-19.789549,3.1658115,2.0216756
-19.927595,3.1667395,2.0173988
-20.088379,3.1746874,2.0268903
-20.225624,3.1768978,2.025394
-20.318352,3.16715,2.0007648
-20.542091,3.1955779,2.0505753
-20.661995,3.1950438,2.0441504
-20.740501,3.18287,2.01512
-20.915962,3.2000399,2.043479
-20.951681,3.1758528,1.9911451
-21.143574,3.1996188,2.0326757
-21.199995,3.1824262,1.994163
-21.361794,3.1985598,2.0210261
-21.515507,3.2130785,2.0448728
-21.573206,3.1975133,2.0097804
-21.725159,3.2129047,2.0355725
-21.777073,3.1961124,1.9981956
-21.923244,3.210997,2.023213
-21.99831,3.2026572,2.0026035
-22.126713,3.2129247,2.0187373
-22.195898,3.203372,1.9958754
-22.33611,3.2190516,2.0228834
-22.401806,3.2090816,1.9993315
-22.553497,3.2303188,2.0375295
-22.60947,3.21765,2.00877
-22.739065,3.2322955,2.0341282
-22.825663,3.2316983,2.0293932
-22.86224,3.2126348,1.9881139
-23.025612,3.2420406,2.0430017
-23.043896,3.2164457,1.9888511
-23.22931,3.2561169,2.0643296
-23.256636,3.234515,2.0181913
-23.399961,3.2593324,2.0643663
-23.460028,3.2513673,2.0454311
-23.552555,3.2569478,2.0534987
-23.655712,3.267481,2.0714989
-23.718243,3.261576,2.0568147
-23.808285,3.2676256,2.0660071
-23.860455,3.2578962,2.0437837
-23.935617,3.258335,2.0418863
-24.026237,3.2659764,2.054422
-24.07112,3.2537627,2.0273504
-24.17807,3.2696533,2.056481
-24.244514,3.267778,2.0501585
-24.282318,3.2529707,2.0180001
-24.397682,3.274461,2.0585203
-24.49099,3.286373,2.0799394
-24.521063,3.2686107,2.041965
-24.61848,3.283426,2.069304
-24.690413,3.2864292,2.073019
-24.717316,3.2674675,2.0327134
-24.82551,3.2892532,2.0741968
-24.913158,3.301438,2.096477
-24.92897,3.2772427,2.0457377
-25.029083,3.296727,2.0827684
-25.0814,3.291783,2.0707588
-25.112553,3.2757268,2.03643
-25.180843,3.279668,2.0423412
-25.252642,3.2859364,2.0529752
-25.321596,3.29109,2.061408
-25.359184,3.2790775,2.0353103
-25.437008,3.2899199,2.0552692
-25.518656,3.3035274,2.0808482
-25.536667,3.280722,2.03307
-25.621359,3.2969422,2.0639915
-25.682764,3.299961,2.0683331
-25.745708,3.3042743,2.0753188
-25.790773,3.2980342,2.061037
-25.864384,3.3096142,2.082758
-25.919062,3.309881,2.0816703
-25.966724,3.3059683,2.072166
-26.004147,3.2956305,2.0496979
-26.072058,3.305195,2.0674791
-26.127316,3.306913,2.0694294
-26.165836,3.2977316,2.0493617
-26.213768,3.2949607,2.0422792
-26.290882,3.3124523,2.0762253
-26.3411,3.311927,2.0737438
-26.365177,3.2931821,2.034391
-26.431719,3.304589,2.0561132
-26.49886,3.3169982,2.0799007
-26.54491,3.3144886,2.0734916
-26.583256,3.3064127,2.055821
-26.629276,3.3041677,2.0499854
-26.69922,3.3204536,2.0817475
-26.753765,3.3254712,2.0906925
-26.799253,3.3237324,2.0859542
-26.839838,3.3182642,2.0736685
-26.895287,3.3249428,2.0860524
-26.9528,3.3337579,2.1028004
-26.993134,3.3287134,2.091432
-27.022873,3.3147712,2.0620098
-27.078003,3.3225007,2.0766187
-27.130104,3.328054,2.0868306
-27.180166,3.3321981,2.0942044
-27.215488,3.3234239,2.0753412
-27.257036,3.320303,2.0679832
-27.314445,3.332051,2.0908742
-27.365078,3.338002,2.102004
-27.410433,3.3393097,2.1037097
-27.442053,3.3274937,2.0787368
-27.481634,3.3234024,2.0694895
-27.544502,3.342851,2.1081634
-27.585777,3.3410628,2.1036406
-27.625456,3.337768,2.0960674
-27.655916,3.324815,2.068843
-27.701794,3.3282447,2.0749884
-27.757185,3.3424478,2.1030965
-27.79888,3.342084,2.1015553
-27.836529,3.3373215,2.0910678
-27.864624,3.3215413,2.0581431
-27.901833,3.3161283,2.0463533
-27.968369,3.3459644,2.1064205
-28.006584,3.3424768,2.09859
-28.045156,3.3395073,2.0918288
-28.078506,3.3299837,2.0717182
-28.124895,3.337217,2.0857882
-28.174162,3.3487718,2.1086903
-28.213137,3.3470898,2.1046143
-28.25027,3.3429983,2.0956354
-28.28358,3.3335412,2.0757227
-28.322346,3.3317385,2.0714374
-28.36853,3.3410037,2.0897517
-28.409634,3.343231,2.0937204
-28.444857,3.3366902,2.0798073
-28.479128,3.328541,2.062623
-28.521965,3.3340573,2.0733466
-28.56921,3.3473516,2.0999675
-28.61302,3.355684,2.1164746
-28.653362,3.3586042,2.1219463
-28.69262,3.359929,2.124174
-28.730854,3.3596518,2.1231427
-28.758394,3.33935,2.0812216
-28.79484,3.3353922,2.0726933
-28.835857,3.3405445,2.0827894
-28.881903,3.3565612,2.1150975
-28.922997,3.3632495,2.1283627
-28.957565,3.356264,2.1137009
-28.989807,3.3437545,2.0877604
-29.027344,3.3429804,2.085812
-29.073797,3.3639252,2.1282682
-29.113066,3.3685644,2.137414
-29.148838,3.364647,2.1290803
-29.18372,3.358217,2.1156235
-29.215967,3.344059,2.086378
-29.25659,3.3534377,2.1052613
-29.297775,3.3655403,2.129727
-29.336954,3.3725367,2.1437683
-29.374737,3.375721,2.1500282
-29.412653,3.379878,2.1582885
-29.44653,3.3697412,2.137331
-29.483017,3.3688529,2.1352973
-29.441835,3.0474453,1.4777784
-39.287834,2.4049878,0.37556982
-39.29061,2.4460852,0.4614501
-39.31472,2.4786444,0.53037786
-39.309063,2.522171,0.6210418
-39.425995,2.5196848,0.62054396
-39.410656,2.566354,0.7174301
-39.338226,2.6331744,0.85413694
-39.38961,2.654599,0.9010196
-39.406868,2.6881526,0.97188854
-39.412437,2.7255511,1.0503411
-39.42841,2.75902,1.1210251
-39.454952,2.7886424,1.184123
-39.497032,2.81288,1.2366209
-39.578224,2.8240728,1.2634687
-39.626232,2.846492,1.3124537
-39.74302,2.8465898,1.3176107
-39.80949,2.8634326,1.355741
-39.89795,2.873488,1.3806067
-39.970795,2.888791,1.4158297
-40.10638,2.8849208,1.4135666
-40.22992,2.8854473,1.4200287
-40.326244,2.894803,1.443862
-40.449417,2.896568,1.4529557
-40.582108,2.8961408,1.4578886
-40.70163,2.9002109,1.4717135
-40.81374,2.906977,1.4908986
-40.940453,2.9101217,1.5031457
-41.085335,2.9088044,1.5068469
-41.21859,2.9114351,1.5183568
-41.39682,2.9024734,1.5075254
-41.500557,2.9144988,1.5375233
-41.647617,2.9154694,1.5462389
-41.72896,2.9343781,1.5897627
-41.876415,2.9364839,1.6009412
-42.61831,2.787846,1.3217778
-42.536568,2.8510637,1.4512649
-42.753918,2.8392553,1.4364138
-42.783707,2.874509,1.5121517
-42.806744,2.9113066,1.5908589
-43.005295,2.906213,1.5893831
-43.22667,2.8968034,1.5798941
-43.36902,2.9068563,1.6078176
-43.580616,2.9017715,1.6070609
-43.81975,2.8915994,1.5968852
-43.911453,2.9153736,1.6514955
-44.203087,2.8958023,1.6240048
-44.41117,2.895807,1.6339588
-44.612377,2.8983235,1.6489301
-44.815765,2.9013908,1.6652012
-45.029564,2.9033277,1.6796145
-45.267612,2.9014246,1.6870985
-45.527313,2.8964174,1.6890898
-45.825424,2.885209,1.6798382
-46.09835,2.880443,1.6830506
-46.349586,2.881216,1.6969819
-46.60498,2.8824825,1.7121983
-46.966125,2.8655453,1.6940207
-47.20764,2.872218,1.7200994
-47.505646,2.8700097,1.7301474
-47.85205,2.860838,1.727838
-48.19635,2.8538325,1.7300658
-48.556396,2.8459399,1.7312288
-48.83778,2.8530133,1.7603259
-49.209427,2.8467155,1.7655387
-49.590286,2.840856,1.7721848
-49.95849,2.8389537,1.7866597
-50.351074,2.835154,1.7983637
-50.755737,2.831531,1.8110952
-51.195442,2.824751,1.8189178
-51.59371,2.8263016,1.8424368
-52.03087,2.8242893,1.8603811
-52.658997,2.797637,1.8355455
-53.12461,2.7966938,1.8573127
-53.601433,2.7966106,1.881537
-54.231506,2.7786777,1.8755522
-54.75711,2.7775505,1.9001455
-1.937191,2.5162044,1.1077671
-2.2082424,2.47206,1.0028877
-2.1020317,2.3809342,0.8114624
-2.056181,2.2968283,0.6328664
-2.106022,2.2249498,0.47694302
-13.004126,2.8330917,1.3770766
-13.600491,2.8920114,1.4814
-13.984884,2.9142735,1.5151367
-14.3073,2.9267304,1.5301976
-14.680362,2.9507747,1.5681896
-15.058689,2.9779,1.6125875
-14.8640585,2.8918943,1.4361782
-14.609241,2.792118,1.2325768
-16.023294,3.0365171,1.7034459
-16.336145,3.0577483,1.7376876
-16.527653,3.0547743,1.7246599
-16.791855,3.0685282,1.7447271
-16.987793,3.0686922,1.738266
-17.256817,3.086181,1.7661576
-17.52404,3.1047475,1.7964239
-17.76984,3.1198738,1.8201332
-17.989944,3.130362,1.8348837
-18.171282,3.1328769,1.8340292
-18.368921,3.1402454,1.8429546
-18.528141,3.13933,1.8356023
-18.637022,3.126809,1.8053222
-18.86121,3.143584,1.8333879
-19.059301,3.1550093,1.8509922
-19.252369,3.1662378,1.8683653
-19.356564,3.1553936,1.841876
-19.508942,3.1577182,1.8417459
-19.690094,3.168532,1.8586898
-19.869736,3.1799448,1.8769712
-19.916637,3.1559155,1.8244796
-20.100533,3.1700504,1.8484282
-20.27947,3.1838384,1.8718209
-20.35661,3.1695852,1.8391156
-20.52443,3.1818378,1.8596492
-20.720833,3.203422,1.8990445
-20.75402,3.177758,1.8436346
-20.930172,3.1950111,1.8745413
-21.048573,3.195735,1.8723111
-21.150208,3.1919022,1.8609843
-21.286018,3.199222,1.8721933
-21.368355,3.1903996,1.8509493
-21.539074,3.2102017,1.8874993
-21.574862,3.1873372,1.8380423
-21.756538,3.2123034,1.8852015
-21.785152,3.1875927,1.8320942
-21.969532,3.215172,1.8847222
-22.022015,3.199057,1.8490772
-22.155964,3.211128,1.8705106
-22.20918,3.1958404,1.8366189
-22.373552,3.219921,1.882524
-22.400864,3.196093,1.8314099
-22.58956,3.230551,1.898521
-22.63688,3.2145548,1.863368
-22.787054,3.2367558,1.9057856
-22.801445,3.2090194,1.8468618
-22.98999,3.2471855,1.9218564
-23.025627,3.2279649,1.8803
-23.153824,3.2447164,1.9119205
-23.238785,3.2452884,1.9106932
-23.27007,3.2249162,1.8668747
-23.42048,3.2525048,1.9207377
-23.458364,3.2352598,1.8833475
-23.609575,3.2648087,1.9413443
-23.654562,3.251081,1.9111876
-23.778307,3.2707324,1.9491329
-23.862572,3.2743511,1.9544339
-23.873127,3.246512,1.8955622
-24.025179,3.2804222,1.9627786
-24.06556,3.2659798,1.9313083
-24.071163,3.2359426,1.8679843
-24.221975,3.2715483,1.938838
-24.282486,3.266847,1.927352
-24.318222,3.250858,1.8928037
-24.44624,3.278322,1.9471788
-24.473732,3.2588677,1.9055872
-24.601807,3.2878404,1.9631548
-24.666067,3.2866876,1.9590883
-24.712917,3.2772367,1.9380498
-24.79477,3.2854118,1.9531498
-24.868351,3.2899318,1.9607959
-24.90264,3.2747412,1.9280562
-24.993935,3.289099,1.9559345
-25.058393,3.2900302,1.9563093
-25.11057,3.284772,1.9440064
-25.163982,3.280364,1.9334702
-25.241135,3.2891068,1.9499593
-25.315384,3.296778,1.9642792
-25.33068,3.2719965,1.9119592
-25.433973,3.2967005,1.9613299
-25.484829,3.2922792,1.9508824
-25.536247,3.2883725,1.9415112
-25.60612,3.295509,1.9548688
-25.679775,3.3053737,1.9738684
-25.741255,3.3084426,1.9789166
-25.776299,3.2957394,1.9515305
-25.85714,3.3113127,1.9823585
-25.906496,3.3078544,1.9740367
-25.947865,3.2995157,1.9556828
-26.002243,3.2996025,1.9546962
-26.077637,3.313655,1.9825006
-26.121592,3.307607,1.9689174
-26.16448,3.3009577,1.9541097
-26.219873,3.3028722,1.9569678
-26.290627,3.3156562,1.9822569
-26.332731,3.309113,1.9677186
-26.37068,3.2997227,1.9473181
-26.419693,3.2982512,1.9432659
-26.494907,3.3159947,1.9788771
-26.53939,3.3119001,1.9694519
-26.570732,3.2981532,1.9401155
-26.639807,3.312794,1.9693923
-26.70884,3.328072,2.0000095
-26.748959,3.3215573,1.9856501
-26.777054,3.305618,1.9518356
-26.852821,3.3276107,1.996386
-26.900429,3.3276305,1.9955673
-26.954462,3.3331912,2.0062127
-26.997602,3.330048,1.9988894
-27.032501,3.3200579,1.9774241
-27.088322,3.3280277,1.9930983
-27.1447,3.336968,2.010799
-27.187954,3.3347654,2.005474
-27.212048,3.31544,1.9647479
-27.275623,3.33192,1.9980903
-27.335243,3.3454762,2.0254064
-27.379335,3.345011,2.0237322
-27.408499,3.3304067,1.9928112
-27.450993,3.3285763,1.9883332
-27.504272,3.3376272,2.0063915
-27.555622,3.345258,2.0215259
-27.594578,3.3406413,2.0113196
-27.627426,3.329705,1.9880395
-27.668064,3.3268929,1.9815893
-27.723232,3.3399284,2.0079727
-27.776846,3.351938,2.032249
-27.819553,3.3523724,2.0325637
-27.841892,3.329774,1.9851727
-27.891382,3.3381412,2.001944
-27.935394,3.340546,2.006374
-27.988056,3.353714,2.0331225
-28.024303,3.347386,2.0194802
-28.05771,3.3374534,1.9983764
-28.094536,3.3317127,1.9859681
-28.147842,3.3475058,2.0182128
-28.195988,3.3572803,2.0379949
-28.23377,3.3535478,2.0297842
-28.25968,3.3333282,1.9873948
-28.302439,3.3364108,1.9933343
-28.353052,3.3512704,2.0237117
-28.392536,3.3504522,2.0215855
-28.43061,3.3476536,2.0153608
-28.463871,3.3374267,1.9937348
-28.505497,3.3402638,1.9992204
-28.545698,3.3411214,2.0006099
-28.598597,3.3635252,2.0467172
-28.63613,3.3608487,2.0407958
-28.675116,3.3607996,2.040337
-28.710327,3.3541012,2.0260887
-28.74681,3.3496037,2.016415
-28.781824,3.3422348,2.0007915
-28.821077,3.3430057,2.002071
-28.871325,3.3663774,2.0502772
-28.908497,3.363989,2.0450196
-28.948643,3.3680787,2.0532207
-28.978521,3.3497036,2.0147905
-29.012388,3.339491,1.9933138
-29.060078,3.3618035,2.039381
-29.101402,3.3701613,2.0564837
-29.140118,3.3726475,2.0614038
-29.179209,3.376523,2.069219
-29.20719,3.3500717,2.0140615
-29.244787,3.3494124,2.012476
-29.292902,3.3806267,2.077098
-29.3322,3.3870664,2.0902767
-29.369722,3.388452,2.092968
-29.404076,3.3791766,2.073523
-29.442087,3.382476,2.080206
-29.481768,3.3927724,2.1014338
-29.443487,3.086598,1.4652495
-39.289074,2.4722576,0.3453226
-39.297924,2.5107303,0.4267006
-39.331223,2.539716,0.48880243
-39.320255,2.5848858,0.58376074
-39.366234,2.608793,0.6355572
-39.444435,2.6210933,0.6638322
-39.36903,2.6882682,0.80336714
-39.401756,2.7164192,0.86377764
-39.458412,2.736156,0.9071584
-39.500595,2.760948,0.9607935
-39.53446,2.7885313,1.0200901
-39.676453,2.779866,1.0061202
-39.668205,2.8216243,1.0941119
-39.72036,2.843248,1.141428
-39.796516,2.857206,1.1732979
-39.86935,2.8724794,1.2078624
-39.98944,2.8731341,1.2130027
-40.063095,2.8888037,1.2484655
-40.242874,2.872185,1.2189736
-40.49373,2.8351097,1.1484599
-40.60725,2.8406549,1.1638126
-40.74431,2.8397858,1.1663547
-40.86415,2.8446326,1.1804662
-41.01783,2.8403175,1.176281
-41.17282,2.836444,1.1730919
-41.366394,2.822576,1.1499963
-41.543694,2.8142984,1.1382375
-41.625134,2.833149,1.180872
-41.66873,2.862462,1.2444673
-41.669765,2.90309,1.3306746
-41.715805,2.9316158,1.3927193
-41.851517,2.9369593,1.408575
-42.8366,2.7260804,0.99389267
-43.076,2.709531,0.9667845
-42.624897,2.865874,1.2835927
-42.642376,2.9040117,1.3651853
-42.722652,2.9268003,1.4163175
-42.92734,2.9201918,1.409236
-43.141476,2.9124463,1.4000812
-43.358006,2.9052842,1.3922691
-43.529633,2.9095244,1.4071813
-43.73737,2.9064798,1.4078655
-43.91868,2.9103737,1.4224191
-44.190357,2.8954043,1.399991
-44.4114,2.8928182,1.4021788
-44.6257,2.8928,1.4096203
-44.825916,2.896817,1.4251842
-45.052895,2.8963175,1.4320912
-45.315964,2.8896546,1.4271636
-45.588837,2.8824103,1.4213667
-45.863293,2.8762825,1.4180307
-46.106163,2.8776968,1.429676
-46.408554,2.8690028,1.4219103
-46.665405,2.8704293,1.4341292
-46.982086,2.8621235,1.4277549
-47.23346,2.8673153,1.447865
-47.607338,2.851913,1.428453
-47.892433,2.8540595,1.4433308
-48.190178,2.8554666,1.4571142
-48.5607,2.846052,1.4504509
-48.879326,2.847209,1.4645152
-49.2277,2.8451185,1.4727516
-49.630547,2.8360615,1.4681168
-50.024734,2.8304648,1.4705925
-50.372196,2.8341358,1.4912038
-50.821877,2.8240278,1.4861317
-51.24002,2.8209567,1.4949841
-51.68081,2.8167195,1.5022097
-52.099358,2.817936,1.5203195
-52.644966,2.8034222,1.5094934
-53.157978,2.7962365,1.513186
-53.692974,2.7887297,1.5170436
-54.207626,2.7866693,1.531848
-54.791485,2.7782896,1.5357323
1.2351913,2.309423,0.3153925
-1.9386482,2.523324,0.7009311
-1.9798222,2.4501634,0.54245424
-1.9633579,2.369605,0.36943674
-13.007042,2.7810912,0.99870396
-13.865475,2.8907769,1.2147632
-14.12673,2.8908749,1.2091236
-14.327046,2.880432,1.1822524
-15.142978,2.9928923,1.4052601
-15.113588,2.9401007,1.2927175
-14.889178,2.8470087,1.0981059
-16.063745,3.0424984,1.4912281
-16.409603,3.070586,1.5438166
-16.601292,3.0676432,1.5333061
-16.76479,3.059547,1.5123835
-17.072872,3.084094,1.5582547
-17.305832,3.0935802,1.5735111
-17.547848,3.1063755,1.5956726
-17.765148,3.1148067,1.609036
-17.974712,3.1226022,1.6212168
-18.143158,3.121786,1.6158586
-18.38837,3.1402674,1.6501746
-18.574965,3.1458547,1.6581593
-18.706997,3.1389618,1.6406074
-18.877874,3.1424258,1.6444054
-19.065556,3.151056,1.6589136
-19.24829,3.1594396,1.6730075
-19.439846,3.1711226,1.6939878
-19.49382,3.1474957,1.6423421
-19.698086,3.1642425,1.6739073
-19.888771,3.1784778,1.7003951
-19.95351,3.1591415,1.6577334
-20.107742,3.1649396,1.6669612
-20.31852,3.187551,1.7109694
-20.470634,3.1946337,1.7230077
-20.538126,3.1780171,1.6861444
-20.73093,3.1984184,1.7258296
-20.800636,3.1833525,1.6922536
-20.939493,3.1893563,1.7022963
-21.065573,3.1922235,1.7059073
-21.135826,3.178504,1.6752257
-21.335983,3.205694,1.7293105
-21.36863,3.1810443,1.6760635
-21.564121,3.2086225,1.7310867
-21.61522,3.1905124,1.6914525
-21.782875,3.2108653,1.7316222
-21.863987,3.2034247,1.7141871
-21.976593,3.2069573,1.7195597
-22.014957,3.1857343,1.6735697
-22.186544,3.2105849,1.7232943
-22.293346,3.2138731,1.7282848
-22.383514,3.2118468,1.7222681
-22.494259,3.217646,1.7325554
-22.615292,3.2278116,1.751965
-22.690025,3.2216752,1.7375054
-22.814716,3.2344565,1.7624393
-22.856556,3.2167933,1.7240434
-23.003681,3.2393126,1.7693295
-23.034988,3.2181163,1.723618
-23.218782,3.2564387,1.8019133
-23.230015,3.2278745,1.74089
-23.391521,3.25921,1.8047247
-23.436602,3.2445526,1.7727242
-23.52974,3.2496684,1.781971
-23.658554,3.2701344,1.8232727
-23.684744,3.2483802,1.7765231
-23.795416,3.26243,1.8045025
-23.858,3.2565174,1.7908468
-23.929676,3.2548153,1.7860007
-24.033363,3.2675757,1.8113818
-24.078062,3.2547,1.7832432
-24.159525,3.2584984,1.7899537
-24.255764,3.2695215,1.8117886
-24.281921,3.2487414,1.7671766
-24.401941,3.2718008,1.8142233
-24.477356,3.2746308,1.8190074
-24.515732,3.2601025,1.7875075
-24.638613,3.2866411,1.8419251
-24.692644,3.2803097,1.8276072
-24.754515,3.2780685,1.8218632
-24.840946,3.2884986,1.8426576
-24.91915,3.2953212,1.855926
-24.947649,3.2769632,1.8164921
-25.041967,3.2929122,1.8489084
-25.110407,3.2958775,1.8541574
-25.124722,3.2702134,1.7994471
-25.234669,3.2961552,1.8528662
-25.313484,3.3059487,1.8724775
-25.323933,3.2782412,1.813509
-25.413292,3.2946315,1.8469806
-25.48034,3.299007,1.8552876
-25.526789,3.2918901,1.8395119
-25.59578,3.2980921,1.8516808
-25.669712,3.307685,1.8709793
-25.74437,3.3182588,1.8923569
-25.76546,3.2967975,1.8465381
-25.84995,3.3141549,1.8821807
-25.903727,3.3130722,1.8791442
-25.951757,3.3086114,1.869031
-25.998093,3.3032286,1.8569908
-26.070927,3.3151977,1.8813925
-26.117567,3.310523,1.8708649
-26.157154,3.3012934,1.850779
-26.204908,3.2976112,1.8423529
-26.28397,3.3155606,1.8793764
-26.335022,3.3148112,1.8771377
-26.367205,3.3010213,1.8475089
-26.4213,3.3027625,1.8505211
-26.497667,3.3209407,1.8880916
-26.545095,3.3186488,1.8826547
-26.56797,3.2982705,1.8392091
-26.641731,3.3159964,1.8758717
-26.70801,3.3287582,1.9021149
-26.756382,3.3282301,1.9004302
-26.78886,3.3154097,1.8729029
-26.851852,3.3268726,1.8964534
-26.910656,3.3355248,1.9141068
-26.95523,3.3329597,1.908176
-26.99702,3.3282356,1.8977118
-27.03793,3.3228626,1.8858905
-27.094925,3.3314362,1.9034219
-27.155964,3.3440588,1.9294868
-27.195232,3.3379588,1.9161625
-27.223839,3.3222737,1.8826718
-27.282866,3.3342383,1.907383
-27.349386,3.3538141,1.9481306
-27.387608,3.3474467,1.9342752
-27.42225,3.3376527,1.9132118
-27.46269,3.3334415,1.9039092
-27.506714,3.3328876,1.9023156
-27.569767,3.3518167,1.9417591
-27.609123,3.3472145,1.9316568
-27.646244,3.3403358,1.9167681
-27.679369,3.329175,1.8928638
-27.736597,3.3440144,1.9237356
-27.78391,3.3486552,1.9331341
-27.82175,3.3430238,1.9208999
-27.853018,3.3298595,1.8927994
-27.894562,3.328433,1.8894358
-27.959427,3.3549576,1.9449797
-28.002485,3.356249,1.9473615
-28.039215,3.3499684,1.9337931
-28.076366,3.344186,1.9212804
-28.11487,3.3401258,1.9124031
-28.167347,3.3545077,1.9424057
-28.21235,3.3596694,1.9529829
-28.243732,3.3465555,1.9250402
-28.277172,3.3359668,1.9024262
-28.318285,3.3361297,1.9024844
-28.372498,3.3557413,1.9435558
-28.415382,3.3594627,1.9511333
-28.44736,3.3467977,1.9241643
-28.47701,3.330067,1.8886266
-28.520168,3.3345125,1.8977494
-28.576925,3.3618956,1.9552517
-28.618643,3.3653781,1.9623604
-28.656624,3.3627388,1.956564
-28.69928,3.368532,1.9685583
-28.730375,3.3535862,1.9368176
-28.763172,3.341212,1.9105053
-28.803364,3.342717,1.9134722
-28.846802,3.3510342,1.9308167
-28.894012,3.3678663,1.9661317
-28.932426,3.367206,1.9645529
-28.969093,3.3628633,1.9552112
-29.00381,3.3539832,1.9363027
-29.044102,3.3578284,1.9442453
-29.089079,3.3735962,1.9773502
-29.126562,3.371762,1.9733248
-29.1639,3.3696024,1.9686179
-29.196936,3.3556917,1.9391212
-29.235828,3.3575256,1.9428515
-29.279192,3.3730276,1.975429
-29.31785,3.375504,1.9805284
-29.357319,3.3810556,1.9921222
-29.397469,3.3896885,2.0102253
-29.432972,3.3826997,1.9953675
-29.473465,3.394095,2.0193124
-29.44359,3.124156,1.4495282
-39.268154,2.5466442,0.32985258
-39.29438,2.5783029,0.3977809
-39.3185,2.6105306,0.46689463
-39.33819,2.644147,0.53889465
-39.368828,2.6736073,0.60225344
-39.4455,2.6866858,0.6315689
-39.40051,2.7424142,0.74952173
-39.39971,2.7821527,0.8342309
-39.47053,2.79715,0.86755896
-39.53176,2.8155825,0.90803957
-39.847893,2.7496178,0.77342606
-39.998543,2.7400808,0.75599337
-40.075203,2.7553303,0.7900162
-40.11632,2.7821817,0.8481116
-40.153793,2.8101482,0.9085269
-40.198135,2.8359137,0.9643903
-40.251083,2.8590298,1.0147805
-40.30537,2.881807,1.0644855
-40.36184,2.90401,1.113018
-40.4784,2.9085221,1.1249895
-40.630066,2.9033322,1.1169577
-40.720528,2.9166107,1.1471481
-40.874607,2.9121273,1.140698
-41.093895,2.8901381,1.0981846
-41.736084,2.752144,0.8164458
-41.858994,2.7606432,0.8371358
-41.999073,2.7650654,0.84947777
-41.811657,2.8574545,1.0431056
-41.871376,2.8831983,1.0993896
-42.202507,2.8386366,1.0110087
-42.520607,2.7994237,0.9338069
-42.603767,2.8214312,0.9826288
-42.730194,2.8329303,1.0098968
-43.060806,2.7948442,0.9354086
-43.042854,2.8431292,1.0383525
-43.020477,2.8920448,1.1425653
-43.347824,2.858172,1.077065
-43.558987,2.8531609,1.0708714
-44.211456,2.7482848,0.8603735
-44.267715,2.7818701,0.93351173
-44.364567,2.806506,0.9883771
-44.46658,2.8303494,1.0416722
-44.62228,2.8429813,1.0721335
-44.813225,2.8488367,1.088862
-46.637634,2.6695607,0.74483347
-46.68685,2.8134751,1.0545778
-46.73025,2.856028,1.1468406
-47.00289,2.8562822,1.1535134
-47.24922,2.8626986,1.1728344
-47.55903,2.8590133,1.1719251
-47.99785,2.8342943,1.1288023
-48.265434,2.8414671,1.1502795
-48.76143,2.8112595,1.0967097
-48.98346,2.8293514,1.1406312
-49.38679,2.8188343,1.1272702
-49.777847,2.8123982,1.1224117
-50.194218,2.8039951,1.1139293
-50.588776,2.8011346,1.1168723
-51.061703,2.7883937,1.1004109
-51.502422,2.7829247,1.0988545
-51.873596,2.789898,1.1224561
-52.354824,2.7829645,1.118732
-52.84171,2.7777247,1.118804
-53.295006,2.7796166,1.1334543
-53.64836,2.797294,1.1797476
-54.31201,2.7757459,1.1489344
-54.735622,2.7886882,1.1867323
-12.934711,2.8659458,0.9281063
-12.902048,2.8076186,0.8025532
-14.049355,2.9684126,1.1381688
-14.353276,2.9764242,1.152451
-14.482097,2.952376,1.0992923
-14.543697,2.9157233,1.0196061
-14.590354,2.8762147,0.9339118
-14.658397,2.8410294,0.8573432
-16.006178,3.068086,1.3339944
-15.641361,2.9472291,1.0768533
-15.577261,2.887273,0.94815874
-16.663261,3.0732055,1.3386688
-16.752218,3.048882,1.285357
-16.633469,2.9789789,1.1357574
-17.010462,3.0191548,1.218781
-17.339012,3.0505114,1.2832565
-17.450596,3.033688,1.2459245
-17.655159,3.039097,1.2556467
-17.832008,3.0390122,1.2537942
-18.00579,3.039097,1.2523427
-18.209496,3.0473893,1.2683063
-18.403006,3.0542614,1.2813106
-18.593294,3.0613694,1.294858
-18.913471,3.1025941,1.3807302
-19.131935,3.1195054,1.4151535
-19.367397,3.1421175,1.46171
-19.518589,3.1437519,1.4638443
-19.69133,3.1519725,1.4799786
-19.853329,3.158219,1.491962
-20.005535,3.1626434,1.5001135
-20.13216,3.1607258,1.4948397
-20.309252,3.1737576,1.521318
-20.435852,3.1732993,1.519197
-20.553844,3.1709833,1.5131578
-20.735683,3.188085,1.5483727
-20.793049,3.16908,1.5069399
-20.952515,3.181106,1.5314317
-21.083698,3.1853871,1.5395002
-21.157047,3.172426,1.5109544
-21.35351,3.1984396,1.5652552
-21.400757,3.1781807,1.5212326
-21.579777,3.2004783,1.5676913
-21.655493,3.1901658,1.5448446
-21.791988,3.2002473,1.565382
-21.926308,3.2104,1.5860944
-22.00138,3.201251,1.5657701
-22.138662,3.2137606,1.5915384
-22.209475,3.2039912,1.5699229
-22.357307,3.2216003,1.6065855
-22.400106,3.2027173,1.5656009
-22.588797,3.2364986,1.6367321
-22.6177,3.2132394,1.5864539
-22.752625,3.2290885,1.6194525
-22.818523,3.2199621,1.5992851
-22.948603,3.2353985,1.631443
-23.044561,3.2385857,1.6375299
-23.092924,3.2238169,1.6053782
-23.230997,3.2444005,1.6485553
-23.269691,3.2263799,1.6094942
-23.402254,3.2461662,1.6510081
-23.451756,3.2329948,1.6222982
-23.601067,3.261124,1.6816297
-23.646671,3.2470257,1.6509643
-23.761875,3.2624307,1.6832051
-23.847523,3.2659638,1.6901507
-23.880352,3.2470875,1.6493216
-24.001806,3.2670286,1.6912785
-24.069939,3.2641678,1.6846204
-24.10841,3.2482846,1.6501942
-24.203724,3.258263,1.6709399
-24.279556,3.2598891,1.6738806
-24.325512,3.2479923,1.6479783
-24.451805,3.2741048,1.7031865
-24.486845,3.2576077,1.6674824
-24.61181,3.2845783,1.7245512
-24.679487,3.2845073,1.7239208
-24.69691,3.2598603,1.6708388
-24.80842,3.2821915,1.7180438
-24.889612,3.2900112,1.7342825
-24.914421,3.2693412,1.6897044
-25.021683,3.2914662,1.7365055
-25.108694,3.3037932,1.7623978
-25.128029,3.280589,1.7124228
-25.221243,3.2971065,1.747283
-25.282585,3.2968988,1.7464314
-25.327362,3.2878098,1.7266159
-25.386072,3.2866364,1.7237148
-25.482265,3.3070865,1.767014
-25.529713,3.300264,1.752059
-25.554863,3.2805495,1.7095642
-25.65438,3.3046267,1.7606406
-25.717232,3.3076582,1.766758
-25.759222,3.2984014,1.7466221
-25.841599,3.314041,1.7796974
-25.89637,3.3131824,1.7775216
-25.957138,3.3163757,1.7840128
-25.977352,3.2939906,1.7358356
-26.06096,3.3124058,1.7748742
-26.116793,3.3133433,1.7765603
