x,y,z
-31.431574,3.386136,3.9667225
-31.464794,3.3751893,3.9547267
-31.493828,3.3729002,3.9544575
-31.516611,3.3826506,3.9704335
-31.543507,3.3844898,3.9758303
-31.56976,3.3875365,3.9829054
-31.596289,3.3900845,3.9893684
-31.631844,3.3768482,3.9747546
-31.65715,3.3818202,3.9845965
-31.68874,3.3761296,3.98024
-31.713312,3.3823721,3.9918962
-31.741589,3.3824837,3.9954245
-31.764608,3.3911023,4.010354
-31.790337,3.3952847,4.0194225
-31.812737,3.4045732,4.0353365
-31.844553,3.3993742,4.0320463
-31.876123,3.394832,4.029709
-31.905527,3.3937287,4.0320125
-31.936132,3.3910427,4.0322924
-31.967596,3.3873377,4.0313015
-31.997967,3.3853917,4.032716
-32.03081,3.380217,4.0299463
-32.06419,3.3745933,4.026674
-32.094402,3.3734837,4.0294323
-32.12508,3.3719134,4.031662
-32.15708,3.3687887,4.031929
-32.19089,3.363571,4.0295362
-32.223522,3.3601017,4.029526
-32.25889,3.3534608,4.025456
-32.294415,3.3469355,4.021637
-32.32784,3.3432434,4.021613
-32.359543,3.3418255,4.0246425
-32.393604,3.3377995,4.0243645
-32.422646,3.33982,4.032032
-32.456863,3.3359995,4.032199
-32.495476,3.327453,4.026345
-32.532837,3.3206472,4.022856
-32.566948,3.3177118,4.0244727
-32.603607,3.3122163,4.022887
-32.63941,3.3079085,4.022937
-32.66476,3.3148708,4.0375624
-32.707794,3.3033547,4.028557
-32.756214,3.2867103,4.0131264
-32.794098,3.2813182,4.0122333
-32.830025,3.278157,4.014299
-32.861286,3.279834,4.022629
-32.89148,3.2826502,4.0324917
-32.929733,3.2777307,4.032623
-32.975723,3.265657,4.0238166
-33.018135,3.2573857,4.019968
-33.044685,3.2642722,4.035369
-33.09236,3.2516198,4.026246
-33.127914,3.2504663,4.031727
-33.185123,3.2299304,4.0130234
-33.211224,3.237764,4.030007
-33.264965,3.2211752,4.016576
-33.29748,3.2236183,4.0270367
-33.33175,3.2246392,4.035824
-33.393295,3.2025094,4.016012
-33.426018,3.205332,4.027296
-33.4804,3.1901624,4.0164714
-33.513256,3.1932435,4.028316
-33.556488,3.1879344,4.029951
-33.624508,3.1628647,4.007521
-33.656395,3.1673608,4.021494
-33.700745,3.1620588,4.023614
-33.738926,3.1618485,4.0320787
-33.80445,3.1406343,4.01519
-33.84163,3.1417322,4.0255527
-33.910378,3.1190329,4.0073233
-33.94651,3.1214325,4.019568
-34.010715,3.1031017,4.0070543
-34.060833,3.095663,4.0078278
-34.101852,3.095155,4.0170546
-34.14825,3.0909514,4.0220256
-34.195435,3.086441,4.0268006
-34.265697,3.0659108,4.0128036
-34.31938,3.0575385,4.0134306
-34.381462,3.0437007,4.007841
-34.434196,3.0367093,4.0105224
-34.498867,3.0219421,4.0043273
-34.552696,3.0149198,4.007412
-34.634727,2.989478,3.9893394
-34.68482,2.9857287,3.9967031
-34.74778,2.9738505,3.9948936
-34.813133,2.9608474,3.9920523
-34.862255,2.9586546,4.001852
-34.89197,2.9689727,4.0261016
-34.983948,2.9402695,4.0061226
-35.04436,2.931896,4.0095634
-35.113766,2.9183533,4.00743
-35.1982,2.8961167,3.995839
-35.278614,2.8769288,3.9880385
-35.372818,2.8500705,3.9720602
-35.42931,2.8462377,3.9820595
-35.499466,2.8346796,3.9837608
-35.562286,2.827808,3.9909277
-35.6557,2.8036883,3.9794765
-35.705215,2.805241,3.996459
-20.612541,2.0135572,3.8392076
-20.941128,2.1139019,3.9009256
-21.060196,2.127985,3.8846617
-21.040844,2.0836687,3.8144746
-20.462702,1.7983117,3.5170054
-22.193071,2.5111692,4.163421
-22.32468,2.5365028,4.162917
-22.432007,2.5518816,4.1535497
-22.532272,2.5647063,4.1422815
-22.645836,2.5840807,4.1379437
-22.750633,2.6001313,4.130942
-22.874449,2.6255245,4.133748
-23.01037,2.657304,4.1435843
-23.112408,2.6741052,4.1391187
-23.218285,2.6933222,4.137621
-23.318853,2.7106466,4.1347456
-23.407568,2.7228675,4.127164
-23.509172,2.7418528,4.1269817
-23.625946,2.7689052,4.135656
-23.708057,2.779568,4.127878
-23.822365,2.8067813,4.1378098
-23.907936,2.8202674,4.1338816
-24.00288,2.8390326,4.1359477
-24.06627,2.8421824,4.1218767
-24.181337,2.872448,4.137063
-24.268888,2.8891172,4.138219
-24.339539,2.8974051,4.130744
-24.422577,2.9126968,4.1311846
-24.477936,2.9136004,4.1163335
-24.570606,2.935041,4.1241975
-24.643494,2.9462552,4.1212516
-24.705349,2.9517944,4.112361
-24.770138,2.9593,4.105916
-24.878271,2.9916518,4.127444
-24.929575,2.992434,4.1141453
-25.005768,3.0077722,4.117413
-25.07864,3.0216851,4.1194086
-25.130272,3.0236125,4.10814
-25.21011,3.0424938,4.1163635
-25.279945,3.0559607,4.1187534
-25.338451,3.0630467,4.1141267
-25.404844,3.0752802,4.1156597
-25.464418,3.0837505,4.113125
-25.525248,3.0933604,4.112151
-25.588741,3.1050246,4.113815
-25.634792,3.1060505,4.1033163
-25.697159,3.1177316,4.1054707
-25.756441,3.127835,4.106022
-25.810568,3.1349597,4.1032944
-25.868021,3.1446016,4.1037545
-25.928034,3.1563246,4.106908
-25.976736,3.160851,4.1017265
-26.027372,3.1669602,4.098616
-26.085358,3.1784158,4.1020994
-26.148514,3.1938643,4.1106043
-26.185074,3.1911654,4.097482
-26.223648,3.1900086,4.086342
-26.280151,3.201819,4.091048
-26.343655,3.2191005,4.102618
-26.397614,3.2299385,4.10658
-26.429832,3.2251332,4.091617
-26.475685,3.2305512,4.08928
-26.542591,3.2521033,4.1069293
-26.591192,3.2603407,4.108432
-26.625038,3.2575598,4.0964956
-26.666437,3.2607508,4.0920553
-26.705866,3.2626173,4.086107
-26.763794,3.2793772,4.098818
-26.816448,3.2924201,4.1071053
-26.845642,3.2868564,4.092316
-26.88398,3.288826,4.087045
-26.914436,3.2844508,4.073924
-26.98067,3.3101473,4.0987415
-27.012112,3.3070474,4.0874767
-27.061737,3.3196278,4.0961246
-27.094812,3.318279,4.0872936
-27.132486,3.3210802,4.083825
-27.171783,3.325531,4.08257
-27.21209,3.3311348,4.0829067
-27.25113,3.3358593,4.082246
-27.29004,3.3407192,4.0818787
-27.325508,3.3426352,4.077855
-27.362545,3.3462114,4.076066
-27.399479,3.3499117,4.074548
-27.434692,3.3521848,4.0712967
-27.471954,3.3566465,4.0709763
-27.510672,3.3627942,4.0729456
-27.545588,3.3654263,4.070474
-27.578867,3.3666046,4.0662136
-27.6172,3.373127,4.0689955
-27.652843,3.3771544,4.0686407
-27.682365,3.3749814,4.060294
-27.71933,3.3808112,4.062484
-27.74683,3.3767135,4.0517826
-27.7705,3.3684497,4.0356817
-27.804857,3.371935,4.0350604
-27.833418,3.3691378,4.0262694
-27.864819,3.369625,4.0218735
-27.897106,3.3712773,4.0190954
-27.921074,3.3633761,4.003781
-27.948795,3.359831,3.9942775
-27.981932,3.362826,3.9935021
-28.020733,3.3729427,4.0022593
-28.056679,3.3799458,4.0069933
-28.084251,3.3767674,3.9982846
-28.111431,3.3731217,3.9890168
-28.135288,3.365195,3.9741018
-28.16634,3.3665948,3.9716852
-28.198154,3.36918,3.970929
-28.238789,3.3839054,3.986498
-28.27112,3.3878021,3.9876778
-28.294292,3.3791606,3.9721224
-28.314898,3.3667188,3.9515069
-28.343758,3.3658967,3.9465437
-28.36997,3.3612888,3.936553
-28.400705,3.3633885,3.9356542
-28.435032,3.371123,3.9424272
-28.472057,3.3834085,3.9554334
-28.500654,3.3830233,3.9514184
-28.52086,3.3693476,3.9294903
-28.545439,3.3624048,3.9167087
-28.573849,3.361668,3.9123862
-28.60889,3.3722048,3.9234185
-28.641085,3.3783689,3.9286044
-28.67281,3.3840692,3.9332392
-28.698729,3.3797445,3.9243166
-28.725023,3.376049,3.9163036
-28.74955,3.3690376,3.903829
-28.776876,3.3671665,3.8984087
-28.806267,3.3693252,3.8985457
-28.836737,3.3738317,3.901955
-28.867096,3.378426,3.9055557
-28.896515,3.3814063,3.9070184
-28.926662,3.3861742,3.9109957
-28.951168,3.3790817,3.8987985
-28.97297,3.3657823,3.8781416
-29.003073,3.3707752,3.8826058
-29.03502,3.3804212,3.893524
-29.064358,3.3844478,3.8968022
-29.093828,3.3891294,3.901046
-29.12136,3.3893127,3.899172
-29.146427,3.3832636,3.8887825
-29.169006,3.370389,3.8690462
-29.195204,3.3667536,3.8620725
-29.224937,3.3729582,3.8687096
-29.254133,3.378096,3.8739433
-29.283787,3.3850431,3.881736
-29.310293,3.382851,3.876983
-29.337374,3.3824577,3.874768
-29.360949,3.370588,3.8567567
-29.388475,3.3714838,3.8564272
-29.416136,3.373031,3.8570547
-29.445168,3.379859,3.8650434
-29.474503,3.388505,3.8756106
-29.503065,3.3949149,3.883148
-29.528976,3.3909676,3.8764067
-29.553759,3.381863,3.862574
-29.577442,3.3670146,3.8408294
-29.60361,3.3626738,3.833689
-29.631592,3.3671145,3.838775
-29.659143,3.3698864,3.8416045
-29.688599,3.3837829,3.8599205
-29.71649,3.3901966,3.86792
-29.74241,3.3850417,3.859923
-29.767233,3.3717976,3.84075
-29.793993,3.3708484,3.838692
-29.820105,3.364723,3.8295002
-29.847553,3.3691564,3.8350234
-29.877304,3.3964052,3.872294
-29.903378,3.3910723,3.8643658
-29.930351,3.3951397,3.8695507
-29.956148,3.3846893,3.8546152
-29.982157,3.3743029,3.8398201
-30.008627,3.3686519,3.831658
-30.035671,3.3735776,3.8382478
-30.062532,3.3762379,3.841744
-30.089483,3.38539,3.8543177
-30.116186,3.3899405,3.8605492
-30.142776,3.3875523,3.8571877
-30.169401,3.3869834,3.8564095
-30.196146,3.3806443,3.8476632
-30.22312,3.3708706,3.8341963
-30.24973,3.3757641,3.8411705
-30.276583,3.3737195,3.8385553
-30.30247,3.3886719,3.8596153
-30.328827,3.3925993,3.865405
-30.356274,3.3820071,3.8510716
-30.38352,3.3761535,3.843379
-30.411715,3.3622074,3.8245008
-30.438967,3.3594165,3.8211749
-30.465145,3.3660226,3.8309543
-30.49127,3.3721113,3.8400664
-30.51603,3.3870025,3.8614483
-30.542088,3.391471,3.868411
-30.569199,3.3890204,3.8658242
-30.597473,3.3802414,3.854514
-30.62551,3.3738656,3.8465972
-30.652891,3.3716347,3.8444858
-30.678427,3.3787706,3.8554137
-30.701824,3.3952594,3.8793514
-30.730644,3.3862662,3.8680303
-30.756376,3.391272,3.8761582
-30.784012,3.3882275,3.873192
-30.814098,3.37599,3.857563
-30.8429,3.3696265,3.850128
-30.870876,3.3668141,3.8476648
-30.896591,3.3721695,3.8565493
-30.919964,3.385096,3.8759437
-30.945759,3.389417,3.8834956
-30.972765,3.3897662,3.8856153
-31.00187,3.383848,3.8791444
-31.03091,3.3785877,3.8736458
-31.061485,3.369382,3.862774
-31.087896,3.3723335,3.8687184
-31.11255,3.3799446,3.8811312
-31.135305,3.3922029,3.8999848
-31.160753,3.3970602,3.9087002
-31.190746,3.3905334,3.9018183
-31.219938,3.3863804,3.898266
-31.253119,3.373171,3.8823483
-31.282352,3.3697643,3.8799596
-31.308105,3.3744178,3.8886862
-31.329092,3.389382,3.9115896
-31.356981,3.3890345,3.9135618
-31.384077,3.3904667,3.9180303
-31.414497,3.3851643,3.9133496
-31.448446,3.3731537,3.899577
-31.482368,3.3618166,3.8868086
-31.507685,3.367535,3.8973897
-31.533203,3.3727503,3.907334
-31.55557,3.3836627,3.925088
-31.582733,3.3856208,3.9306965
-31.608604,3.3898978,3.9395158
-31.643799,3.377973,3.9263828
-31.682549,3.3605614,3.905896
-31.708603,3.3650928,3.915267
-31.732203,3.373599,3.9300754
-31.750109,3.391079,3.9570706
-31.774021,3.3985643,3.9705734
-31.804958,3.394991,3.9691875
-31.83599,3.391511,3.9680023
-31.878551,3.370954,3.943878
-31.909193,3.3687954,3.9446495
-31.936481,3.3716936,3.9522972
-31.958723,3.3818274,3.9697256
-31.982351,3.3898091,3.984304
-32.01179,3.3896105,3.9879632
-32.04408,3.385662,3.986672
-32.079727,3.3774383,3.9797459
-32.10772,3.3797016,3.986925
-32.133602,3.384766,3.997905
-32.161526,3.3871784,4.0054073
-32.1933,3.384785,4.0065794
-32.22427,3.383572,4.0094013
-32.2575,3.3797498,4.008839
-32.291275,3.3754938,4.0077896
-32.321106,3.376187,4.0133824
-32.34958,3.3785787,4.0212936
-32.383575,3.374622,4.0208936
-32.418613,3.3697052,4.0193195
-32.45331,3.3654358,4.0186963
-32.48477,3.365003,4.023211
-32.515305,3.365728,4.0293255
-32.55269,3.3591294,4.0259237
-32.58777,3.3552988,4.026251
-32.624447,3.3500013,4.024761
-32.661766,3.3443012,4.022853
-32.70177,3.3361042,4.0178013
-32.742485,3.3275232,4.012374
-32.77717,3.3253484,4.015383
-32.814022,3.321203,4.015936
-32.848347,3.3197765,4.0201125
-32.884865,3.3163886,4.0218544
-32.91825,3.3162208,4.027852
-32.963646,3.3048284,4.0195084
-33.003254,3.2992525,4.018778
-33.04245,3.2943263,4.0190015
-33.083454,3.2880027,4.017559
-33.122356,3.2838616,4.0190296
-33.168205,3.273759,4.013028
-33.207394,3.269902,4.0151157
-33.243797,3.2687044,4.0206985
-33.280262,3.2676277,4.0265427
-33.323257,3.2611506,4.025675
-33.36285,3.2578304,4.0289264
-33.422882,3.2376864,4.0111504
-33.473087,3.2262394,4.004505
-33.497414,3.2363,4.024955
-33.53935,3.2320876,4.027635
-33.60053,3.2127535,4.011614
-33.64719,3.2054515,4.010776
-33.686512,3.2041948,4.017594
-33.71706,3.2099028,4.0331492
-33.765972,3.2016015,4.0315075
-33.837486,3.176527,4.0094023
-33.87405,3.1783116,4.02054
-33.930744,3.165299,4.013683
-33.971375,3.1644993,4.0219445
-34.047607,3.1380377,3.9991026
-34.07997,3.1438031,4.0156918
-34.124943,3.1406517,4.021582
-34.16598,3.140501,4.031251
-34.25979,3.1037579,3.9970212
-34.308052,3.0993376,4.0019774
-34.351643,3.0983703,4.0112386
-34.40563,3.0905728,4.0125074
-34.476433,3.071851,4.000994
-34.5246,3.0686767,4.008197
-34.607956,3.042664,3.9886012
-34.653,3.0422323,3.9994774
-34.706615,3.0364835,4.0042787
-34.763943,3.028667,4.0068684
-34.828636,3.0165458,4.004669
-34.885643,3.0096533,4.0088077
-34.92756,3.0124211,4.02435
-34.99576,2.999227,4.0216417
-35.10391,2.9622538,3.9919121
-35.17214,2.950172,3.9911616
-35.245815,2.9352798,3.9874973
-35.31383,2.9242167,3.9884996
-35.38808,2.9099302,3.9861493
-35.45433,2.9007528,3.9898787
-35.54125,2.8801265,3.9810514
-35.623993,2.862471,3.9759398
-35.67723,2.861947,3.990253
-35.73821,2.8573458,4.000268
-21.033169,2.2729168,4.035367
-20.455172,2.0012774,3.753654
-20.134588,1.8311934,3.5634837
-21.050804,2.1740308,3.8563318
-20.481663,1.8985119,3.565322
-20.505302,1.8700464,3.5080252
-22.306744,2.604032,4.1887426
-22.314854,2.5757592,4.1371684
-22.470055,2.6115663,4.1484914
-22.57876,2.6278553,4.141369
-22.683784,2.6431246,4.1338034
-22.7919,2.6603808,4.128778
-22.951809,2.7017698,4.1486683
-23.080019,2.7297187,4.155773
-23.148506,2.73087,4.1361666
-23.235222,2.7408378,4.125948
-23.344908,2.7621014,4.127843
-23.453375,2.7834673,4.130401
-23.575405,2.8120227,4.141033
-23.636396,2.8118072,4.121999
-23.744589,2.8349457,4.127959
-23.840183,2.8525634,4.128579
-23.928167,2.8669798,4.126239
-24.051249,2.899585,4.1438828
-24.12168,2.9063163,4.134163
-24.19913,2.9170213,4.129079
-24.272383,2.926001,4.122466
-24.35808,2.9418952,4.1237717
-24.46312,2.9685342,4.137321
-24.494843,2.956872,4.108941
-24.598415,2.9838452,4.123658
-24.683634,3.0016022,4.128558
-24.743025,3.0057724,4.118592
-24.81305,3.0161293,4.1158485
-24.901192,3.037023,4.1253395
-24.952414,3.037718,4.1122594
-25.008875,3.041625,4.1030464
-25.106627,3.0695531,4.1216016
-25.149162,3.0661876,4.104579
-25.220766,3.079999,4.1075573
-25.31579,3.1081414,4.1274614
-25.35277,3.1023571,4.108289
-25.408138,3.1077518,4.1023026
-25.483772,3.1258,4.111372
-25.543812,3.1348033,4.110115
-25.600037,3.141809,4.106737
-25.660389,3.1517353,4.1070385
-25.729778,3.1677742,4.1148467
-25.76482,3.162342,4.0973215
-25.82457,3.1729538,4.0991106
-25.886879,3.185635,4.103616
-25.960735,3.2063675,4.1180644
-25.98783,3.196556,4.0959077
-26.034307,3.1997628,4.0895977
-26.101168,3.2170646,4.100586
-26.161552,3.2304504,4.107063
-26.200745,3.2295852,4.096345
-26.249956,3.2358947,4.094552
-26.301,3.2438037,4.094902
-26.372343,3.266563,4.1137447
-26.405136,3.262107,4.0992193
-26.45036,3.2667987,4.0961294
-26.495451,3.2716572,4.093401
-26.549408,3.283393,4.099395
-26.594164,3.2886052,4.097433
-26.628006,3.2857752,4.08555
-26.67444,3.2927396,4.0860624
-26.711336,3.2925878,4.077775
-26.776701,3.3149862,4.0980453
-26.80715,3.3102632,4.084268
-26.856571,3.3208425,4.089965
-26.890608,3.3193035,4.0804386
-26.939054,3.3297248,4.0862355
-26.980106,3.3343852,4.084845
-27.019253,3.3377001,4.081864
-27.06123,3.3436418,4.08237
-27.097816,3.3452349,4.077424
-27.140678,3.3524656,4.079838
-27.174212,3.3518047,4.072216
-27.215656,3.3583107,4.073945
-27.25581,3.3639526,4.074683
-27.290247,3.3646634,4.06915
-27.32684,3.3675194,4.066501
-27.35787,3.3653975,4.05748
-27.392698,3.3669498,4.0533295
-27.434978,3.3757942,4.0588017
-27.462152,3.3703928,4.0457635
-27.493086,3.3686738,4.0376163
-27.521929,3.3649802,4.0269556
-27.547195,3.3577416,4.0117025
-27.595587,3.3739467,4.0273867
-27.628937,3.3752284,4.0235343
-27.665735,3.3802702,4.02474
-27.688015,3.370255,4.0061207
-27.710953,3.3608131,3.9883013
-27.735016,3.3524747,3.9719903
-27.772657,3.358955,3.975431
-27.816788,3.3729599,3.9889963
-27.860605,3.3871236,4.0029078
-27.885065,3.3796813,3.9880962
-27.898623,3.3595293,3.9563394
-27.93978,3.3713727,3.96743
-27.960487,3.3593142,3.94659
-28.005331,3.3762126,3.9646611
-28.037111,3.3777113,3.9621634
-28.070992,3.3819947,3.963493
-28.092379,3.370758,3.9439926
-28.123653,3.371983,3.9413445
-28.151962,3.3695147,3.9337823
-28.181524,3.3687506,3.9285884
-28.214716,3.3729591,3.9301977
-28.244997,3.3734612,3.9268658
-28.27603,3.3751416,3.9252043
-28.305058,3.3741832,3.9200315
-28.327185,3.3634567,3.9016376
-28.353655,3.3588066,3.8915553
-28.380192,3.3542242,3.88162
-28.419975,3.369513,3.8988535
-28.450047,3.3706112,3.8968139
-28.488234,3.3844905,3.9123182
-28.514585,3.3802538,3.9031322
-28.538939,3.3727624,3.889542
-28.559027,3.358119,3.8661919
-28.58271,3.3490658,3.8505414
-28.6353,3.389021,3.902247
-28.66362,3.388505,3.8984764
-28.691612,3.3875089,3.8941061
-28.71496,3.3782074,3.8783598
-28.73635,3.3650413,3.857329
-28.764841,3.364805,3.8541632
-28.793318,3.3646464,3.8511662
-28.828651,3.3780484,3.866963
-28.860039,3.384251,3.872895
-28.889904,3.3877292,3.8751311
-28.916449,3.384525,3.868184
-28.939089,3.3729196,3.8496528
-28.966583,3.3715382,3.845331
-28.993837,3.3696632,3.840382
-29.023079,3.3723927,3.8418784
-29.056326,3.3848462,3.8569443
-29.084381,3.3854768,3.8556595
-29.11035,3.3810678,3.8474255
-29.13506,3.3733087,3.8345816
-29.161211,3.369026,3.8266227
-29.188068,3.3665195,3.8211884
-29.213938,3.3612287,3.811927
-29.247261,3.3771362,3.8322694
-29.276573,3.3822823,3.8376813
-29.305202,3.3857942,3.8408744
-29.332117,3.3842301,3.8370411
-29.355719,3.3718467,3.8181496
-29.379564,3.359516,3.799372
-29.408064,3.362737,3.8023763
-29.439003,3.375225,3.8184004
-29.470581,3.3912506,3.8394423
-29.498322,3.3935647,3.841366
-29.52405,3.387896,3.832169
-29.551088,3.3874733,3.830369
-29.574297,3.3698347,3.8045025
-29.600538,3.3649306,3.7965224
-29.627449,3.3629766,3.7927275
-29.655489,3.3668625,3.7971745
-29.685719,3.3835258,3.8195994
-29.713934,3.3904552,3.8284335
-29.74035,3.3870573,3.8228354
-29.765972,3.377945,3.8092668
-29.791777,3.3688953,3.7958357
-29.819016,3.3697453,3.796352
-29.846094,3.3695083,3.7953959
-29.873974,3.3768663,3.8051608
-29.901749,3.3848777,3.8158984
-29.929205,3.3912244,3.8243551
-29.955961,3.3901122,3.8223853
-29.982098,3.3792186,3.8067236
-30.008615,3.3712878,3.7952762
-30.035828,3.375596,3.8010802
-30.062813,3.3759172,3.8013334
-30.090124,3.3907988,3.822106
-30.116867,3.3854628,3.8145144
-30.143744,3.3906293,3.821738
-30.170498,3.3976038,3.8315554
-30.19773,3.3710256,3.7942646
-30.224741,3.371183,3.7946055
-30.25166,3.3737278,3.7983553
-30.278383,3.37924,3.8063278
-30.304678,3.390034,3.821774
-30.331814,3.385831,3.8161983
-30.35885,3.384016,3.8140306
-30.38651,3.3759007,3.803067
-30.414343,3.3678584,3.7922606
-30.441761,3.3651,3.7889318
-30.46853,3.3681989,3.7938833
-30.494238,3.3788857,3.8095384
-30.52031,3.3855872,3.8196483
-30.546782,3.388886,3.8250308
-30.573381,3.3910954,3.8289373
-30.603577,3.3725815,3.8038275
-30.631166,3.3703184,3.801573
-30.658133,3.3715897,3.8043292
-30.685673,3.3700466,3.8031943
-30.71013,3.382985,3.8224053
-30.73616,3.3879156,3.830443
-30.762234,3.3923345,3.837814
-30.789366,3.3922164,3.8388832
-30.823359,3.3657205,3.8030987
-30.84986,3.369209,3.809336
-30.87646,3.3721905,3.8149164
-30.902342,3.3775346,3.8238502
-30.926743,3.3875287,3.83933
-30.952732,3.3918505,3.8469322
-30.978277,3.397382,3.856273
-31.009432,3.3858194,3.8418126
-31.04182,3.3714914,3.8235676
-31.070473,3.3686793,3.8214498
-31.097948,3.3693686,3.8242695
-31.12093,3.3820956,3.8439069
-31.1452,3.3908873,3.8581057
-31.172918,3.3906355,3.8597705
-31.203434,3.3836405,3.8521192
-31.232924,3.3795714,3.8486025
-31.26665,3.365949,3.8318865
-31.292946,3.3699853,3.8397546
-31.317904,3.3769166,3.8516867
-31.339865,3.390121,3.87236
-31.369038,3.38757,3.8712494
-31.397738,3.3862286,3.8718765
-31.430098,3.3776488,3.8625588
-31.46237,3.3697295,3.8542304
-31.492216,3.3669612,3.8530908
-31.51859,3.371005,3.8614168
-31.540686,3.3829546,3.8806946
-31.56624,3.3882403,3.890828
-31.59421,3.389122,3.8949504
-31.62632,3.382832,3.88927
-31.66474,3.366063,3.8692687
-31.693958,3.3655434,3.8716788
-31.719854,3.370655,3.8818772
-31.740892,3.3835893,3.9028475
-31.764463,3.3921373,3.9178445
-31.796345,3.3874826,3.9148262
-31.825478,3.3873363,3.9180443
-31.861547,3.3768125,3.9071639
-31.894161,3.371902,3.904033
-31.923903,3.371481,3.9070985
-31.954437,3.37005,3.9088583
-31.973063,3.3856533,3.933848
-32.003925,3.3838243,3.9351876
-32.034847,3.3820868,3.9367254
-32.071472,3.3728309,3.9281507
-32.106674,3.3658662,3.922776
-32.132534,3.37147,3.9344835
-32.15705,3.3787599,3.9485211
-32.17933,3.3888056,3.9663231
-32.20573,3.3935156,3.9769776
-32.2399,3.3886263,3.974776
-32.27816,3.3790221,3.966331
-32.310402,3.3770366,3.9682145
-32.336388,3.3826218,3.980324
-32.367775,3.3818831,3.984028
-32.398746,3.3817706,3.988647
-32.426945,3.384932,3.997712
-32.457,3.386056,4.004127
-32.49519,3.378296,3.9987972
-32.52535,3.3796177,4.005641
-32.55991,3.3763,4.006406
-32.591606,3.3762383,4.0115767
-32.627327,3.3720918,4.011428
-32.66367,3.3675408,4.010845
-32.69555,3.3677921,4.0166945
-32.731056,3.364509,4.017976
-32.77342,3.3546157,4.0106716
-32.80971,3.3510678,4.011821
-32.84452,3.3491845,4.015253
-32.877792,3.3489544,4.0209427
-32.916504,3.343708,4.020179
-32.96135,3.3329778,4.0123863
-33.001488,3.3269958,4.01091
-33.036232,3.3262315,4.016327
-33.074947,3.3220353,4.0173955
-33.10587,3.3250403,4.02789
-33.166397,3.301957,4.0048084
-33.199253,3.3037179,4.0139313
-33.234432,3.3035784,4.0207024
-33.274323,3.2995613,4.022602
-33.31374,3.2961802,4.0254397
-33.361576,3.2859912,4.0197053
-33.40785,3.2774658,4.0162516
-33.451912,3.2710834,4.0156746
-33.497963,3.2633865,4.0135765
-33.531937,3.265656,4.024244
-33.573936,3.2616868,4.0271316
-33.635345,3.2427807,4.011339
-33.68524,3.23334,4.0076694
-33.71704,3.2381082,4.021985
-33.754513,3.238636,4.031089
-33.83239,3.209041,4.0027304
-33.868916,3.210882,4.013795
-33.91195,3.2080755,4.019203
-33.947872,3.2106497,4.031416
-34.0174,3.1891944,4.0140753
-34.082726,3.1713333,4.001431
-34.11904,3.1744225,4.014761
-34.159374,3.1748214,4.024909
-34.22681,3.1566963,4.0125775
-34.294624,3.138851,4.000853
-34.336082,3.139348,4.0116568
-34.38723,3.1335318,4.0149603
-34.469753,3.1072307,3.9937449
-34.5179,3.1041756,4.0008245
-34.585808,3.088533,3.9929912
-34.634262,3.0858874,4.0009604
-34.691338,3.0779953,4.002858
-34.75432,3.0667248,4.000968
-34.818268,3.0552614,3.999102
-34.863667,3.0556757,4.0114937
-34.92001,3.0495806,4.016404
-34.987476,3.0370612,4.014016
-35.055946,3.0243802,4.0117207
-35.166824,2.9869437,3.9809487
-35.233826,2.9762518,3.9816396
-35.29957,2.9667068,3.983933
-35.363274,2.9587321,3.9883041
-35.4483,2.9389305,3.9794106
-35.50792,2.9341059,3.9879599
-35.59207,2.9158316,3.9814944
-35.658966,2.9077132,3.9868808
-35.705246,2.911311,4.005734
-20.704649,2.1980283,3.8840356
-20.962425,2.2656953,3.919002
-21.028343,2.2570057,3.8821793
-21.047482,2.2293231,3.8272967
-20.488964,1.961972,3.5387754
-20.553116,1.9505446,3.498157
-22.303877,2.652066,4.1633024
-22.41135,2.6662903,4.153898
-22.510876,2.6776886,4.142218
-22.636547,2.7009938,4.1430826
-22.730436,2.7111104,4.1311927
-22.848612,2.7324915,4.131311
-22.981539,2.761185,4.1395755
-23.0888,2.7791362,4.137395
-23.180689,2.7907171,4.129108
-23.276503,2.8046155,4.123706
-23.361267,2.8139324,4.1139355
-23.493702,2.8460667,4.128805
-23.618969,2.8756983,4.141674
-23.681465,2.8761656,4.1238494
-23.810768,2.9091456,4.141407
-23.850145,2.8992162,4.1130285
-23.973736,2.9307694,4.1300635
-24.052456,2.9409084,4.124217
-24.146986,2.959418,4.1279564
-24.25631,2.986017,4.1411
-24.30553,2.9826736,4.1214333
-24.383242,2.994198,4.1185913
-24.46464,3.0081036,4.11877
-24.537907,3.0182407,4.11506
-24.618748,3.0328257,4.116712
-24.687637,3.0415199,4.112014
-24.767143,3.0563507,4.114628
-24.837875,3.0669045,4.1126766
-24.899956,3.0731134,4.106016
-24.98167,3.0905936,4.1126604
-25.054691,3.1037421,4.114624
-25.11386,3.1095004,4.10827
-25.18787,3.1240883,4.1124973
-25.260822,3.138558,4.1168966
-25.325302,3.1485672,4.1163344
-25.371105,3.1479564,4.10345
-25.428614,3.154511,4.0992517
-25.524635,3.1845684,4.1233187
-25.562717,3.180212,4.1065955
-25.621763,3.1888292,4.105583
-25.688496,3.2025745,4.11098
-25.749931,3.21347,4.1131964
-25.787712,3.209818,4.098
-25.853714,3.2243025,4.1049995
-25.913094,3.234991,4.1076236
-25.969437,3.2441034,4.1085415
-26.006874,3.2411385,4.0948343
-26.051888,3.24333,4.087599
-26.13715,3.2727754,4.1141925
-26.17154,3.2684875,4.099329
-26.215412,3.2707872,4.0927553
-26.266575,3.2783537,4.0928917
-26.32687,3.292642,4.1016073
-26.380234,3.302497,4.104991
-26.414305,3.2989447,4.0917234
-26.46015,3.303983,4.089375
-26.505203,3.3087182,4.0867968
-26.565567,3.3250062,4.098992
-26.603848,3.3253498,4.091174
-26.650959,3.3325138,4.0921497
-26.69537,3.3379364,4.0910616
-26.735884,3.3406348,4.0866375
-26.778162,3.344924,4.084377
-26.818466,3.3479123,4.0805807
-26.859282,3.3515277,4.0777154
-26.901804,3.3567488,4.077048
-26.946587,3.3640785,4.079239
-26.986412,3.3676493,4.076705
-27.023758,3.3693907,4.0719185
-27.064552,3.3742197,4.0712557
-27.099388,3.374243,4.0644555
-27.13707,3.3768616,4.0611424
-27.16779,3.373633,4.050289
-27.216694,3.3864772,4.0605836
-27.240551,3.3774695,4.0423374
-27.276815,3.379569,4.038755
-27.29863,3.3686922,4.0181694
-27.324455,3.3613977,4.0023537
-27.373177,3.3754444,4.014826
-27.414055,3.3825634,4.0182724
-27.440907,3.376584,4.004452
-27.4805,3.3829322,4.0070844
-27.499556,3.3694491,3.983417
-27.526604,3.3636982,3.9700916
-27.552195,3.356475,3.9548593
-27.619455,3.3916266,3.996393
-27.642828,3.3825703,3.978898
-27.672306,3.3797908,3.9698744
-27.692963,3.3677387,3.9484534
-27.723545,3.366148,3.9411507
-27.752203,3.3625574,3.9312253
-27.796112,3.3758004,3.9440968
-27.828436,3.376607,3.94028
-27.864428,3.3817198,3.9423735
-27.89293,3.3785155,3.9332855
-27.91465,3.3674655,3.9136093
-27.944191,3.3654613,3.9062667
-27.971523,3.360888,3.895495
-28.029142,3.393079,3.9348915
-28.048433,3.379136,3.9115117
-28.081648,3.3823133,3.9115496
-28.105488,3.373821,3.8957055
-28.126972,3.3621674,3.8755765
-28.15688,3.3613005,3.8702712
-28.189207,3.3637486,3.869585
-28.23105,3.3792367,3.886897
-28.263872,3.3829846,3.8881729
-28.291534,3.3797956,3.8799741
-28.311184,3.3652923,3.856234
-28.339035,3.362231,3.8483129
-28.369152,3.3625095,3.8450637
-28.404734,3.3710525,3.8533103
-28.43939,3.378617,3.8602917
-28.469957,3.3802729,3.8591726
-28.50221,3.3847575,3.8620453
-28.52678,3.3772635,3.848367
-28.551138,3.3692787,3.8340502
-28.575302,3.3607993,3.8190908
-28.604197,3.3600962,3.8149974
-28.651068,3.3903995,3.8541548
-28.681196,3.3926654,3.854359
-28.708157,3.389479,3.847022
-28.73364,3.383589,3.8359644
-28.75803,3.3755405,3.8219378
-28.785782,3.3736663,3.8165903
-28.817852,3.3802204,3.8230944
-28.853136,3.3935623,3.8391778
-28.88317,3.396965,3.8414168
-28.9088,3.3915071,3.8312962
-28.934788,3.3866725,3.822098
-28.960598,3.3813424,3.8122537
-28.987759,3.3788812,3.8064904
-29.01569,3.3781762,3.803249
-29.051065,3.3949795,3.8246956
-29.079744,3.3966937,3.824987
-29.106085,3.3928504,3.8175108
-29.131151,3.3856888,3.8054087
-29.155483,3.3763285,3.790251
-29.181257,3.3704162,3.7800007
-29.208576,3.368527,3.775477
-29.240696,3.3803008,3.7903008
-29.271202,3.3882022,3.7997255
-29.300404,3.3927865,3.8045268
-29.32732,3.3906374,3.7998676
-29.350937,3.377761,3.7800846
-29.376162,3.3694863,3.7668533
-29.403837,3.3692408,3.7650356
-29.432293,3.371914,3.7674074
-29.467653,3.4008818,3.8070936
-29.493511,3.3951702,3.797707
-29.520456,3.393518,3.7941248
-29.548494,3.396503,3.7971718
-29.569693,3.3692794,3.7574143
-29.597048,3.3683953,3.7550683
-29.62476,3.3692975,3.755311
-29.653322,3.3748503,3.7622128
-29.683416,3.3896403,3.7822924
-29.71163,3.39535,3.7895339
-29.738157,3.3913932,3.7830951
-29.76459,3.3863559,3.7751718
-29.791359,3.3831062,3.7698383
-29.817675,3.375909,3.758943
-29.845081,3.3768113,3.759615
-29.873695,3.3892658,3.776771
-29.901543,3.3966293,3.7867427
-29.928637,3.3971744,3.787068
-29.955452,3.3943424,3.7826402
-29.9821,3.388132,3.7734556
-30.008875,3.3819885,3.7644176
-30.03603,3.381661,3.7637067
-30.063189,3.381403,3.7631478
-30.090696,3.3961601,3.784012
-30.117756,3.4000664,3.789484
-30.14471,3.3954191,3.782833
-30.171755,3.3919911,3.7779703
-30.199,3.3817344,3.7634387
-30.226206,3.3801713,3.761333
-30.253355,3.3809767,3.7626514
-30.280403,3.3835754,3.766574
-30.306942,3.393714,3.7812774
-30.333803,3.39645,3.7854967
-30.36089,3.3958082,3.7849622
-30.388895,3.3854742,3.77069
-30.416885,3.3775113,3.7598476
-30.444849,3.3713443,3.7516146
-30.471668,3.3755798,3.7582288
-30.497322,3.3879132,3.7764068
-30.523638,3.394001,3.7857525
-30.550276,3.3972888,3.7911682
-30.578278,3.3920498,3.7845192
-30.60842,3.375432,3.7617612
-30.636452,3.3720658,3.7578878
-30.663092,3.3762114,3.7647362
-30.690365,3.3769932,3.7668586
-30.71588,3.3858461,3.780488
-30.740297,3.3987591,3.799922
-30.767746,3.3980272,3.800048
-30.79622,3.3933735,3.7946684
-30.82853,3.374545,3.769258
-30.854885,3.3791723,3.7771497
-30.882765,3.3781724,3.777122
-30.906336,3.3920364,3.7981915
-30.935162,3.387762,3.7936327
-30.961763,3.3909502,3.799689
-30.989048,3.391936,3.8026826
-31.018425,3.3867555,3.797016
-31.047922,3.3816564,3.7915268
-31.075718,3.3817341,3.7934084
-31.10269,3.3841481,3.7986414
-31.125128,3.3984952,3.820758
-31.151024,3.4032931,3.8294482
-31.18,3.4002614,3.8271568
-31.210447,3.393931,3.820281
-31.242945,3.383187,3.8072624
-31.27422,3.3759139,3.7991998
-31.301422,3.3782763,3.8047493
-31.325018,3.3885593,3.8214796
-31.349983,3.3955338,3.8336043
-31.378561,3.3947363,3.8348722
-31.407993,3.3923407,3.8339593
-31.442507,3.3799841,3.8191557
-31.473316,3.3755383,3.8155107
-31.501915,3.3756342,3.8182876
-31.52787,3.3808103,3.8282259
-31.548912,3.3949308,3.8507063
-31.576138,3.3974516,3.8570285
-31.606152,3.395063,3.856559
-31.642294,3.3822606,3.8416457
-31.675154,3.3756456,3.8354385
-31.703878,3.3762937,3.8394127
-31.730934,3.3797712,3.8473806
-31.752817,3.3915575,3.8669407
-31.779343,3.3957105,3.8759456
-31.808983,3.3950047,3.8782682
-31.841888,3.3894644,3.8739629
-31.877117,3.3807516,3.8653483
-31.905895,3.381956,3.870529
-31.93355,3.3848715,3.878134
-31.960407,3.388946,3.887397
-31.987595,3.3925495,3.8960652
-32.016304,3.3940613,3.901912
-32.049778,3.389176,3.8990269
-32.082573,3.3854725,3.8978474
-32.11629,3.380795,3.895413
-32.146404,3.3810525,3.899824
-32.16815,3.3921077,3.9190848
-32.202026,3.3877082,3.9172513
-32.231285,3.3892815,3.9236603
-32.26882,3.380826,3.9164584
-32.303032,3.3767447,3.9153163
-32.330658,3.3807213,3.9252236
-32.364105,3.3778982,3.9259522
-32.38301,3.3920636,3.949816
-32.411835,3.394677,3.9580505
-32.44298,3.3947453,3.962908
-32.48646,3.381281,3.9495564
-32.51972,3.3794765,3.9520667
-32.548687,3.3824704,3.9611268
-32.575188,3.3881478,3.9738638
-32.60803,3.387146,3.9776862
-32.642925,3.3841753,3.9789524
-32.664288,3.3952637,3.9991407
-32.701775,3.3899088,3.9973772
-32.736317,3.387763,4.000004
-32.76625,3.390342,4.009021
-32.800373,3.3889186,4.0127854
-32.841454,3.3809767,4.007982
-32.88059,3.375214,4.006191
-32.916626,3.3726292,4.0087214
-32.956028,3.3671293,4.0075006
-32.988968,3.3678172,4.014558
-33.03193,3.3595564,4.0099206
-33.06444,3.3609786,4.018141
-33.10375,3.356501,4.018709
-33.14147,3.3536553,4.021529
-33.187916,3.343481,4.014884
-33.229378,3.33794,4.01443
-33.268646,3.3345227,4.0168676
-33.305073,3.3337042,4.0227995
-33.359394,3.318274,4.0098963
-33.39967,3.314806,4.0126524
-33.44066,3.3109913,4.0150843
-33.487846,3.302456,4.0115643
-33.527267,3.3004005,4.016527
-33.56924,3.2965474,4.019305
-33.620674,3.2856193,4.0131645
-33.669224,3.2772894,4.010517
-33.705326,3.2787113,4.0204506
-33.756092,3.2692857,4.016712
-33.8058,3.2610044,4.014599
-33.862816,3.247704,4.0063124
-33.90777,3.2435951,4.0098205
-33.942356,3.2471735,4.0231442
-33.991432,3.2405558,4.023781
-34.072556,3.2117176,3.996792
-34.108807,3.2148557,4.0100183
-34.141678,3.2204292,4.0263844
-34.186,3.2182574,4.033235
-34.280178,3.1826763,3.9989045
-34.324986,3.180955,4.006732
-34.380222,3.1725516,4.0064945
-34.432884,3.166183,4.008956
-34.47802,3.1649985,4.017947
-34.5612,3.1396263,3.9976165
-34.622257,3.1289878,3.9955308
-34.68142,3.1199374,3.9956026
-34.73865,3.1124601,3.997801
-34.806866,3.0985546,3.9924843
-34.857277,3.0959768,4.0010242
-34.907787,3.0935903,4.0099783
-34.965702,3.0870147,4.0141315
-35.034092,3.0745633,4.011539
-35.123474,3.0502357,3.9951851
-35.185074,3.0427299,3.999035
-35.288742,3.0113673,3.9751348
-35.342648,3.009181,3.9858081
-35.412506,2.9982448,3.9865012
-35.48565,2.9859002,3.9858532
-35.55906,2.9738636,3.9858718
-35.61431,2.9722323,3.998177
-35.695854,2.956579,3.9946365
-35.75758,2.9521117,4.004218
-21.033783,2.4199874,4.042103
-20.48463,2.169733,3.7720547
-20.183506,2.013409,3.5901017
-21.05241,2.3231404,3.864015
-20.51262,2.0695593,3.5855126
-20.497545,2.0257316,3.512854
-22.305737,2.733183,4.1947107
-22.327145,2.7109094,4.148904
-22.45521,2.7333655,4.148717
-22.57432,2.752785,4.146087
-22.681145,2.76764,4.1393595
-22.79277,2.7851768,4.1359625
-22.915895,2.8083863,4.139065
-23.06301,2.842927,4.154723
-23.107965,2.8329647,4.124011
-23.245834,2.8648596,4.138075
-23.34231,2.878883,4.133687
-23.426056,2.8876352,4.1240835
-23.555048,2.917761,4.13804
-23.623404,2.9204383,4.1227207
-23.721169,2.9373043,4.1232533
-23.84226,2.965866,4.1371326
-23.91079,2.9699936,4.124543
-24.02371,2.9959948,4.1365986
-24.075684,2.992912,4.11666
-24.19908,3.025334,4.1368375
-24.265928,3.03041,4.1267185
-24.341387,3.0401707,4.122201
-24.465712,3.0752273,4.1468477
-24.492416,3.0610576,4.115712
-24.560905,3.0685232,4.1095314
-24.6745,3.0999885,4.1313624
-24.70976,3.090881,4.1066465
-24.804691,3.1136806,4.119214
-24.899157,3.1369,4.132694
-24.928047,3.1251063,4.105467
-25.015785,3.1456432,4.116443
-25.110678,3.1707702,4.133231
-25.135658,3.1574304,4.104722
-25.217869,3.1764247,4.1148396
-25.294455,3.1927886,4.1221533
-25.326874,3.1841998,4.099804
-25.394855,3.1963696,4.10258
-25.467703,3.2118475,4.1096296
-25.527061,3.219818,4.107858
-25.576778,3.2223597,4.0996995
-25.637955,3.2320962,4.1005144
-25.70177,3.2438395,4.1040235
-25.756035,3.2501044,4.101038
-25.808708,3.2556944,4.0974193
-25.864052,3.2632704,4.096448
-25.939548,3.284028,4.1120453
-25.972065,3.277729,4.094246
-26.026138,3.2855005,4.094113
-26.068996,3.2862453,4.085373
-26.147375,3.3107595,4.1066318
-26.1722,3.3000507,4.0838265
-26.235014,3.3150318,4.093527
-26.282728,3.320163,4.0909834
-26.327625,3.323629,4.086487
-26.378372,3.3314257,4.0876513
-26.427605,3.3384879,4.088052
-26.473389,3.3434062,4.0858755
-26.524218,3.352237,4.0888686
-26.566456,3.3551598,4.0844355
-26.617546,3.3648298,4.088835
-26.66459,3.3718603,4.0899935
-26.70263,3.3724246,4.0829334
-26.749369,3.3797836,4.084806
-26.787848,3.3811078,4.0789785
-26.8053,3.36627,4.0521927
-26.863367,3.3831906,4.0669274
-26.882824,3.3699539,4.042369
-26.919357,3.3703012,4.0356674
-26.951061,3.366887,4.024122
-26.993454,3.3723354,4.024338
-27.035698,3.3779354,4.024881
-27.076036,3.3822155,4.0238066
-27.097178,3.370417,4.0015388
-27.115646,3.356196,3.9760902
-27.153103,3.3583212,3.9724128
-27.210749,3.3784242,3.992805
-27.241158,3.374883,3.9818132
-27.284319,3.3829033,3.9863622
-27.299324,3.3655686,3.9570615
-27.324411,3.357273,3.939904
-27.369535,3.36765,3.9479058
-27.416008,3.379704,3.9583018
-27.449528,3.379792,3.9526937
-27.488758,3.3855624,3.9548502
-27.504017,3.3680809,3.9256444
-27.532406,3.3633537,3.9137387
-27.568972,3.3668818,3.9131038
-27.6225,3.38795,3.936416
-27.658665,3.3917606,3.9363947
-27.689796,3.390541,3.929608
-27.706322,3.3739295,3.9018755
-27.73133,3.3661313,3.88621
-27.757416,3.359431,3.8720975
-27.816544,3.3891864,3.908032
-27.852228,3.3936443,3.9094133
-27.885025,3.3950844,3.9067376
-27.9073,3.3845873,3.887705
-27.933353,3.3783336,3.8745596
-27.960386,3.3731966,3.8630083
-27.994507,3.3765604,3.8632605
-28.03935,3.393231,3.8820076
-28.06714,3.3894284,3.8725204
-28.0954,3.38623,3.8639295
-28.120773,3.3793907,3.8503428
-28.148315,3.375275,3.8405902
-28.175503,3.3706987,3.8302546
-28.21356,3.380622,3.8401725
-28.249802,3.3885305,3.8473783
-28.280401,3.3890462,3.844354
-28.306742,3.383738,3.83326
-28.327114,3.369883,3.810261
-28.355192,3.3668513,3.8024454
-28.391376,3.3757815,3.8114522
-28.424816,3.3810391,3.8153958
-28.460255,3.3896523,3.8241303
-28.493034,3.3945768,3.8277662
-28.521208,3.392529,3.8216689
-28.544659,3.382929,3.8049967
-28.569948,3.3761096,3.7922826
-28.596989,3.3720837,3.783554
-28.637272,3.390571,3.806655
-28.670826,3.3982306,3.8145635
-28.700476,3.3994052,3.8133824
-28.726425,3.3940651,3.8030467
-28.748878,3.382183,3.7834964
-28.77507,3.3769624,3.7734208
-28.804508,3.3778813,3.7720985
-28.837559,3.3860674,3.7811499
-28.87703,3.407638,3.80928
-28.90308,3.4027388,3.7998998
-28.929739,3.399014,3.792238
-28.953619,3.389246,3.776029
-28.983736,3.3928812,3.7789407
-29.01031,3.388805,3.7709312
-29.035744,3.3820086,3.7590947
-29.072332,3.4015045,3.7847974
-29.10094,3.402681,3.7844489
-29.12572,3.3944268,3.7706943
-29.149786,3.3839912,3.7538671
-29.176167,3.3792138,3.7451663
-29.203451,3.3767467,3.7398171
-29.233162,3.381087,3.744257
-29.266052,3.3950624,3.7625465
-29.29526,3.3990133,3.7665563
-29.322735,3.3979776,3.7634816
-29.347233,3.3874357,3.7468376
-29.370922,3.373567,3.7254667
-29.399145,3.3744216,3.7252479
-29.42844,3.379303,3.7308617
-29.459743,3.3921757,3.7480025
-29.488285,3.3955264,3.7515392
-29.516464,3.3978214,3.7536168
-29.54405,3.3979266,3.752602
-29.566639,3.37601,3.7199945
-29.594429,3.3762465,3.719265
-29.62209,3.3759885,3.7178764
-29.650293,3.3786392,3.720724
-29.683207,3.4074783,3.7612996
-29.710123,3.4051778,3.7571397
-29.736898,3.4018097,3.7514935
-29.762878,3.392825,3.737812
-29.789202,3.3850408,3.7259068
-29.816273,3.3818736,3.7206955
-29.844215,3.3856037,3.7254686
-29.872442,3.3928213,3.7353196
-29.901402,3.4092236,3.7584558
-29.928522,3.4086194,3.757146
-29.955257,3.4029586,3.748601
-29.981848,3.3933783,3.734455
-30.008795,3.3867135,3.7245617
-30.036362,3.3909445,3.730422
-30.063799,3.3941069,3.7347932
-30.091406,3.4075994,3.754107
-30.118565,3.408624,3.7554994
-30.145699,3.409148,3.7562218
-30.17289,3.401762,3.7455916
-30.200258,3.3933063,3.7334714
-30.22767,3.389481,3.7280774
-30.255026,3.3891454,3.7277641
-30.282421,3.388311,3.7267828
-30.308678,3.4063485,3.7530508
-30.335375,3.413057,3.7630396
-30.363298,3.4033165,3.7493763
-30.392017,3.3873873,3.726851
-30.419773,3.3840594,3.7225351
-30.448452,3.3734064,3.7077217
-30.474512,3.3855867,3.7258468
-30.500395,3.3972616,3.74329
-30.526453,3.406156,3.7567763
-30.553577,3.4071589,3.7589502
-30.58269,3.3963017,3.7441077
-30.612442,3.383253,3.7261715
-30.640762,3.3793688,3.7214775
-30.667696,3.382934,3.727551
-30.694206,3.3882685,3.736217
-30.719734,3.397635,3.7507267
-30.747042,3.3985677,3.7531633
-30.77338,3.4035325,3.7614427
-30.802917,3.3955543,3.751186
-30.83502,3.3786144,3.728126
-30.861439,3.3837988,3.7368822
-30.888243,3.3873558,3.7433515
-30.913479,3.3960562,3.757244
-30.938541,3.4048157,3.7712665
-30.96594,3.4057508,3.7741218
-30.996107,3.398317,3.7650461
-31.02625,3.391531,3.7569609
-31.054388,3.3910103,3.7579007
-31.08255,3.3905635,3.7590032
-31.107815,3.3980403,3.7714872
-31.130362,3.4122982,3.7937024
-31.157475,3.4142926,3.7984414
-31.188862,3.4057372,3.7881756
-31.219051,3.4006243,3.782889
-31.25127,3.3911357,3.771428
-31.281754,3.3862004,3.7665262
-31.308113,3.3908134,3.7752857
-31.333881,3.3966036,3.7857685
-31.361378,3.3985703,3.7908614
-31.39099,3.396173,3.7898052
-31.422855,3.3894281,3.7826371
-31.452095,3.3883085,3.783523
-31.485931,3.3784318,3.77205
-31.511282,3.3852103,3.7842612
-31.536512,3.3920484,3.796602
-31.562527,3.3972964,3.8067384
-31.591839,3.3965664,3.808469
-31.62495,3.3893352,3.8010747
-31.658236,3.3822055,3.7939012
-31.690718,3.3768187,3.789263
-31.717052,3.381905,3.7994618
-31.740618,3.391419,3.8159475
-31.760588,3.4064274,3.8402045
-31.788963,3.4078834,3.8454328
-31.824045,3.399109,3.836348
-31.856104,3.3953204,3.8343475
-31.889727,3.3894658,3.8295238
-31.917574,3.3923516,3.8370237
-31.944262,3.3969283,3.8469467
-31.972025,3.39996,3.8547626
-32.000526,3.4019923,3.8612401
-32.032154,3.399816,3.8619065
-32.070225,3.3891773,3.850851
-32.10168,3.3877409,3.8527067
-32.131153,3.3890612,3.8584695
-32.154408,3.3984401,3.875491
-32.180862,3.403625,3.8867326
-32.220425,3.3924627,3.875371
-32.253357,3.3898907,3.876008
-32.291607,3.381093,3.868116
-32.32344,3.3803163,3.8714025
-32.343254,3.3938117,3.8944492
-32.370064,3.3989577,3.9060216
-32.400917,3.3994694,3.9112732
-32.43226,3.399551,3.9160056
-32.47675,3.3851564,3.9009495
-32.51825,3.3745575,3.8912246
-32.548504,3.376534,3.898824
-32.565674,3.3925483,3.9256756
-32.59528,3.3951826,3.934285
-32.620415,3.402528,3.9493842
-32.66394,3.3909597,3.938799
-32.711777,3.3754559,3.9229941
-32.740055,3.3800318,3.9345727
-32.760544,3.3923202,3.956659
-32.79644,3.3894172,3.9582357
-32.825073,3.3937201,3.9696364
-32.857903,3.394064,3.9757662
-32.89505,3.3904817,3.976697
-32.936638,3.3830063,3.972502
-32.96585,3.3871965,3.9840713
-32.988407,3.397462,4.0038443
-33.02859,3.3918433,4.00243
-33.06051,3.3938122,4.011256
-33.095825,3.3929088,4.016339
-33.13462,3.3891594,4.0177364
-33.17872,3.381115,4.013549
-33.221268,3.3747025,4.011658
-33.261063,3.3708897,4.013331
-33.304512,3.3642888,4.011446
-33.34992,3.3563874,4.007983
-33.388924,3.3539834,4.011883
-33.429226,3.3507476,4.0148087
-33.464756,3.3515043,4.023077
-33.513832,3.3418207,4.0178204
-33.563137,3.3323233,4.012968
-33.616417,3.3201528,4.0048056
-33.65866,3.3167422,4.0081797
-33.692787,3.3196373,4.019841
-33.737743,3.3146195,4.021388
-33.804035,3.2942505,4.00332
-33.842304,3.2947721,4.0123215
-33.902103,3.2800176,4.0018682
-33.93534,3.284576,4.016309
-33.9758,3.2841406,4.024476
-34.036922,3.2695305,4.014752
-34.09904,3.2547083,4.004983
-34.134537,3.2584734,4.0189447
-34.178146,3.2568748,4.026247
-34.266884,3.2254124,3.996138
-34.317795,3.2197137,3.9986944
-34.34951,3.2268476,4.017475
-34.407566,3.2169936,4.0151634
-34.47775,3.1997595,4.0038924
-34.53493,3.1912928,4.0037594
-34.610027,3.1719491,3.9903994
-34.663445,3.1666372,3.9946213
-34.72633,3.155805,3.9922607
-34.78658,3.146984,3.9926023
-34.84052,3.1423354,3.9982634
-34.89605,3.1370273,4.0033226
-34.928276,3.1457934,4.0256424
-35.015656,3.1223218,4.0091314
-35.11389,3.0932236,3.9862182
-35.179195,3.0837927,3.9873104
-35.266434,3.0622928,3.9742446
-35.321747,3.0593832,3.9836762
-35.392296,3.0482583,3.9835799
-35.465374,3.0361695,3.982635
-35.542545,3.0223002,3.9799008
-35.605423,3.0166554,3.9871306
-35.671535,3.009612,3.9929829
-35.71068,3.0172486,4.0161676
-20.971605,2.4588118,3.9923177
-20.639862,2.2961798,3.8032975
-20.168863,2.0764534,3.5551271
-21.075378,2.395256,3.8465376
-20.487892,2.1266851,3.5471272
-20.530937,2.1064222,3.4980073
-22.287357,2.780835,4.164224
-22.36824,2.7828798,4.1435194
-22.481668,2.7987561,4.137642
-22.595638,2.8155031,4.133253
-22.687119,2.8234262,4.1201077
-22.844666,2.8599432,4.137834
-22.994772,2.894291,4.15405
-23.08522,2.9037364,4.144205
-23.188059,2.9190977,4.141201
-23.276358,2.9286277,4.132338
-23.346102,2.9303546,4.1153326
-23.49382,2.9675634,4.137752
-23.589556,2.982119,4.1357946
-23.661098,2.9861183,4.1225195
-23.748108,2.9976518,4.118
-23.843845,3.013776,4.119044
-23.953081,3.0368688,4.128414
-24.045647,3.0527139,4.1300497
-24.115288,3.058072,4.120121
-24.21611,3.0789773,4.1283383
-24.264517,3.074772,4.1080484
-24.373459,3.1007912,4.122966
-24.469196,3.120945,4.13155
-24.530584,3.1243508,4.1209784
-24.601284,3.132822,4.116602
-24.685844,3.148851,4.12143
-24.74205,3.1506531,4.109775
-24.816753,3.162455,4.110226
-24.898888,3.1786673,4.11625
-24.966105,3.1874197,4.11368
-25.036156,3.198104,4.1137023
-25.108992,3.2107425,4.1163664
-25.167189,3.2157617,4.110091
-25.221483,3.2189176,4.1017723
-25.311539,3.242499,4.118585
-25.351292,3.2381346,4.1015415
-25.408817,3.2441068,4.097333
-25.500742,3.270368,4.118361
-25.541655,3.2674558,4.103667
-25.60075,3.2754517,4.1026487
-25.651688,3.2789283,4.096222
-25.717606,3.291721,4.101614
-25.762497,3.2921388,4.091746
-25.827227,3.3049836,4.097651
-25.872581,3.3062215,4.089162
-25.942442,3.323082,4.1005807
-26.000061,3.3326974,4.1030746
-26.04218,3.3327496,4.0936117
-26.084936,3.3333995,4.0850453
-26.136536,3.3400373,4.0842743
-26.186592,3.3459728,4.082779
-26.234455,3.3507433,4.0799556
-26.284193,3.357056,4.079277
-26.331085,3.3617356,4.0766554
-26.377174,3.3661327,4.07382
-26.42642,3.3729968,4.074338
-26.46698,3.3740582,4.067462
-26.491234,3.3637013,4.045805
-26.523382,3.358973,4.031562
-26.58567,3.3762336,4.0462437
-26.615784,3.3703785,4.0307555
-26.657955,3.3735237,4.0272007
-26.660553,3.3471699,3.9848235
-26.702797,3.350514,3.9817004
-26.764053,3.3686972,3.9983802
-26.813877,3.3785698,4.0042253
-26.844017,3.3733685,3.9901545
-26.874817,3.3687344,3.9769146
-26.905067,3.3637118,3.9632318
-26.934776,3.358296,3.9490952
-26.986906,3.3713245,3.9597871
-27.023558,3.3719525,3.9539661
-27.0561,3.369299,3.9438238
-27.089802,3.3677206,3.935215
-27.124058,3.3667371,3.9274964
-27.150396,3.3589945,3.9107096
-27.1992,3.3709989,3.9207764
-27.24273,3.378745,3.925202
-27.27234,3.3742762,3.9131188
-27.290583,3.3594723,3.8870058
-27.323627,3.358129,3.8793058
-27.359858,3.3598819,3.8759234
-27.404467,3.3697572,3.8837695
-27.440456,3.3717666,3.8809438
-27.479473,3.3769107,3.8825204
-27.499874,3.3640294,3.85938
-27.52456,3.3552308,3.841899
-27.556427,3.3535883,3.8343475
-27.604702,3.3688126,3.8501987
-27.645733,3.3770823,3.8565578
-27.677788,3.3762999,3.850472
-27.705967,3.3715172,3.8389053
-27.729918,3.362191,3.8210788
-27.764389,3.364238,3.8191333
-27.80623,3.3746443,3.828927
-27.843678,3.3805435,3.832541
-27.875048,3.3798316,3.8270068
-27.895153,3.3662314,3.803505
-27.921726,3.3599515,3.7902875
-27.953661,3.3599966,3.785996
-27.98816,3.3632717,3.786314
-28.02812,3.3734627,3.7964392
-28.06403,3.3790655,3.8002086
-28.091864,3.3747916,3.790143
-28.11687,3.3669024,3.775033
-28.146479,3.3648806,3.7682557
-28.176495,3.3634706,3.762405
-28.206903,3.3626742,3.7574868
-28.24197,3.3683379,3.761786
-28.27535,3.371982,3.7633042
-28.303328,3.368266,3.7544484
-28.32613,3.3571472,3.7351289
-28.353912,3.3530297,3.7258034
-28.383556,3.3516655,3.7204504
-28.432064,3.3788342,3.7558155
-28.459305,3.3744543,3.7463188
-28.487297,3.371222,3.7385125
-28.515669,3.3686023,3.731636
-28.539736,3.3590343,3.7148805
-28.565289,3.3516839,3.7013383
-28.602554,3.3639088,3.7158728
-28.64175,3.380054,3.736115
-28.671265,3.3800185,3.7332458
-28.701975,3.3822432,3.7336793
-28.73052,3.3807378,3.7288198
-28.756142,3.373849,3.7162776
-28.785332,3.373583,3.713307
-28.818447,3.381061,3.721541
-28.851933,3.3897347,3.7315688
-28.88116,3.3902764,3.7299495
-28.912205,3.3947449,3.7340517
-28.938742,3.3899486,3.7248497
-28.961824,3.3775053,3.7046542
-28.99033,3.3766932,3.7012978
-29.018831,3.375957,3.6981058
-29.051321,3.3846948,3.7086697
-29.081316,3.3879936,3.7114344
-29.112114,3.3935924,3.7175875
-29.134087,3.3770967,3.6917973
-29.15766,3.3639746,3.670928
-29.185602,3.3620157,3.6662817
-29.21377,3.3606853,3.6625996
-29.249882,3.3822508,3.6922002
-29.279892,3.3872159,3.6977777
-29.30669,3.3827848,3.689766
-29.332516,3.3750725,3.6770344
-29.359,3.3690977,3.6668735
-29.384287,3.3587167,3.65035
-29.414673,3.3657346,3.659182
-29.445198,3.3739557,3.669825
-29.47612,3.3845031,3.683916
-29.505964,3.391775,3.6932974
-29.531626,3.3823037,3.6783476
-29.557606,3.3734546,3.6643486
-29.584373,3.3674757,3.6545782
-29.611837,3.3643723,3.649046
-29.640675,3.368084,3.653503
-29.67119,3.381433,3.6720715
-29.699453,3.3836136,3.6744056
-29.727203,3.3830543,3.6727939
-29.754786,3.3814402,3.669693
-29.781118,3.3708837,3.6535873
-29.809734,3.3761706,3.6606607
-29.837147,3.3725126,3.654726
-29.865002,3.372308,3.6538835
-29.893744,3.3812003,3.66638
-29.921549,3.3817053,3.666677
-29.94938,3.3828468,3.667955
-29.977072,3.3823671,3.6669145
-30.004454,3.3763137,3.6577787
-30.03237,3.3793623,3.661996
-30.060062,3.3779664,3.6597676
-30.088234,3.3958392,3.6857505
-30.115812,3.39741,3.6879587
-30.143335,3.3905816,3.6779413
-30.170929,3.3928585,3.681282
-30.198591,3.388995,3.6756988
-30.226421,3.38238,3.6661448
-30.25412,3.382612,3.666648
-30.281782,3.38348,3.66813
