x,y,z
-28.571905,2.3572774,2.864273
-28.610567,2.3622417,2.8669677
-28.670837,2.4194288,2.936092
-28.32997,1.4934299,1.7556891
-28.743715,2.4228072,2.933734
-28.777987,2.4192374,2.925994
-28.471415,1.5105724,1.7654228
-28.555153,1.6170869,1.8973875
-28.656145,1.7781508,2.0992103
-28.694216,1.7671261,2.0817628
-28.716633,1.7091084,2.0043826
-28.548744,1.0650537,1.1781573
-28.58844,1.0362079,1.137671
-29.065788,2.432592,2.9205213
-29.10208,2.4365115,2.9231029
-28.738403,1.0465415,1.1407108
-28.780659,1.02296,1.1073327
-28.829676,1.0231445,1.1045055
-28.880701,1.031353,1.112082
-28.929749,1.0324078,1.1106029
-28.97818,1.031157,1.106278
-29.089344,1.3056791,1.4561963
-29.13882,1.3218856,1.4746594
-29.191133,1.3534586,1.5129924
-29.239319,1.3675086,1.5289302
-29.296513,1.431083,1.608676
-29.352783,1.4966655,1.6911602
-29.38246,1.4122753,1.5808067
-29.591715,2.4490035,2.913608
-29.625925,2.4470012,2.9098058
-29.656086,2.4157562,2.8684187
-29.692066,2.424923,2.87915
-29.726326,2.4213448,2.8735428
-29.761791,2.4282517,2.881526
-29.796137,2.4254637,2.8770928
-29.830973,2.4276586,2.8791628
-29.865664,2.4287193,2.8798485
-29.900415,2.4310937,2.8823085
-29.935228,2.4353955,2.887332
-29.96986,2.43795,2.890181
-30.004313,2.437531,2.8892722
-30.038733,2.435976,2.8869762
-30.07318,2.434509,2.884872
-30.107683,2.4355812,2.8861208
-30.14217,2.4391925,2.8907237
-30.176603,2.4404418,2.8923564
-30.210958,2.4448433,2.8981333
-30.245262,2.448107,2.9025202
-30.279615,2.4483955,2.9031458
-30.31419,2.4438734,2.897644
-30.348785,2.440665,2.8939157
-30.383526,2.436322,2.8888025
-30.418121,2.43513,2.8878317
-30.452795,2.433415,2.8862648
-30.489895,2.406702,2.8525534
-30.52855,2.3703039,2.806449
-23.499441,1.6190422,2.8297849
-23.585402,1.6343083,2.8272467
-23.713287,1.6780648,2.855557
-23.798395,1.6941314,2.8547525
-23.890263,1.7153468,2.8598704
-23.966948,1.7268074,2.8548455
-24.086748,1.7685935,2.8830748
-24.140446,1.7652097,2.862636
-24.24943,1.8010364,2.885283
-24.271921,1.7761273,2.8417578
-24.338474,1.7826891,2.832924
-24.414362,1.7964017,2.8322582
-24.487272,1.8084316,2.830038
-24.553232,1.8157752,2.8229008
-24.706804,1.8891401,2.8897247
-24.765228,1.8921976,2.8785348
-24.813059,1.8874359,2.8587775
-24.003857,1.2208946,2.093367
-24.003914,1.1723263,2.0221305
-25.211847,1.993932,2.9109583
-25.28957,2.0155652,2.9227462
-23.969622,0.88944745,1.618443
-24.035091,0.89009786,1.6030812
-24.09619,0.8873522,1.5840254
-25.559458,2.074074,2.940589
-25.598282,2.0654395,2.918723
-25.673304,2.088179,2.9334354
-25.756222,2.11853,2.9573135
-25.750954,2.0716412,2.8912902
-25.77057,2.046189,2.8502555
-25.824963,2.0518498,2.845759
-25.8821,2.0603418,2.8447785
-25.940758,2.0706255,2.8461113
-25.99578,2.077929,2.8441262
-26.055695,2.0902212,2.8482409
-26.10976,2.0973833,2.8464746
-26.16421,2.1052678,2.8457499
-26.217377,2.1122663,2.844152
-26.27472,2.123755,2.8480983
-26.328043,2.1316664,2.8479557
-26.381182,2.1397603,2.8482084
-26.429379,2.1431496,2.842979
-26.490551,2.160301,2.854484
-26.706264,2.340798,3.0634441
-26.7375,2.329257,3.0410419
-26.768911,2.3177903,3.0188003
-26.841225,2.3509068,3.0507698
-26.893974,2.3633773,3.0578923
-26.944979,2.3743753,3.063394
-27.0011,2.3916342,3.076706
-27.068434,2.4224045,3.1067328
-27.089376,2.4000776,3.0719519
-27.132399,2.4033961,3.0686636
-27.17626,2.4079652,3.0670404
-27.21954,2.412114,3.0650291
-27.2659,2.4203227,3.0681524
-27.308468,2.4241886,3.066053
-27.35182,2.4293137,3.0656333
-27.394604,2.4340105,3.0648117
-27.43857,2.4405363,3.066382
-27.481094,2.4455037,3.066146
-27.522646,2.4494681,3.0647826
-27.563253,2.4524229,3.0622802
-27.604189,2.4560697,3.060752
-27.646654,2.462123,3.062347
-27.687769,2.4665933,3.0620818
-27.72837,2.4706163,3.0613704
-27.770042,2.4764829,3.0630841
-27.811573,2.4824774,3.065074
-27.8503,2.4845698,3.062274
-27.888582,2.4861987,3.058992
-27.927914,2.4896708,3.0581346
-27.965336,2.490367,3.0538788
-28.002716,2.4911697,3.0498533
-28.040762,2.493239,3.0475268
-28.072496,2.4849553,3.032187
-28.100613,2.470345,3.0088959
-28.11422,2.4301426,2.953175
-28.134846,2.4010174,2.9115157
-28.151146,2.3631403,2.8587413
-28.187593,2.360976,2.8514285
-28.225624,2.3618407,2.8480625
-28.265764,2.3669214,2.8501682
-28.305481,2.3715308,2.8517766
-28.344788,2.3756657,2.85288
-28.383701,2.3793228,2.8534718
-28.423376,2.3848617,2.8565712
-28.461527,2.38756,2.8561325
-28.499603,2.3903646,2.8559241
-28.53814,2.3944602,2.8574662
-28.575788,2.3968852,2.8569593
-28.62309,2.4219728,2.885672
-28.666134,2.438299,2.9032502
-28.718853,2.479149,2.9525132
-28.754068,2.4784927,2.9484687
-28.785322,2.4677954,2.9315643
-28.820623,2.4673162,2.927905
-28.858568,2.4740982,2.9336996
-28.89873,2.4875636,2.9482203
-28.933378,2.486187,2.9436626
-28.968445,2.486099,2.9408517
-29.005474,2.4920983,2.9459977
-29.041027,2.4940002,2.9459286
-29.074114,2.4881918,2.9359555
-29.108198,2.485471,2.9300566
-29.143019,2.4852428,2.9274654
-29.179512,2.4911246,2.93288
-29.214417,2.4916856,2.9314756
-29.249922,2.494749,2.9334006
-29.285654,2.499113,2.937098
-29.31898,2.4939187,2.9284558
-29.353642,2.494242,2.9270606
-29.389214,2.4988852,2.9313617
-29.42443,2.5024137,2.9342957
-29.458483,2.5005932,2.9303484
-29.49187,2.4952292,2.9218626
-29.527424,2.5014517,2.9285407
-29.561508,2.4998953,2.9251666
-29.593964,2.4881263,2.9085598
-29.627645,2.4831045,2.900816
-29.659206,2.4624026,2.8727016
-29.693462,2.459366,2.8676896
-29.728722,2.4643047,2.873157
-29.763004,2.4614456,2.8685303
-29.797827,2.463531,2.8704314
-29.832657,2.4663136,2.87332
-29.867182,2.46615,2.8724413
-29.901577,2.4642527,2.8693757
-29.936338,2.4679117,2.8736405
-29.970995,2.4710531,2.8773074
-30.005486,2.471853,2.877993
-30.039936,2.4721336,2.878078
-30.07434,2.4706793,2.8759727
-30.1088,2.471745,2.877235
-30.143236,2.4722915,2.8778954
-30.177643,2.4753582,2.8819232
-30.21201,2.4772973,2.8845553
-30.246288,2.4811478,2.8897595
-30.28065,2.4808316,2.8895984
-30.315216,2.4763496,2.8840728
-30.349735,2.4743872,2.881915
-30.384417,2.4706917,2.8775716
-30.419079,2.468301,2.8750086
-30.453373,2.4708588,2.8789825
-30.490774,2.4407156,2.8403559
-42.736877,0.22389913,2.6612563
-42.80307,0.24498153,2.7221642
-44.51931,0.53948283,3.931447
-44.609234,0.5552342,3.9980927
-23.415554,1.6611276,2.8121653
-23.546059,1.7042565,2.8399553
-23.646225,1.7286906,2.8481002
-23.745205,1.7530732,2.8566422
-23.837305,1.7736063,2.861424
-23.880117,1.7617097,2.8310452
-24.022406,1.8172398,2.8750253
-24.095058,1.826453,2.8685083
-24.192562,1.8532588,2.8817964
-24.237663,1.8442705,2.8556843
-24.30763,1.8528619,2.8493495
-24.380135,1.8636642,2.8457685
-24.451721,1.8742573,2.842245
-24.532518,1.8919814,2.8470478
-24.595528,1.897249,2.8380914
-24.808895,2.0142007,2.9561448
-24.834244,1.9930971,2.9180322
-24.035273,1.3488586,2.1682267
-24.012047,1.2838721,2.0777621
-24.00549,1.2306595,2.000598
-25.111462,2.0435147,2.9213786
-25.16538,2.0452056,2.9102697
-23.856726,0.96316147,1.643251
-25.308271,2.0775068,2.922226
-23.988224,0.96407485,1.6121163
-25.432419,2.0966368,2.91989
-25.490467,2.1034765,2.9158683
-25.578922,2.1361666,2.9424238
-25.6103,2.1213777,2.913416
-25.68827,2.1463916,2.931478
-25.729893,2.1406631,2.9134536
-25.75617,2.121564,2.879684
-25.790398,2.1092763,2.854063
-25.84813,2.1179576,2.8535252
-25.90566,2.126843,2.8534312
-25.964128,2.1369834,2.8550386
-26.018957,2.1441731,2.8533058
-26.071352,2.149442,2.8494449
-26.127522,2.158594,2.8504386
-26.183475,2.167943,2.8518596
-26.237019,2.1753602,2.851128
-26.28875,2.1813595,2.8488522
-26.341946,2.1891382,2.8489056
-26.400827,2.2030005,2.8565454
-26.450945,2.2084696,2.8541374
-26.501968,2.215183,2.8534098
-26.727644,2.4042115,3.0762854
-26.755556,2.3895,3.0499911
-26.796423,2.3884237,3.040526
-26.833748,2.3836603,3.0266314
-26.883583,2.3926442,3.029807
-26.938637,2.407814,3.040791
-27.023129,2.4566224,3.0936322
-27.056454,2.4486296,3.0763025
-27.102789,2.4555924,3.0776439
-27.146122,2.4593952,3.0751905
-27.18748,2.4611225,3.0702739
-27.23062,2.4651937,3.0684023
-27.274101,2.4699554,3.0675187
-27.317911,2.475412,3.0676312
-27.362026,2.4815652,3.0687451
-27.405993,2.487859,3.0701647
-27.449804,2.4942932,3.071888
-27.49303,2.500305,3.073205
-27.534412,2.5042038,3.071979
-27.575268,2.507666,3.070315
-27.61437,2.508995,3.066064
-27.655458,2.5132663,3.0656457
-27.696835,2.5182302,3.0662193
-27.738085,2.5233212,3.0670667
-27.778816,2.527969,3.0674653
-27.81827,2.5310316,3.0659542
-27.857254,2.5336413,3.06397
-27.899158,2.5409377,3.0680728
-27.939785,2.5466468,3.0702615
-27.976633,2.5467448,3.0653782
-28.014168,2.5480945,3.062193
-28.047417,2.5426486,3.0503845
-28.076923,2.5309496,3.030624
-28.099798,2.507775,2.9961705
-28.110329,2.4626706,2.933529
-28.133608,2.4383717,2.897657
-28.159283,2.4175835,2.8663397
-28.196188,2.4165754,2.8605876
-28.235283,2.4197373,2.860311
-28.274595,2.4235928,2.8610287
-28.314415,2.4287271,2.8634996
-28.354107,2.4339767,2.8662205
-28.393965,2.4399252,2.8699474
-28.433397,2.445404,2.873166
-28.471306,2.4480674,2.8728275
-28.508316,2.4490771,2.870432
-28.546625,2.4531248,2.8720746
-28.584045,2.4555163,2.871656
-28.621143,2.4574225,2.8706942
-28.661186,2.4665022,2.8791718
-28.701519,2.4768784,2.889442
-28.732557,2.4649324,2.8706741
-28.778017,2.489118,2.8991675
-28.810947,2.4820855,2.8869772
-28.846655,2.4822428,2.8842607
-28.88277,2.4836798,2.8833022
-28.919888,2.4881823,2.8864398
-28.958324,2.4969437,2.895248
-28.99499,2.5010586,2.8980565
-29.027142,2.4915905,2.8831315
-29.06263,2.4923217,2.88166
-29.098087,2.4931471,2.8803926
-29.133863,2.495259,2.880896
-29.169582,2.4974658,2.8816056
-29.205244,2.4997687,2.8825226
-29.239908,2.4985802,2.8789263
-29.277443,2.5088444,2.8904824
-29.311146,2.5042522,2.882564
-29.346039,2.5045362,2.8811417
-29.381443,2.5073068,2.8830738
-29.41653,2.5089726,2.8836288
-29.451813,2.5119305,2.8859653
-29.487028,2.5149803,2.888503
-29.520647,2.5097191,2.8801513
-29.555494,2.5111487,2.8807054
-29.59011,2.5114677,2.8798676
-29.624804,2.5124779,2.8800197
-29.659554,2.5141788,2.8811612
-29.694658,2.5189786,2.8864732
-29.729147,2.5196579,2.8864174
-29.763683,2.521028,2.887351
-29.798004,2.5206811,2.8860888
-29.832436,2.5216281,2.886613
-29.867039,2.5250723,2.8905149
-29.901354,2.5255945,2.8906283
-29.935505,2.5237944,2.8877435
-29.969784,2.5238898,2.8874416
-30.004105,2.5252788,2.888925
-30.038437,2.5279624,2.8921957
-30.072699,2.530131,2.8948603
-30.106922,2.532991,2.8985133
-30.141085,2.5341296,2.8999639
-30.175241,2.5329452,2.8984137
-30.20942,2.531848,2.8970547
-30.243555,2.5332506,2.899076
-30.27764,2.5353432,2.9020848
-30.311913,2.5327013,2.8989043
-30.34631,2.5289426,2.8943214
-30.380903,2.5234656,2.8875399
-30.41519,2.5235,2.8881245
-30.449951,2.518202,2.8817325
-30.486519,2.4955318,2.8524475
-42.820793,0.21895313,2.501068
-42.782806,0.28757286,2.6024675
-42.867336,0.30084467,2.6567154
-42.457687,0.58138156,2.9771228
-42.403755,0.6531522,3.0787306
-42.445007,0.68318677,3.1458888
-42.371758,0.76192164,3.2524076
-42.59747,0.7135091,3.2569752
-42.683495,0.72486854,3.310134
-42.819794,0.7156601,3.3477383
-42.951748,0.7088828,3.3880644
-43.170105,0.66753983,3.4028664
-43.77322,0.62057495,3.5629005
-43.843517,0.64194584,3.629106
-43.929756,0.65731406,3.6914659
-43.983097,0.6854994,3.7632747
-44.069633,0.70114684,3.8267493
-44.18506,0.7062223,3.8836055
-44.347828,0.69416666,3.92981
-44.440193,0.7087996,3.9946523
-23.460957,1.7349696,2.8232646
-23.616001,1.7934175,2.8689399
-23.69276,1.8027465,2.8613214
-23.770027,1.812844,2.8548713
-23.86134,1.8326306,2.8594851
-23.94658,1.849024,2.8607183
-24.04559,1.8752201,2.8732624
-24.13077,1.8928111,2.8765965
-24.256008,1.9383862,2.9117641
-24.253635,1.8969777,2.849331
-24.315971,1.9001155,2.8372393
-24.398727,1.9179363,2.8420653
-24.477718,1.9336708,2.8448544
-24.541517,1.9390397,2.8361082
-24.62195,1.9568214,2.841844
-24.818699,2.0604641,2.9467244
-24.86715,2.0566187,2.928443
-24.01163,1.3766325,2.1273785
-24.012655,1.3302894,2.0577278
-24.020308,1.288306,1.9930544
-25.120443,2.0885682,2.912189
-25.194801,2.1061203,2.9199128
-25.273874,2.1279674,2.932973
-25.329159,2.1315508,2.924829
-24.122446,1.1202419,1.7181649
-24.141438,1.0840883,1.6601648
-24.146845,1.0362599,1.5882883
-25.571804,2.1666298,2.9188433
-25.623281,2.1686823,2.9098687
-25.676483,2.1724446,2.9031076
-25.731367,2.1779294,2.8985906
-25.7505,2.152722,2.8573608
-25.81008,2.1626275,2.8584514
-25.859507,2.1639462,2.8493767
-25.912338,2.1685438,2.8444285
-25.975372,2.1826944,2.8512416
-26.03127,2.1908112,2.8509402
-26.08866,2.200695,2.8529773
-26.141905,2.2071068,2.850968
-26.19665,2.2152812,2.8512878
-26.244053,2.2167819,2.8436031
-26.305,2.23167,2.852512
-26.355371,2.236695,2.8494844
-26.406673,2.242953,2.8481364
-26.459404,2.2509844,2.8491402
-26.553377,2.3014498,2.9028668
-26.723747,2.4322,3.0565748
-26.775866,2.4427886,3.061634
-26.827742,2.4535594,3.0670857
-26.87635,2.4612694,3.0688848
-26.916292,2.4599378,3.0595345
-26.983871,2.489118,3.0884914
-27.011768,2.475041,3.0634394
-27.0573,2.4806492,3.06317
-27.095993,2.4787555,3.0535936
-27.143673,2.4873807,3.0573773
-27.186472,2.4906757,3.0545764
-27.231485,2.4968553,3.0555434
-27.275885,2.502628,3.0561266
-27.320591,2.5090961,3.0577188
-27.36469,2.515154,3.058919
-27.407757,2.5202427,3.0590134
-27.450691,2.5254672,3.059402
-27.493921,2.5313833,3.060793
-27.534452,2.5340877,3.0582027
-27.57532,2.5374737,3.056594
-27.615673,2.5404236,3.0545368
-27.655937,2.5434954,3.0527444
-27.696512,2.5472505,3.0519361
-27.738178,2.5528188,3.0535665
-27.776957,2.5545642,3.0503898
-27.8149,2.5552933,3.0460038
-27.857752,2.563494,3.0513535
-27.898537,2.5689926,3.05333
-27.936964,2.5712054,3.051166
-27.975319,2.57353,3.0492454
-28.013958,2.5765367,3.0483055
-28.047916,2.5722322,3.0379786
-28.077759,2.5611537,3.0189295
-28.094788,2.5283737,2.971725
-28.112436,2.4955964,2.9245262
-28.127392,2.4570782,2.8698516
-28.161617,2.451349,2.8579278
-28.200722,2.4543512,2.8574753
-28.23943,2.4568884,2.856512
-28.277752,2.4589577,2.855032
-28.318125,2.4651852,2.859087
-28.35746,2.469793,2.8611207
-28.395515,2.4721932,2.8603582
-28.43407,2.4758618,2.8613515
-28.47197,2.4784763,2.8610525
-28.510342,2.4823613,2.8625154
-28.548347,2.485772,2.8634458
-28.585737,2.488121,2.8630695
-28.623058,2.4905744,2.8629193
-28.66031,2.49313,2.8629909
-28.696266,2.4928606,2.8594222
-28.733643,2.4962046,2.8607063
-28.769531,2.4961312,2.857563
-28.806768,2.4996774,2.8592858
-28.84591,2.5086203,2.8682332
-28.88205,2.5100222,2.8672943
-28.918564,2.5127003,2.8681283
-28.954597,2.5142972,2.8676138
-28.989792,2.5136309,2.8641787
-29.025558,2.5148282,2.8632956
-29.061844,2.5178952,2.8649735
-29.097692,2.5198774,2.865291
-29.132963,2.5201776,2.8634572
-29.168549,2.5217564,2.8633995
-29.204088,2.5234299,2.8635478
-29.240837,2.529945,2.8702145
-29.275177,2.5276525,2.865244
-29.31129,2.532579,2.8699589
-29.345764,2.5310626,2.8661737
-29.381454,2.5349894,2.8697147
-29.417181,2.5396063,2.8742557
-29.451714,2.538958,2.8718562
-29.485556,2.5348244,2.8648825
-29.520676,2.5373342,2.8668432
-29.55563,2.5393398,2.8682084
-29.590925,2.5438237,2.8729572
-29.625574,2.5448186,2.873126
-29.659939,2.544112,2.871097
-29.694706,2.5464811,2.87325
-29.7292,2.547148,2.8732042
-29.763605,2.5473063,2.8725524
-29.798063,2.548151,2.8728924
-29.83222,2.546095,2.8694282
-29.866661,2.547117,2.870153
-29.901121,2.5488262,2.8718696
-29.935467,2.5494273,2.8721786
-29.96989,2.5519125,2.8750815
-30.004389,2.55748,2.8821793
-30.038578,2.55715,2.881464
-30.072811,2.5587034,2.8833408
-30.106989,2.5585492,2.8830056
-30.14117,2.5590808,2.8836622
-30.175367,2.5561085,2.8797035
-30.209518,2.5592113,2.8839445
-30.243523,2.565395,2.8923798
-30.277676,2.564482,2.8913946
-30.312246,2.5552769,2.8793912
-30.346416,2.556336,2.8811908
-30.380852,2.553294,2.8775802
-30.41507,2.5539315,2.878962
-30.449907,2.5474792,2.8709378
-30.486166,2.5279617,2.8455272
-42.771103,0.208745,2.3116155
-42.76975,0.26136756,2.3998532
-42.77191,0.31194663,2.4861465
-42.387035,0.63180566,2.8877764
-42.39284,0.6775944,2.9681587
-42.37702,0.7322836,3.0559053
-42.341145,0.7949672,3.1500463
-42.389557,0.82154274,3.2141304
-42.579407,0.7891722,3.230465
-42.63275,0.81422925,3.2942414
-42.711422,0.8289528,3.3500319
-42.881386,0.8068812,3.3772593
-43.006184,0.80384755,3.4204068
-43.239113,0.7583275,3.431601
-43.48607,0.70861316,3.4411612
-43.664482,0.68711066,3.4736
-43.688217,0.72642016,3.5523658
-43.76737,0.74428034,3.6154552
-43.828125,0.7693398,3.6842084
-43.90484,0.7884705,3.7490573
-43.977608,0.80926514,3.815524
-44.11753,0.8054004,3.8653212
-44.22178,0.8152256,3.9254088
-44.386307,0.8035619,3.971723
-44.5656,0.78737974,4.0161953
-45.51547,0.60015535,4.0702076
-45.584827,0.6268606,4.147998
-23.474941,1.7920401,2.8065991
-23.640951,1.8566146,2.8605657
-23.719082,1.8666563,2.8543038
-23.81566,1.889034,2.8622198
-23.901077,1.9048481,2.8631535
-23.987583,1.9219406,2.8658934
-24.08503,1.9468737,2.8778992
-24.141977,1.9454305,2.8602686
-24.236568,1.9696589,2.8721967
-24.282139,1.9611373,2.846953
-24.363646,1.9774704,2.8504643
-24.427002,1.9817276,2.8403587
-24.509283,1.9996231,2.84629
-24.565495,1.9995892,2.831715
-24.63845,2.0118074,2.8316212
-24.809246,2.0954516,2.9153347
-24.835917,2.0754585,2.8782701
-24.006077,1.4214344,2.0953865
-24.010395,1.3778226,2.02838
-24.00766,1.3282375,1.9542246
-23.996744,1.2716384,1.8716269
-23.997702,1.2232735,1.798666
-23.991222,1.1683593,1.7177901
-25.36798,2.2019415,2.9388561
-25.440464,2.2196338,2.948214
-25.498886,2.2265964,2.944942
-25.544159,2.2232246,2.9294147
-25.608446,2.2356124,2.9330702
-25.65056,2.2300491,2.9152079
-25.733768,2.2590785,2.9394794
-25.742739,2.2259135,2.8883562
-25.771294,2.2090232,2.8570528
-25.817202,2.2070224,2.8440132
-25.868362,2.2097828,2.8369474
-25.93565,2.2271197,2.8479514
-25.990494,2.2338762,2.8461657
-26.045164,2.2408242,2.8447948
-26.101917,2.2500374,2.8464031
-26.155088,2.2563293,2.8445768
-26.20754,2.2622821,2.8424997
-26.262585,2.2710292,2.8440633
-26.313055,2.2757726,2.8408132
-26.367712,2.284892,2.843184
-26.423756,2.2957838,2.8479476
-26.473717,2.3010569,2.8458457
-26.618032,2.4019077,2.9639664
-26.734894,2.4773686,3.0507226
-26.791578,2.492609,3.062014
-26.834677,2.4941678,3.05621
-26.88275,2.5012162,3.0574746
-26.92865,2.506279,3.0563679
-26.973425,2.5104158,3.0542188
-27.016125,2.5125399,3.0496407
-27.06213,2.5185804,3.0501695
-27.105589,2.522063,3.0475698
-27.150833,2.5278547,3.0480433
-27.196398,2.534337,3.04953
-27.242723,2.5420582,3.0527358
-27.288404,2.5493846,3.0555701
-27.330742,2.553027,3.0538
-27.374313,2.5584471,3.0544343
-27.415977,2.5618057,3.0525322
-27.455795,2.5630887,3.0480628
-27.498568,2.5683558,3.0488486
-27.54078,2.573204,3.0492096
-27.580761,2.5754113,3.0462623
-27.62025,2.5771837,3.0428529
-27.662127,2.582412,3.0440378
-27.702656,2.5860968,3.0433273
-27.742285,2.5887878,3.0414267
-27.783007,2.593275,3.041973
-27.825932,2.6012502,3.0471797
-27.864088,2.602621,3.043868
-27.902939,2.6052277,3.0422688
-27.941338,2.6073847,3.0401793
-27.98003,2.6102185,3.039072
-28.015402,2.6080768,3.031529
-28.045485,2.5975378,3.0130277
-28.078878,2.5921724,3.0013947
-28.09523,2.558488,2.9525304
-28.113907,2.5276473,2.9074144
-28.131844,2.4945374,2.8593116
-28.170261,2.4962435,2.8572097
-28.205742,2.4929144,2.8485427
-28.244087,2.4948297,2.8468952
-28.283293,2.498574,2.8477612
-28.322397,2.502429,2.8488708
-28.361992,2.5075462,2.851748
-28.400879,2.5116272,2.8533454
-28.43966,2.5158188,2.8551831
-28.476933,2.517237,2.853423
-28.515522,2.5216458,2.8557324
-28.553467,2.5250072,2.8567371
-28.590532,2.5267391,2.8556566
-28.628054,2.5297313,2.8563452
-28.665243,2.5322478,2.856484
-28.70334,2.5371904,2.85995
-28.74036,2.5399137,2.8605385
-28.777306,2.54274,2.8613472
-28.813719,2.5445008,2.8608155
-28.850742,2.5481112,2.862843
-28.886597,2.5489035,2.861177
-28.923044,2.5515456,2.8620715
-28.960646,2.5577962,2.8678904
-28.996717,2.560053,2.868433
-29.032534,2.5618212,2.8684
-29.066994,2.5595803,2.8630576
-29.105091,2.5691671,2.873693
-29.141235,2.5729873,2.876659
-29.17661,2.5745537,2.8766713
-29.21129,2.5738614,2.8737202
-29.24409,2.5661948,2.8614478
-29.28276,2.580994,2.8795176
-29.316338,2.5764515,2.871602
-29.352495,2.582611,2.878189
-29.38692,2.5817852,2.875433
-29.420843,2.5786877,2.8696823
-29.455664,2.5798116,2.8697033
-29.49068,2.582209,2.8715177
-29.525969,2.586473,2.8759289
-29.560228,2.5855052,2.8733468
-29.595377,2.5899527,2.8781567
-29.629602,2.589164,2.8759618
-29.663923,2.5890546,2.8747592
-29.698555,2.5914056,2.876955
-29.732544,2.5891037,2.872931
-29.767046,2.5910397,2.874713
-29.801256,2.590693,2.873477
-29.835854,2.5945868,2.8780532
-29.87027,2.597384,2.8812184
-29.904625,2.6002707,2.8845754
-29.938692,2.599684,2.8833036
-29.972673,2.5974035,2.879809
-30.0068,2.5975854,2.8797197
-30.040995,2.6002305,2.8830385
-30.07499,2.5964308,2.8777003
-30.109175,2.6022213,2.8854218
-30.143229,2.60216,2.8852887
-30.177273,2.6033742,2.8869548
-30.211304,2.6040823,2.8880062
-30.245369,2.603096,2.8868341
-30.279457,2.6021972,2.8858519
-30.313591,2.6007917,2.8842554
-30.34793,2.596506,2.8788304
-30.382113,2.5958714,2.8784218
-30.41631,2.595325,2.878203
-30.45163,2.5824053,2.861308
-30.487862,2.5630543,2.8357859
-42.787655,0.232687,2.1828089
-42.74945,0.302109,2.2869234
-42.78137,0.3395102,2.361732
-42.798973,0.38304162,2.4420967
-42.71668,0.46998167,2.5609932
-42.63223,0.5567653,2.6790652
-42.403164,0.7045846,2.8497167
-42.356663,0.7724769,2.9495487
-42.4263,0.7906215,3.006291
-42.464104,0.8222182,3.074798
-42.49529,0.8564606,3.1456585
-42.523323,0.8918536,3.2175627
-42.566765,0.92082,3.2842336
-42.699398,0.9138191,3.3217425
-42.79919,0.920547,3.371132
-42.975605,0.8973527,3.3972158
-43.095055,0.89740825,3.4427738
-43.307785,0.86177206,3.461215
-43.552456,0.81503177,3.4725008
-43.651615,0.82512355,3.5287013
-43.681877,0.86157155,3.6053095
-43.756027,0.8814764,3.6697354
-43.808052,0.9097531,3.7407107
-43.938,0.909461,3.791315
-44.016758,0.9283397,3.8564167
-44.196815,0.91095304,3.896543
-44.285286,0.9271319,3.9611068
-44.464516,0.9115188,4.0045943
-45.56733,0.5735917,3.8335896
-45.472637,0.6577544,3.9488792
-45.482334,0.70511746,4.039486
-45.51547,0.7442455,4.1248055
-45.934692,0.65325475,4.129088
-23.420929,1.8477399,2.8073
-23.603748,1.9209085,2.8720446
-23.66957,1.9227436,2.8567734
-23.750492,1.9343963,2.85293
-23.852009,1.9596441,2.8649487
-23.94587,1.9807258,2.8726287
-24.023653,1.9920466,2.869475
-24.128746,2.0217383,2.8878412
-24.212166,2.037928,2.8910184
-24.242863,2.0194476,2.8542356
-24.309242,2.0249298,2.8454642
-24.384434,2.0367754,2.8443866
-24.451817,2.0437217,2.837851
-24.517654,2.0499742,2.8307495
-24.616497,2.0797772,2.8517056
-24.794775,2.166799,2.9408526
-24.826399,2.1506867,2.908265
-24.013254,1.5226204,2.1465168
-24.005522,1.4711998,2.0697694
-24.003265,1.4230237,1.9967723
-24.024603,1.3917344,1.9439554
-23.994143,1.3209596,1.8435555
-24.006624,1.2817161,1.7810044
-23.995577,1.2237756,1.695756
-25.38966,2.259363,2.938727
-24.18741,1.273397,1.726347
-25.509754,2.2752233,2.9350858
-25.563623,2.278758,2.928197
-25.615538,2.280984,2.9198766
-25.664314,2.280885,2.908864
-25.730564,2.2955046,2.9161482
-25.752132,2.273115,2.877932
-25.778234,2.2542822,2.844142
-25.82942,2.25677,2.8368607
-25.891626,2.2690837,2.841961
-25.945425,2.2744923,2.838664
-26.003098,2.283664,2.840239
-26.058838,2.2915032,2.8403358
-26.110985,2.296455,2.836986
-26.165232,2.3036454,2.8366146
-26.220404,2.3120575,2.8379517
-26.274817,2.3201447,2.839054
-26.329573,2.3289409,2.8412232
-26.38249,2.3363643,2.8418264
-26.432005,2.3408341,2.8388414
-26.477673,2.3418021,2.8315496
-26.68253,2.5020535,3.027357
-26.747864,2.5253053,3.0491328
-26.788998,2.5245237,3.0403957
-26.833166,2.5270429,3.0359983
-26.882294,2.5350077,3.0387135
-26.928226,2.5399482,3.0376883
-26.973526,2.5445056,3.036302
-27.018696,2.5492096,3.035233
-27.063734,2.5540602,3.034482
-27.110075,2.5606666,3.036129
-27.155298,2.5663486,3.0367117
-27.199903,2.571638,3.0369124
-27.244366,2.5770707,3.0374236
-27.288681,2.5826461,3.0382442
-27.331945,2.5872777,3.0379572
-27.37508,2.5920463,3.0379682
-27.417643,2.5964053,3.0375595
-27.4579,2.5981662,3.033866
-27.50024,2.6027853,3.0340219
-27.54203,2.6069884,3.0337439
-27.582018,2.6091208,3.0308576
-27.622759,2.612476,3.0296807
-27.664219,2.6170578,3.0302248
-27.705956,2.6223202,3.0317745
-27.745165,2.624388,3.0292163
-27.785086,2.6276817,3.0283766
-27.826069,2.6327627,3.030003
-27.866539,2.6374118,3.0311632
-27.904625,2.6388369,3.0281496
-27.943022,2.6409311,3.0261173
-27.980616,2.6420183,3.0228395
-28.016718,2.6409702,3.0168123
-28.049273,2.6344078,3.0035229
-28.078444,2.6223035,2.982912
-28.095488,2.589985,2.9353757
-28.115173,2.5610542,2.8923674
-28.13541,2.5321383,2.849391
-28.173466,2.5332298,2.8465934
-28.212112,2.535562,2.8455467
-28.24974,2.536301,2.8424544
-28.288559,2.5394182,2.84264
-28.32729,2.5426464,2.8430667
-28.366524,2.5471244,2.8452635
-28.40564,2.5517156,2.8477054
-28.44378,2.554705,2.8480835
-28.480997,2.5560849,2.8463812
-28.519531,2.5604324,2.848765
-28.557148,2.5631683,2.849063
-28.594687,2.5660095,2.8495893
-28.632145,2.568955,2.8503418
-28.669521,2.5720046,2.8513198
-28.706076,2.573429,2.850183
-28.74354,2.577261,2.8523874
-28.779736,2.578309,2.8509054
-28.816574,2.58119,2.851986
-28.854443,2.587064,2.8572102
-28.891092,2.590149,2.8587346
-28.92724,2.5921745,2.858901
-28.963125,2.593718,2.8584914
-28.999554,2.5970995,2.8606586
-29.035898,2.6005802,2.863041
-29.071966,2.6035779,2.8648462
-29.107597,2.605509,2.8652773
-29.143696,2.609283,2.8682947
-29.179195,2.6114051,2.8691406
-29.21366,2.6101215,2.865418
-29.248608,2.6106784,2.8642774
-29.284283,2.6142485,2.8673244
-29.319149,2.6149912,2.8665862
-29.354263,2.6169953,2.8676453
-29.388792,2.6167502,2.8657064
-29.42344,2.6171813,2.8647623
-29.458555,2.620046,2.8672175
-29.493368,2.621831,2.8682714
-29.528135,2.6237073,2.869522
-29.56275,2.6250875,2.8701673
-29.597229,2.6259708,2.8702044
-29.631409,2.6251812,2.8680234
-29.66568,2.6250682,2.8668385
-29.700262,2.6273942,2.8690658
-29.73479,2.6298106,2.8714876
-29.768656,2.6270227,2.8668513
-29.80343,2.6325586,2.8736901
-29.837368,2.630535,2.8702402
-29.871489,2.630364,2.8694005
-29.905651,2.6308694,2.8695579
-29.939835,2.632052,2.8707132
-29.973959,2.6327336,2.8712525
-30.008068,2.6335032,2.8719816
-30.042234,2.636717,2.8761325
-30.076239,2.6358943,2.8748193
-30.110287,2.6375165,2.876927
-30.144302,2.6392252,2.8792243
-30.178295,2.6392546,2.8792868
-30.212309,2.6381922,2.8779235
-30.246428,2.634272,2.8727098
-30.280512,2.6333857,2.8717265
-30.314589,2.633176,2.8717413
-30.348705,2.632465,2.8711386
-30.382961,2.630075,2.8683052
-30.417408,2.6260076,2.8632417
-30.452524,2.615555,2.8494997
-30.487915,2.6046073,2.8351526
-42.7354,0.33838582,2.1685925
-42.79956,0.36168385,2.230373
-42.562553,0.5674691,2.500493
-42.72991,0.5450239,2.520372
-42.46501,0.70814085,2.7083097
-42.42989,0.7714987,2.8053036
-42.337112,0.85835505,2.92273
-42.380463,0.88754106,2.9888277
-42.406704,0.9237182,3.0611625
-42.404232,0.9714246,3.1434708
-42.50705,0.9761982,3.1890326
-42.541588,1.0087097,3.2585845
-42.58808,1.0363724,3.3241959
-42.69208,1.04143,3.3713117
-42.812965,1.040324,3.4139848
-42.994774,1.0162597,3.438806
-43.08527,1.0280399,3.4934554
-43.365627,0.9682834,3.4920635
-43.593502,0.9298513,3.5092072
-43.64895,0.9567113,3.5782433
-43.71216,0.9807627,3.6454134
-43.78138,1.0027299,3.7113519
-43.867588,1.0187113,3.7732325
-43.969994,1.0291677,3.831585
-44.10612,1.0280592,3.882235
-44.221077,1.034976,3.9394855
-44.35614,1.035366,3.9929132
-45.462784,0.70216894,3.8174386
-45.457397,0.7547934,3.9118195
-45.479073,0.7979245,3.9997015
-45.511265,0.8373594,4.0852027
-45.78763,0.79591084,4.118811
-46.232246,0.70081997,4.1206217
-46.732098,0.59035635,4.1163316
-23.352907,1.9032454,2.8021731
-23.488756,1.9458644,2.83324
-23.592287,1.9698822,2.843514
-23.682217,1.9862654,2.8454118
-23.799316,2.020132,2.8679514
-23.875414,2.0291815,2.8621287
-23.969189,2.0498831,2.8702097
-24.063244,2.071429,2.8796673
-24.12995,2.075973,2.8695273
-24.255617,2.1193697,2.9054608
-24.267132,2.0885818,2.854156
-24.336851,2.0962029,2.8484163
-24.414665,2.1096704,2.8498993
-24.489426,2.1215785,2.8498201
-24.550262,2.1244097,2.8391466
-24.619123,2.1331043,2.8357344
-24.844032,2.2515492,2.9648685
-24.805706,2.1863298,2.8729863
-24.002766,1.573199,2.1165638
-23.99302,1.52072,2.037766
-24.00977,1.4867578,1.9813952
-24.0056,1.4369206,1.9056005
-23.997772,1.3835804,1.8253899
-24.00437,1.340251,1.7573428
-23.971542,1.2662647,1.6514502
-25.393019,2.3097682,2.9257102
-25.446545,2.3122482,2.9174552
-24.181778,1.2789607,1.6235466
-24.198513,1.2415466,1.5628715
-24.219578,1.2070646,1.5058298
-25.701067,2.3576827,2.930544
-24.616226,1.4275978,1.7545304
-25.74685,2.315566,2.8569493
-25.79796,2.3177874,2.8494973
-25.850748,2.3216836,2.844315
-25.908682,2.330287,2.8452473
-25.96059,2.3340547,2.84024
-26.02044,2.3450785,2.844605
-26.076595,2.3532765,2.8455672
-26.130844,2.3601475,2.8450165
-26.18435,2.3666964,2.844222
-26.23712,2.3729188,2.843174
-26.295788,2.3849652,2.8497539
-26.34652,2.3900213,2.8475409
-26.39819,2.3962805,2.8470259
-26.451834,2.4047835,2.8495593
-26.497824,2.406213,2.8431172
-26.647432,2.5102048,2.9695387
-26.744392,2.5643144,3.0318804
-26.793278,2.571282,3.0333562
-26.839935,2.5763195,3.0324645
-26.886957,2.5820358,3.0325904
-26.933823,2.5879076,3.0330544
-26.977556,2.590768,3.029715
-27.023642,2.5964131,3.03014
-27.067148,2.5995574,3.0274158
-27.103355,2.5948663,3.0145192
-27.166187,2.6201096,3.0410805
-27.205484,2.6194258,3.0336914
-27.248001,2.6226044,3.0314956
-27.292252,2.6280618,3.0324225
-27.337713,2.6352727,3.0357904
-27.378063,2.6367068,3.03163
-27.421888,2.642582,3.0334635
-27.463371,2.6458912,3.0320058
-27.503456,2.6477027,3.0286632
-27.54304,2.6490915,3.0248585
-27.58256,2.6505983,3.0213108
-27.624504,2.6554947,3.0223856
-27.663036,2.65615,3.0179
-27.702328,2.6580136,3.0151243
-27.743145,2.6621866,3.0155396
-27.781479,2.6631877,3.0118032
-27.820538,2.665401,3.0097861
-27.861046,2.669935,3.0109844
-27.901808,2.6751447,3.0131927
-27.93612,2.6710699,3.002995
-27.974503,2.673184,3.0012178
-28.015333,2.679298,3.0049314
-28.04679,2.6710737,2.9893718
-28.076288,2.659583,2.9694562
-28.090881,2.6236067,2.9164433
-28.11698,2.6055045,2.8876443
-28.142086,2.585211,2.8559117
-28.179974,2.5862615,2.8531923
-28.2207,2.5924714,2.8575687
-28.259693,2.5959904,2.8583841
-28.29704,2.596807,2.8556108
-28.335558,2.599983,2.8561354
-28.375174,2.605527,2.8599772
-28.412313,2.6066635,2.8578978
-28.451694,2.6124315,2.8622255
-28.489248,2.6149132,2.8621535
-28.52453,2.6129591,2.8560996
-28.560902,2.6133716,2.8533592
-28.598555,2.6167278,2.8547297
-28.636631,2.6213288,2.8578892
-28.673332,2.623186,2.8573728
-28.709726,2.6245728,2.8562908
-28.745111,2.623773,2.8522844
-28.782362,2.6276448,2.8547716
-28.82088,2.635055,2.8622065
-28.858116,2.6397095,2.8659363
-28.894588,2.642745,2.8675213
-28.930765,2.6453068,2.8685317
-28.966053,2.6456676,2.8665867
-29.002506,2.6495743,2.869605
-29.038862,2.6535802,2.872838
-29.073435,2.6524982,2.8691287
-29.1091,2.654967,2.8703933
-29.145397,2.6598418,2.8750558
-29.18124,2.6636596,2.878335
-29.216171,2.6646836,2.8778286
-29.251068,2.665799,2.8775215
-29.285776,2.6664276,2.8766127
-29.32031,2.666568,2.8751001
-29.355108,2.6679587,2.8753881
-29.390265,2.6711807,2.8782854
-29.424578,2.6710138,2.8765597
-29.459246,2.672678,2.877442
-29.494331,2.6767573,2.8817425
-29.528774,2.678023,2.8822155
-29.562868,2.677633,2.8804617
-29.59745,2.6802413,2.882936
-29.631418,2.6794472,2.8807597
-29.665308,2.6781583,2.877965
-29.699377,2.678121,2.876976
-29.733953,2.6822522,2.8818436
-29.767828,2.6812267,2.87962
-29.802025,2.6832037,2.8816347
-29.836397,2.6876025,2.887083
-29.870277,2.687424,2.8862414
-29.9042,2.687915,2.8863983
-29.938145,2.6890783,2.8875566
-29.971872,2.6868258,2.884036
-30.00572,2.6864116,2.8831377
-30.03965,2.68842,2.885675
-30.073523,2.6899316,2.8875895
-30.107338,2.6897788,2.8872576
-30.14116,2.6902966,2.8879256
-30.17495,2.6932373,2.8920302
-30.208742,2.6927607,2.891451
-30.24266,2.6882834,2.8853793
-30.276537,2.687398,2.884367
-30.310461,2.686015,2.8827314
-30.34459,2.6818008,2.8772302
-30.378765,2.6782591,2.8727322
-30.413204,2.6724725,2.8651824
-30.448242,2.6615248,2.8505344
-30.484274,2.6430886,2.8255553
-42.66426,0.40365243,2.0652304
-42.780846,0.4039116,2.1044145
-42.58142,0.54257536,2.276022
-42.48042,0.78398085,2.6590328
-42.486214,0.8298633,2.7407932
-42.320107,0.94631505,2.8865056
-42.35117,0.98050404,2.9569998
-42.38173,1.0147552,3.0276265
-42.36947,1.0660412,3.1133795
-42.42896,1.0883536,3.1735697
-42.51296,1.1011035,3.225749
-42.565643,1.1263306,3.2890782
-42.645603,1.1410556,3.3437223
-42.76381,1.1413836,3.3866897
-42.925957,1.1255724,3.4169278
-43.051437,1.1243479,3.460164
-43.25448,1.0948427,3.4811563
-43.462433,1.0646276,3.502883
-43.609154,1.0578792,3.544592
-43.625072,1.0990779,3.6248302
-43.74243,1.1037581,3.6767788
-43.814026,1.1251371,3.742216
-43.882545,1.1477628,3.8089924
-44.023212,1.1454587,3.8576112
-44.118793,1.1593072,3.9189882
-44.262074,1.1572247,3.96945
-45.445614,0.80465055,3.7715979
-45.46795,0.8477149,3.8595161
-45.500797,0.8871219,3.9449568
-45.523766,0.9296596,4.0326424
-45.54146,0.9737432,4.1214085
-46.032803,0.8654773,4.110669
-46.427155,0.79089737,4.1252594
-47.023834,0.6548166,4.104193
-23.420242,1.9865744,2.8265576
-23.5293,2.0129216,2.8399162
-23.63342,2.0370824,2.8511868
-23.710064,2.0452523,2.8441448
-23.818398,2.0733473,2.8608527
-23.90741,2.0902631,2.8648143
-23.9767,2.0954018,2.8551774
-24.065788,2.1134486,2.8611498
-24.138895,2.1218863,2.8560138
-24.23714,2.1469946,2.871108
-24.289356,2.1428125,2.8514314
-24.356895,2.148901,2.8442945
-24.43187,2.1603107,2.8438354
-24.502449,2.16924,2.8406496
-24.564604,2.1728718,2.8312826
-24.654453,2.1958306,2.845695
-24.751226,2.224303,2.867197
-23.75564,1.4882212,1.9516101
-23.965553,1.590539,2.0620484
-23.991709,1.5638261,2.0142984
-24.000576,1.5243332,1.9507751
-23.996435,1.4747818,1.8747268
-23.989283,1.4222353,1.7948375
-24.004272,1.3853643,1.7343454
-24.009686,1.3407626,1.6641674
-25.389114,2.342093,2.9037557
-25.448357,2.3487914,2.9010382
-25.533644,2.3761141,2.9244695
-25.599756,2.3891597,2.9302087
-25.648338,2.3887596,2.9191737
-25.681007,2.3757641,2.892322
-25.72235,2.3697386,2.8743958
-25.755342,2.3569238,2.8479366
-25.801643,2.3550863,2.8355541
-25.85916,2.3628383,2.8355613
-25.921164,2.3747818,2.8411222
-25.979391,2.3839548,2.843327
-26.035658,2.3918326,2.8440504
-26.08886,2.3973954,2.8419647
-26.144733,2.4056637,2.843535
-26.199833,2.413623,2.8448772
-26.254723,2.4217756,2.8466377
-26.307747,2.428595,2.8468351
-26.360588,2.4355965,2.8474274
-26.411072,2.440735,2.8457475
-26.461939,2.446556,2.8451056
-26.499878,2.440208,2.8286905
-26.693317,2.586055,3.011846
-26.748686,2.5989258,3.021183
-26.794455,2.6026654,3.0186815
-26.84266,2.609152,3.019926
-26.887655,2.612676,3.0173974
-26.93103,2.6147785,3.013115
-26.975311,2.6180644,3.0105138
-27.021446,2.623592,3.011004
-27.065,2.6266396,3.008329
-27.10845,2.6298258,3.0059538
-27.156067,2.6379054,3.0102086
-27.198315,2.6403182,3.00704
-27.243723,2.6465774,3.0091171
-27.28529,2.6487286,3.0058236
-27.329496,2.654206,3.00709
-27.370415,2.656085,3.0036483
-27.41081,2.657553,2.9997578
-27.4507,2.6586063,2.9954104
-27.490097,2.6592407,2.9905972
-27.530724,2.6616094,2.9882164
-27.572107,2.66518,2.9875598
-27.61338,2.6688778,2.9871774
-27.653309,2.6710753,2.984868
-27.689108,2.667961,2.9754634
-27.72773,2.668754,2.9714355
-27.771814,2.6772926,2.978012
-27.81103,2.679417,2.9759874
-27.84787,2.6783733,2.9697466
-27.88696,2.680723,2.9682093
-27.927082,2.6848347,2.9691658
-27.965258,2.6863163,2.966631
-28.001568,2.6851525,2.9605718
-28.033966,2.6780188,2.9464307
-28.063332,2.6659904,2.9256554
-28.086384,2.6435053,2.8906093
-28.111217,2.6232717,2.8586755
-28.14773,2.6219642,2.852746
-28.18489,2.6218698,2.8485627
-28.222988,2.6235492,2.846899
-28.263226,2.6292422,2.850843
-28.301462,2.6317015,2.8504276
-28.339922,2.6348288,2.8510194
-28.379183,2.6397467,2.8541665
-28.416563,2.6414118,2.8529134
-28.45388,2.6431813,2.8518867
-28.490854,2.6444914,2.850308
-28.528875,2.6481576,2.852067
-28.56572,2.6496754,2.8509364
-28.604086,2.6546822,2.8547192
-28.641037,2.6569717,2.8548207
-28.67691,2.6570997,2.8520036
-28.713497,2.659024,2.8517547
-28.747858,2.6559434,2.844634
-28.786009,2.6620376,2.8503308
-28.823782,2.6676712,2.8554726
-28.860752,2.6717043,2.8584695
-28.89805,2.6769786,2.863274
-28.933954,2.678936,2.8635392
-28.969389,2.6798494,2.8624253
-29.005383,2.6825707,2.8639054
-29.041492,2.6859617,2.8663945
-29.076206,2.6854453,2.8635063
-29.112906,2.6913192,2.8696113
-29.148064,2.6927094,2.8695312
-29.183516,2.6953406,2.8712559
-29.217754,2.6940484,2.8675704
-29.252632,2.6951427,2.8672905
-29.287777,2.6974783,2.8688178
-29.322857,2.6999075,2.8705482
-29.357456,2.7007031,2.8700624
-29.392159,2.7021656,2.8705807
-29.4272,2.7054472,2.8737178
-29.46216,2.708822,2.8770561
-29.496923,2.7117128,2.8797874
-29.53085,2.7106552,2.8770514
-29.564476,2.7079527,2.8720765
-29.598928,2.7099576,2.8737717
-29.633146,2.7108972,2.8740387
-29.667336,2.7119246,2.8744988
-29.701735,2.714776,2.8775873
-29.735697,2.7148244,2.8768082
-29.770124,2.7190123,2.881909
-29.804028,2.7192369,2.8815117
-29.837753,2.7178123,2.8788652
-29.871452,2.715895,2.8755922
-29.905273,2.7152224,2.874134
-29.939142,2.7152164,2.8736792
-29.9731,2.717036,2.875856
-30.00694,2.717205,2.8757796
-30.04089,2.720938,2.8807788
-30.07468,2.7212803,2.8810802
-30.108438,2.719971,2.879125
-30.142223,2.7199075,2.8789868
-30.176025,2.7181914,2.876593
-30.209732,2.7235196,2.8841653
-30.24348,2.723716,2.8845916
-30.277338,2.7211015,2.8811336
-30.311367,2.7162564,2.874608
-30.345428,2.7126584,2.8699012
-30.379444,2.7108867,2.8678284
-30.413265,2.7120993,2.8700147
-30.448175,2.701237,2.8553057
-30.48579,2.6661513,2.8066416
-42.456528,0.515826,2.0360136
-42.550674,0.5254619,2.0829897
-42.647278,0.5343547,2.1296792
-42.773785,0.5307069,2.1646514
-42.44219,0.86930203,2.643704
-42.47484,0.90380716,2.7149801
-42.287487,1.0277147,2.869133
-42.309658,1.0653207,2.9427128
-42.38583,1.0811553,2.9964957
-42.340866,1.1451182,3.0940642
-42.44543,1.1497836,3.1382203
-42.50377,1.1728125,3.199204
-42.54575,1.2022097,3.266036
-42.61319,1.2218692,3.3245769
-42.695568,1.2360432,3.3787384
-42.848663,1.224052,3.4110937
-42.99653,1.2147582,3.4466457
-43.17341,1.1955497,3.4748478
-43.39399,1.1613967,3.4918666
-43.656784,1.1132879,3.4989634
-43.755577,1.125052,3.5558577
-43.705536,1.1896346,3.6552124
-43.7789,1.2104712,3.719841
-43.872105,1.2246308,3.7797184
-43.95498,1.2426436,3.8430882
-44.063343,1.2522612,3.9006338
-44.210293,1.2493472,3.9495764
-44.346134,1.2507949,4.00267
-45.500504,0.917747,3.816368
-45.50926,0.9651036,3.9075518
-45.497787,1.018723,4.00303
-45.530327,1.0579073,4.0884295
-45.806213,1.0200887,4.122258
-46.208908,0.94405985,4.1329207
-46.8639,0.7921562,4.097552
-47.3129,0.70721817,4.109677
-47.903137,0.58193684,4.1001997
-23.351662,2.0337746,2.817603
-23.46854,2.0635982,2.835598
-23.58628,2.0948,2.855723
-23.661554,2.10159,2.8473248
-23.751963,2.1178966,2.8505702
-23.842731,2.1350176,2.8551517
-23.924458,2.147198,2.8541594
-24.024548,2.1712701,2.8678174
-24.09488,2.1774554,2.860249
-24.222475,2.2202303,2.8973322
-24.244865,2.196939,2.8545399
-24.310377,2.2012455,2.8454657
-24.38689,2.2130582,2.845818
-24.456884,2.2210734,2.8417883
-24.521164,2.2256975,2.8338318
-24.597595,2.2388253,2.8366055
-24.740965,2.2978811,2.896574
-24.775166,2.2835631,2.8659573
-23.739458,1.5282364,1.912036
-23.798466,1.5234678,1.8909941
-25.022598,2.3426352,2.902411
-25.098063,2.3586097,2.9105024
-25.177076,2.3777099,2.9227996
-25.22261,2.3730123,2.905336
-25.275253,2.373679,2.894794
-25.31185,2.3626246,2.8695421
-25.361923,2.361703,2.857267
-25.442814,2.3844383,2.8753061
-25.491322,2.3829684,2.8627
-25.544765,2.3855186,2.8553843
-25.618422,2.4042327,2.8689861
-25.660492,2.3984609,2.851334
-25.722626,2.4088976,2.8546972
-25.767654,2.4058764,2.8408666
-25.82701,2.4147658,2.8425875
-25.88258,2.4209194,2.8409438
-25.936214,2.4257884,2.8377995
-25.990276,2.4313385,2.8357038
-26.045332,2.4380689,2.835312
-26.099627,2.4444952,2.8346872
-26.156576,2.4536078,2.837747
-26.209917,2.4599173,2.8372989
-26.26531,2.4684212,2.8398957
-26.321033,2.477624,2.8435788
-26.371593,2.4824777,2.8416858
-26.42309,2.4885147,2.8415022
-26.472263,2.492695,2.8390064
-26.520771,2.4965303,2.8361893
-26.687817,2.6154218,2.9865007
-26.74484,2.6296077,2.9979916
-26.789639,2.6321933,2.9941778
-26.837408,2.638011,2.9948044
-26.887043,2.6460521,2.9985375
-26.930447,2.6480548,2.9943175
-26.973766,2.6501951,2.9903946
-27.01896,2.6545513,2.9895635
-27.050901,2.644985,2.9701056
-27.110392,2.6652684,2.9909644
-27.15136,2.6658764,2.9854326
-27.191801,2.666085,2.9794617
-27.23452,2.6690447,2.9773169
-27.280352,2.6758285,2.980465
-27.320099,2.6758933,2.9746113
-27.363842,2.6808417,2.975493
-27.403452,2.6811535,2.9701753
-27.445644,2.6847737,2.9694605
-27.482962,2.6826627,2.9610305
-27.521137,2.681726,2.954289
-27.558025,2.6792934,2.94559
-27.59992,2.6833987,2.9459286
-27.644567,2.6913934,2.951702
-27.68334,2.6919956,2.947441
-27.72366,2.6948676,2.9463902
-27.764673,2.6989415,2.9470878
-27.801289,2.6971853,2.9398546
-27.83714,2.694446,2.931347
-27.875652,2.6956086,2.9283023
-27.91485,2.6979709,2.9270015
-27.953598,2.699903,2.9251966
-27.99119,2.7003093,2.9213681
-28.025543,2.6958992,2.9109488
-28.057854,2.6882913,2.8961663
-28.082378,2.6681385,2.8640323
-28.115067,2.6606703,2.8495517
-28.1532,2.6620913,2.847496
-28.191599,2.6641724,2.8464432
-28.230886,2.6680202,2.8479342
-28.267855,2.6681101,2.8442755
-28.30603,2.670518,2.8439302
-28.34443,2.6735888,2.8445945
-28.38274,2.6767693,2.8454957
-28.41949,2.6772773,2.8427439
-28.457636,2.6806717,2.8441095
-28.494278,2.6813855,2.841804
-28.531706,2.683875,2.8420644
-28.569862,2.688147,2.8449044
-28.607904,2.6925268,2.8479786
-28.644798,2.694773,2.8481383
-28.680614,2.6948764,2.8453655
-28.718126,2.699009,2.8483315
-28.75673,2.706058,2.8554802
-28.792583,2.707025,2.8541522
-28.829767,2.7114708,2.8577967
-28.8655,2.7126353,2.856896
-28.902489,2.717284,2.8609815
-28.93767,2.717513,2.85891
-28.973442,2.7195337,2.859437
-29.008953,2.7210846,2.8593736
-29.044607,2.7232974,2.8603191
-29.08057,2.7267406,2.8630748
-29.115536,2.7274425,2.8620276
-29.150995,2.7299428,2.863594
-29.185707,2.7302618,2.862146
-29.220234,2.7301042,2.8600917
-29.256008,2.734593,2.864686
-29.291218,2.7374682,2.8670673
-29.325914,2.7387266,2.867227
-29.36141,2.743501,2.8724403
-29.396255,2.7460861,2.87462
-29.430525,2.7464778,2.873757
-29.465382,2.7498178,2.8771448
-29.499577,2.7503896,2.8766723
-29.53386,2.7516234,2.8772058
-29.568312,2.754091,2.8795595
-29.602018,2.7526393,2.876412
-29.635838,2.7518473,2.874267
-29.669662,2.751143,2.872311
-29.703814,2.7528193,2.8738055
-29.738438,2.7586007,2.8812022
-29.77239,2.7598817,2.8822675
-29.806433,2.762399,2.8851562
-29.840248,2.7632816,2.885786
-29.873892,2.762529,2.8841538
-29.907415,2.7601395,2.8802576
-29.94117,2.7607088,2.8806353
-29.975004,2.7630882,2.8836536
-30.008709,2.7638311,2.884408
-30.042276,2.7612123,2.8804426
-30.075964,2.7615538,2.8807545
-30.10965,2.7625563,2.8820724
-30.143309,2.7613463,2.8803048
-30.176971,2.762522,2.881998
-30.210665,2.7609096,2.879787
-30.244339,2.7611089,2.8802185
-30.278103,2.7590957,2.8775659
-30.311853,2.7583187,2.876738
-30.346075,2.750159,2.8654685
-30.379896,2.750132,2.8658376
-30.413908,2.747894,2.8631268
-30.449562,2.7285163,2.8360977
-30.486217,2.7034953,2.8011131
-42.37897,0.5790844,1.9473362
-42.443604,0.6016693,2.0065799
-42.65061,0.61378527,2.092791
-42.710262,0.6390469,2.1556964
-42.806404,0.74924517,2.3792114
-42.465935,0.9377997,2.6000724
-42.473335,0.982564,2.6812882
-42.470436,1.0311224,2.7660203
-42.35001,1.1259234,2.8940692
-42.314465,1.1860666,2.9889345
-42.36372,1.2125583,3.0523658
-42.40107,1.2436509,3.1202087
-42.41308,1.2843463,3.1968837
-42.495796,1.2980351,3.2492542
-42.541668,1.3257883,3.3145657
-42.652573,1.3294067,3.3588033
-42.763428,1.3335061,3.4040852
-42.89315,1.3311987,3.4444666
-43.029236,1.3271911,3.484158
-43.320316,1.2685053,3.4785123
-43.50686,1.248466,3.5069933
-43.754692,1.2079489,3.5197601
-44.050568,1.15217,3.5217009
-43.701065,1.3194904,3.7050853
-43.8079,1.3291152,3.760634
-43.89159,1.3469372,3.8232508
-44.005417,1.3549781,3.8787904
-44.128334,1.3604774,3.9331017
-44.249283,1.367132,3.9890594
-45.47242,1.0182118,3.7827134
-45.48201,1.0650644,3.8735952
-45.506763,1.1068666,3.960805
-45.522507,1.151346,4.049964
-45.603096,1.1755106,4.12505
-46.156727,1.0546834,4.1019835
-46.530514,0.9917002,4.1217003
-47.11579,0.8671789,4.1038966
-47.650654,0.7610166,4.102351
-48.2207,0.64751315,4.1003013
-23.388561,2.103803,2.818509
-23.50682,2.1340327,2.838076
-23.615587,2.1596134,2.852532
-23.698832,2.1709628,2.8502183
-23.789833,2.1874254,2.8544312
-23.88554,2.2073154,2.8631768
-23.985142,2.230233,2.8760028
-24.052643,2.2342231,2.8660154
-24.122856,2.2402363,2.858756
-24.253942,2.2846515,2.899138
-24.260616,2.2517354,2.844339
-24.333794,2.2607856,2.8415942
-24.404636,2.268774,2.8377905
-24.469719,2.2734313,2.8300772
-24.544975,2.2851174,2.8313904
-24.60899,2.2898328,2.8242178
-24.695292,2.3098314,2.836512
-24.830458,2.3635898,2.8917685
-24.90546,2.3775268,2.8971338
-24.959461,2.3774655,2.8849883
-25.015385,2.3789806,2.8750196
-25.06398,2.3755848,2.8589578
-25.12891,2.3840034,2.8581586
-25.183233,2.3851805,2.8482838
-25.254864,2.3992243,2.855123
-25.309528,2.4012952,2.8467736
-25.373615,2.41065,2.8480024
-25.431784,2.4159737,2.8442202
-25.491661,2.4229355,2.8427453
-25.55569,2.433458,2.8460937
-25.610823,2.4375112,2.8412118
-25.670095,2.4451234,2.8411484
-25.72673,2.4510212,2.839025
-25.781384,2.4556684,2.8354316
-25.833496,2.4585652,2.8297014
-25.890232,2.4655366,2.8294902
-25.949123,2.4746633,2.8322968
-26.006025,2.4825332,2.8336196
-26.062136,2.490115,2.834732
-26.11861,2.4983878,2.8369298
-26.174295,2.5063674,2.8389053
-26.225822,2.5110724,2.83668
-26.278318,2.5169473,2.836164
-26.32898,2.5215075,2.8340383
-26.38388,2.5302393,2.8376465
-26.434208,2.535152,2.836285
-26.48169,2.5377188,2.8319097
-26.528004,2.5394325,2.8265128
-26.614351,2.5797305,2.8732934
-26.675259,2.5965495,2.8886352
-26.762695,2.6400301,2.9402466
-26.801537,2.6364663,2.9283767
-26.870333,2.663167,2.9576888
-26.896357,2.6470966,2.929058
-26.933094,2.6418607,2.9152203
-26.978249,2.6454797,2.9135408
-27.01696,2.6425338,2.9030118
-27.059532,2.6438394,2.8983855
-27.141535,2.6883228,2.952999
-27.180695,2.6868725,2.9448848
-27.224958,2.6912692,2.9448905
-27.266327,2.6926732,2.9408941
-27.306711,2.6931572,2.9357295
-27.341204,2.6869423,2.9214272
-27.382881,2.6892307,2.9189324
-27.417892,2.6837437,2.9057927
-27.456436,2.6825736,2.8986998
-27.506939,2.6963294,2.9123707
-27.543182,2.6927612,2.9021492
-27.58071,2.6908872,2.8943577
-27.618645,2.6896508,2.887535
-27.658596,2.6911895,2.8846588
-27.699276,2.6939154,2.8835273
-27.737492,2.6935508,2.87818
-27.777622,2.6959774,2.8768148
-27.820734,2.7028224,2.8817148
-27.861397,2.7065716,2.8823872
-27.901945,2.7104423,2.8833246
-27.940176,2.711192,2.8799796
-27.977272,2.7104282,2.8745956
-28.013283,2.7081413,2.8671513
-28.046856,2.702151,2.8545775
-28.081207,2.6973338,2.8437185
-28.118336,2.6969645,2.839191
-28.158434,2.7016103,2.8418078
-28.19742,2.704734,2.8423676
-28.235346,2.7063293,2.840856
-28.273205,2.7080312,2.8395748
-28.310999,2.70984,2.8385267
-28.348724,2.7117553,2.837709
-28.386377,2.7137773,2.837123
-28.423962,2.7159047,2.8367648
-28.461758,2.7186902,2.8374195
-28.498343,2.7193706,2.835167
-28.535711,2.7218125,2.8354902
-28.57489,2.7282379,2.8415527
-28.612587,2.7320027,2.8439164
-28.649921,2.7353182,2.8457203
-28.68716,2.7387383,2.8477507
-28.724548,2.742819,2.8507996
-28.761347,2.7458892,2.8524866
-28.797586,2.7479455,2.8528023
-28.833988,2.7506595,2.8541303
-28.869198,2.7506769,2.8516827
-28.905468,2.753587,2.853437
-28.941444,2.7560368,2.8546052
-28.976528,2.75634,2.8527784
-29.011784,2.757298,2.851956
-29.047773,2.7605982,2.8545547
-29.083298,2.7628713,2.8557563
