x,y,z
-39.028847,2.8835075,2.1377535
-39.173553,2.8695168,2.1239886
-39.232555,2.8854384,2.1618228
-38.97077,3.0090759,2.3841333
-38.982994,3.0395484,2.4466343
-39.013165,3.0639427,2.4987607
-39.03959,3.0894923,2.5528812
-39.065617,3.115088,2.6071024
-39.075104,3.145828,2.6700554
-39.11817,3.1658785,2.7149315
-39.186638,3.1781416,2.746746
-40.18256,2.9078703,2.3036308
-40.27835,2.9157834,2.3295832
-40.39582,2.9176607,2.345634
-40.58552,2.8988678,2.3274474
-40.68531,2.9072654,2.354959
-40.789516,2.9148302,2.3813019
-40.875362,2.928055,2.417242
-40.996338,2.9317808,2.4376836
-41.063614,2.950918,2.4837642
-41.695724,2.816121,2.2774072
-41.750168,2.8410509,2.3340092
-41.770416,2.8751764,2.405704
-41.786556,2.910251,2.4789486
-41.803932,2.9448507,2.5514174
-41.866623,2.9677076,2.604926
-42.019245,2.9680083,2.6222749
-42.16487,2.9708097,2.6440258
-42.386887,2.9555192,2.637257
-42.48396,2.9717672,2.681281
-42.67396,2.9661326,2.6908593
-42.84148,2.9667933,2.7109003
-42.98172,2.9746437,2.7427063
-43.160667,2.974245,2.76198
-43.325123,2.9780257,2.7882767
-43.44816,2.9918704,2.830658
-43.59616,3.0007432,2.8656998
-43.81946,2.9939291,2.8770552
-44.002205,2.996962,2.904151
-44.212204,2.9951308,2.9243975
-44.384148,3.0022826,2.9588957
-44.550568,3.0113893,2.9968667
-44.82417,2.9996085,3.0040798
-45.04649,2.9994686,3.0295238
-45.245483,3.0050182,3.064116
-45.42286,3.0157118,3.1069303
-45.67419,3.013172,3.1309943
-45.943874,3.0084646,3.152779
-46.17395,3.0124304,3.188016
-46.424225,3.0138664,3.2204452
-46.62697,3.0250354,3.2676039
-47.04216,2.9998574,3.2642517
-47.207924,3.0199573,3.3258033
-47.557915,3.009509,3.3455935
-47.859306,3.0089767,3.3803816
-48.19565,3.004221,3.4106026
-48.383694,3.0250974,3.4767685
-48.750416,3.0185163,3.5069828
-49.106857,3.015403,3.543314
-49.392807,3.0248697,3.5976148
-49.776897,3.0210102,3.6358962
-50.14573,3.0213437,3.6812296
-50.512833,3.0237818,3.7308712
-50.84207,3.0334265,3.7911668
-51.352997,3.0194426,3.8239393
-51.7666,3.0213387,3.8783956
-52.143166,3.0302572,3.9432354
-52.64818,3.0242474,3.992404
-53.546047,2.9704924,3.989036
-54.52561,2.9111872,3.984085
0.72088623,2.1570866,2.7129269
0.80272675,2.062845,2.522153
0.8077526,1.9778011,2.3426938
0.7890129,1.8955936,2.1668072
0.7651577,1.8139083,1.9916048
0.77713966,1.727164,1.809691
0.752758,1.6451542,1.6340094
0.7184143,1.5644088,1.4600601
0.7090931,1.4799175,1.2810144
-0.64985085,1.5951617,1.3791561
-0.95869446,1.5591564,1.2706099
-1.8688507,1.6170592,1.2959738
-2.614256,1.6539838,1.2947893
-3.307352,1.6864808,1.2899446
-3.681017,1.670769,1.217668
-4.1447697,1.6717608,1.171073
-3.3203526,1.4586618,0.81089926
-3.2383919,1.3673859,0.6283493
-4.1917,1.4552274,0.7127962
-6.430359,1.7061725,1.004868
-8.506693,1.6939464,0.7660098
-9.959629,1.919858,1.0878491
-10.361954,1.9404886,1.0898848
-9.799147,1.7639437,0.7802801
-10.383932,1.6404431,0.46555614
-12.505869,2.0495987,1.1006575
-12.712393,2.0405133,1.0613484
-12.956299,2.040949,1.0380883
-12.943926,1.983283,0.92023087
-12.668522,1.8070807,0.58380127
-12.86549,1.7978473,0.54551506
-12.648394,1.6883268,0.34111357
-12.678577,1.6382818,0.23518515
-21.227425,3.0207703,2.262342
-21.783865,3.071017,2.3153687
-21.947853,3.0943213,2.348302
-21.988651,3.075012,2.3057642
-24.947725,3.1760428,2.275823
-27.338879,3.20843,2.2015991
-27.378727,3.160775,2.1071281
-26.693415,2.1687496,0.20703363
-27.410044,2.8519108,1.5055885
-27.469715,2.81127,1.4244204
-27.506369,2.798378,1.3980365
-27.098858,2.174053,0.20194721
-28.013529,3.2613664,2.2776022
-28.036135,3.2389064,2.233276
-28.07455,3.2365808,2.2274485
-28.116228,3.2387395,2.2302241
-28.15073,3.2313654,2.2147965
-28.18757,3.2271533,2.205439
-28.220446,3.2173119,2.1853342
-28.256552,3.2119584,2.1738396
-28.279957,3.1876912,2.126154
-28.299576,3.1568093,2.0658083
-28.317387,3.1219428,1.9978313
-28.342497,3.0972908,1.9494247
-28.317276,2.9899116,1.7424932
-28.32512,2.932666,1.6315985
-28.348839,2.8999095,1.5676355
-28.322922,2.779115,1.3348684
-28.32692,2.7059844,1.1934543
-28.322058,2.6130443,1.014019
-28.31889,2.5186243,0.83171225
-28.335829,2.458239,0.71468115
-28.317192,2.3240104,0.4559226
-38.661125,2.0137198,0.20460844
-38.53232,2.117884,0.40266514
-38.51154,2.171139,0.5073738
-38.515213,2.2126865,0.59062004
-38.53497,2.246631,0.6599593
-38.53192,2.2902753,0.74696827
-38.503468,2.3444126,0.8530283
-38.572517,2.3560114,0.88165045
-38.530304,2.4149563,0.9963422
-38.56463,2.4409788,1.0511951
-38.571953,2.478067,1.1261177
-38.50223,2.5463245,1.2574143
-38.519257,2.5784004,1.3231516
-38.525673,2.6144638,1.3960762
-38.540707,2.646771,1.4622016
-38.549706,2.6811779,1.5320945
-38.561977,2.7140107,1.5991354
-38.581516,2.7437944,1.6606865
-38.610016,2.7699912,1.715805
-38.630142,2.7991948,1.7763219
-38.676094,2.8186834,1.8194723
-38.71617,2.8403518,1.8665662
-38.77123,2.85661,1.904058
-38.860878,2.860657,1.9198923
-38.916542,2.8770835,1.957861
-38.9761,2.892277,1.9937158
-38.94621,2.9384086,2.084436
-38.95983,2.9691768,2.1478968
-39.059685,2.970758,2.1598425
-38.97553,3.0339372,2.2804656
-38.992516,3.0629535,2.3407998
-39.01236,3.0908782,2.3992162
-39.035942,3.1174662,2.4552946
-39.06416,3.1424825,2.5086384
-39.114838,3.1604037,2.549624
-39.110924,3.1953046,2.6202521
-40.077736,2.933445,2.175087
-40.238823,2.9215584,2.1655636
-40.34375,2.9273047,2.1868753
-40.460857,2.929942,2.2030144
-40.629204,2.9182405,2.194676
-40.761616,2.9177847,2.2060146
-40.860313,2.9275544,2.2351522
-40.931927,2.945329,2.2781734
-41.03144,2.9556117,2.3085365
-41.628296,2.8304849,2.1086216
-41.748882,2.837646,2.1346817
-41.757946,2.875049,2.212192
-41.773502,2.9105332,2.286438
-41.79651,2.9439201,2.3571448
-41.875336,2.9629035,2.4036837
-42.0383,2.96089,2.4152312
-42.181786,2.9645598,2.436634
-42.34351,2.9644346,2.4520507
-42.49646,2.9672472,2.4727168
-42.6351,2.9742348,2.5006413
-42.824814,2.9697993,2.5100746
-42.977497,2.9749725,2.535746
-43.14224,2.9781048,2.5584502
-43.33838,2.9749217,2.571271
-43.44565,2.9926095,2.618473
-43.582306,3.004253,2.6561565
-43.804047,2.9980242,2.6653996
-43.97338,3.0041666,2.695078
-44.206043,2.9977512,2.7051487
-44.349724,3.0110495,2.7472048
-44.56155,3.0110276,2.7685604
-44.851334,2.9963229,2.7673821
-45.04232,3.0028,2.800251
-45.241913,3.0085158,2.832478
-45.441673,3.0151718,2.866744
-45.645355,3.0220528,2.9019456
-45.924866,3.0157447,2.9175153
-46.237038,3.004858,2.9269686
-46.444305,3.0145879,2.9686837
-46.719234,3.0132592,2.994378
-46.924873,3.0254622,3.0412302
-47.24137,3.0195365,3.0617762
-47.523834,3.0209968,3.0943003
-47.9178,3.0052953,3.1026154
-48.188473,3.011829,3.1446843
-48.42851,3.0246277,3.196751
-48.728333,3.0291352,3.2377872
-49.11525,3.0216153,3.262833
-49.390434,3.0331032,3.3160915
-49.72572,3.0369434,3.359716
-50.12815,3.0326033,3.3933353
-50.495003,3.0354314,3.4383526
-50.850407,3.0417182,3.4895225
-51.33554,3.0318131,3.5204892
-51.715775,3.0386262,3.575603
-52.200676,3.0334208,3.6166472
-52.639965,3.036621,3.6706505
-53.07749,3.042256,3.7297087
-53.670097,3.0307355,3.7692766
-54.04129,3.0492725,3.8486881
-54.71804,3.0331638,3.8878317
0.4860344,2.2727084,2.4978347
0.8331795,2.1465921,2.2628694
0.8036785,2.0657885,2.0886521
0.8013134,1.9813912,1.909482
0.7752495,1.8998528,1.7342601
0.76161003,1.8165131,1.5565019
0.7535362,1.7322016,1.3773222
0.7480755,1.6472774,1.1972065
-0.66171074,1.7622838,1.3089075
0.756546,1.4737947,0.83144426
0.12181091,1.481215,0.78820276
-1.2822666,1.6080289,0.9256997
-2.8111057,1.7616341,1.1082649
-3.8810577,1.8517165,1.19941
-3.8702812,1.7752347,1.0393605
-4.003496,1.7217622,0.91461134
-6.2016487,1.9408617,1.1741714
-6.643841,1.9471605,1.147099
-8.456717,2.0031867,1.1003761
-8.979055,2.0359359,1.1219401
-9.3598995,2.044795,1.1062951
-9.7673,2.0607126,1.1031141
-10.197287,2.0831645,1.1116533
-10.499117,2.0825775,1.0835547
-10.918041,2.1070085,1.0973644
-11.234497,2.1128101,1.0814533
-11.658054,2.142388,1.1057367
-12.043417,2.1662502,1.1215425
-12.297525,2.1642363,1.0950499
-12.816515,2.1663928,1.0542011
-12.820971,2.1127353,0.9422679
-12.808016,2.0548613,0.82315063
-12.652912,1.9640656,0.6480241
-12.919588,1.9697678,0.63689137
-12.758707,1.8763044,0.45686197
-12.643963,1.7924523,0.29287434
-21.185162,3.0301476,2.14002
-20.862507,2.8509173,1.7988043
-20.77456,2.7837932,1.6685395
-20.810219,2.7580736,1.6133623
-20.878702,2.7437057,1.5788822
-22.008709,3.102884,2.2255707
-24.910492,3.165911,2.1536884
-25.901484,3.1390233,2.043992
-25.959118,3.1054962,1.9743342
-27.347805,3.2095823,2.1176739
-27.37043,3.1882372,2.0747228
-27.400541,3.1740272,2.0455785
-26.700756,2.2248821,0.2011962
-26.818373,2.226941,0.20115614
-26.87996,2.2316346,0.20829725
-26.938381,2.2331045,0.20923233
-26.992687,2.2300441,0.20142174
-27.993362,3.269548,2.2132277
-28.01934,3.2511225,2.1762152
-28.055717,3.2456937,2.1644444
-28.090214,3.237762,2.1478348
-28.131916,3.2394521,2.1499338
-28.165947,3.2308388,2.1320405
-28.204784,3.228833,2.127007
-28.24058,3.2225735,2.113729
-28.269045,3.2054858,2.0794206
-28.289742,3.1762009,2.0214086
-28.307735,3.1416695,1.9531965
-28.331917,3.115476,1.9012012
-28.330164,3.0466628,1.7662964
-28.323229,2.9662955,1.6088858
-28.340157,2.9224007,1.5224271
-28.319254,2.8113523,1.3052502
-28.324055,2.7403493,1.1659889
-28.318487,2.647115,0.9834218
-28.309164,2.5422103,0.7780962
-28.341896,2.5122187,0.71864986
-28.257576,2.2509801,0.2087307
-38.499374,2.194833,0.4007721
-38.505287,2.2354941,0.4831562
-38.507465,2.2773488,0.5677366
-38.573486,2.2908704,0.5995016
-38.5263,2.3533828,0.722507
-38.54315,2.3876436,0.79287434
-38.555626,2.4234445,0.8660917
-38.487015,2.4926856,1.001337
-38.54831,2.5073242,1.0352287
-38.57681,2.5354555,1.0941672
-38.51779,2.5986392,1.2179427
-38.52569,2.634239,1.2906256
-38.54216,2.6661289,1.3564401
-38.558056,2.6979926,1.4221969
-38.571815,2.730427,1.488996
-38.588108,2.7616358,1.5535283
-38.614067,2.7889822,1.6109605
-38.63719,2.8172362,1.6700668
-38.697952,2.831528,1.7035985
-38.74662,2.8503656,1.7455192
-38.825497,2.858442,1.767827
-38.881863,2.8748016,1.8053536
-38.94938,2.8873887,1.8360715
-39.03956,2.8923573,1.853013
-39.122513,2.9001992,1.8753009
-39.198956,2.9105804,1.9023128
-39.243282,2.9319625,1.9493585
-38.975765,3.0561807,2.1824613
-38.989998,3.0862067,2.2449193
-39.01204,3.1135302,2.302496
-39.040333,3.1387444,2.3562837
-39.065712,3.1648035,2.4116092
-39.118496,3.1822646,2.4515243
-39.208332,3.1884866,2.4713788
-40.20324,2.9209962,2.0020447
-40.30347,2.9282532,2.0249252
-40.41577,2.9323857,2.0424032
-40.602997,2.9151819,2.0221372
-40.69864,2.92544,2.0509381
-40.82286,2.9279628,2.0661979
-40.91255,2.940792,2.0998883
-40.99436,2.9561627,2.138208
-41.190624,2.940466,2.1219926
-41.72538,2.8342931,1.9473033
-41.754158,2.866676,2.016438
-41.771843,2.9019012,2.090561
-41.78807,2.9373496,2.1650696
-41.866837,2.956575,2.2113543
-41.998035,2.9627757,2.235176
-42.183937,2.9559097,2.2366395
-42.257256,2.9778042,2.288124
-42.47431,2.964924,2.2798762
-42.609856,2.9727955,2.307713
-42.78261,2.972478,2.321807
-42.964756,2.9708338,2.3340049
-43.149975,2.9694047,2.346962
-43.257946,2.9864693,2.3916955
-43.400597,2.9962025,2.4242535
-43.543327,3.006578,2.4582038
-43.765247,3.0003614,2.4646006
-43.95903,3.0013351,2.483552
-44.10501,3.0133893,2.5214343
-44.3289,3.0098686,2.533773
-44.511368,3.0159998,2.5626335
-44.816982,2.9980984,2.5523095
-44.998203,3.0066173,2.5861506
-45.241325,3.0038548,2.601994
-45.402283,3.0182076,2.6463294
-45.66478,3.0139804,2.6609554
-45.89943,3.0163095,2.6868577
-46.140022,3.0187135,2.713511
-46.408333,3.0172906,2.7347074
-46.69597,3.013778,2.7533293
-46.936516,3.0199947,2.7881503
-47.177254,3.0273616,2.8254662
-47.567917,3.0104728,2.8255615
-47.83697,3.0159092,2.8615298
-48.158905,3.0140126,2.8869853
-48.458195,3.0173936,2.9215336
-48.715477,3.0289183,2.9694295
-49.072945,3.0261304,2.9964771
-49.36429,3.035244,3.042574
-49.69923,3.0392687,3.0820408
-50.079887,3.0382545,3.1151853
-50.492874,3.0345106,3.1456404
-50.865524,3.038567,3.1888986
-51.2977,3.0362487,3.2243052
-51.702034,3.0399036,3.269825
-52.22065,3.0303938,3.2982554
-52.606094,3.040886,3.3566403
-53.105976,3.0387032,3.3990002
-53.569046,3.0436532,3.453104
-54.089157,3.0439725,3.5028458
-54.59486,3.0486457,3.5605578
0.42975235,2.2804847,2.0736241
0.7951393,2.1519938,1.8297882
0.77492523,2.0698195,1.6534624
0.7690716,1.9856372,1.4741235
0.74541664,1.9035511,1.297905
1.347023,1.7373729,0.99337626
0.8951893,1.711904,0.903234
0.50346184,1.6802428,0.80485773
-1.4574547,1.8742208,1.0597878
-1.5291882,1.8041947,0.90578127
-2.824749,1.9156601,1.0390077
-2.8781013,1.8465157,0.888504
-4.3738613,1.9993248,1.0935321
-4.435272,1.9355471,0.9539118
-7.3687687,2.0002909,0.86122465
-8.464703,2.1274114,1.0439706
-8.681425,2.1024747,0.97474575
-8.883163,2.0757778,0.9030452
-9.637413,2.1526809,1.0067229
-9.987175,2.1573868,0.9897928
-10.178267,2.1334448,0.92490196
-10.884459,2.2107458,1.0332952
-11.181517,2.21104,1.011323
-11.689789,2.2552948,1.0655694
-12.068672,2.275958,1.0802226
-12.407776,2.290412,1.0849309
-12.746059,2.3064919,1.093164
-12.790266,2.2616289,0.99597645
-12.800295,2.2093349,0.8858595
-12.696878,2.1318705,0.73163843
-12.657848,2.0677774,0.6006298
-12.847273,2.0547438,0.55939007
-12.614029,1.9456973,0.34900284
-12.637106,1.8943915,0.2402749
-20.773205,2.8443542,1.6377845
-20.874851,2.840889,1.6239905
-20.864407,2.799687,1.5399337
-21.011383,2.8123689,1.5564599
-21.963856,3.1071758,2.1006851
-23.513765,3.1370769,2.0661101
-25.040613,3.1447797,1.9978094
-25.13512,3.1294107,1.9619746
-25.266132,3.1009464,1.8979969
-26.670906,3.0990777,1.8329792
-27.369558,3.221981,2.0541496
-27.388159,3.196291,2.0022163
-26.946846,2.2884593,0.20371723
-27.965351,3.2672405,2.1266532
-28.007378,3.268485,2.1280112
-28.040321,3.2583334,2.1069226
-28.079025,3.2555237,2.1003275
-28.116776,3.2515335,2.0914254
-28.153938,3.2467847,2.0810456
-28.191164,3.242133,2.0708752
-28.227541,3.236285,2.058364
-28.258955,3.223195,2.0315733
-28.283665,3.1997993,1.9844489
-28.302946,3.1673439,1.9194398
-28.323608,3.1357594,1.8561511
-28.339315,3.0950625,1.7748647
-28.326038,3.0056224,1.5972724
-28.341093,2.9591548,1.5045629
-28.319422,2.8480744,1.2841544
-28.323744,2.7769907,1.1427627
-28.31332,2.6760597,0.94235086
-28.31631,2.5946913,0.7805853
-28.336105,2.540878,0.67328835
-38.531803,2.2434618,0.34624863
-38.503716,2.2988894,0.45754862
-38.502205,2.3419905,0.5453038
-38.53437,2.370138,0.6045737
-38.525375,2.4155662,0.69670534
-38.550385,2.4461844,0.76066256
-38.5868,2.4718564,0.81523514
-38.519817,2.5397513,0.94988155
-38.557102,2.5643756,1.0024338
-38.58943,2.590899,1.0586009
-38.548008,2.6464517,1.1696696
-38.535313,2.689981,1.2579355
-38.55722,2.7196283,1.3199544
-38.587906,2.7457268,1.3752847
-38.60725,2.7759888,1.4384689
-38.64406,2.7995274,1.4890022
-38.673424,2.8257573,1.5446172
-38.70947,2.8494406,1.5954642
-38.77057,2.8640578,1.6293335
-38.846695,2.8734922,1.6535578
-38.905994,2.8891308,1.6894746
-39.002186,2.8921072,1.7017899
-39.0759,2.903247,1.7294612
-39.160145,2.9110832,1.7510562
-39.265663,2.912141,1.7601342
-39.332066,2.9266639,1.794385
-39.455975,2.9225821,1.7941613
-39.54388,2.9307895,1.8168969
-39.028397,3.131974,2.1971579
-39.057255,3.1572022,2.251103
-39.092415,3.1803994,2.3013153
-39.126385,3.2039428,2.3521934
-40.16709,2.9214761,1.839582
-40.254227,2.9327803,1.8688636
-40.370255,2.9358635,1.8831697
-40.509514,2.932699,1.8861909
-40.678257,2.9217324,1.8751416
-40.754738,2.9380395,1.9141836
-40.889755,2.9381027,1.9236994
-40.967056,2.9549072,1.9639039
-41.07724,2.9629374,1.9882655
-41.694878,2.833783,1.763926
-41.739616,2.8620963,1.8258171
-41.759377,2.897035,1.8997273
-41.782097,2.9310546,1.9719801
-41.832542,2.9578109,2.0311656
-41.971268,2.9622066,2.050243
-42.13864,2.960084,2.057868
-42.238594,2.9754956,2.0971441
-42.477158,2.9574785,2.0769234
-42.586365,2.9719217,2.1149378
-42.751335,2.973577,2.1304188
-42.93826,2.9709113,2.1385398
-43.121952,2.9699473,2.1500177
-43.205215,2.9927857,2.203805
-43.39022,2.9930587,2.218048
-43.5856,2.9919665,2.2302513
-43.73831,3.0011725,2.260848
-43.88655,3.012058,2.2946653
-44.06247,3.0177605,2.319759
-44.247818,3.0223486,2.3432727
-44.52313,3.0093396,2.3367572
-44.784264,3.0006611,2.3382912
-44.974377,3.0075188,2.3670607
-45.197292,3.008852,2.386784
-45.378506,3.0193727,2.4226594
-45.59727,3.0236008,2.4482403
-45.88855,3.015317,2.4531426
-46.138065,3.0162485,2.474256
-46.328552,3.0291512,2.516049
-46.626774,3.0237155,2.5276284
-46.894264,3.0252101,2.5514698
-47.14881,3.030284,2.5818992
-47.518604,3.0170534,2.5827746
-47.743393,3.0299497,2.6274848
-48.154312,3.013403,2.6246881
-48.43982,3.0192108,2.6593056
-48.704506,3.0297327,2.7023015
-49.06624,3.0264702,2.7238693
-49.345787,3.0375905,2.7694182
-49.61006,3.0523686,2.8215585
-50.141525,3.0291765,2.81457
-50.44111,3.0421772,2.8658705
-50.808517,3.0470638,2.9054422
-51.25664,3.0426152,2.9317226
-51.618885,3.0521107,2.980784
-52.130024,3.0436134,3.0036464
-52.6359,3.038422,3.0331736
-53.090626,3.0423334,3.078
-53.553467,3.0475268,3.1262765
-54.11042,3.0435753,3.162763
-54.57488,3.0534928,3.2213645
1.1709518,2.1994896,1.5002866
1.034338,2.0448494,1.1615424
1.0488949,1.9570312,0.97542477
0.8981552,1.8905363,0.8238535
0.36108398,1.8763571,0.75818014
-1.5226688,2.0490885,1.0014119
-2.677515,2.1302943,1.0980759
-3.0818062,2.1108093,1.030098
-2.9499645,2.0154588,0.83615875
-3.2039623,1.9761913,0.73614883
-3.1667767,1.8941314,0.56438494
-7.970175,2.23579,0.9773073
-9.182373,2.3783405,1.2010975
-9.249432,2.328455,1.0912776
-9.495171,2.310297,1.0371747
-8.801138,2.1242254,0.6881733
-10.586367,2.3871622,1.1300993
-10.647957,2.3400736,1.0267587
-10.507692,2.2549355,0.8559284
-10.559904,2.2055895,0.74852324
-10.936037,2.2194042,0.7539902
-11.268669,2.2265902,0.7482672
-11.556236,2.226444,0.7299671
-12.786301,2.420181,1.0612803
-12.808327,2.3708525,0.95605755
-12.809118,2.3168929,0.8424525
-12.682768,2.2354817,0.67901134
-12.904587,2.2284012,0.6504488
-12.805037,2.15175,0.495461
-12.688824,2.0704203,0.33171368
-20.969635,2.935625,1.655395
-20.788414,2.8381178,1.4628639
-21.10453,2.906941,1.5885682
-21.098572,2.8677926,1.507699
-21.981901,3.1020863,1.9461751
-23.512955,3.1539571,1.975224
-23.672934,3.089696,1.8352036
-24.45441,3.0159948,1.6482229
-26.384735,3.227258,2.0036345
-27.00673,3.0010343,1.5247636
-27.422468,3.0334826,1.5794148
-27.457441,3.0207324,1.5527387
-27.56268,3.0345368,1.578104
-27.65897,3.092517,1.6930943
-27.715527,3.1062083,1.7194595
-27.909172,3.2339604,1.9733462
-27.996136,3.289603,2.083891
-28.027275,3.2769566,2.0576468
-28.0649,3.2723932,2.0476136
-28.102259,3.2675052,2.0369463
-28.14,3.2631376,2.027339
-28.1781,3.259293,2.018796
-28.218063,3.2580998,2.0155864
-28.255611,3.2536092,2.0057797
-28.274834,3.2223327,1.942256
-28.297998,3.1957629,1.8881745
-28.31707,3.1619363,1.8195372
-28.332624,3.1212487,1.7371297
-28.330456,3.0504732,1.594327
-28.336212,2.9894838,1.4711528
-28.319992,2.8887773,1.2682276
-28.31876,2.8090332,1.1073637
-28.3089,2.7101588,0.9080663
-28.317932,2.640559,0.7675371
-28.329983,2.5730598,0.63121605
-38.49831,2.3644924,0.4318781
-38.505547,2.4034677,0.5125103
-38.520084,2.4389462,0.5863223
-38.546505,2.4691405,0.6498518
-38.547096,2.5097563,0.7336235
-38.5678,2.5417364,0.800611
-38.5413,2.592444,0.903914
-38.55452,2.6266792,0.9752364
-38.598236,2.6486325,1.0227671
-38.628643,2.6757352,1.0802851
-38.518875,2.7564688,1.2414951
-38.575424,2.7727656,1.2780757
-38.606205,2.7988298,1.3335485
-38.641228,2.8232107,1.3857894
-38.676643,2.847377,1.4376326
-38.74945,2.8579645,1.4633546
-38.809586,2.8733385,1.4983478
-38.86798,2.8894763,1.5348582
-38.979694,2.88716,1.5359921
-39.037205,2.9041011,1.5741768
-39.121117,2.912184,1.5954366
-39.216408,2.9167843,1.6101136
-39.291534,2.9285226,1.6385384
-39.436813,2.917498,1.623558
-39.508064,2.9313126,1.6561384
-39.65579,2.92086,1.6425366
-39.676758,2.9513576,1.7070694
-39.820065,2.9434521,1.6985755
-39.106155,3.201016,2.194491
-40.090565,2.9349103,1.6958947
-40.237755,2.9281144,1.6900129
-40.3483,2.9330132,1.7064443
-40.474255,2.9339015,1.715425
-40.63364,2.9257202,1.7074394
-40.7432,2.9326744,1.728189
-40.846027,2.942028,1.7535872
-40.927433,2.9578073,1.7911892
-41.026855,2.9689114,1.8201065
-41.65704,2.8360474,1.5792756
-41.727962,2.8575058,1.628222
-41.756813,2.890315,1.6984577
-41.7729,2.9263716,1.7747669
-41.788387,2.962408,1.8510342
-41.96005,2.9584966,1.8529968
-42.10033,2.9633617,1.8714995
-42.216,2.9750023,1.9027553
-42.434868,2.96191,1.8884101
-42.537548,2.9780357,1.9283533
-42.75201,2.967978,1.9201722
-42.908733,2.9726136,1.9393535
-43.04949,2.981706,1.9669523
-43.197594,2.9897764,1.9928885
-43.339504,2.999936,2.0228705
-43.57142,2.990798,2.0178595
-43.644566,3.0175772,2.0786185
-43.87263,3.0112076,2.0792642
-44.017906,3.0235944,2.1142836
-44.2275,3.0231981,2.1264272
-44.48442,3.0141156,2.1232657
-44.695805,3.01562,2.1396003
-44.93251,3.0131261,2.1491327
-45.193775,3.0070112,2.1526122
-45.29939,3.0323944,2.2127657
-45.60234,3.0205605,2.20689
-45.883556,3.0143974,2.2116494
-46.03986,3.0327506,2.2602954
-46.309666,3.0311885,2.2741303
-46.598724,3.0275598,2.2848692
-46.826073,3.0362558,2.3177648
-47.19437,3.021712,2.3105774
-47.419556,3.033406,2.3497663
-47.725502,3.032708,2.3679643
-48.157352,3.012914,2.35389
-48.394875,3.0267048,2.3984551
-48.764183,3.020789,2.4098368
-48.979195,3.040744,2.466106
-49.38764,3.032205,2.474567
-49.555893,3.061725,2.5481849
-50.06224,3.0423346,2.5401049
-50.438545,3.0443199,2.568963
-50.807533,3.0492408,2.603633
-51.25898,3.0446038,2.6234593
-51.56294,3.0622795,2.6810813
-52.16352,3.0420337,2.6776476
-52.60681,3.0453691,2.714067
-53.09327,3.0454512,2.7464776
-53.536385,3.0534053,2.792842
-54.071426,3.0523887,2.8262582
-54.536674,3.0624075,2.8786225
1.1419411,2.220334,1.0538831
1.0261478,2.1485443,0.89436007
0.8531246,2.0842793,0.74803495
-1.460556,2.2946362,1.0783944
-1.5563011,2.2275429,0.9301295
-2.7073936,2.3016307,1.0292716
-2.9825096,2.2624443,0.9315152
-3.0644379,2.1976418,0.7890234
-3.1914577,2.1394155,0.6583166
-3.1044044,2.050622,0.47337723
-3.1911564,1.9866934,0.3326726
-4.180691,1.9845121,0.27789783
-9.289829,2.4657078,1.0452423
-9.408348,2.4247026,0.95214367
-10.339323,2.52523,1.1194682
-10.502874,2.4954145,1.047996
-10.717144,2.4754,0.9948735
-10.787624,2.4301214,0.89524984
-10.845678,2.382669,0.79166603
-10.712118,2.2991223,0.6209512
-10.5227165,2.2037585,0.4279456
-12.754141,2.5783825,1.1132832
-12.812286,2.5364704,1.0216045
-12.79101,2.478671,0.90015554
-12.774403,2.421397,0.7796302
-12.612436,2.3336067,0.6015425
-12.737768,2.3049033,0.5347395
-12.589525,2.2182822,0.35854053
-12.657118,2.1771479,0.26827908
-21.076023,2.9641678,1.5419583
-21.980213,3.1284516,1.8480558
-22.029106,3.1111133,1.8097644
-24.95568,3.1919334,1.8679218
-25.834404,3.1132467,1.6778026
-26.48134,3.19229,1.8231659
-27.301458,3.1449,1.7062778
-27.389214,3.0917256,1.5951791
-27.44769,3.1042182,1.6196852
-27.485664,3.095285,1.6005859
-27.698517,3.1292503,1.6663251
-27.739456,3.1246514,1.6561403
-27.878658,3.1858206,1.7792511
-27.98528,3.2647543,1.9394269
-28.020327,3.2559102,1.9206815
-28.061005,3.2542384,1.916574
-28.104809,3.2568567,1.9212294
-28.141045,3.249557,1.9056697
-28.180752,3.2469592,1.8997154
-28.22225,3.2469888,1.8991351
-28.262512,3.2454507,1.8953705
-28.274155,3.2018566,1.8057957
-28.29507,3.170475,1.7411418
-28.31241,3.132334,1.6626916
-28.336119,3.1026585,1.601522
-28.325169,3.0156999,1.423409
-28.317097,2.9294362,1.2466941
-28.318136,2.8545241,1.0931416
-28.312153,2.7637336,0.9071498
-28.320335,2.693729,0.76359224
-28.330875,2.624509,0.62162924
-38.512165,2.4247146,0.386734
-38.514366,2.4655411,0.4718666
-38.54368,2.4946995,0.5337429
-38.564327,2.527209,0.6022935
-38.53825,2.5783184,0.70783997
-38.637436,2.5787513,0.712595
-38.71357,2.5887651,0.7364569
-38.5448,2.6944642,0.95036507
-38.605194,2.7099516,0.9850726
-38.670025,2.7238913,1.016748
-38.631863,2.776724,1.1255465
-38.67434,2.7988632,1.1734948
-38.664528,2.8401804,1.2594213
-38.722458,2.8564627,1.2958002
-38.784134,2.8715308,1.3298144
-38.875587,2.8762205,1.343368
-38.952953,2.8862507,1.3675346
-39.01761,2.9009645,1.4009948
-39.106895,2.907456,1.4182944
-39.195488,2.9145696,1.4368901
-39.271282,2.9263277,1.464695
-39.376984,2.928516,1.4737396
-39.486168,2.9300847,1.481657
-39.59805,2.9313247,1.4890213
-39.706913,2.9340744,1.499445
-39.815998,2.9372797,1.5108557
-39.93522,2.9378712,1.5172448
-40.06552,2.9356737,1.5182848
-40.201187,2.9325328,1.5176029
-40.34311,2.9282398,1.5147996
-40.44512,2.9364388,1.5365005
-40.58857,2.9330497,1.5357103
-40.722267,2.933209,1.5419688
-40.821423,2.9438212,1.5686865
-40.90355,2.959609,1.6055512
-40.99758,2.9724069,1.6366858
-41.13889,2.9727092,1.643683
-41.752518,2.8467822,1.4063988
-41.762794,2.8849213,1.487155
-41.792393,2.917774,1.5576863
-41.79183,2.9583302,1.6430926
-41.957672,2.9561906,1.6461949
-42.07827,2.9662795,1.6730142
-42.23596,2.9677103,1.6833196
-42.45848,2.9540684,1.6648679
-42.53544,2.9767659,1.7163377
-42.702,2.9783807,1.7275262
-42.907253,2.9717498,1.7231469
-43.080837,2.9735267,1.7350626
-43.211666,2.985923,1.7674227
-43.362362,2.994438,1.7925491
-43.54483,2.996622,1.8058329
-43.72491,3.000239,1.8220587
-43.903477,3.0050724,1.8408165
-44.12603,3.0014539,1.8438301
-44.244965,3.0206306,1.8901391
-44.4737,3.0177073,1.8949814
-44.67813,3.0208862,1.911603
-44.952854,3.0110557,1.9041023
-45.157185,3.0165033,1.92559
-45.370125,3.0212932,1.9461336
-45.61769,3.020546,1.9566617
-45.845253,3.0248067,1.9768658
-46.11602,3.0222363,1.9847322
-46.320023,3.0331597,2.017984
-46.58413,3.0343463,2.033564
-46.891834,3.0292232,2.0379372
-47.23023,3.0203958,2.0359988
-47.483513,3.0277517,2.0642567
-47.820225,3.0224671,2.069839
-48.15565,3.0191286,2.0795326
-48.43566,3.0264153,2.1090922
-48.774918,3.0257435,2.1247296
-49.0861,3.0311494,2.1519303
-49.36901,3.0424142,2.1902232
-49.668404,3.0526133,2.227119
-50.145264,3.0383167,2.220848
-50.452156,3.0509005,2.2632904
-50.783295,3.0615866,2.3029609
-51.3256,3.0447953,2.2948284
-51.6566,3.0593753,2.3428888
-52.2023,3.0471807,2.3448305
-52.6685,3.0481062,2.3707576
-53.09838,3.0560062,2.4097643
-53.61988,3.0547094,2.4338832
-54.213913,3.0472796,2.4486804
-54.707417,3.054814,2.490335
0.8310852,2.2631378,0.6690669
0.28816414,2.2441132,0.6078024
-0.6751118,2.2803657,0.6493473
-1.7823849,2.34008,0.7358489
-3.0125637,2.4217272,0.86481094
-3.096384,2.3570545,0.72306156
-3.154192,2.2890306,0.5751443
-4.4655056,2.3953,0.7539654
-3.1923313,2.1421113,0.25902605
-8.756466,2.6252797,1.0875363
-9.39835,2.6049914,1.0206323
-9.515711,2.5636792,0.9280448
-10.452192,2.6602364,1.1002626
-10.550806,2.6189613,1.0084991
-10.753767,2.5961218,0.9523597
-10.813908,2.548974,0.8495083
-10.844906,2.4966645,0.7367196
-10.872986,2.4437191,0.62270784
-10.898176,2.3901103,0.50741434
-12.77577,2.68603,1.0715008
-12.788694,2.6354241,0.96310997
-12.848412,2.5937343,0.8720927
-12.665642,2.5041127,0.687531
-12.816807,2.4802108,0.63124275
-12.658144,2.338737,0.33543062
-12.625765,2.2766612,0.20436525
-20.323847,2.9751625,1.428463
-21.133032,3.044179,1.549077
-22.025375,3.131724,1.7067704
-23.520884,3.1618478,1.7270374
-24.946583,3.1975276,1.7649517
-25.53979,3.0781584,1.5011244
-26.361399,3.2192018,1.7791591
-26.437937,3.1991754,1.7358174
-26.479929,3.1919522,1.7199211
-27.009201,3.087773,1.493063
-27.227901,3.1567857,1.6335292
-27.372755,3.112747,1.539494
-27.412664,3.1052597,1.5232997
-27.456472,3.1018994,1.5156622
-27.526005,3.126499,1.5659428
-27.690367,3.1567047,1.6266155
-27.733904,3.154914,1.6223011
-27.97873,3.2912428,1.9031181
-28.002798,3.268464,1.8553762
-28.043808,3.2666986,1.8511949
-28.080065,3.2588608,1.8344369
-28.124205,3.2614398,1.8392844
-28.166073,3.2612498,1.8384023
-28.205496,3.257859,1.830894
-28.244068,3.2533264,1.8210278
-28.265255,3.2235081,1.7587256
-28.285257,3.1907823,1.6903968
-28.300362,3.1492918,1.6038842
-28.321941,3.1161454,1.5346804
-28.324713,3.0515847,1.4003029
-28.318731,2.9697316,1.2300382
-28.3145,2.8869038,1.0577393
-28.309368,2.7984762,0.8738084
-28.321468,2.7360504,0.7438245
-28.32154,2.6486654,0.562037
-38.519947,2.527392,0.43959808
-38.541916,2.5594122,0.5076518
-38.549965,2.5967607,0.586555
-38.550568,2.636681,0.6706805
-38.58699,2.6621354,0.72535944
-38.674877,2.6675858,0.7393708
-38.679733,2.7051558,0.81871367
-38.60708,2.77162,0.956748
-38.678787,2.783148,0.98315334
-38.7351,2.8005931,1.0216036
-38.84833,2.7974124,1.0182333
-38.978226,2.7888403,1.0039954
-39.027576,2.8096445,1.0493755
-39.099358,2.8226104,1.0788989
-39.15219,2.8423874,1.1222486
-39.12093,2.8910573,1.2240906
-39.17843,2.9090538,1.263855
-39.269264,2.9160237,1.2813568
-39.480515,2.883615,1.2193537
-39.593857,2.8845162,1.2247548
-39.6913,2.8911076,1.2417088
-39.807568,2.8921404,1.2475128
-39.91677,2.8959718,1.2590318
-40.028652,2.8994923,1.2699957
-40.175343,2.8928807,1.260634
-40.324196,2.8864138,1.2516665
-40.476044,2.8798606,1.2426276
-40.68511,2.857252,1.2014427
-40.79885,2.863653,1.2186503
-40.892593,2.8763301,1.2485261
-40.949203,2.8999193,1.3003373
-41.00637,2.9234524,1.3520675
-41.040283,2.9535222,1.4169106
-41.11299,2.9729407,1.4604621
-42.25132,2.7055256,0.93083763
-42.35596,2.7206807,0.9664388
-41.765,2.9187126,1.3669767
-41.803017,2.9495115,1.4335966
-42.56369,2.7957623,1.1326752
-42.68615,2.807728,1.1621833
-42.372856,2.9284954,1.4080858
-42.457977,2.9492002,1.4549351
-42.497993,2.981095,1.5240507
-42.695763,2.9753833,1.5186381
-42.902054,2.9687085,1.5114913
-43.00752,2.986487,1.552896
-43.163773,2.9930854,1.5722961
-43.333683,2.9973612,1.5872464
-43.524536,2.9978256,1.5948339
-43.746414,2.9924748,1.5911441
-43.916473,2.9994478,1.6119037
-44.101265,3.0041156,1.6282916
-44.250027,3.0172284,1.6614227
-44.492695,3.0116823,1.6581335
-44.63274,3.0282154,1.698288
-44.901928,3.0195785,1.6893935
-45.177303,3.0111418,1.681169
-45.346558,3.0246885,1.7160625
-45.635914,3.016149,1.7081633
-45.83805,3.025473,1.7352729
-46.110924,3.022735,1.7392077
-46.329475,3.0312514,1.7652326
-46.59397,3.032644,1.777731
-46.917793,3.0249727,1.7730455
-47.216087,3.0233881,1.7804599
-47.485825,3.0281677,1.8004594
-47.811462,3.0249937,1.8055239
-48.09527,3.030334,1.8272867
-48.418205,3.0308104,1.8401098
-48.73977,3.0331473,1.8568888
-49.07509,3.0349817,1.873127
-49.41186,3.0382972,1.8926158
-49.704323,3.0499225,1.9282784
-50.14786,3.0408976,1.9253588
-50.49465,3.048044,1.9535055
-50.855247,3.0549903,1.9817667
-51.317024,3.049812,1.9878521
-51.66414,3.06248,2.0279312
-52.153126,3.058128,2.0368667
-52.607124,3.0608115,2.0596066
-53.105156,3.0602298,2.0770302
-53.596085,3.0630717,2.1015625
-54.16707,3.0587218,2.1137142
-54.70482,3.0612326,2.1393685
-1.1264973,2.3436837,0.33334732
-3.1022015,2.439281,0.4926257
-3.1553078,2.3704734,0.34331512
-7.2882614,2.5307522,0.59171915
-8.363222,2.6293907,0.77888346
-8.639725,2.6094022,0.72954607
-9.483196,2.680849,0.86365414
-9.725168,2.6595948,0.81243277
-10.626394,2.7481177,0.9819436
-10.742163,2.709932,0.8972802
-10.816324,2.6650553,0.7992177
-10.863134,2.615591,0.691947
-10.883722,2.5614905,0.575336
-10.901455,2.506711,0.45735073
-12.775579,2.7909126,1.0249901
-12.71748,2.7273068,0.88981104
-12.595259,2.6509612,0.72875595
-12.733271,2.6235092,0.6667762
-12.820213,2.5866592,0.58579683
-12.587339,2.4867053,0.37662745
-12.657835,2.4460273,0.28784132
-20.329685,3.080553,1.4821773
-20.569477,3.1145701,1.5500073
-20.233315,2.9765248,1.261961
-20.436901,3.00032,1.3087096
-20.612566,3.0167365,1.340271
-20.759022,3.025055,1.355135
-20.930761,3.042214,1.388381
-21.111332,3.0632465,1.4297295
-21.267765,3.0775518,1.4572043
-21.351757,3.0689442,1.4372149
-21.558617,3.1016412,1.5029678
-21.676613,3.1057222,1.5094075
-21.76434,3.1001053,1.4957538
-22.00829,3.148923,1.5952072
-26.456806,3.176358,1.5823073
-27.013973,3.1327317,1.4837346
-27.283325,3.157794,1.5340657
-27.458046,3.1430485,1.5012345
-27.514883,3.1536915,1.5232282
-27.63639,3.1855333,1.589488
-27.69187,3.1967566,1.6127415
-27.83246,3.2036796,1.6262026
-27.944578,3.285906,1.7991233
-27.977081,3.2729957,1.771574
-28.020477,3.2735503,1.7724085
-28.067562,3.27911,1.7837982
-28.106672,3.2746234,1.7740211
-28.147354,3.2722805,1.7687693
-28.188328,3.2704566,1.7646184
-28.231033,3.2712033,1.7658935
-28.253046,3.2425048,1.7050962
-28.27385,3.2109416,1.6382599
-28.288357,3.168672,1.5488486
-28.305618,3.1288536,1.4646058
-28.319492,3.0819938,1.3655133
-28.31052,2.9961746,1.1842618
-28.311462,2.9226496,1.0289288
-28.303923,2.8311605,0.8357024
-28.323294,2.781958,0.7316551
-28.308853,2.6698303,0.49488544
-38.523827,2.5888267,0.40626574
-38.53185,2.6262326,0.48604012
-38.558342,2.6559858,0.5498624
-38.586517,2.6848857,0.61190605
-38.579765,2.727027,0.70153
-38.65483,2.7376173,0.72545147
-38.68,2.7671862,0.78889704
-38.64839,2.8175986,0.89571714
-38.68136,2.843689,0.9519167
-38.736923,2.8615057,0.9909153
-38.866375,2.853035,0.97527885
-39.155388,2.7890239,0.8442602
-39.25863,2.7918515,0.8522353
-39.31197,2.8123507,0.8969517
-39.35009,2.8380933,0.95256996
-39.390182,2.8631208,1.0067105
-39.429092,2.8885043,1.0615978
-39.471596,2.9126675,1.1139631
-39.52417,2.933564,1.1595664
-39.58454,2.952047,1.2001815
-39.68599,2.9577098,1.2142544
-39.79736,2.9607475,1.22293
-39.899994,2.967011,1.2383299
-40.028206,2.9659743,1.2386642
-40.17078,2.9612916,1.2315106
-40.585907,2.8767006,1.0591908
-40.86175,2.8356318,0.97703123
-41.007362,2.8338735,0.9762182
-41.08725,2.851582,1.0156698
-41.05439,2.9012399,1.1211
-41.104893,2.9272115,1.1776319
-41.611637,2.828351,0.9767575
-41.769474,2.8270833,0.97730446
-41.942253,2.8226466,0.9713974
-42.098415,2.823492,0.9764519
-42.278175,2.819004,0.9706044
-42.341965,2.8451476,1.0278544
-42.457397,2.8583856,1.0585976
-42.560707,2.8751357,1.0966105
-42.643913,2.897231,1.1456485
-42.523018,2.969029,1.2967205
-42.735973,2.9599876,1.2819118
-43.427994,2.8392944,1.0383735
-43.54396,2.8566484,1.0780158
-43.471016,2.917704,1.2071743
-43.504463,2.9539971,1.2856183
-43.803272,2.9312522,1.2433844
-43.927723,2.9483588,1.2827358
-44.121292,2.9510794,1.2927904
-44.350365,2.9472237,1.2895432
-44.57821,2.944816,1.2893877
-44.786667,2.947582,1.2999091
-45.053665,2.939508,1.2885013
-45.28949,2.9390743,1.2927961
-45.520344,2.940823,1.3016791
-45.70678,2.952346,1.3305469
-45.886055,2.9661207,1.3641
-46.05994,2.9817452,1.4015174
-46.180374,3.0080366,1.4606366
-46.486633,3.0010846,1.4526196
-46.629395,3.0249076,1.5069766
-46.93387,3.020967,1.505415
-47.20449,3.024438,1.5190125
-47.53164,3.0196924,1.5162725
-47.797653,3.0268214,1.5376544
-48.15229,3.0207787,1.5327892
-48.437096,3.0277934,1.55439
-48.720406,3.0364664,1.5795388
-49.107067,3.0305457,1.5757246
-49.403587,3.0403228,1.6035857
-49.738403,3.0458646,1.6232471
-50.15641,3.0409327,1.6223392
-50.506577,3.0478797,1.6454172
-50.86197,3.0558558,1.6708479
-51.302902,3.0538397,1.6768036
-51.75509,3.0525703,1.6846476
-52.174377,3.0579596,1.706069
-52.661507,3.0567064,1.714809
-53.060745,3.069061,1.7507911
-53.60701,3.0652337,1.7554259
-54.134754,3.066452,1.7705073
-54.75225,3.0597653,1.7707129
-7.489954,2.5564952,0.31493616
-8.220074,2.6027603,0.407413
-8.70738,2.6150515,0.42900324
-9.607201,2.6955543,0.5937085
-9.786127,2.6642108,0.52422285
-10.0259,2.6436822,0.4774809
-10.880289,2.7275434,0.6499233
-10.882238,2.6704574,0.5266714
-10.899033,2.6156814,0.4082651
-10.896362,2.557271,0.2822175
-12.619648,2.7559257,0.6938009
-12.684196,2.71435,0.6034398
-12.607479,2.6461575,0.45705032
-12.640682,2.5983305,0.35352612
-12.620934,2.5400627,0.2280035
-20.687077,3.2454913,1.6724391
-20.55054,3.170022,1.511116
-20.745548,3.190995,1.5545521
-20.352592,3.0374799,1.227437
-20.390057,3.0108764,1.1698208
-20.755005,3.084623,1.3254147
-20.809614,3.064547,1.281714
-20.903873,3.0570397,1.2647319
-21.038843,3.0629144,1.2762122
-21.240252,3.0909672,1.3348689
-21.303274,3.0751204,1.3002176
-22.028303,3.1410022,1.4358878
-22.105408,3.1329286,1.4178729
-22.201607,3.1319737,1.4150229
-22.3044,3.133884,1.4182873
-22.39926,3.1334457,1.4165683
-22.493845,3.1333897,1.4156771
-22.600903,3.13849,1.4257817
-22.688873,3.136963,1.4217882
-22.800362,3.144895,1.4379568
-22.890678,3.1452675,1.4380383
-22.992456,3.1506157,1.4487357
-23.076298,3.149411,1.4454837
-23.170794,3.1529164,1.4522829
-23.256271,3.1532724,1.4523826
-23.33933,3.1530745,1.451314
-23.431408,3.1570706,1.4591985
-23.51816,3.1593373,1.4634085
-23.607414,3.1631503,1.4709282
-23.687918,3.163678,1.4714541
-23.767467,3.1642094,1.4720001
-23.844002,3.1638172,1.4705868
-23.928549,3.1674175,1.4776988
-24.01276,3.1713479,1.4855275
-24.091206,3.1731088,1.4887385
-24.166685,3.1739135,1.4899201
-24.241247,3.1746855,1.4910417
-24.314903,3.1754193,1.4920902
-24.395573,3.1799371,1.501224
-24.462147,3.1780293,1.496655
-24.538965,3.1815186,1.503614
-24.62386,3.189511,1.5201955
-24.694864,3.1909955,1.5228934
-24.758627,3.1891403,1.5184703
-24.824137,3.1884964,1.5166397
-24.906376,3.1970112,1.5343757
-24.965796,3.1938853,1.5272632
-25.039299,3.1986392,1.5369854
-25.106966,3.2006485,1.540854
-25.171349,3.2012177,1.5416546
-25.234928,3.201676,1.5422249
-25.312048,3.210178,1.559988
-25.378078,3.2128255,1.5652509
-25.426819,3.2057595,1.5497684
-25.479664,3.2012537,1.5397606
-25.558449,3.2124894,1.5633965
-25.6436,3.192237,1.5193872
-25.687208,3.182811,1.4988852
-27.128428,3.1856399,1.4973154
-27.367153,3.183972,1.4927015
-27.786623,3.2381637,1.6072507
-27.875322,3.2898767,1.7178025
-27.913824,3.2836816,1.7043824
-27.956675,3.282784,1.7023053
-28.003002,3.286414,1.7099261
-28.037786,3.2757263,1.6868949
-28.085188,3.2812119,1.6984963
-28.133568,3.2884529,1.7138596
-28.175106,3.2869556,1.7105165
-28.216612,3.2855725,1.7074199
-28.239765,3.2583568,1.6490073
-28.263355,3.2307546,1.5897679
-28.279991,3.1917825,1.5061798
-28.30091,3.1576853,1.4330311
-28.307516,3.0999155,1.309186
-28.300838,3.0183623,1.1344004
-28.31151,2.961243,1.0119429
-28.297571,2.8601809,0.7953687
-28.32568,2.826311,0.72270346
-28.2543,2.6151526,0.27031422
-38.51053,2.6534975,0.38907623
-38.547905,2.6790743,0.44437885
-38.564877,2.7124417,0.5162797
-38.600533,2.7383878,0.57237387
-38.664165,2.7536745,0.6057677
-38.631424,2.805039,0.71599627
-38.731308,2.806856,0.7207155
-38.700745,2.8566015,0.8274894
-38.731697,2.883572,0.8857713
-38.80058,2.896965,0.91515636
-39.025284,2.8559687,0.8288045
-39.1297,2.8581634,0.83439684
-39.240616,2.8586483,0.83636856
-39.30954,2.873869,0.86970663
-39.347656,2.8995643,0.9253311
-39.379036,2.927424,0.9855628
-39.42267,2.951197,1.037107
-39.47872,2.970981,1.0801749
-39.552185,2.9853477,1.1117358
-39.63605,2.996703,1.136909
-39.77739,2.9906204,1.1250429
-39.86966,3.0002854,1.1466594
-39.967712,3.0085945,1.1654115
-40.10852,3.004618,1.1580896
-40.21603,3.0111675,1.1731467
-40.753723,2.893565,0.92465353
-40.8783,2.8978362,0.93496513
-40.96895,2.9122837,0.96689606
-41.088875,2.918922,0.9822755
-41.243454,2.916592,0.9786544
-41.43056,2.906248,0.9580693
-41.59888,2.9019692,0.95038366
-41.746468,2.904056,0.9562297
-41.912334,2.9021196,0.95358133
-42.070103,2.903126,0.95720387
-42.232563,2.9037414,0.9600339
-42.363503,2.9130602,0.98133373
-42.43052,2.9387388,1.0373006
-42.5181,2.9595792,1.0830398
-42.630814,2.9746966,1.116683
-42.762794,2.9857335,1.1417184
-42.94671,2.9852724,1.1424627
-43.58392,2.8816826,0.9251752
-43.657974,2.909462,0.9857745
-43.74147,2.935334,1.042357
-43.798027,2.967386,1.1120133
-43.915718,2.9862893,1.1539087
-44.11213,2.9888923,1.1614175
-44.249702,3.0048409,1.197144
-45.522186,2.883941,0.9487405
-45.61143,2.914538,1.0156221
-46.077583,2.921599,1.0354385
-47.387207,2.9342494,1.0757384
-48.484116,2.7963982,0.78916025
-49.193054,2.7307572,0.6545763
-48.275803,2.9404993,1.0981407
-48.427006,2.9693623,1.1619778
-48.653893,2.9866767,1.2016525
-49.06024,2.9767048,1.1842356
-49.38754,2.981123,1.1970978
-49.772892,2.9783573,1.195045
-50.134426,2.9811354,1.204731
-50.62156,2.9673553,1.1799455
-50.88109,2.988813,1.22895
-51.247223,2.996507,1.2493267
-51.483334,3.0239756,1.3110933
-51.890266,3.0294712,1.3271585
-52.257614,3.0422647,1.3585925
-52.674217,3.0505166,1.3807306
-53.122066,3.056915,1.3991966
-53.52147,3.071584,1.4350433
-54.24297,3.0492544,1.3942885
-54.765205,3.0542698,1.4105706
-10.83379,2.7222161,0.31893444
-10.875727,2.6715329,0.20901299
-20.81113,3.3101225,1.6372952
-20.736252,3.2532535,1.5133567
-20.681522,3.2013955,1.4003887
-20.776268,3.1930249,1.3825417
-20.857916,3.181145,1.3570132
-20.5228,3.0430505,1.0554647
-20.628815,3.0376537,1.0441208
-20.737019,3.0334382,1.0353518
-20.915882,3.052041,1.0764666
-21.03674,3.0532036,1.0794353
-21.267696,3.0906415,1.1616983
-21.31812,3.0704443,1.1179533
-22.059715,3.1412954,1.2747059
-22.13047,3.1307967,1.2521172
-22.20198,3.1208258,1.2306762
-22.317219,3.1269667,1.2444363
-22.423717,3.1305637,1.2526288
-22.52459,3.1326592,1.257535
-22.639938,3.1407466,1.2755232
-22.723034,3.137236,1.2681689
-22.821348,3.1399856,1.2744827
-22.91711,3.142278,1.2797928
-23.017597,3.1469612,1.2903175
-23.106857,3.1477258,1.2922778
-23.186502,3.1450672,1.286757
-23.28448,3.1503072,1.29848
-23.365747,3.1491811,1.2962956
-23.47212,3.159015,1.3180385
-23.545773,3.1555974,1.3108387
-23.635254,3.159338,1.3192654
-23.739563,3.1700568,1.3429236
-23.810375,3.1666634,1.335762
-23.88581,3.1656604,1.333817
-23.969837,3.168922,1.3411779
-24.040075,3.1663451,1.3357887
-24.144892,3.1801388,1.3661308
-24.207932,3.1750429,1.3552332
-24.290657,3.1795652,1.3653269
-24.363865,3.179996,1.3664851
-24.436832,3.1806974,1.3682303
-24.501177,3.1775289,1.361526
-24.573078,3.1784253,1.363689
-24.64283,3.1786196,1.3643174
-24.712362,3.179067,1.3654938
-24.785427,3.181715,1.3714685
-24.861311,3.1862648,1.3815904
-24.926994,3.1858492,1.3808727
-24.995544,3.1873138,1.3842545
-25.065674,3.190019,1.3903394
-25.139135,3.1949756,1.4013333
-25.197933,3.19218,1.3954101
-25.264317,3.1939476,1.3994389
-25.33163,3.1966252,1.4054518
-25.38937,3.1941223,1.4001575
-25.460846,3.1999788,1.4130983
-25.524529,3.2016537,1.4169135
-25.588554,3.203894,1.421958
-25.646154,3.2025661,1.4192162
-25.710857,3.2059293,1.4267063
-25.77143,3.2070875,1.4293818
-25.826332,3.2049615,1.4248915
-25.886543,3.206517,1.4284291
-25.946545,3.208277,1.4324112
-26.006329,3.210241,1.4368334
-26.065897,3.212407,1.4416952
-26.125242,3.214775,1.4469934
-26.18333,3.2166283,1.4511681
-26.242743,3.2197518,1.4581099
-26.301405,3.2227159,1.4647017
-26.356834,3.2237108,1.4669962
-26.41357,3.2259731,1.4720526
-26.460808,3.2215142,1.4624486
-26.516254,3.2233968,1.4666734
-26.573893,3.2272913,1.4752822
-26.629387,3.2299085,1.4811025
-26.67953,3.2286525,1.478476
-26.7365,3.2330966,1.4882774
-26.785908,3.2317948,1.4855461
-26.836576,3.2317595,1.4855752
-26.891125,3.2352402,1.4932685
-26.941925,3.2359023,1.4948139
-26.99215,3.2363465,1.4958825
-27.040522,3.2354388,1.4940014
-27.107847,3.251673,1.5294933
-27.154108,3.2495885,1.5250425
-27.201965,3.2491584,1.5241961
-27.252157,3.2511566,1.5286441
-27.298973,3.2502537,1.5267644
-27.350842,3.2544675,1.5360384
-27.393127,3.249629,1.5255756
-27.43929,3.2487557,1.5237546
-27.48121,3.2437708,1.512969
-27.542551,3.2590182,1.5462899
-27.592333,3.2628415,1.5547023
-27.639736,3.2644842,1.558361
-27.7037,3.2845855,1.6022563
-27.733053,3.2670212,1.5640411
-27.777622,3.2663426,1.5626335
-27.824823,3.2689302,1.5683441
-27.871193,3.2708704,1.5726438
-27.913498,3.2682183,1.5669293
-27.962212,3.27358,1.5786829
-28.007215,3.274737,1.5812683
-28.050558,3.2740397,1.579812
-28.092018,3.2710793,1.5734205
-28.135271,3.270619,1.5724788
-28.179626,3.2718747,1.5752735
-28.222725,3.2716577,1.5748582
-28.248684,3.247139,1.5214729
-28.26132,3.2021987,1.4235768
-28.2803,3.1648562,1.3422399
-28.302668,3.1311293,1.268784
-28.304693,3.0639553,1.1224298
-28.305624,2.9918425,0.9653115
-28.3025,2.9095178,0.78593683
-28.334387,2.8825529,0.72722006
-28.26172,2.6718967,0.2681532
-38.586746,2.7333233,0.3859954
-38.60463,2.766263,0.4575987
-38.625584,2.797782,0.5260973
-38.65117,2.8273544,0.59034395
-38.682228,2.8547437,0.6498208
-38.730198,2.8759124,0.6957035
-38.799915,2.8893707,0.72473717
-38.857334,2.9073644,0.76367664
-38.89996,2.9305978,0.8140645
-38.993187,2.9364839,0.82653713
-39.07649,2.9461465,0.8472581
-39.184013,2.9480495,0.8510132
-39.3028,2.9467745,0.8478131
-39.352657,2.9685583,0.8950124
-39.409348,2.9881945,0.9375138
-39.543716,2.983282,0.9263401
-39.718517,2.9664352,0.88906145
-39.79066,2.982394,0.92350245
-39.940884,2.974734,0.9062896
-40.069027,2.9745684,0.90545416
-40.37239,2.9229238,0.792016
-40.578815,2.9017532,0.74520683
-40.45484,2.9775946,0.9105892
-40.577003,2.9817443,0.91915035
-40.70936,2.9836063,0.92269754
-40.783073,3.002468,0.96342707
-40.917522,3.0048573,0.96810865
-41.085804,2.9987411,0.9541645
-41.234493,2.9987783,0.9536724
-41.366714,3.003925,0.96434975
-41.511917,3.00633,0.9690132
-41.651516,3.0108984,0.9784007
-41.847763,3.0017996,0.9578519
-41.975296,3.0109382,0.9772177
-42.1658,3.0051553,0.96389437
-42.304256,3.013029,0.98046255
-42.54257,2.9976485,0.94608355
-42.78875,2.9817414,0.9105263
-42.891045,3.0006797,0.9512806
-43.286522,2.9527931,0.8456111
-43.388763,2.97351,0.89022684
-43.57109,2.9767857,0.8966098
-43.645073,3.0047393,0.9570608
-43.78615,3.0183935,0.9861617
-44.398945,2.9322965,0.79655457
-44.415848,2.9747705,0.8887882
-44.63887,2.9745324,0.8873544
-46.084354,2.8777547,0.6710839
-46.10884,2.9227452,0.7687359
-46.124405,2.9692817,0.86978245
-46.413303,2.96523,0.85976887
-46.70201,2.9627173,0.853096
-47.02815,2.9550242,0.8350086
-47.32843,2.9535763,0.8305955
-47.642326,2.9513323,0.8243909
-47.908802,2.9587364,0.8393445
-48.21563,2.9607618,0.8424387
-48.54074,2.9613647,0.842361
-48.897293,2.9585915,0.83481264
-49.15555,2.9731338,0.8652935
-49.48716,2.977603,0.87357473
-50.02688,2.9522119,0.816103
-50.261284,2.97509,0.8647814
-50.588203,2.9855866,0.88616467
-50.700073,3.028443,0.9787531
-51.71125,2.945774,0.79482794
-51.79837,2.9953828,0.9021816
-52.116898,3.014155,0.94155884
-53.01886,2.957773,0.81518316
-54.575394,2.8220184,0.51358175
-54.581467,2.8899035,0.66096115
-54.470512,2.9719687,0.8396392
-54.50399,3.0357955,0.9780779
-20.876074,3.3583539,1.5777483
-20.898455,3.329675,1.5151644
-20.911549,3.2981853,1.4462571
-20.396963,3.0361118,0.86285496
-20.553442,3.045213,0.8852701
-20.754677,3.0690072,0.9406371
-20.904835,3.0781138,0.9629502
-20.986446,3.0663993,0.9384723
-21.06961,3.0554967,0.91579103
-21.30833,3.095413,1.0071092
-21.415548,3.0937223,1.0050163
-21.975471,3.1377497,1.110137
-22.066732,3.1338007,1.1028008
-22.174381,3.1360977,1.1094294
-22.258377,3.1304817,1.0983071
-22.382523,3.1398463,1.1207023
-22.46896,3.1360698,1.1136446
-22.58325,3.1430883,1.1307211
-22.686745,3.1467032,1.1401501
-22.769398,3.1429267,1.1330166
-22.852594,3.1397467,1.1271944
-22.94713,3.1414084,1.1321778
-23.060686,3.151132,1.155158
-23.145866,3.1501567,1.1541934
-23.247795,3.156428,1.1694012
-23.339397,3.159053,1.1764345
-23.420853,3.1579528,1.1751218
-23.518063,3.163917,1.189568
-23.591335,3.1602254,1.182426
-23.678183,3.1627464,1.1891384
-23.761286,3.1641107,1.1932459
-23.850187,3.1684995,1.2040844
-23.925243,3.1671867,1.2021775
-24.015465,3.1731482,1.2164831
-24.096626,3.1754873,1.2226858
-24.164295,3.171983,1.2158346
-24.248192,3.1764512,1.2267504
-24.334965,3.182797,1.2418318
-24.407764,3.1829152,1.2430081
-24.48097,3.1836135,1.245461
-24.567917,3.1915317,1.2639899
-24.637993,3.1915317,1.2648525
-24.69908,3.187315,1.2563043
-24.779343,3.1932504,1.2703619
-24.845642,3.1923976,1.2692804
-24.917877,3.1950185,1.2759209
-24.987999,3.196926,1.2809582
-25.05846,3.1994145,1.2872739
-25.123867,3.1995292,1.2882886
-25.208612,3.2107677,1.314055
-25.25876,3.203097,1.2977118
-25.322918,3.203575,1.2994947
-25.385714,3.2036057,1.3002715
-25.466059,3.2142737,1.3247037
-25.530012,3.2157943,1.3287683
-25.590364,3.2155025,1.3287878
-25.64664,3.2130313,1.3239474
-25.718822,3.2206593,1.3415599
-25.775284,3.2189379,1.3383636
-25.834873,3.2194695,1.3401685
-25.892664,3.219163,1.3400974
-25.949762,3.2187004,1.3396692
-26.014074,3.2233083,1.3505044
-26.07131,3.223589,1.3517065
-26.133017,3.227221,1.3603492
-26.188328,3.2268307,1.3600388
-26.24804,3.2298064,1.3671994
-26.30251,3.2294283,1.3668976
-26.363262,3.2338624,1.3772783
-26.416885,3.2334914,1.3769717
-26.470854,3.2336495,1.3778324
-26.524193,3.23362,1.3782663
