x,y,z
-29.810722,1.4143453,2.9121299
-29.847591,1.4121046,2.9089336
-29.884869,1.416333,2.912284
-29.92186,1.4164078,2.911615
-29.959028,1.4208281,2.915382
-29.99593,1.4196768,2.9137163
-30.032959,1.4228711,2.9164877
-30.069847,1.4212005,2.9145274
-30.106768,1.4203334,2.9134774
-30.143703,1.4202697,2.9133396
-30.180656,1.4174662,2.9105859
-30.2178,1.4048359,2.8981614
-27.40404,1.0739479,2.7916493
-27.452244,1.0844288,2.7931004
-27.5043,1.1024678,2.8019385
-27.547771,1.105161,2.7963233
-27.60007,1.1248646,2.8071342
-27.645052,1.1312113,2.8053498
-27.692337,1.1424308,2.8084025
-27.7374,1.1497262,2.8078556
-27.784342,1.161228,2.81152
-27.828136,1.166755,2.8095942
-27.871513,1.1717277,2.8072844
-27.918612,1.1850026,2.8131576
-27.96362,1.1943276,2.8153753
-28.007854,1.2024193,2.816556
-28.053461,1.2140598,2.8213391
-28.099463,1.227206,2.8277512
-28.140892,1.2302094,2.8244448
-28.180843,1.229898,2.8180428
-28.223864,1.2372494,2.819254
-28.2684,1.2488496,2.8247685
-28.31167,1.2578278,2.8278708
-28.355314,1.2683089,2.8325958
-28.39621,1.2720208,2.8308249
-28.439302,1.2820578,2.8354044
-28.480259,1.2866919,2.834815
-28.520893,1.2907472,2.8337893
-28.562159,1.2969911,2.8350554
-28.603088,1.3026574,2.8358855
-28.645262,1.3125968,2.8410711
-28.687267,1.3226557,2.846517
-28.727404,1.3272784,2.8467207
-28.766424,1.3285353,2.84372
-28.80723,1.3361559,2.8471508
-28.847124,1.3411057,2.848064
-28.886171,1.3433778,2.8464446
-28.926651,1.3513298,2.850595
-28.966816,1.358696,2.8542929
-29.006338,1.364078,2.8561444
-29.045431,1.3681705,2.8568354
-29.083645,1.3688736,2.85427
-29.122309,1.3717749,2.8540144
-29.160622,1.3733792,2.852584
-29.199625,1.3785844,2.8548684
-29.2384,1.383193,2.85668
-29.276564,1.385102,2.8559098
-29.31469,1.3871117,2.8553572
-29.352049,1.3850131,2.8508072
-29.390368,1.3886232,2.8520894
-29.42785,1.3874211,2.8486638
-29.466185,1.3919332,2.8510833
-29.505236,1.4021657,2.8593597
-29.54337,1.4068809,2.8622189
-29.58046,1.4039638,2.8575306
-29.618004,1.4046574,2.8565807
-29.655533,1.4054484,2.8558402
-29.69424,1.4182961,2.867333
-29.731316,1.4157655,2.863482
-29.768608,1.415441,2.8619604
-29.806114,1.4180288,2.8634806
-29.843622,1.4214177,2.8659186
-29.880823,1.4206781,2.864315
-29.917822,1.4158084,2.8586655
-29.954927,1.4117374,2.853931
-29.992268,1.4126928,2.8543658
-30.02972,1.4186764,2.8599749
-30.067034,1.4226427,2.8636665
-30.1042,1.4182494,2.8590498
-30.141438,1.4146566,2.8553505
-30.178724,1.4125688,2.8532782
-30.216034,1.4112811,2.8521228
-30.253574,1.4009299,2.8419533
-27.124847,1.0644002,2.7947588
-27.172691,1.0719385,2.7925024
-27.22558,1.088265,2.7987828
-27.278202,1.104763,2.805437
-27.330555,1.1214323,2.8124633
-27.375372,1.125587,2.8077202
-27.41823,1.1265292,2.8000584
-27.466267,1.1369681,2.801663
-27.519625,1.157613,2.813264
-27.567951,1.169704,2.816833
-27.613232,1.1765654,2.815535
-27.653837,1.174809,2.8060632
-27.70171,1.187321,2.810546
-27.753107,1.2074065,2.8225527
-27.803173,1.22563,2.8329473
-27.845047,1.2277694,2.82788
-27.887848,1.2320597,2.8250504
-27.93248,1.2405429,2.8264585
-27.977903,1.2511954,2.830144
-28.021612,1.2585835,2.8307958
-28.068813,1.2742689,2.8397312
-28.111609,1.2805567,2.8396149
-28.156038,1.2910616,2.843789
-28.196583,1.2928169,2.839507
-28.239887,1.3015225,2.8422065
-28.283043,1.310353,2.8451777
-28.324705,1.3158824,2.8450336
-28.36627,1.3215294,2.8451447
-28.410053,1.333472,2.8516283
-28.453636,1.3455431,2.8583894
-28.493813,1.3487988,2.8565507
-28.534409,1.3535419,2.85632
-28.575392,1.3597751,2.8577032
-28.61604,1.3654327,2.8586473
-28.654345,1.3643003,2.8529563
-28.695282,1.3715589,2.855754
-28.735458,1.3768573,2.8567271
-28.774298,1.3781142,2.8537912
-28.816738,1.3919394,2.8635468
-28.855225,1.3927193,2.860384
-28.89388,1.3942943,2.8581386
-28.932692,1.3966663,2.85681
-28.971277,1.3984473,2.85501
-29.011736,1.407974,2.8611083
-29.050524,1.4113555,2.8611603
-29.086983,1.4050989,2.8516388
-29.12604,1.4100733,2.8535266
-29.166515,1.4221177,2.862657
-29.204905,1.4252138,2.8628998
-29.2431,1.4277143,2.8626595
-29.282316,1.4358964,2.8682675
-29.31833,1.4274325,2.8571954
-29.355576,1.425343,2.8526654
-29.394012,1.4303358,2.855403
-29.432474,1.4361293,2.8590665
-29.470734,1.4413254,2.862245
-29.508703,1.4452229,2.8642254
-29.546515,1.4485207,2.8657131
-29.583828,1.4484174,2.8638725
-29.621222,1.4491107,2.8629484
-29.658754,1.4513009,2.8636546
-29.695755,1.4486856,2.8596005
-29.733377,1.4524708,2.8621469
-29.770052,1.4458411,2.8542418
-29.80731,1.4456136,2.85294
-29.84476,1.4482865,2.854691
-29.881956,1.4475498,2.853094
-29.919304,1.4497142,2.8545518
-29.956495,1.4491692,2.8533702
-29.993912,1.4550333,2.8588052
-30.030935,1.4497693,2.853053
-30.068083,1.4467044,2.8496437
-30.105291,1.4451387,2.847866
-30.14252,1.4394581,2.84202
-30.179836,1.4345753,2.8370953
-30.217607,1.40453,2.8067288
-30.255404,1.3949294,2.7972374
-26.84374,1.0736363,2.8064065
-26.890057,1.0769453,2.7992477
-26.94104,1.0875893,2.7992349
-26.998642,1.108881,2.809569
-27.049604,1.1205237,2.8109245
-27.097057,1.1270692,2.8075995
-27.144806,1.1344192,2.8052225
-27.199295,1.1531279,2.8139372
-27.243109,1.1548429,2.8065066
-27.294758,1.1699162,2.8121176
-27.33839,1.1719048,2.805282
-27.38849,1.1853006,2.8096428
-27.445923,1.212147,2.8272424
-27.485786,1.2085748,2.8155165
-27.531569,1.2157733,2.8144026
-27.578312,1.225112,2.8155408
-27.624895,1.2345927,2.8169866
-27.681147,1.2629547,2.8370762
-27.724142,1.266711,2.8332772
-27.766727,1.2699203,2.8290887
-27.81059,1.2759387,2.827805
-27.85336,1.280067,2.824812
-27.898968,1.2903802,2.828063
-27.949497,1.3116214,2.8422685
-27.999676,1.3330245,2.8568249
-28.040882,1.3356595,2.8529835
-28.080225,1.3343487,2.8453636
-28.127295,1.3507612,2.8554688
-28.161564,1.3381491,2.836882
-28.215746,1.3724754,2.8651252
-28.25535,1.3729908,2.8598742
-28.295761,1.3756561,2.8568945
-28.33693,1.3804762,2.8561974
-28.377481,1.3840477,2.8543863
-28.417969,1.3877318,2.85282
-28.45662,1.3867452,2.8466992
-28.496513,1.3892806,2.8442335
-28.537804,1.3960316,2.8461313
-28.57827,1.4008431,2.8462129
-28.61911,1.4071381,2.8479176
-28.660513,1.4156055,2.851944
-28.699142,1.415947,2.847907
-28.738401,1.4184532,2.8461752
-28.78197,1.4355128,2.8592768
-28.821009,1.438242,2.858026
-28.858624,1.4362524,2.8521214
-28.899887,1.4474611,2.859702
-28.93689,1.4436061,2.8521414
-28.979328,1.4605601,2.865808
-29.016619,1.4582903,2.8600907
-29.055454,1.4623389,2.860907
-29.096325,1.4754848,2.8710952
-29.13572,1.483207,2.875896
-29.171515,1.4751074,2.8647041
-29.2086,1.4726405,2.8593554
-29.247948,1.4813623,2.8655267
-29.28541,1.4811728,2.8627267
-29.3253,1.4942672,2.8736005
-29.362406,1.4928896,2.8698168
-29.39976,1.4929972,2.8676615
-29.43744,1.4952862,2.8678474
-29.475395,1.4997597,2.87038
-29.513271,1.5043325,2.873129
-29.550413,1.5041351,2.8711085
-29.587994,1.5075135,2.87286
-29.625431,1.5102937,2.8741102
-29.661907,1.5048149,2.8670092
-29.699385,1.5084836,2.86939
-29.736864,1.5129478,2.8726978
-29.774324,1.5182054,2.8769312
-29.811377,1.519378,2.8770866
-29.848219,1.5178583,2.874587
-29.884874,1.5129464,2.8687148
-29.921932,1.5144048,2.8694873
-29.959145,1.5201435,2.874764
-29.995968,1.5176077,2.8716555
-30.032797,1.5137718,2.8673186
-30.06975,1.5135181,2.8667684
-30.106699,1.5126612,2.8657074
-30.143646,1.5007372,2.8533897
-30.180864,1.4777458,2.8298163
-30.21861,1.4450841,2.796422
-30.257046,1.4062426,2.7567968
-26.533709,1.0564368,2.7941747
-26.603102,1.0895514,2.8143044
-26.650734,1.0933454,2.8068724
-26.700123,1.0998621,2.8022132
-26.752106,1.1104057,2.801588
-26.802572,1.1191778,2.7994704
-26.85686,1.1339393,2.8032923
-26.906977,1.1430421,2.8018904
-26.975895,1.1808975,2.8283849
-27.026749,1.1923184,2.8296614
-27.074886,1.19999,2.827506
-27.122475,1.2071583,2.8250427
-27.168297,1.2118564,2.820355
-27.217274,1.2219336,2.8210669
-27.269272,1.2374158,2.8272333
-27.321012,1.2530663,2.833767
-27.370157,1.2649353,2.8367982
-27.4191,1.2769592,2.8401651
-27.465944,1.285836,2.8406224
-27.512636,1.2948568,2.8413916
-27.559172,1.3040199,2.8424706
-27.605549,1.3133252,2.8438573
-27.651764,1.3227715,2.8455505
-27.697815,1.3323593,2.8475485
-27.742662,1.3400884,2.8478665
-27.786692,1.3466182,2.8471508
-27.829935,1.3519423,2.845385
-27.87407,1.3593976,2.8458924
-27.916124,1.3629673,2.8426719
-27.96354,1.3780487,2.8511024
-28.004421,1.3798583,2.8464136
-28.045881,1.3831251,2.8433208
-28.088793,1.3898716,2.8438568
-28.129799,1.3927026,2.8405995
-28.177753,1.411825,2.853877
-28.218513,1.4149017,2.8511543
-28.259214,1.4180927,2.8486776
-28.303707,1.4308639,2.8560133
-28.345284,1.4369981,2.856789
-28.383581,1.4351184,2.8495817
-28.429398,1.453011,2.8625412
-28.467323,1.450674,2.8551254
-28.508987,1.4586306,2.8582845
-28.549547,1.4639845,2.8589325
-28.5893,1.4674087,2.8577447
-28.62945,1.4723041,2.858182
-28.669512,1.4773104,2.8588595
-28.709702,1.4831102,2.8604746
-28.749146,1.4869709,2.8602338
-28.787271,1.4868371,2.8560295
-28.828224,1.4963834,2.8618526
-28.867046,1.4991965,2.8609061
-28.90696,1.5062256,2.8644037
-28.946194,1.5113072,2.8660274
-28.984798,1.5144365,2.865766
-29.021255,1.5094299,2.8572598
-29.06351,1.5278769,2.8729863
-29.102526,1.5340693,2.8762364
-29.139238,1.5307367,2.869794
-29.177814,1.5357585,2.8720698
-29.2147,1.5333076,2.866756
-29.253716,1.5412872,2.872314
-29.29179,1.5452356,2.8738294
-29.328897,1.5444572,2.8705754
-29.366991,1.5492952,2.8732367
-29.404533,1.5514722,2.87326
-29.442589,1.5572009,2.87707
-29.480438,1.56234,2.880383
-29.518,1.5661964,2.882481
-29.554836,1.5653107,2.879778
-29.591509,1.563137,2.8758473
-29.6292,1.5693598,2.8807287
-29.666553,1.5736055,2.8836713
-29.70348,1.5744874,2.8832335
-29.740389,1.5754647,2.8830047
-29.777515,1.5793068,2.8858566
-29.814255,1.5790904,2.884603
-29.850948,1.5782743,2.882834
-29.887651,1.577553,2.88127
-29.924438,1.5783126,2.881351
-29.96121,1.5791662,2.8816366
-29.99811,1.5842748,2.8864489
-30.034758,1.5832384,2.8849845
-30.071333,1.5774417,2.8786807
-30.107977,1.5689662,2.869699
-30.144762,1.5605848,2.8609195
-30.181616,1.5626991,2.863154
-30.2195,1.4948766,2.7928252
-30.25873,1.4181423,2.7133498
-30.298956,1.3505275,2.6434708
-26.230366,1.0639191,2.8124905
-26.266861,1.0513752,2.788373
-26.327177,1.0692277,2.7932057
-26.38135,1.0796983,2.791273
-26.444029,1.1017585,2.80061
-26.499187,1.1145139,2.801321
-26.554132,1.1274538,2.802432
-26.606056,1.1367521,2.8002663
-26.664755,1.1557994,2.8076897
-26.715824,1.1648104,2.8056722
-26.779394,1.1919367,2.8213744
-26.825985,1.1955266,2.8145308
-26.884874,1.2172737,2.825498
-26.932053,1.2224672,2.820592
-26.984743,1.2361984,2.8241878
-27.035072,1.2468693,2.824998
-27.088163,1.2622356,2.8306007
-27.140997,1.2777767,2.8365812
-27.18987,1.2876425,2.8371854
-27.238169,1.2970107,2.8374805
-27.287903,1.3091381,2.8406796
-27.333878,1.3155463,2.838407
-27.382072,1.3260183,2.8403254
-27.428932,1.3346756,2.8406196
-27.473366,1.3395402,2.8373098
-27.52182,1.3517644,2.841488
-27.567852,1.3601923,2.8420544
-27.60938,1.3608532,2.8350186
-27.674847,1.4058414,2.8725119
-27.72724,1.4279418,2.8873253
-27.757408,1.4085298,2.8606339
-27.797787,1.4083922,2.8534064
-27.838154,1.4083662,2.8464222
-27.883469,1.4184158,2.8497348
-27.927633,1.4266067,2.8513265
-27.969734,1.430933,2.8491588
-28.01364,1.4393797,2.851307
-28.056467,1.4459538,2.8517027
-28.098269,1.4506466,2.8503294
-28.138788,1.4527826,2.8464913
-28.181602,1.4603899,2.8483582
-28.225426,1.4708033,2.8532295
-28.267944,1.4786611,2.8556404
-28.308945,1.4832814,2.8548784
-28.351477,1.4920528,2.8585
-28.39121,1.4942138,2.855486
-28.431158,1.4971571,2.8533998
-28.471807,1.5022345,2.85363
-28.513107,1.5094519,2.8561907
-28.554035,1.5161095,2.8583083
-28.595789,1.5255895,2.8634653
-28.63553,1.5297704,2.8632913
-28.673841,1.5299926,2.8591557
-28.7128,1.5323529,2.8573432
-28.752995,1.5388916,2.8599725
-28.793488,1.5469015,2.8642516
-28.832623,1.5509434,2.8645458
-28.871094,1.5530498,2.8629556
-28.91086,1.5600266,2.8665347
-28.949018,1.5616605,2.8646874
-28.987862,1.566124,2.8658977
-29.027319,1.5734215,2.870172
-29.065973,1.5780962,2.871838
-29.104382,1.5821912,2.8730183
-29.142399,1.5850215,2.8729959
-29.180365,1.5879529,2.8731923
-29.219002,1.5944068,2.8771782
-29.256685,1.5968559,2.877099
-29.293922,1.5973482,2.8750868
-29.331656,1.6006804,2.876152
-29.369942,1.6075413,2.88102
-29.407524,1.6110733,2.8825192
-29.444155,1.6092124,2.8784847
-29.480707,1.6067584,2.8739343
-29.518587,1.6133306,2.8789449
-29.55579,1.6158786,2.8798509
-29.592684,1.616461,2.8788042
-29.629892,1.6198907,2.8808508
-29.667114,1.6241047,2.8838282
-29.704052,1.6263516,2.8848505
-29.74056,1.6245639,2.881744
-29.777037,1.6221821,2.87812
-29.814133,1.6274683,2.8826523
-29.850996,1.6307845,2.8852239
-29.887802,1.634196,2.888002
-29.924261,1.6321912,2.8851943
-29.960724,1.6295912,2.8818665
-29.997252,1.6277733,2.879465
-30.0339,1.6294954,2.8808885
-30.070543,1.6326902,2.883966
-30.107037,1.6263299,2.8771052
-30.14363,1.6124821,2.8624773
-30.180374,1.609756,2.8596454
-30.217552,1.5823119,2.8309379
-30.258583,1.4143734,2.6546645
-30.297981,1.3836915,2.6227832
-26.001446,1.0498936,2.8024392
-26.046244,1.0467396,2.7864842
-26.105444,1.0611541,2.787355
-26.180157,1.0951211,2.8070688
-26.227654,1.0962257,2.7957911
-26.284086,1.1087563,2.7956142
-26.341791,1.1233609,2.7976556
-26.391926,1.128725,2.7910557
-26.455494,1.151901,2.8018064
-26.530165,1.1904652,2.8276916
-26.579594,1.1964018,2.8223329
-26.626106,1.1986899,2.8136206
-26.68554,1.2189083,2.822516
-26.735016,1.2259667,2.81883
-26.794785,1.2478487,2.8298135
-26.84792,1.2609959,2.8324928
-26.900387,1.2736783,2.8349228
-26.95395,1.288456,2.8396192
-27.011154,1.3091917,2.8503962
-27.05562,1.3114672,2.843176
-27.103836,1.3196745,2.841981
-27.153154,1.3299689,2.8430328
-27.199001,1.335247,2.839285
-27.24597,1.3426075,2.8377724
-27.293205,1.3507607,2.8372197
-27.343462,1.3642578,2.8421764
-27.424726,1.4299717,2.899582
-27.528404,1.5357594,2.9975357
-27.585896,1.565618,3.0197387
-27.648878,1.6061378,3.0529013
-27.69125,1.6115391,3.0509386
-27.735706,1.6209993,3.0532203
-27.773182,1.6181233,3.0431867
-27.803988,1.6028574,3.0207224
-27.83086,1.5797596,2.9903908
-27.8054,1.455195,2.8570414
-27.844961,1.4538379,2.8487806
-27.889172,1.4618411,2.8501825
-27.933237,1.4699752,2.8518686
-27.976837,1.4775784,2.8531594
-28.019985,1.4846456,2.854051
-28.0596,1.4845333,2.8477302
-28.10255,1.4918437,2.8491488
-28.144175,1.4966166,2.8481026
-28.188051,1.5068393,2.8527975
-28.230312,1.5138557,2.8543372
-28.271317,1.5183225,2.8533869
-28.31417,1.5275846,2.8575187
-28.356047,1.5349638,2.8598452
-28.3962,1.5384426,2.8582716
-28.437843,1.546057,2.8611097
-28.47681,1.5470762,2.8572416
-28.51699,1.5515609,2.857091
-28.555874,1.5527935,2.8536859
-28.597336,1.561538,2.8582125
-28.63679,1.5650082,2.8573823
-28.675274,1.5658886,2.8539743
-28.715935,1.5736227,2.8578296
-28.7556,1.5787683,2.8591108
-28.794962,1.5833466,2.859923
-28.834238,1.5880325,2.8609676
-28.873428,1.5928254,2.8622446
-28.912722,1.598403,2.8644614
-28.951912,1.6040874,2.8669124
-28.99082,1.6092,2.8688822
-29.02876,1.6110222,2.8675165
-29.068016,1.6183817,2.8720798
-29.105835,1.620409,2.8711567
-29.145344,1.6300204,2.8783236
-29.182863,1.6315708,2.8771272
-29.220205,1.6325383,2.8754263
-29.258507,1.638375,2.8789668
-29.296703,1.644314,2.8827286
-29.333893,1.6455796,2.8816748
-29.370686,1.6448946,2.8786693
-29.407368,1.6436219,2.8751512
-29.444736,1.6465421,2.8761663
-29.481838,1.6481948,2.8759503
-29.518908,1.6499426,2.8759427
-29.556131,1.6531563,2.8775926
-29.593206,1.6557825,2.8787289
-29.630234,1.6585054,2.8800755
-29.666523,1.6551626,2.8751063
-29.70343,1.6573913,2.8761396
-29.740168,1.6583457,2.8759308
-29.776943,1.6600797,2.8766527
-29.81374,1.662595,2.8783078
-29.850302,1.662463,2.877262
-29.886906,1.6631107,2.8771482
-29.923676,1.6672812,2.8808727
-29.96022,1.6681182,2.8811674
-29.9968,1.6704204,2.8831215
-30.033373,1.6741889,2.886734
-30.069693,1.6677623,2.8796382
-30.106133,1.6628015,2.874199
-30.142656,1.6586206,2.8696904
-30.179245,1.6552181,2.8661118
-30.216114,1.6375067,2.8474603
-30.256927,1.4669383,2.6667771
-30.298573,1.3602717,2.5540018
-25.770782,1.0437891,2.7915454
-25.840654,1.0680811,2.800869
-25.898932,1.0797522,2.798522
-25.955427,1.0897782,2.7948518
-26.021175,1.1110861,2.8021889
-26.078793,1.1233706,2.8011723
-26.135689,1.1352329,2.7999873
-26.193909,1.1491497,2.8010154
-26.275076,1.1918502,2.8300738
-26.322117,1.1931489,2.8194375
-26.375051,1.2020795,2.8163815
-26.434187,1.2193117,2.821607
-26.493034,1.2367492,2.827281
-26.54488,1.2456036,2.8248048
-26.604155,1.2646897,2.8325567
-26.660763,1.2808313,2.8376603
-26.712458,1.2908533,2.8369703
-26.764437,1.301676,2.8372679
-26.81668,1.3133023,2.838561
-26.864237,1.3187516,2.8339348
-26.919228,1.3351595,2.8403645
-26.962984,1.3358254,2.831345
-27.013643,1.3468311,2.8327875
-27.101757,1.4142635,2.8908067
-27.217497,1.5256014,2.9932022
-27.299267,1.5880389,3.0471168
-27.349503,1.6032498,3.0539403
-27.392155,1.6070406,3.0494547
-27.443968,1.6257868,3.0602064
-27.489119,1.6343758,3.060892
-27.53529,1.6450446,3.0638475
-27.582428,1.6578028,3.0690885
-27.622116,1.6583858,3.0621314
-27.665533,1.6655786,3.0620322
-27.70734,1.6703002,3.059565
-27.751972,1.6803582,3.0626888
-27.793552,1.6853337,3.060772
-27.825142,1.6721361,3.040378
-27.844057,1.6347997,2.9952984
-27.86084,1.5922282,2.944847
-27.861794,1.5175033,2.8613014
-27.894167,1.5024736,2.8391762
-27.936893,1.5079069,2.838252
-27.98465,1.5240016,2.848486
-28.026451,1.5283761,2.8467612
-28.072504,1.5421131,2.8548722
-28.117401,1.554009,2.8612332
-28.158504,1.5580981,2.8596368
-28.201286,1.5662789,2.8624282
-28.236729,1.5580022,2.8482184
-28.282738,1.5743818,2.859819
-28.321268,1.5736196,2.8536816
-28.366306,1.5889313,2.8644595
-28.406298,1.5923889,2.862988
-28.447,1.5979571,2.863852
-28.486074,1.5996356,2.8607645
-28.52685,1.606097,2.8628163
-28.568235,1.6146796,2.8672256
-28.608517,1.6207027,2.8690748
-28.647528,1.623488,2.8676405
-28.684902,1.621686,2.8614912
-28.726263,1.632062,2.8682942
-28.766794,1.6405411,2.8732266
-28.806757,1.6477897,2.8769855
-28.845572,1.6517854,2.877428
-28.88431,1.6558864,2.8780985
-28.922203,1.6573975,2.876143
-28.960806,1.6617064,2.877265
-28.998968,1.6647699,2.8771815
-29.037071,1.6679358,2.8773193
-29.074944,1.6705277,2.8769612
-29.1126,1.6725445,2.8761015
-29.150532,1.6760142,2.8768988
-29.187943,1.6775537,2.8757524
-29.224443,1.6751285,2.8704934
-29.263504,1.684994,2.8784328
-29.300777,1.6868308,2.8779316
-29.338013,1.6887653,2.8776412
-29.375578,1.6928332,2.879736
-29.412367,1.6929269,2.877696
-29.449482,1.6951532,2.8780408
-29.48666,1.6981571,2.8793206
-29.523682,1.7005777,2.8800864
-29.561033,1.7058156,2.8839688
-29.597673,1.7063894,2.8829718
-29.634628,1.70978,2.8850913
-29.671217,1.7105448,2.8845067
-29.707718,1.7107229,2.8833985
-29.74447,1.7137191,2.8854108
-29.781288,1.7181737,2.8890905
-29.817814,1.7199984,2.890057
-29.854303,1.7219174,2.8912282
-29.890676,1.7225671,2.8911428
-29.927141,1.7253566,2.8934536
-29.963469,1.7261937,2.893774
-29.999754,1.7264426,2.893567
-30.03605,1.7274668,2.8942933
-30.072193,1.7210829,2.887178
-30.108461,1.7168381,2.8824582
-30.144808,1.7167778,2.8823276
-30.181139,1.718857,2.8845935
-30.217993,1.6855669,2.8490348
-30.257042,1.5855441,2.7420263
-30.301453,1.3744819,2.5160809
-25.477076,1.0398693,2.79244
-25.55291,1.0675287,2.8040013
-25.617687,1.0840454,2.8053393
-25.676655,1.0947645,2.8014412
-25.734343,1.1044774,2.7968302
-25.796757,1.119842,2.7978706
-25.868082,1.1457536,2.809309
-25.94005,1.1731496,2.8224998
-25.983501,1.1684809,2.8050423
-26.034882,1.1731095,2.7967415
-26.115286,1.2122207,2.8221302
-26.171362,1.2233958,2.8206878
-26.229794,1.2378383,2.8226628
-26.282927,1.2463155,2.8190389
-26.341412,1.2617664,2.8224673
-26.401613,1.2798975,2.8287725
-26.458565,1.2945163,2.8318634
-26.516722,1.3111961,2.8372216
-26.571712,1.3243387,2.839312
-26.61555,1.3233075,2.8275414
-26.688053,1.3605618,2.8540387
-26.781322,1.4269209,2.9098997
-26.920391,1.5577092,3.0306406
-26.98093,1.5834267,3.0467935
-27.035192,1.6011691,3.05519
-27.080706,1.6071012,3.0519161
-27.133575,1.6239285,3.059795
-27.17834,1.6295297,3.0565357
-27.225145,1.6384425,3.0567913
-27.273905,1.6506836,3.0605946
-27.321613,1.6618094,3.063446
-27.369537,1.673727,3.0672817
-27.416027,1.6838822,3.0694962
-27.456697,1.6852231,3.0628686
-27.504086,1.697582,3.0676594
-27.54773,1.7043126,3.0668507
-27.587767,1.7053883,3.060382
-27.631203,1.7123768,3.0601301
-27.676014,1.7220767,3.0628242
-27.71917,1.7293322,3.0631523
-27.758171,1.7296009,3.0564003
-27.799675,1.7345145,3.0545864
-27.836477,1.7311156,3.044282
-27.857275,1.6979253,3.0031261
-27.865906,1.6406775,2.9369473
-27.870415,1.5736105,2.8604803
-27.910286,1.5736711,2.8540106
-27.952106,1.5777619,2.8518767
-27.99352,1.5813177,2.8493185
-28.03771,1.5908861,2.8531947
-28.079239,1.5953407,2.851851
-28.120987,1.6005702,2.8514543
-28.16323,1.607234,2.8527002
-28.20506,1.6133623,2.8535185
-28.24648,1.618952,2.8539014
-28.286385,1.6213617,2.851059
-28.329561,1.6318057,2.856832
-28.36929,1.6344452,2.854486
-28.40843,1.6358709,2.850977
-28.449617,1.6427016,2.8533182
-28.489916,1.6476607,2.8538017
-28.530117,1.6527321,2.8545284
-28.57071,1.6592445,2.856913
-28.611418,1.6665356,2.8602533
-28.650833,1.6706138,2.8602948
-28.690845,1.6767998,2.8627033
-28.728315,1.6757634,2.8575234
-28.768375,1.682832,2.8611135
-28.807676,1.6880093,2.8628035
-28.846472,1.6919575,2.8632956
-28.884596,1.694005,2.861867
-28.923061,1.6974928,2.8620949
-28.962208,1.7037635,2.8654218
-28.999245,1.7027683,2.861064
-29.036995,1.7045534,2.8597999
-29.07555,1.709794,2.862361
-29.113848,1.7144668,2.8644242
-29.151424,1.7165551,2.8638177
-29.188957,1.7187424,2.8634262
-29.225714,1.7176645,2.859623
-29.263468,1.7213948,2.8611088
-29.301556,1.7272456,2.8649926
-29.339277,1.7318504,2.8676414
-29.375805,1.7304881,2.863954
-29.413408,1.7352898,2.867031
-29.450811,1.7395163,2.869594
-29.4875,1.7397916,2.8679895
-29.52448,1.7421877,2.8687835
-29.561226,1.743329,2.8683252
-29.598122,1.7459173,2.8695354
-29.63522,1.7506301,2.8731523
-29.671923,1.7527349,2.8740492
-29.708303,1.7522295,2.87222
-29.744753,1.7524941,2.871327
-29.781431,1.7555599,2.8735723
-29.818056,1.7587204,2.8760247
-29.854717,1.7633302,2.8801517
-29.891129,1.7653263,2.8815455
-29.927359,1.764708,2.8802047
-29.963657,1.7655365,2.8805346
-30.000013,1.7684915,2.883274
-30.03626,1.7695074,2.8840098
-30.072489,1.7706165,2.8849478
-30.108677,1.7697864,2.883881
-30.144865,1.7609189,2.8741903
-30.181149,1.7602749,2.873528
-30.217623,1.7482066,2.8605638
-30.255047,1.7057474,2.8147125
-30.302761,1.3734574,2.4543843
-25.17113,1.0383644,2.800241
-25.218582,1.034442,2.7809434
-25.312134,1.07725,2.806119
-25.367409,1.0820117,2.7955751
-25.433493,1.0982192,2.796175
-25.499874,1.1152604,2.797865
-25.563148,1.129566,2.7972198
-25.633455,1.1518588,2.8045392
-25.703392,1.1744139,2.812426
-25.764706,1.1882312,2.8121638
-25.829052,1.2058728,2.8158736
-25.885534,1.2153091,2.8118682
-25.95256,1.2370191,2.8200812
-26.012323,1.2511041,2.821117
-26.074999,1.2690396,2.8261843
-26.131119,1.2799013,2.8245497
-26.191174,1.2958295,2.8281431
-26.256065,1.3180766,2.838241
-26.309446,1.3270936,2.835484
-26.373188,1.3491695,2.8459306
-26.4306,1.3640993,2.8495178
-26.63167,1.5597,3.0339947
-26.68174,1.5686035,3.0324326
-26.751373,1.6030283,3.0566998
-26.802338,1.6141698,3.0578313
-26.85122,1.622998,3.0568228
-26.898544,1.6301188,3.0542727
-26.948038,1.6405077,3.0552106
-27.000992,1.6560543,3.061575
-27.055925,1.6749098,3.0715146
-27.103407,1.6839273,3.071638
-27.149843,1.6918416,3.070808
-27.194393,1.697387,3.0677204
-27.240126,1.7049606,3.0668716
-27.288263,1.7164662,3.0702295
-27.335775,1.7274952,3.0732737
-27.38433,1.7405775,3.0786128
-27.428974,1.7481079,3.0783901
-27.472267,1.753871,3.0764937
-27.51704,1.7623117,3.0775251
-27.560873,1.7696168,3.0775332
-27.606117,1.7796111,3.0804935
-27.648506,1.78527,3.079091
-27.690031,1.7897754,3.0766268
-27.72998,1.7918384,3.071745
-27.769516,1.7933731,3.0664377
-27.807568,1.792448,3.0586758
-27.842781,1.7864733,3.0457225
-27.85605,1.7399428,2.9901686
-27.876633,1.7056661,2.9475117
-27.878471,1.6345277,2.8659482
-27.917828,1.6339195,2.8588743
-27.962755,1.6444471,2.8637104
-28.003944,1.6479666,2.861267
-28.047594,1.6568058,2.8646007
-28.088902,1.6612172,2.8633718
-28.130426,1.666398,2.863092
-28.17005,1.6677825,2.8588977
-28.212582,1.6758106,2.8619132
-28.255253,1.6846178,2.8658957
-28.29606,1.68962,2.8659477
-28.335104,1.6908038,2.8620386
-28.377653,1.7006269,2.867506
-28.41309,1.6934905,2.8549132
-28.457253,1.7081494,2.8658276
-28.497831,1.7143807,2.867825
-28.535044,1.7121592,2.860849
-28.577168,1.7232287,2.8683
-28.614319,1.7212143,2.8617744
-28.658014,1.7378037,2.8754349
-28.700958,1.7531998,2.8879504
-28.737207,1.7495227,2.8799777
-28.774588,1.7492523,2.8757925
-28.814693,1.7577021,2.8811603
-28.858524,1.7788756,2.9004436
-28.897018,1.7835741,2.9019952
-28.935806,1.7897074,2.90522
-28.974293,1.7952814,2.9079509
-29.011225,1.7956345,2.9051185
-29.047613,1.7940867,2.9003243
-29.085548,1.7986331,2.902266
-29.124056,1.8059497,2.9073353
-29.161636,1.8100338,2.9089952
-29.200054,1.8182261,2.9152436
-29.235682,1.8144946,2.9085927
-29.271223,1.8101852,2.9014082
-29.305346,1.7986078,2.8863797
-29.344193,1.8105392,2.897139
-29.378746,1.8004792,2.8839617
-29.415472,1.8018928,2.8834286
-29.451607,1.8000517,2.879437
-29.48745,1.7962918,2.8734436
-29.523954,1.796648,2.8720574
-29.561205,1.8024678,2.876759
-29.59826,1.8077137,2.880938
-29.634888,1.8103712,2.8823829
-29.671467,1.8131242,2.8840332
-29.708206,1.8179879,2.8881025
-29.744595,1.8202586,2.889429
-29.780703,1.8199356,2.888009
-29.81676,1.8190327,2.8860512
-29.85297,1.8202405,2.8865108
-29.889454,1.8262501,2.892345
-29.925505,1.826299,2.8917317
-29.961641,1.8284595,2.893538
-29.997715,1.8300407,2.8948073
-30.033686,1.8290226,2.8933196
-30.069696,1.829443,2.8935113
-30.10567,1.8272636,2.8909454
-30.141672,1.8191199,2.8819232
-30.17777,1.817126,2.8797584
-30.214052,1.8058031,2.8674402
-30.251547,1.7528508,2.8094783
-30.301065,1.3642201,2.3827753
-30.34388,1.298049,2.3105416
-24.961132,1.022846,2.7800155
-25.052914,1.0606012,2.7994971
-25.119589,1.0748839,2.7971497
-25.19136,1.0946581,2.8003287
-25.246918,1.0989177,2.7890072
-25.3129,1.1139133,2.7882051
-25.409899,1.1608782,2.81844
-25.465925,1.1670072,2.8097544
-25.539501,1.1916323,2.8191981
-25.603062,1.2064731,2.8194776
-25.664125,1.2191682,2.8179407
-25.735525,1.2433817,2.827909
-25.79275,1.2529564,2.8238587
-25.856356,1.2698996,2.82728
-25.920753,1.2882705,2.832378
-25.975183,1.2960658,2.8273048
-26.033192,1.3082566,2.8268008
-26.097301,1.3278861,2.8339195
-26.155338,1.3410978,2.8349204
-26.209526,1.3502696,2.8321223
-26.264568,1.3608372,2.8309345
-26.487192,1.5730143,3.0322442
-26.556768,1.604506,3.053032
-26.607426,1.6136515,3.0515957
-26.65398,1.6180658,3.0455713
-26.72625,1.6551502,3.0728145
-26.768503,1.6550057,3.0625777
-26.826473,1.675319,3.0733047
-26.869942,1.6773183,3.0655894
-26.920826,1.6893466,3.068276
-26.972416,1.7027838,3.0726027
-27.02468,1.7176378,3.07858
-27.075779,1.7314239,3.0836616
-27.121725,1.7385266,3.082049
-27.166216,1.7439013,3.078817
-27.212341,1.7519159,3.0784736
-27.2609,1.7638366,3.0823455
-27.307117,1.772778,3.0833015
-27.352749,1.7812371,3.0839214
-27.396564,1.7873206,3.0822263
-27.440672,1.7941704,3.0814834
-27.48505,1.8017881,3.0816965
-27.529686,1.8101766,3.082872
-27.57259,1.8161683,3.081686
-27.613438,1.8191149,3.0774426
-27.655752,1.8247256,3.0761395
-27.696823,1.8285527,3.0730958
-27.739302,1.8350525,3.073011
-27.779823,1.8384855,3.0698218
-27.814135,1.8311603,3.055357
-27.845356,1.8181539,3.0349545
-27.868729,1.7904601,2.9990106
-27.87808,1.7358093,2.9343905
-27.889706,1.6836905,2.8724236
-27.92857,1.6824386,2.8647475
-27.969082,1.6845183,2.8607516
-28.010838,1.6892967,2.8597703
-28.052494,1.6941955,2.8590498
-28.093431,1.6979189,2.8571978
-28.133984,1.7011104,2.8549023
-28.176874,1.7096093,2.8584452
-28.219604,1.7182343,2.8622603
-28.261015,1.7243826,2.8635397
-28.302023,1.7299979,2.8643737
-28.34153,1.7324696,2.8619356
-28.381802,1.737009,2.8618546
-28.428923,1.7586548,2.8804321
-28.469387,1.7647462,2.882298
-28.508455,1.7676778,2.880857
-28.54846,1.773339,2.8824987
-28.588846,1.7804258,2.8858132
-28.622412,1.7692349,2.869348
-28.66455,1.7817914,2.878851
-28.713285,1.8142114,2.9101572
-28.748144,1.8072724,2.898656
-28.789593,1.8201952,2.9089537
-28.826813,1.8207035,2.9058037
-28.863195,1.81867,2.8999763
-28.898012,1.811445,2.8885636
-28.93449,1.8095965,2.8831387
-28.972115,1.8118126,2.8822732
-29.01078,1.8181038,2.8859887
-29.050034,1.8271506,2.8928447
-29.08742,1.8296752,2.8926477
-29.124094,1.8296447,2.8897471
-29.162348,1.8363502,2.894362
-29.198185,1.8331938,2.888227
-29.236275,1.840101,2.893279
-29.271555,1.8344731,2.8846216
-29.305841,1.8236105,2.8702855
-29.34096,1.8161614,2.8598037
-29.383629,1.8487682,2.893642
-29.419823,1.8481781,2.890944
-29.455685,1.8456814,2.88624
-29.49105,1.8399405,2.878046
-29.52762,1.8416302,2.8781657
-29.564058,1.8427474,2.8777514
-29.601273,1.8499689,2.8841953
-29.637857,1.8532813,2.886414
-29.67407,1.8540161,2.885881
-29.709911,1.8515024,2.8818493
-29.746315,1.8544292,2.8839412
-29.782782,1.8587878,2.8877206
-29.819117,1.8625722,2.890965
-29.855286,1.865114,2.8929305
-29.891281,1.8657405,2.8928714
-29.927227,1.8657916,2.8922734
-29.96323,1.8672731,2.8933587
-29.99918,1.8681777,2.8939028
-30.035187,1.8718526,2.8976188
-30.07104,1.8709345,2.896336
-30.106878,1.86743,2.892282
-30.142776,1.8646877,2.8891706
-30.178724,1.8620374,2.8862596
-30.214823,1.8527839,2.8761215
-30.25184,1.8128295,2.8320231
-30.302975,1.3706574,2.3418617
-30.346008,1.3048372,2.2693267
-24.692467,1.0162735,2.7787876
-24.767946,1.0358987,2.7802448
-24.86839,1.0792253,2.8045359
-24.93446,1.0914717,2.7997456
-25.00032,1.1039584,2.7954774
-25.06114,1.112078,2.7873116
-25.161924,1.1590924,2.816812
-25.211449,1.1573212,2.799738
-25.29812,1.1922708,2.8184018
-25.369596,1.2130191,2.8236876
-25.441303,1.2346196,2.8301249
-25.508617,1.2523961,2.833147
-25.575628,1.2704208,2.8367052
-25.638935,1.2851655,2.8373327
-25.698055,1.2960129,2.8343844
-25.758652,1.3088391,2.8336377
-25.82123,1.3242476,2.8357038
-25.877523,1.3333521,2.8317633
-25.92877,1.3372936,2.822897
-25.994978,1.3580992,2.8310933
-26.057634,1.3755612,2.8362184
-26.123678,1.3974414,2.8460479
-26.17994,1.4087567,2.8455076
-26.232368,1.416053,2.8411283
-26.403625,1.5634322,2.9788876
-26.52521,1.6553862,3.0612483
-26.592463,1.684274,3.0800033
-26.639309,1.6891375,3.0745282
-26.688519,1.6971912,3.0724893
-26.7327,1.699312,3.0645504
-26.805792,1.7382131,3.0945683
-26.84144,1.7302761,3.0766635
-26.892324,1.742054,3.0792155
-26.94019,1.7503166,3.0783248
-26.992985,1.7655056,3.0847902
-27.037281,1.7697737,3.0801134
-27.090979,1.7871549,3.0892444
-27.140347,1.7991498,3.0929632
-27.18596,1.8063467,3.0918512
-27.232748,1.8155513,3.0930028
-27.279793,1.8255289,3.0951338
-27.322395,1.829422,3.0910387
-27.365755,1.8346939,3.0885391
-27.40693,1.8369701,3.0830264
-27.453384,1.8475163,3.086391
-27.496807,1.8538165,3.085424
-27.53971,1.8596208,3.0840793
-27.583677,1.8674455,3.0850253
-27.62633,1.8735135,3.0842519
-27.665413,1.8740242,3.0776963
-27.709385,1.8828728,3.0801668
-27.748344,1.8836176,3.074121
-27.790215,1.8895524,3.0737548
-27.825457,1.8841681,3.0613852
-27.856499,1.8712363,3.0410075
-27.874063,1.8335087,2.9940329
-27.880518,1.7740755,2.923676
-27.896133,1.7299285,2.8697476
-27.935902,1.7305853,2.8642063
-27.97696,1.7339175,2.86168
-28.018269,1.7380085,2.8601027
-28.060446,1.7441456,2.8608727
-28.105938,1.7574854,2.8695965
-28.149038,1.7664542,2.8737202
-28.19016,1.7716804,2.8739076
-28.230293,1.7750871,2.8722396
-28.272093,1.7824864,2.8750486
-28.311758,1.7854753,2.8731723
-28.352196,1.790519,2.87366
-28.402641,1.8196836,2.9006753
-28.440527,1.8197854,2.8960223
-28.478922,1.8212905,2.8930159
-28.517534,1.8235509,2.8909526
-28.555593,1.8246138,2.8876848
-28.591908,1.8212154,2.8796196
-28.63138,1.826396,2.8811011
-28.667479,1.8225398,2.8727398
-28.705687,1.824662,2.8710723
-28.745178,1.8308146,2.8739657
-28.781954,1.829216,2.8684106
-28.821907,1.8375487,2.87394
-28.859451,1.8387749,2.8717241
-28.90015,1.8506091,2.8813624
-28.933084,1.8369284,2.862844
-28.969254,1.8338475,2.856164
-29.006193,1.8334923,2.8526087
-29.043484,1.8345511,2.8507252
-29.080406,1.8343906,2.8475914
-29.120453,1.8468573,2.858601
-29.158524,1.8521767,2.8617773
-29.194962,1.850996,2.8578238
-29.234802,1.8651056,2.871004
-29.271555,1.8661056,2.86969
-29.305838,1.8552961,2.8553066
-29.345503,1.8710406,2.8706388
-29.390968,1.9193394,2.9224253
-29.420431,1.8829892,2.8798285
-29.455929,1.8785095,2.8729029
-29.494164,1.8906949,2.8846965
-29.529154,1.8830864,2.8744688
-29.567123,1.8954709,2.886694
-29.603264,1.8960104,2.8857732
-29.63889,1.8926597,2.8805985
-29.67519,1.8947132,2.8815675
-29.710878,1.8915458,2.87679
-29.748062,1.90309,2.888586
-29.784382,1.9074206,2.892404
-29.82035,1.9085219,2.8927011
-29.855814,1.9030654,2.8857484
-29.892218,1.9110022,2.8939
-29.928188,1.9137115,2.8962932
-29.964169,1.9178448,2.9003787
-30.000097,1.9227357,2.9054117
-30.035732,1.9204004,2.9024377
-30.071405,1.9181559,2.899661
-30.107075,1.9120104,2.8926053
-30.142857,1.9086192,2.8887334
-30.178692,1.9059846,2.885808
-30.21468,1.8967874,2.875618
-30.251614,1.8557432,2.8298101
-30.303059,1.4022603,2.321589
-30.348057,1.2909319,2.1972208
-24.437164,1.0343955,2.7919512
-24.526434,1.0638599,2.8019476
-24.58535,1.0673718,2.787734
-24.662497,1.0873694,2.789482
-24.758114,1.1245551,2.808033
-24.845657,1.1553569,2.8209286
-24.903038,1.1593282,2.8083925
-24.970764,1.1731501,2.8056183
-25.066864,1.2139833,2.8293495
-25.131477,1.2260919,2.8255897
-25.198277,1.2407243,2.824573
-25.261847,1.2527325,2.8212767
-25.33347,1.2730267,2.8263974
-25.40006,1.288975,2.827551
-25.46928,1.3080604,2.8320966
-25.52376,1.3129025,2.8228135
-25.586145,1.3260686,2.822029
-25.654533,1.3458712,2.8281288
-25.715271,1.35833,2.8271747
-25.784702,1.380378,2.8360963
-25.844912,1.3932884,2.836121
-25.901054,1.4022903,2.832447
-25.965172,1.4203362,2.8381486
-26.022516,1.4315166,2.8371515
-26.079123,1.4423022,2.8359795
-26.134474,1.4520938,2.8340173
-26.18179,1.4531398,2.8233237
-26.247217,1.4752259,2.834375
-26.512035,1.7302856,3.0852056
-26.546778,1.7203825,3.0644155
-26.616411,1.7520292,3.0866466
-26.654089,1.7460043,3.0701742
-26.703691,1.7545667,3.0689554
-26.756552,1.7675254,3.072496
-26.818844,1.7927849,3.0890632
-26.86395,1.7970207,3.0839233
-26.911806,1.8050487,3.0829115
-26.957169,1.810184,3.0790396
-27.003813,1.8172951,3.0774035
-27.052607,1.8276155,3.079317
-27.098494,1.8344176,3.0776925
-27.146034,1.843822,3.0789843
-27.190744,1.849688,3.076696
-27.237522,1.8587773,3.0779848
-27.284126,1.8680162,3.0795994
-27.32714,1.8724539,3.076261
-27.36922,1.8757839,3.0718837
-27.415386,1.8854492,3.0744243
-27.460957,1.8946407,3.0766163
-27.505543,1.90273,3.0777845
-27.546772,1.9059651,3.073884
-27.589506,1.9118235,3.0729442
-27.630955,1.9159334,3.0702581
-27.675003,1.924557,3.0725842
-27.714722,1.9264069,3.067728
-27.755138,1.9296305,3.0644855
-27.793278,1.9291916,3.0573945
-27.829596,1.925704,3.047104
-27.857037,1.9065146,3.019824
-27.878119,1.8753533,2.979546
-27.888311,1.8232977,2.9164762
-27.905855,1.7832625,2.866507
-27.94484,1.7826259,2.8596692
-27.98777,1.7897325,2.8614354
-28.03121,1.7982407,2.8648758
-28.07194,1.8017745,2.8629885
-28.111967,1.8041468,2.8599453
-28.152859,1.8085496,2.859261
-28.193659,1.8130698,2.8588295
-28.234957,1.8189888,2.860066
-28.274975,1.822459,2.8587217
-28.317198,1.831183,2.8633118
-28.362602,1.8477509,2.8767242
-28.421106,1.8960192,2.9254436
-28.4458,1.8651862,2.8865595
-28.476528,1.8479433,2.8628163
-28.513191,1.8449814,2.85503
-28.551147,1.8453496,2.8510528
-28.591045,1.8509982,2.8530693
-28.629395,1.8528707,2.8509903
-28.435017,1.2094362,2.1284928
-28.473248,1.1946948,2.1074457
-28.499046,1.1430023,2.0451632
-28.513174,1.0536132,1.9407105
-28.839418,1.9223747,2.9095993
-28.878597,1.9301271,2.9148116
-28.910646,1.91517,2.89466
-28.947212,1.9146409,2.8907843
-28.985094,1.9187789,2.8922524
-29.012688,1.886425,2.8528004
-29.062368,1.9339011,2.9032125
-29.09516,1.920028,2.884729
-29.129671,1.9121244,2.8730502
-29.173061,1.9403443,2.902175
-29.202763,1.9123101,2.8679957
-29.243128,1.9296024,2.885024
-29.080359,1.0070724,1.8411665
-29.316664,1.9343197,2.8857026
-29.357388,1.9571931,2.9093747
-29.393353,1.9571741,2.9072876
-29.423157,1.9230473,2.8667183
-29.4611,1.9330695,2.876171
-29.49683,1.930687,2.8716865
-29.533604,1.9349818,2.8748593
-29.569633,1.9347615,2.8730168
-29.60557,1.9339752,2.8706307
-29.641684,1.9346001,2.8699393
-29.678476,1.9412534,2.8761787
-29.715004,1.9466841,2.8811326
-29.750643,1.9442928,2.8773112
-29.786798,1.9472721,2.8796792
-29.822681,1.947705,2.8792543
-29.85884,1.9521925,2.8835258
-29.89458,1.9514902,2.8820033
-29.930548,1.954843,2.885179
-29.966423,1.9576278,2.887807
-30.002295,1.9618263,2.8921347
-30.037958,1.9614925,2.8914108
-30.073627,1.9612503,2.8908863
-30.109257,1.9571354,2.8860564
-30.144962,1.9550943,2.8836784
-30.180645,1.9610744,2.890504
-30.216446,1.95327,2.8817682
-30.253016,1.9204495,2.8447156
-30.305351,1.4417698,2.3013988
-30.352417,1.2843344,2.1230812
-24.015188,0.97309947,2.7580557
-24.139753,1.0277045,2.790207
-24.221958,1.0483985,2.7909517
-24.295319,1.0622847,2.7856264
-24.374939,1.08195,2.7861457
-24.447775,1.0964065,2.7820573
-24.546011,1.1332769,2.7998257
-24.621992,1.1516781,2.8002791
-24.710941,1.1820626,2.8126745
-24.77678,1.1927032,2.8063293
-24.84991,1.2103038,2.8070517
-24.924595,1.229866,2.8100224
-24.998947,1.2497144,2.8136125
-25.083326,1.2794468,2.8272686
-25.153887,1.2970555,2.8293467
-25.21453,1.3058438,2.8229961
-25.293491,1.3324976,2.8346577
-25.347153,1.3354807,2.8230743
-25.431263,1.3684089,2.8416543
-25.485703,1.3729756,2.8321676
-25.55333,1.3909597,2.8363957
-25.613195,1.4016943,2.8335981
-25.676271,1.4161108,2.8347716
-25.737398,1.4290149,2.8346705
-25.80164,1.4456246,2.8385935
-25.85728,1.4537272,2.8340993
-25.918804,1.4684443,2.8365932
-25.980062,1.483382,2.8395643
-26.038353,1.4956031,2.8399897
-26.093746,1.5050867,2.837821
-26.14949,1.5153489,2.8366714
-26.201368,1.5216644,2.8316455
-26.373653,1.6655772,2.9698524
-26.502851,1.7633755,3.0608912
-26.558025,1.7772534,3.064907
-26.597303,1.7728386,3.049986
-26.622147,1.7512043,3.01712
-26.693325,1.7853024,3.0429158
-26.696362,1.736856,2.9819994
-26.835827,1.8567231,3.0988245
-26.879295,1.8590984,3.09194
-26.922705,1.8616071,3.0853462
-26.968866,1.8678801,3.082902
-27.016756,1.876725,3.0833602
-27.06585,1.8875492,3.0861034
-27.112473,1.8954918,3.0859432
-27.159388,1.9041944,3.086761
-27.20702,1.9142704,3.0892205
-27.252708,1.922054,3.0893826
-27.296515,1.9275293,3.087215
-27.339779,1.9325261,3.0846786
-27.384626,1.9401178,3.0850935
-27.42849,1.9466178,3.0844789
-27.474281,1.9563417,3.0875106
-27.516636,1.9612627,3.0854783
-27.559689,1.967551,3.085073
-27.603405,1.9752133,3.08631
-27.646189,1.9817677,3.086482
-27.68615,1.9840944,3.0821662
-27.72643,1.9871614,3.0787883
-27.768137,1.9928446,3.0784087
-27.805305,1.9911468,3.0700474
-27.83704,1.980154,3.0515618
-27.86573,1.963589,3.027011
-27.87674,1.9150388,2.9672065
-27.897242,1.8821869,2.924724
-27.915915,1.8449388,2.8773909
-27.954016,1.8430295,2.8692403
-27.996422,1.849437,2.870431
-28.037075,1.8528063,2.8683767
-28.077974,1.8569248,2.867278
-28.120665,1.8649671,2.8706756
-28.163504,1.87377,2.8750548
-28.204058,1.8782496,2.8747382
-28.243925,1.8815713,2.873251
-28.284298,1.8862805,2.8734312
-28.331139,1.9057817,2.8903098
-28.387133,1.9471519,2.9318724
-28.421822,1.9407487,2.9199944
-28.458221,1.9382739,2.912623
-28.502796,1.9557652,2.927816
-28.214285,1.143126,2.0082345
-28.22985,1.06884,1.9193711
-28.620073,1.9711223,2.9323668
-28.37485,1.2149317,2.0743384
-28.43202,1.2516499,2.1111627
-28.466803,1.2273014,2.0790958
-28.486397,1.1578522,1.9960403
-28.501345,1.0709567,1.8932095
-28.519518,0.98920274,1.7961774
-28.880413,1.9807761,2.9171953
-28.91851,1.985976,2.9197798
-28.951454,1.9744334,2.9034438
-28.989492,1.9798288,2.9064512
-29.026693,1.9827332,2.9067326
-29.067724,2.0000248,2.9234986
-29.101421,1.9907904,2.910161
-29.13792,1.992043,2.908867
-29.174227,1.9927413,2.9070387
-29.20744,1.9805124,2.8905516
-29.248993,2.0041974,2.9151626
-29.069153,1.0136483,1.7809873
-29.318954,1.9951825,2.9002976
-29.359062,2.0159338,2.9218903
-29.39269,2.004805,2.9071217
-29.424732,1.9839611,2.8813152
-29.460636,1.9834499,2.87887
-29.497185,1.9869552,2.8811212
-29.533562,1.9899015,2.8828306
-29.569881,1.9929438,2.8847466
-29.606588,1.9993536,2.8906207
-29.64259,2.001277,2.8914495
-29.678318,2.001329,2.8902245
-29.714186,2.002783,2.8907037
-29.749758,2.0017087,2.8883743
-29.785706,2.0046594,2.8907595
-29.821596,2.0077028,2.8933473
-29.857525,2.0121508,2.897644
-29.892948,2.010133,2.894606
-29.928732,2.0141098,2.898549
-29.96441,2.0175242,2.9019399
-30.000051,2.0216858,2.9062834
-30.035463,2.0206897,2.9047923
-30.070816,2.0158474,2.8989725
-30.106295,2.0150332,2.8978753
-30.141788,2.0149667,2.8977313
-30.177292,2.013678,2.896275
-30.212955,2.0039496,2.8852096
-30.249437,1.9687188,2.8449244
-30.291368,1.7924995,2.6426878
-30.350977,1.2798033,2.053872
-23.975813,1.0763404,2.8343167
-23.99335,1.04385,2.7842498
-24.08352,1.0696247,2.7895193
-24.155346,1.0811481,2.7816381
-24.276428,1.1336648,2.813336
-24.342281,1.141496,2.8027081
-24.432722,1.1703281,2.8126345
-24.511047,1.189661,2.8137975
-24.587116,1.2076497,2.8140173
-24.668617,1.2308917,2.8197112
-24.748457,1.2533486,2.8250184
-24.825397,1.2738998,2.8288221
-24.903236,1.29586,2.8343668
-24.97264,1.3108714,2.8333902
-25.03378,1.318871,2.825756
-25.099655,1.3315744,2.8230624
-25.168938,1.3478944,2.824265
-25.246954,1.3729339,2.8345146
-25.311405,1.385834,2.8329034
-25.379177,1.4023709,2.8352346
-25.44783,1.4202964,2.8392615
-25.509754,1.4322069,2.8374777
-25.569721,1.4426239,2.8344278
-25.635231,1.4589839,2.8376904
-25.697601,1.4727111,2.8385305
-25.75972,1.4866633,2.8398585
-25.824383,1.5037248,2.8446426
-25.883192,1.5152338,2.8439593
-25.939587,1.5246282,2.841322
-25.99798,1.5365438,2.8415208
-26.055613,1.54808,2.8415542
-26.114098,1.5609863,2.843244
-26.171812,1.5735118,2.8447661
-26.218788,1.5744934,2.834405
-26.484745,1.8234131,3.0848804
-26.501724,1.7933924,3.0427966
-26.52378,1.7686906,3.0063295
-26.64476,1.859555,3.0922503
-26.679136,1.8499982,3.0721865
-26.689882,1.8119638,3.0219302
-26.72674,1.8049061,3.0046577
-26.858767,1.9150815,3.1127272
-26.892422,1.9054699,3.093203
-26.938564,1.9115455,3.090599
-26.981295,1.9135597,3.0837913
-27.02815,1.9211261,3.083106
-27.076233,1.9306552,3.084704
-27.123676,1.9397368,3.08599
-27.169594,1.9471548,3.08564
-27.21714,1.9571486,3.0882454
-27.264053,1.9666886,3.0905247
-27.310349,1.9757707,3.0924697
-27.353043,1.9801176,3.089405
-27.393951,1.9821491,3.0839486
-27.439396,1.9910414,3.0861373
-27.482193,1.9963951,3.084599
-27.527317,2.0055692,3.0873995
-27.567448,2.0074956,3.0823736
-27.606731,2.0083055,3.076243
-27.65067,2.016644,3.078545
-27.694828,2.025738,3.0818286
-27.736153,2.0306306,3.080605
-27.772879,2.0281963,3.0713844
-27.811842,2.0295937,3.0665255
-27.84313,2.0180244,3.0473576
-27.871025,2.000291,3.021397
-27.877708,1.9445131,2.9530473
-27.896112,1.9080708,2.9062428
-27.92129,1.8829072,2.8720627
-27.96134,1.884753,2.868176
-28.005304,1.8942487,2.8729882
-28.043886,1.8938148,2.8667898
-28.089165,1.906712,2.87569
-28.129807,1.9109204,2.8749547
-28.17128,1.91714,2.8766074
-28.21172,1.9215839,2.8763814
-28.251766,1.9255095,2.875692
-28.291145,1.9282813,2.873814
-28.33246,1.9356053,2.8772035
-28.386795,1.9729006,2.914682
-28.439354,2.0078387,2.9496794
-28.468157,1.9882102,2.9228978
-28.169132,1.173991,1.9929972
-28.216759,1.1810756,1.9958692
-28.247873,1.1467879,1.9517641
-28.290167,1.140038,1.9391003
-28.401075,1.3157475,2.1347017
-28.434906,1.2901716,2.1009412
-28.469866,1.266587,2.0695252
-28.486036,1.1878946,1.9751573
-28.484245,1.0520246,1.81532
-28.519806,1.0220904,1.776712
-28.557951,0.9986596,1.7456303
-28.920624,2.0176244,2.9104223
-28.960535,2.02933,2.920683
-28.997208,2.030832,2.9193387
-29.033476,2.0311415,2.9167233
-29.070082,2.032838,2.9157996
-29.103737,2.023646,2.9024434
-29.136389,2.0100105,2.8840542
-29.175663,2.0223331,2.8956537
-29.21163,2.0218172,2.8925624
-29.24952,2.029817,2.8993897
-29.287115,2.0372713,2.9056916
-29.32784,2.0603929,2.9301887
-29.355875,2.0226357,2.8844776
-29.398294,2.056348,2.9214187
-29.42893,2.02913,2.88804
-29.464455,2.0273225,2.884121
-29.499899,2.0249565,2.8796487
-29.536188,2.0278845,2.8813953
-29.572514,2.0315578,2.8841019
-29.608858,2.035977,2.8877673
-29.644697,2.0372365,2.887869
-29.67981,2.032727,2.8813777
-29.71658,2.0426397,2.8916965
-29.752045,2.0415714,2.88938
-29.787764,2.0432017,2.8902855
-29.82345,2.044924,2.8913913
-29.859245,2.0486956,2.8949661
-29.8948,2.0499506,2.8957162
-29.930439,2.0532546,2.8989348
-29.965834,2.0527358,2.89781
-30.001232,2.052308,2.896882
-30.036694,2.0539289,2.8984246
-30.072151,2.056946,2.9016795
-30.107439,2.0496125,2.8930101
-30.142874,2.0515065,2.8951445
-30.178318,2.0476182,2.8906584
-30.213991,2.0340319,2.8750043
-30.250057,2.0146651,2.8527336
-30.292881,1.8094249,2.6147966
-30.354055,1.2676528,1.986383
-23.716484,1.1040499,2.876453
-23.786987,1.1123183,2.8640518
-23.858715,1.121908,2.8532238
-23.922773,1.1259363,2.8374362
-23.99759,1.138706,2.830278
-24.068144,1.1485605,2.8206682
-24.142536,1.1618905,2.8147244
-24.226002,1.1830244,2.8166661
-24.30911,1.2044883,2.819322
-24.377419,1.2143898,2.8111062
-24.483353,1.2559905,2.8341928
-24.536797,1.2545292,2.8155365
-24.636547,1.292521,2.8359613
-24.70692,1.3063056,2.8329377
-24.762457,1.3077323,2.8179622
-24.836843,1.3258595,2.8198376
-24.912163,1.3453753,2.8234339
-24.979689,1.358537,2.8209968
-25.05129,1.3758357,2.8230104
-25.123198,1.3939617,2.8261733
-25.194782,1.4123595,2.829926
-25.267244,1.4321485,2.8354044
-25.336367,1.4494054,2.8386202
-25.408146,1.4697368,2.8452744
-25.453663,1.4655013,2.8270574
-25.521418,1.4829135,2.8312535
-25.59465,1.506252,2.8418474
-25.652533,1.5150769,2.83775
-25.71252,1.5263851,2.8364553
-25.771166,1.5367622,2.8344336
-25.82961,1.5473449,2.8328571
-25.898407,1.5690532,2.8431416
-25.949194,1.5725801,2.8346567
-26.012997,1.5901358,2.8411002
-26.068903,1.5998175,2.8395066
-26.124086,1.6091111,2.8377166
-26.176964,1.6162658,2.8338704
-26.289667,1.6900744,2.9009771
-26.476654,1.8491154,3.0593123
-26.53342,1.8643248,3.0651855
-26.606771,1.8991106,3.0922098
-26.64256,1.8912265,3.073825
-26.693993,1.9017191,3.0752797
-26.745222,1.9123857,3.0771127
-26.754513,1.8728824,3.0250173
-26.850462,1.9383941,3.0863953
-26.90343,1.9525607,3.0925903
-26.94044,1.947242,3.0778317
-26.993513,1.9623306,3.0853782
-27.048164,1.9799957,3.095932
-27.093746,1.9864595,3.0944595
-27.137375,1.9906657,3.0906725
-27.17596,1.9883857,3.0799217
-27.226564,2.0024989,3.0872912
-27.270313,2.00772,3.0850596
-27.310913,2.0088387,3.0784516
-27.357903,2.0191748,3.0821476
-27.408075,2.0345244,3.0915518
-27.452526,2.0421293,3.0925536
-27.489803,2.039509,3.082356
-27.532812,2.0455437,3.0818882
-27.57328,2.048039,3.0776196
-27.618446,2.0580077,3.0818105
-27.65833,2.0601404,3.0773988
-27.700472,2.0660782,3.0773673
-27.739445,2.067218,3.0720944
-27.777628,2.0672352,3.065679
-27.813206,2.0630364,3.0546393
-27.84556,2.0533633,3.037538
-27.871971,2.0332341,3.008737
-27.886358,1.9914329,2.955533
-27.904251,1.9545889,2.9079142
-27.93578,1.9413958,2.887052
-27.973248,1.9388678,2.8783445
-28.01074,1.9364398,2.869854
-28.053467,1.9441113,2.8729362
-28.09412,1.9481561,2.872025
-28.135626,1.9541967,2.873507
-28.176699,1.9597306,2.8745356
-28.218565,1.9672685,2.8779726
-28.259386,1.9730422,2.8795218
-28.297169,1.9726374,2.8741264
-28.338951,1.9811604,2.879054
-28.40835,2.0522885,2.9558358
-28.434381,2.027007,2.922316
-28.480782,2.0485775,2.9426284
-28.169504,1.2122626,1.9772806
-28.208357,1.1977193,1.9554276
-28.252499,1.1959574,1.9483814
-28.281368,1.1549296,1.8962083
-28.400803,1.3511055,2.1176353
-28.44238,1.3466635,2.108004
