x,y,z
-36.93073,2.7413492,3.379239
-36.993458,2.743786,3.3982434
-37.061024,2.7442234,3.4149718
-37.135094,2.7419567,3.4285808
-37.21656,2.7366667,3.4387217
-37.29333,2.7339218,3.452322
-37.366154,2.7333198,3.468854
-37.446426,2.7297447,3.482027
-37.54411,2.7189212,3.4866877
-37.625557,2.7157016,3.5009751
-37.718746,2.7078273,3.509972
-37.796337,2.7070947,3.527936
-37.826397,2.7267833,3.5706244
-37.861202,2.744446,3.6109786
-37.90249,2.759424,3.6482553
-37.9647,2.7658844,3.675642
-38.015835,2.7770615,3.7087936
-38.077053,2.784325,3.7375765
-38.132225,2.7942054,3.7696328
-38.185577,2.8049705,3.8029213
-38.23708,2.816607,3.8374138
-38.27894,2.832098,3.8764887
-38.34658,2.8378096,3.9046516
-38.399406,2.849382,3.93969
-38.49221,2.8461459,3.9584007
-38.552753,2.8553061,3.9912963
-38.60705,2.866959,4.027196
-38.69467,2.8666804,4.0502596
-38.784115,2.8661475,4.073459
-39.66229,2.585672,3.7949877
-39.66092,2.6207857,3.859458
-39.674164,2.650541,3.9181404
-39.677124,2.68368,3.9803872
-39.680477,2.716456,4.0421886
-39.729195,2.733698,4.0878067
-39.704628,2.775518,4.1589255
-39.83495,2.7657347,4.177162
-40.118702,2.706437,4.146014
-40.315277,2.6770709,4.146488
-40.466797,2.6632414,4.163498
-40.731888,2.6142201,4.146741
-40.995968,2.5670686,4.1333523
-41.20021,2.5400047,4.1408772
-41.42977,2.506296,4.143257
-41.69126,2.4641747,4.1390586
-41.99691,2.4102764,4.1254487
-42.255196,2.3721976,4.1283
-42.561478,2.321456,4.1211915
-42.899284,2.2632906,4.1093054
-43.17917,2.2236855,4.1160517
-43.508293,2.171629,4.1136384
-43.844753,2.1193492,4.1131434
-44.283424,2.040546,4.0921855
-44.67147,1.978145,4.087925
-44.947235,1.9483998,4.1133056
-45.35758,1.883975,4.1122046
-45.818035,1.808523,4.10503
-46.287106,1.7333739,4.101258
-46.87024,1.6312435,4.0798054
-47.396667,1.546917,4.07603
-47.91179,1.4683609,4.0803056
-48.695305,1.3254473,4.041092
-49.411766,1.20352,4.0226827
-50.06553,1.1008844,4.023117
-50.867348,0.9660883,4.0063047
-51.6823,0.8325846,3.9964113
-52.45356,0.71384597,4.002409
-53.24543,0.59450626,4.0139637
-19.405657,1.949759,2.8095403
-19.653189,2.0019765,2.8423796
-19.795311,2.015539,2.8312678
-19.948257,2.0340464,2.8265963
-20.26093,2.115633,2.8970904
-20.322811,2.1006756,2.8544464
-20.427383,2.102845,2.832469
-20.560623,2.117026,2.8253336
-20.800686,2.175278,2.8719172
-20.947914,2.1971188,2.8754578
-18.932018,1.3245096,1.7902193
-21.301739,2.2682557,2.9180255
-21.389818,2.2680233,2.8964396
-21.541542,2.295342,2.9092245
-21.595371,2.2814343,2.8714948
-21.696167,2.2880824,2.8595552
-21.804092,2.2983923,2.8525915
-21.905209,2.3062735,2.8429976
-22.008507,2.3156753,2.8357115
-22.119595,2.3291736,2.8340135
-22.23836,2.34683,2.838037
-22.331882,2.3535414,2.8285408
-22.71587,2.4963787,2.9939551
-22.855171,2.527049,3.0166426
-22.932228,2.5290236,3.0028057
-23.027214,2.5400007,3.0009117
-23.109386,2.5452988,2.9919763
-23.20614,2.5581906,2.9932456
-23.294806,2.5676525,2.9903722
-23.377028,2.5743957,2.9842396
-23.446756,2.575267,2.970646
-23.510277,2.5732908,2.9535146
-23.580572,2.5750809,2.941584
-23.676407,2.590535,2.94808
-23.747059,2.5933342,2.9380078
-23.81383,2.5944211,2.9258695
-23.88866,2.6001592,2.9201941
-23.947027,2.5973616,2.903257
-24.009771,2.597197,2.8900528
-24.059273,2.5899718,2.8674703
-24.106651,2.5816922,2.8435893
-24.181566,2.5891101,2.841226
-24.25983,2.598879,2.8423119
-24.329952,2.6044214,2.8378582
-24.41549,2.6193547,2.846519
-24.474522,2.6192338,2.8347287
-24.534872,2.6201653,2.8245583
-24.639732,2.6481946,2.8520598
-24.698896,2.6492603,2.8425121
-24.77241,2.6594357,2.845799
-24.833315,2.6622462,2.8390446
-24.913107,2.677238,2.8494787
-24.98035,2.6848335,2.8498058
-25.034609,2.6845074,2.8392162
-25.113443,2.7003636,2.8515248
-25.172674,2.7039535,2.8467908
-25.237663,2.71168,2.848061
-25.310894,2.725338,2.8579097
-25.377926,2.7353332,2.8627815
-25.42794,2.7341294,2.851935
-25.490036,2.7414985,2.8534184
-25.569023,2.7610843,2.8724961
-25.767752,2.8660858,3.0138526
-25.844229,2.8861666,3.0343323
-25.889824,2.8845675,3.0239472
-25.937843,2.8849194,3.0164752
-25.988834,2.8876941,3.012609
-26.036667,2.8883796,3.0058599
-26.084414,2.889227,2.9994607
-26.133862,2.8916044,2.9953928
-26.180231,2.891862,2.9883747
-26.223595,2.889975,2.9783545
-26.26693,2.8882267,2.9686346
-26.308504,2.885229,2.9571939
-26.349504,2.8818967,2.9453564
-26.387108,2.8758962,2.9297113
-26.420845,2.8667362,2.9095206
-26.444136,2.848764,2.8764844
-26.45396,2.8190806,2.8262897
-26.46108,2.7865353,2.7718663
-26.461796,2.7477949,2.7082949
-26.493315,2.7355173,2.683651
-26.496881,2.6981168,2.621995
-26.540642,2.6964018,2.613007
-26.286968,2.4218237,2.2004976
-26.401176,2.4824233,2.283464
-26.420074,2.4550498,2.236302
-26.426363,2.415144,2.1705322
-26.42245,2.3645394,2.0888124
-26.41561,2.3099399,2.0010662
-26.410868,2.2561777,1.9144773
-26.385439,2.1803687,1.79491
-26.48036,2.2254462,1.855753
-26.540604,2.2361422,1.8654375
-26.57011,2.2151396,1.827806
-26.579645,2.1725354,1.7578325
-26.583183,2.1224785,1.676641
-26.57916,2.0629413,1.5811539
-26.592903,2.0216107,1.5129547
-26.598217,1.9698129,1.428976
-26.58325,1.8935406,1.3080754
-26.562574,1.8085988,1.1739774
-26.554317,1.7359383,1.0582728
-26.569397,1.689177,0.9815912
-26.56847,1.6217859,0.87368774
-26.560385,1.5437033,0.74952126
-26.59342,1.5148757,0.6998644
-26.585716,1.4335434,0.57062864
-36.39226,1.1585891,0.48242855
-36.42055,1.1920168,0.54238844
-36.441605,1.2304537,0.60958433
-36.41415,1.3568797,0.8151803
-36.400433,1.4184422,0.9153881
-36.414772,1.458755,0.9850049
-36.43715,1.4927695,1.0455775
-36.453857,1.530333,1.1112108
-36.436142,1.5913444,1.2102222
-36.452515,1.6278636,1.2742505
-36.410103,1.7039301,1.3943758
-36.431892,1.7354088,1.4510984
-36.40662,1.7978725,1.5516119
-36.434227,1.824441,1.6013117
-36.40693,1.8865504,1.7010574
-36.38713,1.9427989,1.7923789
-36.403275,1.9752066,1.8501263
-36.39243,2.0242767,1.9311552
-36.40862,2.055712,1.9874535
-36.44553,2.0739696,2.0253916
-36.49459,2.084706,2.0529523
-36.531715,2.1027453,2.090746
-36.553177,2.1300905,2.1414714
-36.5791,2.154524,2.188189
-36.58692,2.1893752,2.2492566
-37.715073,1.7505414,1.7217417
-37.69829,1.8027866,1.8083367
-37.697517,1.8455796,1.8820128
-36.515606,2.526301,2.814076
-36.442852,2.6001048,2.926661
-36.501278,2.6032288,2.944305
-36.5266,2.623936,2.9855785
-36.534943,2.6533291,3.0384374
-36.53061,2.6889327,3.0994906
-36.537132,2.7185953,3.152604
-36.612312,2.7133813,3.1597462
-36.69,2.7073166,3.1660323
-36.6926,2.738717,3.2215972
-36.597187,2.8176718,3.3390894
-36.629604,2.8335216,3.3741145
-36.770443,2.7974393,3.341998
-36.81952,2.8058689,3.3678527
-36.925724,2.7876241,3.3595877
-36.98607,2.7913547,3.3798656
-37.055237,2.7912607,3.395472
-37.132545,2.7877753,3.4070215
-37.207573,2.7857032,3.4206457
-37.272163,2.7886515,3.440874
-37.364513,2.7795973,3.4462786
-37.444008,2.7766747,3.4597063
-37.52775,2.7723014,3.4716353
-37.611652,2.7682807,3.4843297
-37.706493,2.7600374,3.4921513
-37.800735,2.752555,3.5012918
-37.835007,2.7705157,3.541882
-37.866505,2.7896125,3.5839453
-37.90362,2.8063896,3.6232862
-37.949806,2.819528,3.65836
-38.021282,2.8226557,3.681612
-38.091927,2.8264136,3.7059011
-38.15317,2.8341417,3.7351737
-38.210915,2.84344,3.7665358
-38.279755,2.8486686,3.7933536
-38.32179,2.8643477,3.8326197
-38.397423,2.8674626,3.85749
-38.42957,2.887075,3.9016604
-38.46318,2.906138,3.9452977
-38.5727,2.8975387,3.9576168
-38.618313,2.9125638,3.9971123
-38.688396,2.9189453,4.027088
-38.77434,2.919994,4.0514345
-39.66726,2.6392543,3.7645755
-39.67301,2.671752,3.8264709
-39.663105,2.7093973,3.8939285
-39.646347,2.749041,3.9634113
-39.66397,2.77679,4.0199533
-39.67038,2.808142,4.080353
-39.66007,2.8447895,4.146305
-39.797592,2.8331065,4.1614923
-40.02881,2.7920256,4.1468697
-40.226192,2.7630599,4.1459956
-40.4168,2.7373376,4.149519
-40.675545,2.6914668,4.133734
-40.927746,2.6491175,4.122947
-41.154938,2.6158333,4.122593
-41.379017,2.5847588,4.125712
-41.61933,2.5500894,4.1266365
-41.85652,2.5176783,4.1311398
-42.17219,2.4637032,4.11656
-42.467346,2.4174476,4.111139
-42.743664,2.3782165,4.1140327
-43.0505,2.3319137,4.112133
-43.456345,2.2597318,4.0887127
-43.73947,2.2236762,4.100137
-44.132187,2.159309,4.0883894
-44.50702,2.1019614,4.0852733
-44.84306,2.0570168,4.095215
-45.21379,2.0047739,4.101187
-45.624107,1.9442656,4.1027484
-46.094112,1.8706751,4.096367
-46.626938,1.7837358,4.082455
-47.270485,1.6719811,4.052621
-47.631195,1.6339436,4.084454
-48.35175,1.5096757,4.0531845
-49.18019,1.3633294,4.0106087
-49.75257,1.2828062,4.022138
-50.53434,1.1559579,4.0047073
-51.33786,1.0283425,3.9925313
-52.351944,0.85666203,3.9562974
-53.145233,0.74076366,3.9649153
-7.802515,0.9824338,3.9419336
-19.708447,2.08875,2.837152
-19.884996,2.1147704,2.8421636
-19.972351,2.1080081,2.80858
-20.27832,2.1853435,2.876915
-20.36151,2.1785338,2.844489
-20.480467,2.186038,2.829852
-20.572891,2.1836774,2.8036036
-20.81562,2.2417116,2.8521662
-21.019272,2.285631,2.8843174
-21.114674,2.2867975,2.8641386
-21.223312,2.2938616,2.8517027
-21.36415,2.314878,2.8572178
-21.467196,2.3208723,2.8443542
-21.591473,2.3364058,2.8439732
-21.715343,2.352487,2.8447804
-21.81998,2.3609672,2.83636
-21.931679,2.3731017,2.833024
-22.051147,2.3893032,2.8353534
-22.171812,2.4067497,2.8397512
-22.289616,2.4236379,2.843884
-22.38376,2.430466,2.835352
-22.529484,2.461524,2.8588538
-22.765741,2.5356455,2.939457
-22.880367,2.554532,2.9482388
-22.940273,2.5481963,2.9240937
-23.036198,2.5593226,2.9233036
-23.170736,2.5896952,2.948473
-23.235598,2.5869555,2.9299192
-23.34514,2.6065493,2.941495
-23.40662,2.6028855,2.9221978
-23.480291,2.6056068,2.9116983
-23.543936,2.6035917,2.89503
-23.612812,2.6045368,2.8825727
-23.695105,2.6127791,2.8802586
-23.758438,2.6115427,2.8652787
-23.801624,2.599895,2.8362398
-23.90708,2.621673,2.8531833
-23.98478,2.6291697,2.8508291
-24.05345,2.6321757,2.842525
-24.1256,2.637456,2.8375745
-24.203337,2.6462495,2.8377185
-24.28367,2.6569777,2.840794
-24.359402,2.6655838,2.8411622
-24.438416,2.6765378,2.8450446
-24.50934,2.6832864,2.843278
-24.584948,2.693203,2.8461704
-24.656769,2.7013447,2.8467941
-24.72417,2.707269,2.844501
-24.792738,2.7142882,2.8439507
-24.865177,2.7240925,2.8475475
-24.933922,2.7320716,2.8487635
-24.996328,2.7365036,2.845127
-25.066612,2.7462728,2.8492794
-25.131268,2.7528994,2.8491387
-25.1904,2.7563396,2.844614
-25.25069,2.7608578,2.841795
-25.3402,2.7850459,2.8674326
-25.403164,2.792252,2.868865
-25.61725,2.90204,3.0185995
-25.671618,2.905297,3.0149384
-25.728376,2.9105043,3.0142455
-25.785576,2.9163601,3.0146422
-25.83507,2.9171205,3.0077758
-25.884472,2.9180522,3.0012808
-25.933777,2.9191537,2.9951544
-25.984818,2.9217644,2.9913535
-26.033302,2.9227602,2.9853134
-26.082893,2.924821,2.9809504
-26.131176,2.926149,2.9756303
-26.17758,2.926282,2.9686656
-26.22215,2.925206,2.9600253
-26.263762,2.9219942,2.94833
-26.30537,2.9189115,2.9369159
-26.346405,2.9155,2.9251032
-26.383474,2.9089906,2.908783
-26.418365,2.9007397,2.8899474
-26.452253,2.8916562,2.869937
-26.473574,2.871972,2.8341966
-26.504007,2.8597703,2.8096342
-26.497787,2.815845,2.7377334
-26.490313,2.769926,2.6627727
-26.520458,2.756333,2.6361394
-26.133286,2.3687675,2.048758
-26.371843,2.5391898,2.2977915
-26.405275,2.5257344,2.27114
-26.424622,2.4990354,2.2246056
-26.42476,2.4537365,2.150043
-26.440338,2.4222124,2.0962
-26.423851,2.3590193,1.9945083
-26.384184,2.2716014,1.8560619
-26.374,2.2113585,1.7585588
-26.50601,2.2930539,1.8760839
-26.545128,2.2822883,1.8536868
-26.575977,2.2628763,1.8182206
-26.58609,2.1680803,1.6622014
-26.58696,2.1144497,1.5746193
-26.593868,2.066112,1.4950447
-26.596918,2.012293,1.4070549
-26.581028,1.9357154,1.2842278
-26.580122,1.8742542,1.1843977
-26.547764,1.774565,1.0259671
-26.567926,1.7341177,0.9581399
-26.571934,1.6732752,0.8590207
-26.576406,1.611337,0.7581582
-26.59227,1.5617809,0.67625666
-26.584911,1.481669,0.5473428
-36.389744,1.2171137,0.45815086
-36.394646,1.2679217,0.5440273
-36.408833,1.310986,0.6184764
-36.401512,1.3692131,0.7150769
-36.382015,1.4353013,0.82304716
-36.419933,1.4589348,0.8689275
-36.388313,1.5318,0.9865427
-36.42805,1.5531878,1.0291319
-36.441513,1.592684,1.0980506
-36.39883,1.6702373,1.2220483
-36.44058,1.6889732,1.2607775
-36.393505,1.7673647,1.3856463
-36.414513,1.7990575,1.4430089
-36.40546,1.8501554,1.5282536
-36.417213,1.8869131,1.5928121
-36.395073,1.945018,1.6878877
-36.407936,1.9798782,1.7495933
-36.367638,2.0478106,1.858407
-36.370758,2.0875208,1.9268441
-36.394302,2.1140862,1.9765587
-36.43112,2.132281,2.014432
-36.46144,2.1543198,2.0578003
-36.51505,2.162275,2.081356
-36.535698,2.18986,2.1326504
-36.571365,2.208382,2.1712308
-36.565662,2.2507863,2.2433033
-36.611202,2.2632375,2.2734537
-37.593807,1.830708,1.71347
-37.583725,1.8787732,1.7949767
-37.753178,1.8284621,1.740768
-36.46142,2.5668664,2.7712479
-36.55021,2.5542624,2.766942
-36.493973,2.618766,2.8683228
-36.441017,2.6805406,2.9656782
-36.51499,2.6757076,2.9722285
-36.535378,2.698699,3.0167165
-36.5729,2.7128356,3.0492601
-36.59033,2.7370603,3.0954762
-36.614285,2.757853,3.1370893
-36.552124,2.8208525,3.235207
-36.644123,2.8078701,3.2316575
-36.68262,2.8212163,3.263433
-36.77348,2.809629,3.262278
-36.813442,2.8226,3.2938704
-36.867485,2.829039,3.3169775
-36.92705,2.833101,3.3371382
-36.99701,2.8326356,3.351581
-37.053417,2.8386328,3.3746767
-37.137203,2.832546,3.3822937
-37.222,2.8264518,3.3902106
-37.302124,2.8228602,3.40166
-37.375053,2.8228,3.4179296
-37.458725,2.8184443,3.4289846
-37.542572,2.8144403,3.440803
-37.617485,2.8146293,3.458243
-37.71572,2.8054128,3.464119
-37.80505,2.8004158,3.475676
-37.84771,2.8149874,3.512001
-37.8717,2.8371909,3.5579338
-37.908844,2.8540277,3.597278
-37.958447,2.8659372,3.6306686
-38.025745,2.8710132,3.6558652
-38.09303,2.8763604,3.681651
-38.167137,2.879342,3.7048311
-38.24041,2.8829584,3.7290711
-38.2956,2.893706,3.7621503
-38.373154,2.8962681,3.7856812
-38.420364,2.9103806,3.8232179
-38.488293,2.9170191,3.852119
-38.554424,2.9245687,3.8823633
-38.619614,2.9327004,3.9135551
-38.67946,2.9429665,3.947483
-38.704796,2.96554,3.9957952
-38.78376,2.9694333,4.0228443
-39.656944,2.700754,3.7411652
-39.640404,2.7406573,3.8115988
-39.63662,2.7758954,3.8766465
-39.64035,2.8083582,3.9385161
-39.651665,2.8381052,3.9973369
-39.66343,2.867546,4.055809
-39.68378,2.8940668,4.111102
-39.72094,2.9151354,4.1605663
-39.91216,2.887627,4.158322
-40.123928,2.854785,4.151449
-40.317135,2.8288825,4.153002
-40.516315,2.8022294,4.1548195
-40.78205,2.7565837,4.1381626
-40.98972,2.7298195,4.1422625
-41.252274,2.6879861,4.132295
-41.45733,2.6644442,4.1421185
-41.762856,2.612986,4.125476
-42.028393,2.5747013,4.123518
-42.29644,2.5371869,4.1238613
-42.614548,2.4871783,4.11383
-42.92038,2.4423487,4.110613
-43.234436,2.396977,4.108742
-43.59522,2.3407416,4.098771
-43.9343,2.2923102,4.0981517
-44.33069,2.230648,4.0877676
-44.71196,2.1751342,4.085354
-45.05053,2.132712,4.096816
-45.42671,2.0825548,4.1038084
-45.92139,2.0046654,4.089778
-46.42385,1.9275931,4.0797267
-47.00461,1.834096,4.0596094
-47.465385,1.7728891,4.0694494
-47.985336,1.7000158,4.073234
-48.83009,1.5532153,4.023326
-49.4983,1.4523373,4.014326
-50.165886,1.3552601,4.0129385
-50.95791,1.233506,3.998413
-51.736015,1.1192102,3.9950123
-52.605286,0.98892903,3.9862838
-19.646355,2.1714535,2.8492885
-19.82581,2.197044,2.8548217
-19.931238,2.1963737,2.8289948
-20.244892,2.2738194,2.8997173
-20.257595,2.2400084,2.8342328
-20.411,2.2595284,2.8350306
-20.55711,2.2771256,2.834066
-20.694283,2.2920845,2.830391
-20.87078,2.3232565,2.8477254
-20.985937,2.3311913,2.8363423
-21.146126,2.3577828,2.849163
-21.266409,2.3692036,2.8432322
-21.38636,2.3811514,2.8384447
-21.514254,2.397052,2.8392181
-21.631817,2.4093826,2.8358617
-21.748203,2.4218795,2.8331666
-21.869965,2.4373276,2.8347645
-21.984783,2.4505022,2.8338394
-22.09436,2.4620566,2.8312101
-22.215723,2.479414,2.836647
-22.319727,2.489801,2.8332887
-22.429825,2.503508,2.834722
-22.518799,2.5082927,2.824634
-22.6433,2.5298028,2.8372693
-22.81784,2.5752578,2.882564
-22.917408,2.5869682,2.882978
-23.004107,2.5931878,2.8763027
-23.117844,2.612771,2.8880696
-23.18688,2.6115553,2.8718925
-23.238863,2.6023433,2.8449988
-23.327013,2.6110566,2.8428268
-23.416409,2.6208925,2.8424873
-23.501698,2.629192,2.840321
-23.59503,2.6420588,2.844748
-23.674458,2.6483803,2.8403988
-23.75365,2.655021,2.8367429
-23.838558,2.665094,2.838122
-23.917976,2.6727772,2.8364244
-23.994926,2.679601,2.833767
-24.070902,2.686337,2.8312201
-24.168472,2.7052789,2.8461103
-24.238773,2.709884,2.8410487
-24.316074,2.7187667,2.8422537
-24.388802,2.725545,2.8407006
-24.456314,2.7297797,2.83574
-24.527172,2.7363036,2.834238
-24.606934,2.748405,2.8409166
-24.68076,2.7575521,2.843597
-24.744581,2.761231,2.838634
-24.819267,2.7717602,2.843711
-24.890211,2.7805116,2.8464365
-24.959517,2.7887063,2.8485575
-25.017736,2.7904751,2.8415594
-25.08389,2.797498,2.8423424
-25.148472,2.8039296,2.8424454
-25.2115,2.8097582,2.8418427
-25.3895,2.8902512,2.9504657
-25.476791,2.9134998,2.9758973
-25.555061,2.9315388,2.9939451
-25.607727,2.9331121,2.9880276
-25.664114,2.937464,2.9863305
-25.716516,2.9394197,2.9812427
-25.77384,2.945043,2.981699
-25.825329,2.946944,2.9767947
-25.876078,2.9485874,2.9716315
-25.92548,2.9495273,2.9655447
-25.977839,2.9528449,2.9631085
-26.025803,2.9532444,2.9564524
-26.078495,2.9573646,2.9554553
-26.128633,2.9598856,2.9521952
-26.174498,2.9594455,2.9446201
-26.219707,2.9587069,2.9367003
-26.259037,2.953608,2.9223351
-26.301294,2.9508882,2.9116235
-26.341818,2.9469395,2.8991504
-26.37952,2.9408376,2.883513
-26.41391,2.9321043,2.8639755
-26.44619,2.9216297,2.841867
-26.47421,2.907559,2.8143682
-26.500832,2.892163,2.7848997
-26.52501,2.874506,2.7520323
-26.485598,2.8016977,2.635396
-26.511026,2.7839532,2.6023388
-26.133266,2.4089088,2.0250902
-26.380806,2.5853095,2.2874947
-26.407976,2.5662875,2.2522702
-26.428339,2.5407224,2.2070713
-26.439077,2.5057294,2.147449
-26.449017,2.4692757,2.0855637
-26.428482,2.4028885,1.9777336
-26.374056,2.3020504,1.8168736
-26.428484,2.3057528,1.8164759
-26.526875,2.3536189,1.8841481
-26.561617,2.2360609,1.6855326
-26.573587,2.1955006,1.6171489
-26.598618,2.167967,1.5688863
-26.596907,2.1108513,1.4748392
-26.584034,2.039999,1.3594351
-26.581844,1.9792099,1.2595305
-26.630936,1.9749849,1.2473607
-26.589006,1.8660846,1.0726318
-26.567934,1.7784553,0.9307804
-26.576937,1.7240524,0.8405099
-26.58137,1.6626747,0.7393279
-26.595581,1.6115727,0.65410805
-26.592577,1.5376482,0.5332465
-36.382874,1.2835402,0.443285
-36.392437,1.3303595,0.524035
-36.398674,1.3788712,0.6072507
-36.422863,1.4135718,0.6698489
-36.419193,1.5185318,0.8477707
-36.388706,1.5898414,0.96446705
-36.40202,1.6294775,1.0341563
-36.443707,1.6490798,1.0742497
-36.39454,1.7302225,1.2050457
-36.45164,1.738569,1.228559
-36.378,1.833837,1.3797488
-36.405357,1.8610208,1.4308643
-36.43421,1.8869524,1.4801669
-36.411755,1.9455969,1.5772276
-36.426064,1.9799194,1.6387057
-36.382156,2.0504074,1.7527194
-36.3618,2.1050472,1.8435044
-36.37025,2.1411037,1.907238
-36.39238,2.1683664,1.9582233
-36.42847,2.186944,1.9966979
-36.455975,2.21055,2.0424623
-36.499092,2.2247543,2.0747643
-36.54762,2.2358088,2.1026444
-36.54289,2.3162794,2.2419124
-36.585423,2.330338,2.2741995
-36.616287,2.3509388,2.315856
-37.386906,2.00342,1.8506446
-37.667564,1.8922553,1.7083192
-37.72087,1.9057202,1.7420268
-37.822735,1.8934779,1.7398567
-36.600834,2.5775948,2.7106934
-36.528343,2.6501172,2.824603
-36.53398,2.6812305,2.8806276
-36.508156,2.7280416,2.9583516
-36.533775,2.7482476,2.9991522
-36.57051,2.762793,3.0321941
-36.639214,2.7615469,3.0436344
-36.620277,2.8034906,3.1144147
-36.688004,2.8029315,3.1270442
-36.715405,2.8220096,3.1666036
-36.748764,2.8381815,3.2022686
-36.785034,2.8529692,3.236135
-36.838444,2.859799,3.259369
-36.896564,2.8646357,3.280087
-36.965824,2.8646173,3.2944903
-37.01998,2.8717217,3.3186212
-37.118267,2.8593185,3.3170052
-37.18946,2.8594537,3.332343
-37.263985,2.8584588,3.3464346
-37.32397,2.8641055,3.3695107
-37.398647,2.863682,3.384842
-37.4923,2.8555627,3.390408
-37.57549,2.852342,3.4026823
-37.654697,2.8511887,3.4179354
-37.745647,2.8455834,3.4277492
-37.831795,2.8424041,3.4410172
-37.89716,2.8480208,3.4658327
-37.936447,2.8642828,3.5044017
-37.957794,2.8876598,3.5520782
-38.006733,2.9001555,3.586092
-38.074226,2.9055998,3.611436
-38.139145,2.9122941,3.6385884
-38.20916,2.9173024,3.6638908
-38.279167,2.9225965,3.6898127
-38.335358,2.9332917,3.7226315
-38.431248,2.9295967,3.7380905
-38.487343,2.9408252,3.7720647
-38.550278,2.9497643,3.803483
-38.61401,2.958644,3.835073
-38.683796,2.9656193,3.8646412
-38.733295,2.9799275,3.9031863
-38.79762,2.989251,3.9360385
-39.56934,2.7577178,3.6870985
-39.631214,2.77088,3.7267704
-39.638584,2.8024154,3.787922
-39.644577,2.8342087,3.8493333
-39.65725,2.8636189,3.9079838
-39.671272,2.8924408,3.9659615
-39.68486,2.9212635,4.02394
-39.703438,2.9483724,4.0800085
-39.721607,2.9755073,4.136133
-39.81844,2.9782186,4.1654835
-40.05835,2.9376087,4.148147
-40.285316,2.9023116,4.1378164
-40.403942,2.900719,4.1647553
-40.695293,2.8486032,4.1387205
-40.93971,2.8119211,4.1305027
-41.15434,2.7852364,4.134032
-41.392593,2.7529743,4.13299
-41.610104,2.7278996,4.1406097
-41.90336,2.6828341,4.129262
-42.197388,2.6392097,4.1210365
-42.48003,2.600343,4.119216
-42.790466,2.555536,4.1132426
-43.081966,2.5175107,4.115652
-43.438934,2.463819,4.1048584
-43.768524,2.419254,4.1048245
-44.096943,2.376799,4.1087656
-44.525295,2.3107119,4.093062
-44.911106,2.257707,4.0918818
-45.263565,2.2150974,4.102407
-45.687973,2.1567397,4.101356
-46.172295,2.0861878,4.0925217
-46.714886,2.0043573,4.077289
-47.288277,1.9182444,4.0620985
-47.66664,1.8807952,4.0907335
-48.450157,1.7519963,4.0482903
-49.14804,1.6470306,4.030139
-49.748253,1.5678225,4.0368404
-50.603832,1.4352622,4.0073047
-51.4235,1.3152537,3.993249
-52.308456,1.1856191,3.97818
-53.17179,1.0654004,3.976307
-19.668243,2.252609,2.8301315
-19.844246,2.2760653,2.8347206
-19.985096,2.2878137,2.8253498
-20.26259,2.350316,2.8806105
-20.339573,2.3405063,2.845346
-20.44571,2.3418705,2.8245988
-20.593466,2.3594599,2.825035
-20.746702,2.3799849,2.8298383
-20.902798,2.402512,2.8378391
-21.022089,2.4116302,2.8290482
-21.164589,2.4305258,2.8334594
-21.27983,2.4394174,2.8253202
-21.4231,2.4601955,2.833242
-21.535967,2.4694884,2.8265429
-21.667534,2.487071,2.8312492
-21.780527,2.4977322,2.8272324
-21.896465,2.510258,2.8261147
-22.013666,2.5239804,2.8270216
-22.119095,2.53335,2.8224888
-22.237164,2.5487657,2.8264947
-22.340302,2.558368,2.8230386
-22.44714,2.57018,2.8229437
-22.565594,2.587788,2.831133
-22.662914,2.5966115,2.8277006
-22.771011,2.6108844,2.8320851
-22.874767,2.6238146,2.8349857
-22.976576,2.6364605,2.837843
-23.069431,2.6455154,2.8360548
-23.17363,2.6604784,2.842793
-23.25115,2.6633098,2.8329382
-23.351555,2.6776094,2.8393793
-23.429379,2.6814933,2.831521
-23.516142,2.6901994,2.83069
-23.602613,2.6992624,2.830634
-23.68126,2.7048848,2.825974
-23.773159,2.7176926,2.8317513
-23.869152,2.733186,2.8416386
-23.938046,2.735207,2.8325968
-24.016367,2.7425299,2.831338
-24.09443,2.7501676,2.830761
-24.165672,2.754598,2.8258014
-24.270035,2.7773852,2.8475037
-24.337807,2.7808776,2.8416524
-24.409697,2.7870107,2.8398132
-24.486338,2.7962158,2.8426342
-24.553486,2.8005219,2.8385472
-24.629581,2.8103142,2.8426433
-24.69559,2.8147547,2.8391328
-24.765568,2.8218818,2.8397336
-24.831158,2.8268359,2.837337
-24.897915,2.8328586,2.8366857
-24.961723,2.8374922,2.834166
-25.018566,2.838239,2.8260736
-25.090096,2.8483105,2.8319178
-25.216743,2.8932142,2.8895774
-25.326405,2.9286485,2.93356
-25.408194,2.9473522,2.9529781
-25.461355,2.9482713,2.946117
-25.51376,2.9489563,2.939034
-25.569286,2.9519491,2.9355268
-25.62466,2.9551427,2.9324546
-25.679245,2.9581082,2.9291735
-25.738728,2.9647062,2.9314837
-25.790464,2.9663496,2.9264793
-25.843327,2.96904,2.9231734
-25.894812,2.9710486,2.9189591
-25.950455,2.9762883,2.9197536
-25.996794,2.975166,2.911036
-26.047295,2.9772706,2.9073162
-26.097668,2.9795496,2.903975
-26.146725,2.981118,2.8996649
-26.195671,2.9828537,2.8957162
-26.2445,2.9847555,2.892129
-26.285118,2.9805691,2.8793387
-26.328045,2.9782994,2.8695621
-26.366405,2.9725673,2.8545632
-26.400312,2.963338,2.8342671
-26.431004,2.951482,2.80999
-26.457462,2.936066,2.7802782
-26.480906,2.9179678,2.7464638
-26.50685,2.9017303,2.7155423
-26.533085,2.8855388,2.684721
-26.495714,2.814246,2.5687022
-26.516817,2.7924547,2.5291672
-26.399448,2.6477149,2.2990284
-26.416046,2.6195796,2.2494507
-26.431664,2.59004,2.1976843
-26.433182,2.5469632,2.1248503
-26.429579,2.4981873,2.0430865
-26.428488,2.4507017,1.9632635
-26.394043,2.370205,1.8318591
-26.494823,2.419052,1.9023533
-26.530092,2.404984,1.8747077
-26.568453,2.393838,1.8516836
-26.574715,2.298965,1.691966
-26.570404,2.2420895,1.5972095
-26.603565,2.223373,1.5623412
-26.590956,2.1553051,1.4498887
-26.593971,2.1024542,1.3612885
-26.592873,2.0437243,1.2633696
-26.592602,1.9843953,1.1644363
-26.570185,1.898318,1.0232186
-26.558899,1.8226895,0.8983698
-26.577057,1.779474,0.8246641
-26.580158,1.7172208,0.7208204
-26.589453,1.6607246,0.62603045
-26.57965,1.5791881,0.4915142
-36.450844,1.2916842,0.33255005
-36.39138,1.3893292,0.4914236
-36.40307,1.4334893,0.5688925
-36.456444,1.498528,0.68848705
-36.410103,1.5815821,0.8245783
-36.455025,1.5998914,0.86284876
-36.390907,1.6927772,1.0134025
-36.435707,1.7101617,1.0502386
-36.465572,1.7374823,1.1020484
-36.427475,1.8095193,1.2208233
-36.45848,1.8350353,1.2698627
-36.404297,1.9154835,1.4008765
-36.444984,1.9337153,1.4389782
-36.40937,2.000211,1.5488791
-36.433,2.028449,1.6018224
-36.392467,2.0961642,1.7132239
-36.396458,2.1354275,1.7823601
-36.388847,2.1811943,1.8610272
-36.3954,2.2177908,1.926094
-36.410217,2.2490046,1.9832039
-36.45355,2.2631104,2.0152159
-36.47788,2.2882683,2.063479
-36.51229,2.3074021,2.1029649
-36.52172,2.3406568,2.1630707
-36.570286,2.3514884,2.1905537
-36.60659,2.3692298,2.2281632
-36.689957,2.3986712,2.2948537
-36.730606,2.4139576,2.3291402
-37.64908,1.9603081,1.68999
-37.663383,1.9943905,1.7530332
-37.651245,2.0419629,1.8353305
-37.86402,1.9724629,1.750617
-36.584846,2.669214,2.7560558
-36.545,2.723485,2.84545
-36.569786,2.744508,2.8876033
-36.522163,2.8013697,2.98033
-36.580223,2.8054163,2.9985285
-36.626034,2.8156435,3.025559
-36.674812,2.8245382,3.0508418
-36.70957,2.840241,3.0857444
-36.74255,2.8567722,3.121873
-36.779198,2.8715653,3.155661
-36.82978,2.8799317,3.180655
-36.893707,2.882341,3.1975884
-36.91883,2.9025826,3.239191
-37.028072,2.8850474,3.2291613
-37.09136,2.888572,3.2482271
-37.1603,2.8898718,3.2644691
-37.23658,2.8882906,3.2770343
-37.318665,2.8845818,3.2869854
-37.40825,2.8780963,3.293489
-37.48498,2.877503,3.308195
-37.56593,2.8755136,3.3213034
-37.64289,2.875561,3.337401
-37.735683,2.8695025,3.3456855
-37.805416,2.8732479,3.3672295
-37.896877,2.868595,3.3779907
-37.94495,2.8815784,3.412138
-38.039978,2.8762796,3.4226418
-38.103962,2.8835025,3.4497266
-38.183163,2.8851244,3.469808
-38.241158,2.89515,3.5009694
-38.328087,2.8944907,3.5186758
-38.35685,2.9158633,3.5647306
-38.386154,2.9369912,3.6105394
-38.464348,2.9402885,3.6339679
-38.524384,2.9504633,3.6663098
-38.588665,2.959324,3.6972313
-38.651123,2.9690561,3.7294707
-38.695995,2.9851403,3.769771
-38.77313,2.9901729,3.7966762
-38.81063,3.0090613,3.8407712
-38.899986,3.0104632,3.8638034
-39.63804,2.7954712,3.626719
-39.645958,2.8269448,3.6881046
-39.648926,2.8598409,3.7511468
-39.670162,2.8866024,3.8068848
-39.690098,2.9136865,3.863038
-39.70423,2.9425087,3.921245
-39.72695,2.9685087,3.9761896
-39.798126,2.979432,4.0138683
-39.943558,2.96788,4.0262356
-40.049255,2.9691238,4.0537796
-40.13312,2.977396,4.089708
-40.23246,2.9814289,4.121301
-40.429874,2.9571931,4.1221614
-40.573563,2.9495978,4.142252
-40.792988,2.9210584,4.1403513
-41.01389,2.8933196,4.1404715
-41.30291,2.8477519,4.122785
-41.503677,2.828227,4.1341457
-41.730873,2.802552,4.140167
-42.04245,2.7553236,4.125164
-42.325897,2.7173584,4.1213903
-42.608154,2.6812775,4.1211305
-42.884476,2.64829,4.12558
-43.26011,2.5912366,4.1078386
-43.571682,2.5525832,4.110284
-43.916958,2.5071588,4.108045
-44.314068,2.4507604,4.0974355
-44.697872,2.3998196,4.0943756
-45.054005,2.357681,4.10183
-45.427933,2.3132076,4.109365
-45.91311,2.24448,4.097442
-46.404106,2.177063,4.0897894
-46.996536,2.0889835,4.067325
-47.508827,2.022382,4.067152
-47.943386,1.9759897,4.0873775
-48.7698,1.8451674,4.040785
-49.413204,1.7588956,4.035949
-50.110817,1.6644278,4.0290513
-50.93715,1.5463681,4.008703
-51.70895,1.4442465,4.006345
-52.66992,1.3071468,3.9835567
-19.583843,2.325169,2.8365674
-19.741032,2.3405523,2.8318477
-19.864803,2.3450341,2.813826
-19.999603,2.354065,2.8021321
-20.254799,2.4071236,2.847826
-20.382534,2.4154787,2.8365712
-20.496277,2.4193664,2.819981
-20.643932,2.436421,2.8210607
-20.790268,2.453824,2.8231688
-20.923431,2.4670715,2.8203459
-21.057045,2.4812365,2.8192396
-21.202011,2.500555,2.8255
-21.3247,2.5120087,2.8217797
-21.46037,2.5292807,2.8263216
-21.575638,2.5391924,2.8214335
-21.70877,2.556957,2.827588
-21.814243,2.5642211,2.819951
-21.940763,2.5807343,2.8252969
-22.044775,2.588617,2.8192716
-22.14606,2.5959175,2.8128
-22.255978,2.6074395,2.812492
-22.37521,2.6235974,2.8189692
-22.497997,2.642022,2.8290029
-22.592323,2.6487112,2.8231096
-22.691956,2.6582656,2.8215256
-22.806309,2.674986,2.8303118
-22.905226,2.685424,2.8306437
-22.987339,2.6887445,2.8212543
-23.087994,2.7010612,2.824843
-23.179733,2.7098136,2.8236966
-23.275034,2.7207747,2.8259768
-23.369219,2.7317696,2.8286047
-23.443167,2.7335699,2.818366
-23.549692,2.751608,2.8316402
-23.62619,2.7555664,2.824994
-23.713036,2.7650762,2.8265762
-23.80032,2.7753208,2.8294802
-23.884289,2.784412,2.8309708
-23.961288,2.7904222,2.8282294
-24.040257,2.7978873,2.8278265
-24.121159,2.8068242,2.8297982
-24.198114,2.814158,2.8296537
-24.271181,2.8198595,2.82733
-24.344742,2.826239,2.8262053
-24.41949,2.8336926,2.8268652
-24.49611,2.8426237,2.8299127
-24.575972,2.8538377,2.8365502
-24.639305,2.8562393,2.8303356
-24.70738,2.8616724,2.8287897
-24.778015,2.8689716,2.8302016
-24.842175,2.8729231,2.8268037
-24.902718,2.8750954,2.820908
-24.963116,2.8774927,2.8154988
-25.04097,2.8907168,2.8264947
-25.15948,2.9292386,2.8757515
-25.26769,2.962523,2.9174595
-25.337902,2.973148,2.9252672
-25.382076,2.967874,2.9092093
-25.449844,2.9777334,2.9161725
-25.504951,2.979912,2.9116497
-25.558632,2.98145,2.9062815
-25.613466,2.9840202,2.9026089
-25.671337,2.9889035,2.9025908
-25.722696,2.9897518,2.8965435
-25.780844,2.9954684,2.8980594
-25.83069,2.9958363,2.8915138
-25.884148,2.9989514,2.8892946
-25.934387,3.0001009,2.884173
-25.988163,3.0040197,2.8834233
-26.037548,3.0050902,2.8784013
-26.085629,3.0054579,2.8723998
-26.136585,3.0081732,2.8701286
-26.186224,3.0101879,2.8668818
-26.234571,3.0114915,2.8626375
-26.279339,3.0103078,2.8546329
-26.321186,3.0070524,2.843495
-26.35962,3.001258,2.828484
-26.393036,2.9915602,2.8074584
-26.423244,2.979263,2.7824268
-26.449226,2.9634423,2.7519326
-26.473848,2.9463177,2.7194262
-26.494434,2.9256184,2.6813445
-26.518642,2.907656,2.6475673
-26.52773,2.8765466,2.5931702
-26.507374,2.8194044,2.4978294
-26.53944,2.8068874,2.4725952
-26.420677,2.6605115,2.2365394
-26.435736,2.6307359,2.1839466
-26.432642,2.5838737,2.1043687
-26.438562,2.5443013,2.0362453
-26.411064,2.472653,1.9173408
-26.382666,2.3984392,1.7942333
-26.502075,2.4643683,1.8931231
-26.534874,2.4480305,1.8617802
-26.578896,2.4425433,1.8477058
-26.587229,2.3508744,1.6913772
-26.573582,2.285075,1.581346
-26.593111,2.2522557,1.5237861
-26.595394,2.200437,1.4359083
-26.575336,2.1232965,1.3075438
-26.555223,2.0440364,1.1756701
-26.56966,2.000904,1.1014605
-26.560295,1.9299319,0.98266125
-26.563843,1.8717668,0.8842888
-26.55786,1.8009844,0.76563025
-26.584965,1.7672057,0.7062621
-26.587723,1.7034638,0.5987878
-26.509007,1.5388165,0.32909966
-36.390636,1.4456162,0.46886158
-36.4283,1.4708195,0.5177965
-36.45742,1.5528252,0.66432476
-36.452522,1.6063919,0.7568078
-36.43969,1.664504,0.85615396
-36.38731,1.748379,0.9947686
-36.425102,1.7704015,1.0387101
-36.46061,1.7937648,1.0847425
-36.43205,1.8588266,1.1942625
-36.48833,1.8679075,1.218574
-36.409485,1.9635289,1.374227
-36.44231,1.9867351,1.4199195
-36.446964,2.0273795,1.4919987
-36.44218,2.0732925,1.5719647
-36.43718,2.1186574,1.6510162
-36.396202,2.1851394,1.7617111
-36.40146,2.2228136,1.8289814
-36.386852,2.2717538,1.9130645
-36.41329,2.2959023,1.9599829
-36.458015,2.309237,1.9908004
-36.465622,2.3438938,2.0534315
-36.49714,2.3645535,2.095234
-36.541733,2.3777442,2.1260095
-36.57976,2.3946145,2.1623144
-36.603973,2.4190402,2.209834
-36.644295,2.4345024,2.244175
-36.669945,2.4578521,2.2901788
-36.69593,2.4808488,2.335689
-37.5293,2.0782297,1.758892
-37.571575,2.096863,1.7995644
-37.589184,2.128194,1.8587933
-37.78389,2.0688028,1.7863164
-36.51304,2.7515533,2.7890964
-36.55464,2.764193,2.8192196
-36.57946,2.78518,2.8614607
-36.557636,2.8288875,2.9363732
-36.56628,2.8572314,2.9891262
-36.63273,2.8575754,3.0018377
-36.683857,2.865496,3.0255365
-36.728725,2.8765056,3.0537596
-36.775803,2.8865771,3.0807629
-36.8306,2.8932083,3.1030269
-36.88143,2.9018273,3.128242
-36.92192,2.9152522,3.1603403
-37.02492,2.9008508,3.1535897
-37.075714,2.9101155,3.1802044
-37.14964,2.9094172,3.1931043
-37.22449,2.9086711,3.2061706
-37.300266,2.9078832,3.21942
-37.370487,2.909809,3.236649
-37.456257,2.9055278,3.2455878
-37.52503,2.9087343,3.265049
-37.611923,2.904795,3.2750006
-37.694878,2.902898,3.2880206
-37.772175,2.9036796,3.3049436
-37.86038,2.9004781,3.3167663
-37.944572,2.8992941,3.331604
-38.01548,2.9036894,3.354187
-38.12092,2.8950691,3.3597007
-38.169174,2.908825,3.395237
-38.262215,2.9057875,3.4087749
-38.34691,2.9063292,3.4273543
-38.428276,2.9084914,3.448359
-38.498558,2.9150696,3.4754033
-38.561928,2.9244227,3.506288
-38.654583,2.9235163,3.5241752
-38.70316,2.9386594,3.5629911
-38.746326,2.9558034,3.6045136
-38.756977,2.9842815,3.6605482
-38.775063,3.0100381,3.71313
-38.892006,3.002155,3.7235036
-38.96337,3.010172,3.754211
-39.634903,2.8193033,3.5383534
-39.653053,2.8475,3.5959535
-39.670776,2.8757133,3.6535892
-39.69342,2.9022226,3.7091627
-39.705826,2.9319,3.7686124
-39.721367,2.9604394,3.8266845
-39.78058,2.9752867,3.8683934
-39.88925,2.9751167,3.8925004
-39.97086,2.9836833,3.9273915
-40.12592,2.970517,3.9371886
-40.195755,2.9834847,3.9780872
-40.38681,2.9611058,3.9785166
-40.45849,2.9744334,4.020738
-40.53643,2.9862175,4.061517
-40.65839,2.9858112,4.088919
-40.76753,2.9895837,4.121574
-40.970013,2.96798,4.126674
-41.19981,2.9399915,4.12582
-41.472874,2.901554,4.1148195
-41.649868,2.8903499,4.134581
-41.94466,2.8489163,4.1230674
-42.257046,2.8045368,4.1100616
-42.480286,2.784908,4.124612
-42.79312,2.7436182,4.1180325
-43.143387,2.6946275,4.105363
-43.46151,2.655579,4.104731
-43.835114,2.604635,4.09408
-44.157524,2.5681753,4.099877
-44.604813,2.5035346,4.080197
-44.926773,2.4710248,4.094013
-45.374,2.4109688,4.083732
-45.708694,2.3793137,4.1026645
-46.244545,2.30364,4.0832677
-46.80645,2.2250614,4.064642
-47.289978,2.1669421,4.0678053
-47.813755,2.1026227,4.068675
-48.46929,2.0126894,4.050995
-49.180077,1.914566,4.030785
-49.80349,1.8386693,4.033747
-50.613472,1.727468,4.0123787
-51.51013,1.6029603,3.9860892
-52.39296,1.4861097,3.9720516
-53.17931,1.3931854,3.9824233
-10.236448,0.53303146,1.2229133
-10.15185,0.44502974,1.0695009
-10.17345,0.38574243,0.94894886
-10.133608,0.3088162,0.80768967
-19.670082,2.4201856,2.844994
-19.83317,2.4371393,2.8438473
-19.937576,2.4347093,2.8179498
-20.202065,2.4887266,2.8667326
-20.266037,2.4735737,2.8251114
-20.41615,2.4893746,2.8248167
-20.56152,2.5043108,2.823935
-20.688532,2.5133607,2.8157077
-20.835632,2.5305037,2.8188381
-20.978016,2.5467327,2.8212762
-21.111492,2.5604224,2.820788
-21.241192,2.5734277,2.8198457
-21.371328,2.5873322,2.8205967
-21.503548,2.6027894,2.8239408
-21.63615,2.6191638,2.8290153
-21.74842,2.628238,2.82445
-21.870262,2.6417723,2.8264604
-21.962143,2.6438527,2.8129206
-22.068565,2.6523502,2.8086524
-22.219435,2.6798549,2.8314114
-22.318558,2.686666,2.8255506
-22.427895,2.6983376,2.8268743
-22.539268,2.7115123,2.8306847
-22.631052,2.7168775,2.8237505
-22.728962,2.7254071,2.8216147
-22.855087,2.7469382,2.8383865
-22.941206,2.7514465,2.831141
-23.038094,2.76126,2.8317895
-23.134647,2.7714841,2.8333268
-23.227757,2.7806852,2.8336782
-23.313583,2.7870398,2.8301792
-23.400696,2.794471,2.8284988
-23.4837,2.8004444,2.824946
-23.576363,2.8115091,2.829081
-23.648964,2.813406,2.8200417
-23.734976,2.822239,2.8214016
-23.81768,2.829941,2.82134
-23.910545,2.8432076,2.8297324
-23.980755,2.8456056,2.8222961
-24.061865,2.8539348,2.8238516
-24.147816,2.8652463,2.830069
-24.225384,2.872722,2.8308053
-24.293972,2.8759162,2.8253522
-24.37464,2.8859143,2.8302689
-24.444944,2.8908284,2.8277726
-24.520733,2.8991246,2.8305454
-24.582771,2.900309,2.8227987
-24.636932,2.8974135,2.809043
-24.72604,2.9144,2.8255014
-24.78685,2.9159331,2.818768
-24.85927,2.9244475,2.8227882
-24.923845,2.9288561,2.8207426
-24.986172,2.9323077,2.8173957
-25.087635,2.9593463,2.8502345
-25.202538,2.995312,2.8970113
-25.250992,2.9919806,2.8838582
-25.30806,2.9941154,2.8792028
-25.368282,2.998506,2.878151
-25.427654,3.0027096,2.8769493
-25.483585,3.005068,2.8730373
-25.54066,3.008458,2.8708467
-25.591152,3.0078928,2.8626585
-25.650478,3.0133522,2.8639235
-25.707695,3.0177727,2.8637094
-25.762836,3.0211384,2.861981
-25.816568,3.0238564,2.8593645
-25.870148,3.0267649,2.857161
-25.917446,3.025605,2.8487144
-25.972588,3.0301588,2.8493056
-26.023918,3.0323372,2.8462925
-26.073917,3.033832,2.8423133
-26.127357,3.038091,2.84278
-26.177086,3.0399375,2.839563
-26.224354,3.040213,2.8339725
-26.270374,3.0397732,2.8273454
-26.31288,3.0368555,2.8168926
-26.351389,3.0309937,2.8018622
-26.386005,3.0221567,2.782187
-26.415714,3.0094304,2.7563982
-26.443974,2.995438,2.72864
-26.471376,2.9806144,2.699594
-26.49143,2.9595904,2.6607146
-26.512426,2.9390302,2.622583
-26.530083,2.9153433,2.5794787
-26.507015,2.8564937,2.480247
-26.534897,2.8403945,2.4492102
-26.568766,2.8293364,2.4262648
-26.418314,2.654614,2.1413007
-26.433622,2.6245463,2.0877123
-26.421932,2.5692992,1.9937148
-26.395044,2.4987566,1.8750625
-26.367245,2.4256768,1.7521982
-26.508764,2.5114903,1.8848782
-26.535713,2.4896967,1.8445888
-26.576353,2.3816533,1.654943
-26.582071,2.3360705,1.5762248
-26.581959,2.2833834,1.4859724
-26.59151,2.2395134,1.409936
-26.567894,2.1593306,1.2750239
-26.571877,2.1067626,1.184772
-26.58391,2.0616717,1.1066046
-26.555967,1.9710085,0.9543843
-26.557423,1.910979,0.8518219
-26.572243,1.8646533,0.77149343
-26.582733,1.8120775,0.6809659
-26.589113,1.7532148,0.5801592
-36.384132,1.5060883,0.44945335
-36.427795,1.5268846,0.49170637
-36.426563,1.5789273,0.5828843
-36.420593,1.6333847,0.67774916
-36.452583,1.6609991,0.73065853
-36.427227,1.7270498,0.843441
-36.411217,1.7856994,0.94455814
-36.41875,1.8278117,1.0198765
-36.447823,1.8552427,1.0723896
-36.426853,1.9146936,1.17447
-36.473385,1.9300542,1.2082915
-36.457687,1.98469,1.3027687
-36.441555,2.038717,1.3961854
-36.475307,2.0610726,1.4407878
-36.427383,2.1331477,1.5617318
-36.42629,2.1756804,1.6371875
-36.400055,2.2326257,1.734611
-36.37744,2.2865143,1.8272114
-36.398243,2.3141727,1.8797021
-36.419235,2.3414347,1.9315906
-36.412025,2.384563,2.007564
-36.453503,2.399522,2.040771
-36.48354,2.4208796,2.0837264
-36.51111,2.4434645,2.1285682
-36.539722,2.4653118,2.172327
-36.577267,2.482169,2.2086186
-36.59371,2.5103052,2.2618861
-36.587967,2.5499415,2.332353
-36.65057,2.553166,2.3483686
-36.674454,2.5767603,2.3948836
-37.55556,2.1594086,1.7860246
-36.35567,2.8099203,2.7637458
-36.44181,2.7997038,2.759646
-36.495377,2.8062327,2.7805057
-36.648144,2.7640362,2.7297592
-36.585796,2.8279614,2.8353539
-36.582207,2.8625107,2.8976269
-36.60242,2.8852832,2.9426174
-36.63991,2.899731,2.9754896
-36.682602,2.9117608,3.0049248
-36.73755,2.918186,3.0263338
-36.80338,2.9198148,3.0409536
-36.865368,2.9234734,3.0586843
-36.917164,2.9319532,3.083517
-36.995758,2.9286914,3.09166
-37.056274,2.9337718,3.1119585
-37.121582,2.9370017,3.1297913
-37.190136,2.939107,3.1462173
-37.261974,2.940113,3.161292
-37.34118,2.938343,3.172669
-37.420532,2.9368994,3.1847525
-37.510628,2.931411,3.1914196
-37.585392,2.9326553,3.2077842
-37.666817,2.9315464,3.2211099
-37.745903,2.9317658,3.2365417
-37.825096,2.9323115,3.2526822
-37.93686,2.9204829,3.252047
-38.011364,2.923708,3.27245
-38.120316,2.9140596,3.2755117
-38.17904,2.9240472,3.3056765
-38.298553,2.911427,3.30539
-38.34629,2.926109,3.34238
-38.450073,2.9203184,3.3520012
-38.552372,2.9156036,3.363439
-38.56478,2.9437103,3.4189644
-38.664577,2.9405792,3.4330626
-38.71529,2.9552047,3.4709625
-38.80745,2.9555345,3.490244
-38.844894,2.975126,3.5350423
-38.916115,2.983243,3.5650187
-39.62676,2.7763379,3.3170333
-39.641083,2.8062925,3.3770819
-39.64789,2.8385646,3.4400897
-39.66126,2.8684866,3.5000658
-39.67772,2.897255,3.5585737
-39.69284,2.9263158,3.6174555
-39.713768,2.9534082,3.6738763
-39.736973,2.9796963,3.7293262
-39.877426,2.9697814,3.7400613
-39.93711,2.9852114,3.7825422
-40.09144,2.9723074,3.7906647
-40.141953,2.9911473,3.8379602
-40.36841,2.9582942,3.8232021
-40.41161,2.980083,3.874827
-40.479164,2.994928,3.9183602
-40.666466,2.975938,3.9223137
-40.748657,2.9875164,3.9628892
-40.868454,2.988964,3.9920726
-41.043663,2.97576,4.004961
-41.151688,2.981707,4.040547
-41.273598,2.9844122,4.072973
-41.415985,2.9822602,4.10054
-41.584564,2.973947,4.121969
-41.856045,2.939881,4.1159267
-42.13006,2.9066668,4.1122465
-42.423462,2.8700624,4.106374
-42.700653,2.8391147,4.1081257
-43.041515,2.7939975,4.096431
-43.29263,2.7725813,4.111368
-43.642483,2.72879,4.104612
-44.070793,2.6683235,4.0828457
-44.36538,2.6415193,4.097448
-44.738426,2.5981543,4.097289
-45.183666,2.5403526,4.0851684
-45.585976,2.494647,4.0874124
-46.029198,2.4420264,4.0854936
-46.573837,2.3695872,4.067681
-47.118664,2.3000858,4.05598
-47.586746,2.249907,4.065287
-48.11431,2.1897182,4.0686207
-48.899204,2.0789964,4.030981
-49.581463,1.9935598,4.020316
-50.25046,1.9144816,4.0195684
-51.15006,1.7931573,3.9883385
-51.87585,1.7107677,3.994852
-53.11737,1.5326741,3.9305325
-6.675888,0.22081804,1.0694618
-6.900938,0.20376396,0.98722124
-7.9615383,0.32779408,1.0064497
-8.185463,0.31538367,0.93427706
-8.232967,0.25803638,0.81091166
-10.173775,0.5710156,1.0190849
-10.159449,0.50214744,0.8868022
-10.102167,0.4208994,0.7393594
-19.776028,2.5213776,2.8596916
-19.916172,2.5301993,2.8493729
-20.039474,2.5340455,2.8328876
-20.258717,2.5714397,2.8621287
-20.338058,2.5616417,2.8282309
-20.464767,2.5687609,2.8176265
-20.604046,2.5810008,2.814475
-20.748049,2.595705,2.8152056
-20.890757,2.6107507,2.8169203
-21.038942,2.6286142,2.823041
-21.153679,2.6349533,2.8136654
-21.275711,2.6446273,2.809331
-21.417515,2.6624484,2.8168197
-21.550457,2.677717,2.821208
-21.666313,2.6871526,2.8178172
-21.779346,2.6961253,2.8141513
-21.92009,2.7166598,2.82728
-22.029877,2.7257037,2.8244991
-22.145878,2.7378616,2.8265243
-22.254972,2.7478724,2.8258386
-22.364529,2.7586894,2.8266592
-22.464035,2.765948,2.8226857
-22.572895,2.7776885,2.8255072
-22.674973,2.7871778,2.8253965
-22.775915,2.796762,2.8257337
-22.866219,2.802301,2.820465
-22.954693,2.8075237,2.8149962
-23.047638,2.8152034,2.8133965
-23.170765,2.8369377,2.832775
-23.239635,2.834902,2.817412
-23.33628,2.8458912,2.821525
-23.418701,2.8508744,2.8169975
-23.509315,2.8601363,2.8190699
-23.591984,2.8661723,2.8165822
-23.67667,2.8736331,2.8164535
-23.76107,2.8814418,2.817078
-23.839924,2.8870337,2.814601
-23.91779,2.8925757,2.8122587
-24.00061,2.9010203,2.814506
-24.0846,2.9105473,2.818613
-24.159454,2.9159336,2.8166633
-24.238453,2.923871,2.8187852
-24.312078,2.9294848,2.8175726
-24.38763,2.9365287,2.8187294
-24.451433,2.937774,2.8112082
-24.529358,2.946922,2.8159542
-24.598461,2.951765,2.8142858
-24.670162,2.9584231,2.8155804
-24.735302,2.961866,2.8120942
-24.805822,2.9686797,2.8139691
-24.866402,2.97028,2.807948
-24.92134,2.9689543,2.7975292
-25.033546,3.0010555,2.8391428
-25.12797,3.0237114,2.8663626
-25.184048,3.024417,2.8596182
-25.241344,3.0261276,2.854566
-25.300497,3.0292544,2.8518538
-25.362118,3.0342164,2.8521485
-25.416971,3.0353503,2.8465757
-25.475605,3.0391266,2.8452716
-25.532116,3.0418901,2.842504
-25.589108,3.04527,2.840827
-25.643377,3.0472062,2.8369942
-25.699406,3.050579,2.8355455
-25.755888,3.0545697,2.8351932
-25.810318,3.0575125,2.8333
-25.862734,3.0593925,2.829832
-25.910109,3.0580914,2.8214135
-25.963507,3.0611699,2.820057
-26.020365,3.0669794,2.8231626
-26.069815,3.0678916,2.8185697
-26.122124,3.0711071,2.8177528
-26.170738,3.071935,2.8132215
-26.219831,3.073357,2.8097339
-26.262434,3.0702016,2.7989979
-26.305025,3.0671785,2.7885504
-26.343616,3.0612493,2.7735043
-26.37888,3.052818,2.7544928
-26.410896,3.0418584,2.7314615
-26.440317,3.028784,2.705061
-26.467213,3.0135744,2.6752472
-26.487854,2.9931185,2.636979
-26.50835,2.9722383,2.5980353
-26.528183,2.9504874,2.5576887
-26.546328,2.926967,2.51448
-26.51471,2.860547,2.4016204
-26.546719,2.8476648,2.375637
-26.49331,2.759776,2.2276683
-26.443901,2.673326,2.0818443
-26.40095,2.5905983,1.9419007
-26.396624,2.5411093,1.8560157
-26.49368,2.5842645,1.9213533
-26.53565,2.577199,1.9048176
-26.564657,2.510229,1.7854114
-26.594326,2.4904945,1.7482209
-26.556957,2.4039807,1.6015301
-26.591848,2.3878703,1.5702486
-26.580713,2.3245804,1.4614997
-26.587137,2.2778463,1.3798838
-26.567984,2.2031026,1.2521415
-26.60085,2.1818213,1.2123265
-26.588312,2.1110077,1.0909142
-26.562424,2.0236058,0.9420538
-26.573896,1.9754362,0.85781336
-26.574781,1.9140177,0.75166035
-26.582775,1.8590946,0.6561842
-26.58753,1.7988865,0.55192566
-36.417984,1.5409851,0.38650846
-36.399494,1.6053779,0.4983797
-36.44196,1.626559,0.54138327
-36.4607,1.7131066,0.69763994
-36.41534,1.7918844,0.8319392
-36.442646,1.8213277,0.88799095
-36.406586,1.891717,1.0087247
-36.436184,1.9185612,1.0606012
-36.444695,1.9585621,1.133215
-36.445297,2.0029814,1.2127318
-36.464615,2.035082,1.2728405
-36.424797,2.1032212,1.3894272
-36.431923,2.1415899,1.4592328
-36.4083,2.19796,1.5571165
-36.431877,2.225297,1.6095734
-36.411705,2.278134,1.7017431
-36.388435,2.3319478,1.7953019
-36.39627,2.3669808,1.8595777
-36.419983,2.3925161,1.9091024
-36.411346,2.4360654,1.9864898
-36.456303,2.4490917,2.0166783
-36.475807,2.4762015,2.068645
-36.506844,2.4967515,2.1105242
-36.531857,2.5204332,2.1572456
-36.5579,2.5433798,2.2028604
-36.586433,2.5648398,2.2462258
-36.602318,2.592783,2.299511
-36.610428,2.6244764,2.3584933
-36.690422,2.6190174,2.3610148
-36.979683,2.5079868,2.2037544
-36.400394,2.834957,2.7097182
-36.44215,2.847373,2.7390714
-36.500214,2.851839,2.7565427
-36.64029,2.8167095,2.7146893
-36.65269,2.8439665,2.7667308
-36.63877,2.883484,2.837079
-36.677597,2.8976865,2.869576
-36.663242,2.9366615,2.9389925
-36.71531,2.9445567,2.9621944
-36.765774,2.9533422,2.9868398
-36.856697,2.944029,2.9848995
-36.923653,2.9459324,2.999734
-37.015873,2.9369795,2.9988184
-37.057793,2.950521,3.0310988
-37.144028,2.9449682,3.0356083
-37.20736,2.9496732,3.0553002
-37.271507,2.9542818,3.0750275
-37.322792,2.9645326,3.1030927
-37.420086,2.955864,3.104011
-37.498184,2.9556072,3.1173253
-37.582115,2.953353,3.1280131
-37.6613,2.9534223,3.1422787
-37.737312,2.9551244,3.15911
-37.82663,2.9519424,3.1692462
-37.915302,2.9494612,3.1806588
-38.022476,2.9403088,3.18296
-38.119923,2.9354448,3.1916394
-38.204994,2.9357412,3.2078586
-38.29609,2.934198,3.2217908
-38.397484,2.9293022,3.2313747
-38.451546,2.9421802,3.2658677
-38.55661,2.936817,3.275412
-38.593464,2.9563239,3.3194103
-38.664387,2.963825,3.3471107
-38.730972,2.9731145,3.3774734
-38.78192,2.9880414,3.415678
-38.874348,2.9889312,3.4351296
-38.91898,3.006391,3.4771233
-39.626507,2.8025336,3.2239738
-39.64483,2.8312702,3.2826295
-39.650402,2.8640418,3.3466263
-39.666916,2.8930562,3.4056401
-39.684753,2.9215102,3.4639268
-39.702152,2.9499776,3.5222425
-39.72535,2.976511,3.5780673
-39.818718,2.981291,3.6059532
-39.930923,2.9807308,3.6273704
-40.06123,2.975247,3.6429815
-40.131374,2.9883814,3.6826534
-40.326096,2.965003,3.6767435
-40.379993,2.983789,3.724289
-40.442734,3.0001593,3.7690296
