x,y,z
-35.270653,2.709348,3.5638652
-35.249077,2.7549813,3.6309762
-35.25332,2.7838259,3.678043
-35.254913,2.8139567,3.726572
-35.268368,2.8364563,3.7660713
-35.285114,2.8567348,3.8029652
-35.288303,2.8849673,3.8491483
-35.280678,2.9192939,3.9023538
-35.24275,2.971003,3.975565
-35.2525,2.994141,4.015564
-35.25662,3.0202942,4.0590057
-35.261066,3.0459676,4.10185
-35.256752,3.076322,4.1499805
-35.284733,3.0881958,4.177051
-35.366196,3.0703452,4.17062
-35.41027,3.0736127,4.1883135
-35.52088,3.0407677,4.1657286
-35.56679,3.0436883,4.1835566
-35.654877,3.024219,4.1767097
-35.735493,3.0092945,4.1752977
-35.848736,2.9777555,4.1559854
-35.913452,2.9722595,4.165731
-35.977505,2.9674392,4.1765
-36.07524,2.9457617,4.1692867
-36.134056,2.9443936,4.1844463
-36.297733,2.8908062,4.143855
-36.360348,2.8885741,4.1589093
-36.4393,2.8786101,4.1660414
-36.57478,2.841575,4.1449823
-36.621574,2.8482406,4.170486
-36.76458,2.8090944,4.148386
-36.83804,2.8038447,4.1622014
-36.975494,2.768968,4.1458225
-37.044437,2.7668228,4.1637177
-37.194534,2.7276673,4.14425
-37.271465,2.7228637,4.16036
-37.432724,2.6803677,4.138954
-37.51271,2.6753013,4.155822
-37.671707,2.6356244,4.1387587
-37.83307,2.595949,4.1225843
-37.920765,2.5893536,4.1396728
-38.102898,2.5425186,4.1181436
-38.20579,2.5306895,4.1313996
-38.31666,2.5160356,4.142509
-38.502266,2.4706964,4.125106
-38.620827,2.4543529,4.1360893
-38.763195,2.4288788,4.139212
-38.96806,2.378796,4.120367
-39.12897,2.3477345,4.120217
-39.32381,2.304076,4.1095533
-39.485786,2.2746162,4.1128755
-39.681854,2.2327366,4.1060696
-39.899864,2.1835241,4.0939727
-40.060738,2.157611,4.1036587
-40.240753,2.125312,4.1087837
-40.440945,2.0864363,4.1093755
-40.613865,2.058916,4.1208816
-40.822296,2.0192213,4.123232
-41.065594,1.9679545,4.1172934
-41.32319,1.9129397,4.1098566
-41.564316,1.8653728,4.110171
-41.8443,1.8053722,4.1020937
-42.122368,1.7477014,4.097743
-42.47983,1.6639416,4.074845
-42.7816,1.6015854,4.0709434
-43.090622,1.5385039,4.068565
-43.37928,1.4841127,4.0748606
-43.787666,1.3911805,4.0546217
-44.185215,1.304266,4.0416822
-44.627415,1.2049863,4.022712
-45.0337,1.1200049,4.017058
-45.42798,1.041234,4.0186825
-45.90807,0.93731546,4.00601
-46.40341,0.8313551,3.9955406
-46.954304,0.71086836,3.979219
-47.47469,0.60301113,3.9752483
-17.777702,1.0298243,2.780764
-17.96429,1.0575871,2.768602
-18.254927,1.128731,2.799118
-18.471458,1.1713135,2.8036728
-18.709763,1.2242384,2.81952
-18.909225,1.2624023,2.8222017
-19.094269,1.2956805,2.8211412
-19.271017,1.3265219,2.8186502
-19.489895,1.3765562,2.8363657
-19.659416,1.4065359,2.8350024
-19.824154,1.4354286,2.833425
-19.979918,1.4613295,2.8296409
-20.160439,1.4992247,2.8390188
-20.37296,1.5527124,2.8655071
-20.484325,1.5615151,2.846486
-20.646227,1.5941465,2.8530135
-20.800064,1.6240487,2.8574777
-20.941776,1.6492269,2.8576927
-21.08876,1.6777625,2.8621902
-21.222914,1.701088,2.861815
-21.3721,1.7324834,2.870801
-21.497948,1.7534766,2.8692217
-21.615288,1.7710464,2.864501
-21.642899,1.7447648,2.8122268
-21.588343,1.6771545,2.714445
-21.62429,1.6543932,2.6659517
-21.635944,1.6191401,2.6036458
-21.614141,1.566313,2.521647
-20.73658,1.0673285,1.9381299
-20.75182,1.0283651,1.8690643
-20.752075,0.98109126,1.7905426
-21.485195,1.325906,2.1583905
-21.527094,1.2589116,2.0362563
-21.525883,1.2127619,1.960599
-21.52695,1.1673446,1.885675
-21.496193,1.1035161,1.7892423
-21.724243,1.1856933,1.862948
-21.707249,1.0821941,1.6984854
-21.700054,1.0302122,1.6157494
-21.673813,0.9663243,1.5187616
-21.66774,0.9135561,1.4347486
-21.612934,0.83077693,1.3147826
-32.00337,1.346772,0.93416405
-32.038494,1.3831389,0.9890356
-31.963264,1.6789398,1.4090295
-31.981081,1.7454793,1.5062032
-31.998787,1.8091877,1.5993776
-31.96796,1.9766097,1.838213
-31.985395,2.0328622,1.9207883
-32.02278,2.044904,1.9413304
-32.05531,2.06653,1.9753747
-32.087135,2.0887764,2.0103354
-32.082703,2.1812983,2.1437197
-32.20137,2.270141,2.2836843
-32.25368,2.250557,2.26049
-32.04594,2.6826384,2.8667836
-32.072063,2.700797,2.8958802
-32.060528,2.781261,3.0116825
-32.105476,2.7664092,2.994895
-32.136066,2.775322,3.0112214
-32.12831,2.8446245,3.1113873
-32.186207,2.8097858,3.0671067
-32.088898,3.0129046,3.3525124
-32.16222,2.9535456,3.2743325
-32.18503,2.9707382,3.3021908
-32.2443,2.9346862,3.2565632
-32.288723,2.9211125,3.2421193
-32.313747,2.9353168,3.2660656
-32.338512,2.9495695,3.2901173
-32.363415,2.9633288,3.3135276
-32.389275,2.975521,3.3348246
-32.417374,2.984541,3.351812
-32.445316,2.9936266,3.3689423
-32.47521,3.0000992,3.3825488
-32.507973,3.002907,3.3912053
-32.538567,3.0084724,3.4036994
-32.572563,3.009859,3.4105592
-32.605686,3.0124054,3.4190774
-32.64058,3.012925,3.424914
-32.675945,3.0130181,3.430254
-32.708607,3.016382,3.440116
-32.74262,3.0182576,3.4480357
-32.778034,3.018655,3.4540358
-32.811584,3.0212545,3.4630966
-32.85565,3.0124474,3.4568462
-32.89364,3.010572,3.4600582
-32.92779,3.0129778,3.4691277
-32.964897,3.012368,3.4742284
-33.003056,3.010837,3.478188
-33.03926,3.0114927,3.4851747
-33.078556,3.0091667,3.4882665
-33.122055,3.0028555,3.4861426
-33.162075,3.00028,3.4891214
-33.201668,2.9983454,3.4930615
-33.243458,2.994499,3.4945693
-33.28215,2.993842,3.5004234
-33.321983,2.9922938,3.5052023
-33.36134,2.9913802,3.5109286
-33.39415,2.9966455,3.5249124
-33.411343,3.0160832,3.5576382
-33.43324,3.0310214,3.5844593
-33.457146,3.0439959,3.608738
-33.481407,3.05652,3.6324673
-33.507767,3.0671062,3.6537075
-33.5386,3.0737896,3.669911
-33.57169,3.0785813,3.6837254
-33.608265,3.080515,3.6939116
-33.64425,3.083055,3.7049842
-33.67723,3.0881543,3.7194662
-33.710155,3.093351,3.7341585
-33.742413,3.099131,3.7496872
-33.774605,3.1050048,3.7654204
-33.80734,3.110489,3.7807364
-33.839394,3.1165519,3.7968783
-33.870743,3.1231878,3.8138351
-33.903275,3.1289573,3.82977
-33.934464,3.135777,3.8471255
-33.968773,3.1403105,3.8616638
-34.00239,3.145424,3.8770323
-34.038563,3.1487527,3.890244
-34.070126,3.1554894,3.907847
-34.0706,3.1843371,3.953268
-34.14097,3.163639,3.9366486
-34.168983,3.1729994,3.9577997
-34.20427,3.1773381,3.972773
-34.23071,3.187791,3.9954371
-34.259724,3.1964722,4.0159717
-34.312634,3.1892009,4.016904
-34.3457,3.1953683,4.0345573
-34.384254,3.1980023,4.0479746
-34.411617,3.2080112,4.0705323
-35.260925,2.6909158,3.450745
-35.249058,2.7310386,3.5120492
-35.24005,2.7687838,3.5703392
-35.24686,2.7961588,3.615991
-35.25753,2.8208299,3.6583505
-35.267796,2.8454795,3.7006626
-35.27838,2.869666,3.7424011
-35.286377,2.8951473,3.7856603
-35.249046,2.9472022,3.8604193
-35.246338,2.9781466,3.9099574
-35.24386,3.0085728,3.9588008
-35.249096,3.034181,4.001907
-35.250156,3.0618887,4.0474253
-35.259075,3.0848403,4.0873404
-35.27902,3.1014004,4.1198206
-35.29718,3.1188412,4.153353
-35.316605,3.1354673,4.185976
-35.350426,3.1441708,4.2095575
-35.455414,3.114643,4.1896343
-35.55863,3.0868344,4.1721563
-35.62875,3.07724,4.175759
-35.713226,3.0605478,4.171678
-35.77751,3.0548506,4.1803055
-35.87921,3.030305,4.168188
-35.95111,3.0215926,4.1741314
-36.012802,3.0184174,4.186514
-36.111553,2.9970698,4.17919
-36.23089,2.9662035,4.161932
-36.347557,2.9374697,4.147585
-36.40127,2.9400241,4.1676817
-36.53998,2.902001,4.1443243
-36.603878,2.9005117,4.160791
-36.71975,2.8748424,4.151803
-36.819546,2.8574185,4.152131
-36.93379,2.8339179,4.1465616
-37.040127,2.814753,4.1461124
-37.13845,2.7998629,4.1506467
-37.2547,2.777487,4.1479454
-37.369667,2.756392,4.1471634
-37.472324,2.7414143,4.153223
-37.651695,2.6935277,4.1264634
-37.73642,2.687777,4.1431093
-37.895683,2.650518,4.128689
-38.02983,2.6249347,4.1267376
-38.13255,2.6133654,4.1393313
-38.294247,2.5777922,4.1289935
-38.427055,2.5551376,4.132109
-38.547203,2.538426,4.1416874
-38.75054,2.4887218,4.1204066
-38.88552,2.4677086,4.127509
-39.087593,2.4208288,4.111068
-39.237556,2.3956966,4.1160903
-39.372906,2.3771133,4.1280327
-39.590084,2.3277137,4.1125507
-39.779587,2.2902236,4.109189
-40.016914,2.235766,4.0917296
-40.19607,2.2045612,4.0964293
-40.38646,2.1702137,4.099453
-40.511745,2.1608846,4.1254663
-40.752537,2.110146,4.1165004
-40.976902,2.0667615,4.115344
-41.204613,2.023488,4.1157126
-41.46292,1.9707197,4.109624
-41.701027,1.9265367,4.112302
-41.995438,1.8642082,4.101755
-42.314514,1.7951577,4.0877647
-42.70609,1.7033672,4.057867
-42.944427,1.6654713,4.072892
-43.194317,1.625042,4.087563
-43.531563,1.5571971,4.0830374
-43.983566,1.4538469,4.054193
-44.396084,1.3659344,4.039982
-44.83203,1.2729285,4.0250034
-45.189014,1.2074556,4.032899
-45.65603,1.1095061,4.0204744
-46.158855,1.0031424,4.005647
-46.64515,0.904752,3.9999728
-47.22934,0.7793889,3.9799166
-47.831,0.65213823,3.9630466
-48.10791,0.62496114,4.0150123
-17.394703,1.0518146,2.7697659
-17.67041,1.111223,2.7871513
-17.902128,1.1550531,2.791059
-18.183834,1.2201016,2.8169446
-18.365047,1.24668,2.8066425
-19.14635,1.5169854,3.0385652
-19.200737,1.4961824,2.984764
-19.245056,1.4712954,2.9270763
-19.2252,1.4196792,2.8425007
-19.37078,1.4370608,2.8279977
-19.569855,1.4779363,2.8383384
-19.765636,1.5186439,2.849557
-19.899591,1.5338392,2.8352842
-20.08649,1.5728822,2.8466215
-20.289516,1.6202157,2.867651
-20.46231,1.6554251,2.8768892
-20.546673,1.6519859,2.8458233
-20.780087,1.7165065,2.8879623
-21.021965,1.7464693,2.8684292
-21.174507,1.7772231,2.8767061
-21.310884,1.8013275,2.8784356
-21.469627,1.8369126,2.8934593
-21.54478,1.8333933,2.8659468
-21.632877,1.8364477,2.8460617
-21.680561,1.8201315,2.8048859
-21.658657,1.7694566,2.7252502
-21.639181,1.7193725,2.6460686
-21.586329,1.6518602,2.5469089
-20.755516,1.1876044,1.9951196
-20.758148,1.1428702,1.9192514
-20.752869,1.0935636,1.8380284
-21.55814,1.468133,2.2463088
-21.564636,1.4280267,2.177576
-21.558632,1.380831,2.100514
-21.533398,1.3227129,2.0105405
-21.5214,1.2710285,1.9278889
-21.52703,1.228389,1.8557353
-21.577335,1.2100718,1.8122921
-21.667877,1.2143047,1.7957888
-21.720736,1.197659,1.7547278
-21.68871,1.1325455,1.6557989
-21.696423,1.0894358,1.5830398
-21.701155,1.0440993,1.507524
-21.680202,0.9831102,1.412982
-21.680756,0.93405294,1.3327127
-21.634192,0.85610294,1.2171359
-32.002323,1.2701802,0.73686695
-31.986094,1.4371006,0.9786606
-32.01608,1.4843159,1.049552
-31.965103,1.7189701,1.3876696
-31.989243,1.7704914,1.4645839
-31.9876,1.8771155,1.6199636
-31.960485,2.0341976,1.847053
-31.995735,2.0516734,1.8754153
-32.009262,2.1135836,1.9669862
-32.062492,2.0923846,1.9404893
-32.07575,2.1515558,2.028191
-32.108585,2.1703656,2.058619
-32.141758,2.2665753,2.2026029
-32.171383,2.288247,2.237165
-32.25099,2.2938974,2.2531428
-32.08311,2.653179,2.7645507
-32.05171,2.7692118,2.9320464
-32.08537,2.7735953,2.9419665
-32.10316,2.8036911,2.988165
-32.1183,2.837058,3.0389714
-32.124092,2.8840034,3.1088634
-32.109856,2.9601908,3.2197905
-32.08474,3.0503032,3.3501391
-32.129963,3.0331454,3.3299203
-32.172607,3.0204608,3.3160863
-32.242603,2.969124,3.2482715
-32.286617,2.9562557,3.2344537
-32.31352,2.9676917,3.2546926
-32.33708,2.9834726,3.2810378
-32.35955,3.0003633,3.3089628
-32.384125,3.0140882,3.3325062
-32.41336,3.021467,3.3472624
-32.444134,3.0267909,3.359219
-32.472733,3.0348475,3.375031
-32.505455,3.0376785,3.383654
-32.53643,3.0427132,3.3953986
-32.56952,3.0451937,3.403676
-32.604362,3.0456622,3.4092479
-32.63923,3.0462322,3.41504
-32.674118,3.0469043,3.4210548
-32.70812,3.048725,3.4287295
-32.74258,3.050122,3.4359007
-32.778923,3.0495381,3.440433
-32.8139,3.0506222,3.4473395
-32.846016,3.0549166,3.458722
-32.883408,3.053616,3.4625301
-32.922337,3.0508857,3.46448
-32.953938,3.0559916,3.4772067
-32.989975,3.056568,3.483841
-33.02958,3.0536728,3.4858475
-33.06826,3.0519257,3.4895158
-33.105988,3.0513198,3.4948287
-33.14637,3.048294,3.4969673
-33.186855,3.0454001,3.499391
-33.229034,3.041124,3.50006
-33.27134,3.0369892,3.5010366
-33.313774,3.0329967,3.5023208
-33.353054,3.0321512,3.5079436
-33.386333,3.0369244,3.521192
-33.41177,3.0487647,3.5439644
-33.43253,3.064632,3.572154
-33.454712,3.0790458,3.598435
-33.47894,3.0915236,3.6221762
-33.506992,3.1006074,3.6414566
-33.53723,3.1077993,3.6582923
-33.56737,3.1150732,3.6753054
-33.6045,3.1165767,3.6847796
-33.639854,3.1196578,3.6964297
-33.6788,3.11994,3.7044978
-33.715965,3.1217995,3.7147427
-33.74887,3.1271477,3.7296515
-33.782333,3.1321135,3.7441463
-33.818222,3.1352658,3.7563663
-33.85222,3.1399612,3.7706885
-33.88492,3.1457102,3.7864666
-33.91565,3.1529768,3.8042922
-33.95649,3.1527803,3.8125653
-33.98068,3.1649485,3.8368773
-34.016968,3.1682684,3.849874
-34.04803,3.1754398,3.8679075
-34.079655,3.1822352,3.885541
-34.117138,3.1849525,3.8980603
-34.158604,3.1850224,3.907324
-34.209488,3.178796,3.9087346
-34.225502,3.1965961,3.9407015
-34.258175,3.2029943,3.9583018
-34.295547,3.2063076,3.9721136
-34.330162,3.2115579,3.9884665
-34.369556,3.2137585,4.001108
-34.39296,3.2264338,4.026934
-34.439262,3.2243862,4.034506
-35.225574,2.7538114,3.4615579
-35.236103,2.7793295,3.5052881
-35.2405,2.8083618,3.5533247
-35.245846,2.836458,3.6001587
-35.26657,2.8548553,3.6350765
-35.27758,2.8789604,3.6769862
-35.275803,2.910441,3.7278442
-35.255165,2.952663,3.791637
-35.241905,2.9899619,3.8493133
-35.254677,3.0116677,3.8880906
-35.241768,3.047897,3.9442744
-35.253704,3.0695248,3.9828835
-35.261524,3.0932617,4.0239944
-35.274254,3.1140194,4.0615444
-35.288937,3.1335151,4.097602
-35.30866,3.150096,4.130238
-35.329662,3.1658797,4.161975
-35.335762,3.1895654,4.2029743
-35.398094,3.183163,4.208974
-35.53073,3.1401432,4.17286
-35.599194,3.1315804,4.1770763
-35.67572,3.119248,4.1772594
-35.757256,3.1048217,4.1753902
-35.850204,3.0851269,4.1678963
-35.938763,3.0682425,4.1640096
-35.979603,3.0755987,4.187829
-36.104828,3.0415766,4.1654253
-36.15394,3.0455048,4.185953
-36.280106,3.0124452,4.1656365
-36.38408,2.990868,4.158617
-36.470467,2.9782753,4.1619644
-36.57683,2.9568207,4.1560388
-36.634117,2.9588203,4.176114
-36.777534,2.9214482,4.153902
-36.86094,2.9123876,4.1628366
-36.988777,2.883735,4.1512465
-37.06184,2.8803794,4.1671667
-37.22162,2.838998,4.1433024
-37.291817,2.8379636,4.1625986
-37.422215,2.8111053,4.1553125
-37.561604,2.7811937,4.145549
-37.68019,2.761019,4.146539
-37.804283,2.739218,4.146491
-37.924477,2.7197833,4.149501
-38.079502,2.6866236,4.1393228
-38.230778,2.6559668,4.132498
-38.34092,2.6429353,4.1440067
-38.52096,2.6023867,4.128989
-38.66237,2.578353,4.1311417
-38.826977,2.5459886,4.126
-38.96311,2.5257359,4.1334496
-39.165726,2.480525,4.1178513
-39.3275,2.4522154,4.1194305
-39.526997,2.4105287,4.1094027
-39.706696,2.3774886,4.1085944
-39.867287,2.3526065,4.116363
-40.088234,2.3063858,4.1056166
-40.272205,2.2749834,4.109602
-40.413467,2.2600627,4.1294417
-40.61722,2.2235217,4.130984
-40.836906,2.1825087,4.1298714
-41.086227,2.1323714,4.122232
-41.34265,2.0812335,4.1153216
-41.616226,2.0256996,4.1063347
-41.833935,1.9907922,4.1163898
-42.147423,1.9248142,4.102155
-42.46826,1.8582305,4.0895066
-42.804756,1.7883573,4.076354
-43.085,1.738847,4.0816708
-43.359436,1.6927981,4.091593
-43.74662,1.6121516,4.0766206
-44.25377,1.4957144,4.0370646
-44.617233,1.427391,4.0372133
-45.030075,1.3457906,4.030113
-45.42151,1.2731326,4.03246
-45.930916,1.166784,4.0135365
-46.462288,1.0567598,3.9957561
-46.917892,0.9723618,3.9995737
-47.428185,0.8743942,3.9975777
-48.00757,0.759145,3.987936
-48.681892,0.6197767,3.9670053
-16.795715,1.0590632,2.7765112
-17.015987,1.092143,2.7668357
-17.330551,1.1618233,2.7938218
-17.579424,1.2085865,2.8002477
-17.835426,1.2595611,2.812214
-18.654526,1.5295334,3.0428405
-18.844799,1.5601387,3.0389714
-19.0415,1.5943775,3.0397892
-19.210615,1.6188092,3.0317135
-19.244854,1.5900469,2.9701486
-19.268276,1.5568125,2.9040766
-19.320621,1.535243,2.8501282
-19.459114,1.5493333,2.8335943
-19.602436,1.5661814,2.8206472
-19.98068,1.682822,2.9139404
-20.170864,1.7221546,2.9269981
-20.2156,1.7001922,2.875391
-20.30533,1.6977537,2.844966
-20.475681,1.7310052,2.8536177
-20.608566,1.7487516,2.8462095
-20.83694,1.8098955,2.8870072
-20.92883,1.8110926,2.8628683
-21.08349,1.8412838,2.8712702
-21.22272,1.86536,2.8735952
-21.357353,1.8881543,2.875136
-21.465366,1.8992965,2.8641806
-21.662613,1.953244,2.9021444
-21.640064,1.9036121,2.8232632
-21.652218,1.8701162,2.762608
-21.644012,1.8264194,2.6902103
-21.639717,1.7841601,2.6193337
-21.633724,1.740597,2.5468278
-20.72803,1.2455394,1.948678
-20.75124,1.2113969,1.8846278
-21.52658,1.5613918,2.2715993
-21.56611,1.5388796,2.2231874
-21.580296,1.503089,2.1591525
-21.58112,1.4599342,2.0863352
-21.570328,1.4101288,2.0054803
-21.523571,1.3404174,1.9006186
-21.518454,1.2922642,1.821353
-21.729713,1.3619151,1.8841872
-21.714607,1.2158062,1.6448064
-21.701313,1.1611924,1.5575161
-21.69561,1.1102202,1.4745317
-21.706955,1.0684934,1.4028134
-21.684624,1.0065584,1.3060365
-21.647375,0.93491936,1.1969953
-21.64032,0.8802662,1.1088219
-31.990198,1.3451221,0.7500963
-32.050903,1.3216803,0.71961975
-32.00959,1.54231,1.0423689
-32.00129,1.675312,1.2381701
-31.983114,1.8241491,1.4567323
-31.98582,1.9198592,1.5984116
-31.985247,2.0182202,1.7438436
-31.985498,2.1104171,1.8802996
-31.984362,2.2014067,2.014936
-32.0568,2.140903,1.9312363
-32.06828,2.202823,2.023992
-32.080185,2.261414,2.1119251
-32.100773,2.3013883,2.1730585
-32.144276,2.2977226,2.171495
-32.184566,2.300173,2.1788034
-32.217747,2.3152435,2.204296
-32.250645,2.330384,2.2299414
-32.05434,2.7957401,2.9041429
-32.0861,2.8033805,2.918714
-32.099213,2.8407893,2.9758825
-32.128002,2.852309,2.9960704
-32.12491,2.9128575,3.0862522
-32.124466,2.9673953,3.16779
-32.103863,3.0502691,3.2896185
-32.186302,2.979311,3.192429
-32.21875,2.9829814,3.2015834
-32.2583,2.9766018,3.1965303
-32.29,2.981528,3.2076097
-32.316982,2.992914,3.2279077
-32.333546,3.01815,3.26786
-32.317738,3.085747,3.3677382
-32.35671,3.0797315,3.363473
-32.390514,3.0806947,3.3691525
-32.440937,3.0607014,3.345355
-32.46658,3.072405,3.366342
-32.501385,3.0726314,3.3712215
-32.53493,3.0745285,3.3785262
-32.562355,3.0838273,3.3962946
-32.597588,3.0838156,3.4010572
-32.635094,3.0813096,3.4024067
-32.66816,3.084105,3.4112606
-32.703957,3.0838888,3.4159799
-32.72913,3.095652,3.4374938
-32.776615,3.0827503,3.4246821
-32.811123,3.0844004,3.432251
-32.850433,3.081027,3.432917
-32.88743,3.0803359,3.4374037
-32.923496,3.0807781,3.44355
-32.95861,3.0823479,3.451342
-32.99523,3.0824983,3.4572544
-33.032906,3.081749,3.4620147
-33.074722,3.077079,3.461465
-33.11513,3.074058,3.4632945
-33.15356,3.073178,3.4681702
-33.194683,3.0699155,3.4698734
-33.235382,3.0672882,3.472556
-33.27457,3.0662885,3.4775705
-33.31545,3.0639234,3.480823
-33.358063,3.060208,3.4823422
-33.398586,3.058611,3.4868598
-33.429726,3.065519,3.5030365
-33.449535,3.082334,3.5327096
-33.466217,3.1016226,3.5657535
-33.491135,3.1135993,3.5889277
-33.521618,3.1207623,3.6056552
-33.552006,3.1280084,3.622562
-33.584057,3.133885,3.6376987
-33.617218,3.1388888,3.6517396
-33.6539,3.1411061,3.6621332
-33.684578,3.1482303,3.6791759
-33.724854,3.147798,3.6862192
-33.76213,3.1498804,3.6967192
-33.800644,3.1511335,3.7062192
-33.836704,3.1544042,3.7184978
-33.87587,3.1554317,3.7279072
-33.914433,3.157058,3.7382169
-33.949844,3.161152,3.7518806
-33.972454,3.1746836,3.778027
-34.023144,3.167811,3.7774916
-34.054585,3.1750212,3.7955184
-34.089195,3.180015,3.8107347
-34.136894,3.1759214,3.8142285
-34.16819,3.1834543,3.8329554
-34.203384,3.1883388,3.8483338
-34.24188,3.1910615,3.861021
-34.271606,3.1998005,3.8815634
-34.30257,3.2077198,3.9011288
-34.33958,3.2116847,3.9157107
-34.3745,3.217114,3.9322696
-34.410748,3.221762,3.9479334
-34.439995,3.2309692,3.969493
-34.46491,3.2429123,3.994589
-35.235363,2.7888818,3.4315276
-35.251617,2.8107624,3.4709888
-35.270363,2.8309011,3.5082688
-35.28591,2.8527977,3.5477648
-35.285233,2.8842268,3.5991502
-35.25716,2.9315338,3.6701975
-35.24868,2.9665961,3.7258692
-35.249134,2.9959822,3.7744198
-35.25942,3.0193372,3.8154826
-35.271545,3.0414019,3.8549433
-35.259445,3.0769567,3.910884
-35.276722,3.0955806,3.9460773
-35.29521,3.113388,3.9802973
-35.311146,3.1324687,4.016082
-35.322975,3.153634,4.0543904
-35.33752,3.1731434,4.090705
-35.36099,3.1877382,4.1211514
-35.392735,3.197897,4.146369
-35.4391,3.2004352,4.1626463
-35.49405,3.198701,4.1740475
-35.549862,3.1967812,4.1854486
-35.641987,3.1766775,4.1757746
-35.745598,3.1514087,4.160489
-35.80918,3.1468081,4.169668
-35.872097,3.1428638,4.1798697
-35.976025,3.1191862,4.167636
-36.0466,3.1123552,4.175169
-36.135136,3.097289,4.173626
-36.211803,3.0884,4.1794896
-36.335987,3.057585,4.160959
-36.442738,3.0357392,4.1530952
-36.564724,3.007547,4.138653
-36.622013,3.0097256,4.158539
-36.717445,2.9948719,4.159851
-36.81984,2.9774582,4.158805
-36.948483,2.949006,4.1461935
-37.04998,2.9333196,4.1480927
-37.149265,2.9191878,4.152167
-37.260666,2.900397,4.1517253
-37.376667,2.8803012,4.15045
-37.482834,2.8650565,4.1549034
-37.630306,2.8331103,4.1422987
-37.739777,2.817863,4.1479435
-37.88653,2.7879105,4.1388626
-38.03814,2.7568889,4.1294575
-38.17038,2.7346075,4.129828
-38.305626,2.7118976,4.1304655
-38.462204,2.6815443,4.1241064
-38.587826,2.6642528,4.1317043
-38.72341,2.6437979,4.136831
-38.941216,2.5925503,4.1123037
-39.104248,2.563497,4.110758
-39.238552,2.5462115,4.121561
-39.387367,2.524251,4.12861
-39.556152,2.4957533,4.130265
-39.785263,2.4461813,4.112961
-40.050106,2.3850756,4.0862117
-40.189243,2.3706434,4.104397
-40.389877,2.3351264,4.1039996
-40.58294,2.3034248,4.108285
-40.78646,2.2691815,4.1114473
-40.993233,2.2349763,4.1158886
-41.249687,2.1850095,4.107703
-41.462166,2.1513762,4.1153817
-41.709915,2.1071537,4.115262
-42.052784,2.032904,4.0911374
-42.307545,1.9895267,4.0952425
-42.65139,1.9187331,4.0782127
-42.94174,1.8671036,4.0791907
-43.169846,1.8368658,4.099417
-43.499496,1.7759712,4.096666
-43.94342,1.6814461,4.0696783
-44.381165,1.5914218,4.049257
-44.784615,1.5143707,4.0418015
-45.22837,1.4274843,4.0297785
-45.64511,1.3511829,4.028736
-46.184006,1.2412221,4.006187
-46.663097,1.151798,4.0022297
-47.187607,1.0519695,3.9944663
-47.855995,0.9140382,3.9643397
-48.260998,0.85428977,3.9920058
-48.803207,0.75841,3.9987893
-16.342384,1.0691686,2.7646518
-16.642712,1.1274137,2.7781467
-16.916172,1.1777306,2.785654
-17.195894,1.231956,2.7985458
-17.406355,1.2622869,2.7893705
-18.27452,1.5390942,3.0272179
-18.511848,1.5843723,3.0373197
-18.764202,1.6367967,3.0559635
-18.975311,1.6749344,3.0613976
-19.135925,1.6947405,3.0491047
-19.224731,1.6872983,3.009406
-19.252838,1.6561766,2.945405
-19.260643,1.616811,2.8728008
-19.367344,1.6170564,2.8420448
-19.521236,1.6370132,2.8327832
-19.815147,1.7154493,2.8869658
-19.952349,1.7307732,2.8746104
-18.269794,0.9833081,2.0350122
-18.274849,0.9366822,1.9513016
-18.372627,0.9293306,1.9106407
-18.337593,0.86497617,1.8074174
-20.746178,1.8658478,2.8874307
-20.86156,1.8766451,2.8741465
-21.01159,1.9034698,2.8793879
-21.14285,1.9227915,2.8768597
-21.276169,1.9438169,2.8768663
-21.418072,1.9695706,2.8828764
-21.529173,1.9819689,2.8742213
-21.633461,1.9918025,2.8630962
-21.669369,1.9699628,2.815744
-21.600609,1.8982391,2.7104492
-21.640823,1.8778617,2.6647224
-21.649307,1.8420539,2.6009912
-20.676464,1.3249509,1.9696102
-20.710354,1.296341,1.9118276
-21.331497,1.5610566,2.2030282
-21.530212,1.6181879,2.249259
-21.56111,1.5913036,2.1956043
-21.585411,1.560868,2.1377273
-21.559868,1.4603982,1.973968
-21.494967,1.3363652,1.7807522
-21.717907,1.4110878,1.851604
-21.653131,1.2846537,1.6551137
-21.67963,1.2528803,1.5954938
-21.700687,1.2177827,1.5317569
-21.703812,1.1721725,1.4548831
-21.698141,1.1209745,1.3709159
-21.69921,1.0730228,1.2908974
-21.677803,1.0113294,1.1934433
-21.646626,0.9429891,1.0873737
-21.638979,0.8876865,0.99759674
-32.00067,1.3598614,0.69181776
-32.05124,1.3619349,0.6982441
-32.003628,1.5956333,1.0438685
-31.988007,1.7440207,1.2643962
-31.979256,1.8697629,1.4516616
-31.977854,1.9734721,1.606607
-31.976566,2.0721445,1.7541075
-31.987867,2.140156,1.856761
-31.986767,2.23045,1.991889
-32.05271,2.1835408,1.926878
-32.064365,2.2444415,2.0191364
-32.069336,2.315606,2.1263075
-32.116467,2.305417,2.1150317
-32.140697,2.3375747,2.165441
-32.181828,2.3384178,2.1703591
-32.06557,2.806407,2.8640518
-32.080635,2.8414016,2.9182954
-32.105766,2.8592546,2.9477334
-32.123016,2.88891,2.9942632
-32.151512,2.900426,3.0145955
-32.116795,3.006826,3.1718984
-32.143143,3.0193658,3.1936793
-32.1992,2.9884295,3.1528707
-32.229248,2.9958556,3.1674266
-32.267456,2.9917178,3.1654086
-32.29356,3.004592,3.187913
-32.296173,3.0491385,3.2559142
-32.275864,3.123072,3.3659997
-32.313435,3.1185985,3.3636398
-32.36205,3.1000957,3.3412914
-32.39593,3.101113,3.346973
-32.440205,3.0891812,3.3342366
-32.470043,3.0956264,3.3478236
-32.50447,3.0964303,3.3534303
-32.538486,3.097853,3.3599901
-32.570324,3.10196,3.37044
-32.605213,3.1025388,3.3759441
-32.639233,3.1042502,3.383131
-32.671898,3.1076012,3.392715
-32.712326,3.1023254,3.3901596
-32.74827,3.102297,3.3951197
-32.78425,3.1023765,3.400313
-32.818844,3.104092,3.407895
-32.853924,3.1054,3.414981
-32.892418,3.1032648,3.4173045
-32.929035,3.1032734,3.4227304
-32.96421,3.1049063,3.43052
-33.0029,3.1031232,3.4336061
-33.04572,3.0974486,3.431346
-33.08563,3.0949204,3.43359
-33.125637,3.0925221,3.4361148
-33.166264,3.0897546,3.4382262
-33.20541,3.088609,3.442696
-33.24569,3.086599,3.446063
-33.284447,3.0862007,3.451765
-33.324883,3.0844486,3.4556918
-33.36759,3.0808647,3.457192
-33.40821,3.0793824,3.4617038
-33.445568,3.0809615,3.4705348
-33.47394,3.0904417,3.4903164
-33.491966,3.1087236,3.5222301
-33.515385,3.1221864,3.5475569
-33.541466,3.1332827,3.569685
-33.569115,3.1429965,3.589974
-33.60072,3.1494243,3.6058412
-33.63284,3.155463,3.621251
-33.667866,3.159212,3.6336293
-33.70587,3.1606953,3.6430244
-33.737232,3.1675043,3.6597195
-33.77278,3.171101,3.672153
-33.81385,3.1705785,3.6791325
-33.852497,3.1720686,3.6889286
-33.891163,3.1736848,3.6989994
-33.93111,3.1744974,3.7081013
-33.966015,3.1791515,3.7224407
-34.005352,3.1806805,3.7327085
-34.042133,3.1841807,3.7457051
-34.075657,3.1900914,3.7619967
-34.121517,3.1874228,3.767026
-34.15434,3.1940222,3.7844257
-34.1937,3.1961849,3.7960668
-34.226402,3.2029972,3.8139277
-34.254333,3.213058,3.8361278
-34.303047,3.2092924,3.840324
-34.338974,3.214194,3.8559732
-34.35708,3.230777,3.8869064
-34.388676,3.2385216,3.9064012
-34.42225,3.2450352,3.924387
-34.45366,3.2529714,3.9442978
-35.19732,2.8162506,3.3925643
-35.24342,2.8196707,3.4084768
-35.26397,2.8388765,3.4447107
-35.28278,2.8589737,3.4821057
-35.289062,2.8864083,3.5288405
-35.24288,2.944656,3.6145735
-35.250835,2.9701567,3.6586614
-35.251785,2.9994469,3.7074895
-35.253708,3.0278215,3.755106
-35.255142,3.056133,3.8025832
-35.26129,3.0814443,3.8462615
-35.27896,3.1000395,3.881557
-35.297836,3.117824,3.9158676
-35.308884,3.1397696,3.9553373
-35.3264,3.1579986,3.9902272
-35.343628,3.1762495,4.0251627
-35.366695,3.1912603,4.0561633
-35.40262,3.1994267,4.0788913
-35.479435,3.1863203,4.0759683
-35.53012,3.1871977,4.090231
-35.565228,3.196262,4.114518
-35.627678,3.1915236,4.1224003
-35.717854,3.1731958,4.114335
-35.758533,3.1800594,4.1365566
-35.808685,3.1823688,4.1535373
-35.90039,3.1646175,4.14711
-35.954754,3.1654816,4.1628895
-36.04139,3.151146,4.1611633
-36.096767,3.1521373,4.177605
-36.196075,3.1327653,4.1707535
-36.332523,3.0967803,4.1452637
-36.410633,3.0885744,4.152194
-36.475773,3.0867028,4.1666756
-36.60711,3.0552797,4.1479874
-36.671013,3.0548577,4.1648407
-36.803276,3.0244827,4.148425
-36.88344,3.017801,4.1590466
-37.01833,2.987794,4.1442
-37.1066,2.9786878,4.15304
-37.21622,2.9609728,4.152871
-37.325348,2.9441123,4.154171
-37.479107,2.909261,4.136546
-37.573658,2.8998656,4.147076
-37.694153,2.8803558,4.147265
-37.84774,2.8481407,4.1345854
-37.950943,2.8371027,4.1450305
-38.117653,2.8013825,4.130159
-38.260643,2.7760346,4.1269603
-38.362217,2.7676735,4.1420507
-38.542747,2.7293706,4.126986
-38.67653,2.7100437,4.1322064
-38.84854,2.6770077,4.124314
-39.03173,2.6408174,4.1142163
-39.15084,2.6294937,4.1298366
-39.383945,2.5769348,4.105493
-39.543037,2.552731,4.110182
-39.73652,2.517046,4.1046576
-39.940453,2.4787722,4.0977683
-40.10096,2.457021,4.1077747
-40.309616,2.4193342,4.103704
-40.51255,2.384839,4.1038475
-40.66165,2.369931,4.1232843
-40.896423,2.326775,4.1177845
-41.10727,2.2930062,4.122207
-41.369793,2.2432692,4.11364
-41.66787,2.1833777,4.0977335
-41.887894,2.1506212,4.107442
-42.221596,2.0824952,4.0879745
-42.534153,2.0230646,4.078089
-42.83648,1.9686654,4.074477
-43.0951,1.9296217,4.085618
-43.354267,1.891834,4.0994825
-43.77218,1.8069782,4.0769606
-44.289192,1.6946013,4.0353255
-44.61707,1.6418209,4.0441093
-45.061775,1.5562942,4.029788
-45.41564,1.4998946,4.0407667
-45.990265,1.3815312,4.007784
-46.496696,1.2860131,3.9957485
-46.959023,1.2058561,3.9984794
-47.47908,1.1120982,3.994897
-48.020157,1.0154214,3.9930973
-48.73797,0.87332654,3.964281
-15.900159,1.0983307,2.7585278
-16.253529,1.170321,2.784689
-16.580528,1.2352519,2.8059678
-16.858038,1.2847157,2.8138156
-17.071247,1.3129301,2.8020234
-18.011786,1.6038027,3.0555663
-18.225334,1.6371677,3.0534506
-18.452438,1.6767333,3.0588236
-18.692068,1.7222807,3.0715814
-18.882465,1.7508507,3.068006
-19.04161,1.7687004,3.0542154
-19.204762,1.7889464,3.0437593
-19.254177,1.7662427,2.9885774
-19.270025,1.7305055,2.9196548
-19.282951,1.6933966,2.8492475
-19.449202,1.716939,2.844451
-19.61153,1.7398612,2.839797
-19.81367,1.7798426,2.8546333
-18.222383,1.0873058,2.0626602
-18.331516,1.0841355,2.0267482
-18.354128,1.0453274,1.9515405
-18.341854,0.9915755,1.8595662
-20.678535,1.9368851,2.895071
-20.800781,1.9497032,2.8845186
-20.92773,1.9652307,2.8776069
-21.043505,1.976579,2.8664727
-21.183853,1.9994311,2.8691134
-21.34682,2.0332398,2.885085
-21.495941,2.0618582,2.8957596
-21.568325,2.0564528,2.867288
-21.6391,2.050578,2.838542
-21.65632,2.0200753,2.7809691
-21.64573,1.9762917,2.707632
-21.64552,1.9369388,2.6394324
-21.613903,1.8821514,2.5526586
-20.73682,1.4180405,1.9733925
-20.742645,1.376075,1.8995295
-21.319122,1.6149545,2.1661716
-21.51569,1.6698606,2.2115068
-21.546658,1.6429996,2.157734
-21.57336,1.6138208,2.1011705
-21.557117,1.5187933,1.9427862
-21.53945,1.4654367,1.8561382
-21.616718,1.4615271,1.8309088
-21.702328,1.4623659,1.8118782
-21.691038,1.3659387,1.6512046
-21.697115,1.323276,1.577692
-21.70317,1.2801185,1.5034776
-21.702549,1.2327266,1.4238038
-21.693901,1.1802096,1.3374872
-21.69423,1.1321409,1.2567201
-21.68446,1.0776424,1.1675954
-21.689411,1.0310059,1.0884447
-21.693008,0.98300004,1.0074396
-21.644432,0.90333104,0.885334
-21.60016,0.8250027,0.76464605
-32.008892,1.3881831,0.6451378
-32.026962,1.4686689,0.76789904
-32.01351,1.618701,0.9937949
-31.989204,1.7859108,1.2450233
-31.976234,1.9197838,1.4466815
-31.975182,2.0215077,1.6005979
-31.98914,2.0868564,1.7005897
-31.96343,2.2310693,1.9172206
-32.002995,2.2374005,1.929831
-32.043274,2.242214,1.9402676
-32.072014,2.269204,1.9835219
-32.108486,2.2806454,2.0038624
-32.120277,2.3372705,2.0908961
-32.153755,2.3525698,2.1169953
-32.18997,2.362588,2.1353645
-32.21643,2.3892627,2.178309
-32.250847,2.4015615,2.2001352
-32.08796,2.8036656,2.7983413
-32.070553,2.8910372,2.9300747
-32.104927,2.8938937,2.937757
-32.122128,2.9233193,2.9844308
-32.13489,2.9585621,3.0396247
-32.118595,3.0360067,3.1565347
-32.162945,3.0221395,3.1398716
-32.181667,3.0457602,3.1780543
-32.242607,3.0090249,3.1281881
-32.268196,3.0228271,3.1521573
-32.24266,3.1062403,3.2775426
-32.276688,3.106959,3.282452
-32.326477,3.0869336,3.2572737
-32.355972,3.0941257,3.2717519
-32.382523,3.1050246,3.2916584
-32.410107,3.114426,3.3094368
-32.43628,3.1254416,3.329598
-32.46984,3.1272297,3.336453
-32.502975,3.1296275,3.3442574
-32.537827,3.1300635,3.349297
-32.574894,3.1280386,3.350864
-32.610714,3.1276612,3.3548856
-32.64524,3.128921,3.3613405
-32.681137,3.128755,3.3658195
-32.71892,3.1266642,3.3676147
-32.75493,3.1267176,3.3725705
-32.7891,3.128901,3.3806548
-32.82517,3.1291656,3.3860693
-32.864155,3.1265213,3.3874083
-32.901787,3.1255057,3.3911629
-32.93948,3.1246068,3.3951707
-32.978233,3.1228273,3.3980122
-33.017067,3.1211696,3.4011197
-33.055473,3.1201322,3.4051986
-33.095993,3.1172335,3.4067326
-33.13559,3.1154554,3.4099503
-33.17631,3.1128187,3.4120522
-33.215027,3.1122808,3.417214
-33.252735,3.1128452,3.4240217
-33.294243,3.1101065,3.4262738
-33.33423,3.1089673,3.4308772
-33.37593,3.1064994,3.4337163
-33.414417,3.1070766,3.4409242
-33.452938,3.1077752,3.4483957
-33.484745,3.1143749,3.4641943
-33.512493,3.1244228,3.4848633
-33.5418,3.1331017,3.5036798
-33.563473,3.1480587,3.53127
-33.581974,3.165431,3.5622344
-33.610744,3.1742876,3.581437
-33.64886,3.1756551,3.5903587
-33.68879,3.1757317,3.597598
-33.726364,3.1778185,3.6077065
-33.76516,3.179089,3.6167903
-33.802147,3.1818848,3.6280646
-33.8416,3.1829386,3.6370497
-33.871765,3.191072,3.6558008
-33.91308,3.1909764,3.663412
-33.95256,3.1924014,3.6732025
-33.988255,3.1967075,3.687007
-34.030952,3.1961002,3.694252
-34.068565,3.1992822,3.7067342
-34.10357,3.2043986,3.7219243
-34.145714,3.2046537,3.730667
-34.171463,3.2163084,3.7548194
-34.206303,3.221745,3.7707014
-34.239758,3.2281833,3.788012
-34.28455,3.2271576,3.795467
-34.336853,3.221415,3.7967906
-34.3662,3.230885,3.8184404
-34.398834,3.2382364,3.8373575
-34.41209,3.2579513,3.8726568
-34.461063,3.2549775,3.8781223
-34.502476,3.2569666,3.8902526
-35.238014,2.8311682,3.3430505
-35.258244,2.8507462,3.3799152
-35.267498,2.8767848,3.4252028
-35.269875,2.9066372,3.4754086
-35.240112,2.9551399,3.5496721
-35.242718,2.9839294,3.598318
-35.251366,3.0088613,3.6419501
-35.258133,3.0346017,3.686592
-35.250496,3.0682435,3.741291
-35.26888,3.0867953,3.7766747
-35.28325,3.1074395,3.814735
-35.294292,3.1297345,3.8548841
-35.310226,3.1491442,3.8913832
-35.333397,3.1644812,3.9227753
-35.344948,3.185964,3.961908
-35.376747,3.1965175,3.9873953
-35.431396,3.1950915,3.9980779
-35.513866,3.179461,3.991364
-35.54946,3.1884966,4.015423
-35.60517,3.187338,4.0270576
-35.648453,3.192711,4.0468974
-35.739597,3.1742964,4.0378704
-35.764076,3.1894753,4.0700364
-35.829544,3.1845133,4.077892
-35.91029,3.1724796,4.077488
-35.97052,3.1707888,4.0898294
-36.04128,3.1643705,4.0967617
-36.12996,3.1498854,4.094393
-36.155758,3.1652863,4.1277847
-36.208183,3.168343,4.146697
-36.2982,3.1544008,4.145878
-36.368828,3.1497808,4.156337
-36.433823,3.148047,4.1704464
-36.57419,3.1131268,4.1464815
-36.650444,3.1073735,4.156716
-36.775223,3.0808713,4.1435556
-36.871223,3.0675883,4.146027
-36.977596,3.0504239,4.1445503
-37.050587,3.0480165,4.160179
-37.171925,3.0256994,4.1538587
-37.262268,3.0169845,4.163256
-37.40568,2.9869456,4.149501
-37.512012,2.9728975,4.1540365
-37.66415,2.940994,4.1395893
-37.809994,2.9125566,4.129679
-37.893246,2.9097342,4.14813
-38.078976,2.8672352,4.124484
-38.201923,2.8502302,4.1289377
-38.305992,2.8411565,4.142397
-38.468082,2.8105998,4.133847
-38.64216,2.7765152,4.122489
-38.76658,2.7619576,4.132249
-38.92224,2.7365692,4.1315546
-39.125378,2.6947663,4.1150036
-39.29899,2.6648626,4.1115923
-39.44635,2.6453507,4.119546
-39.61733,2.618295,4.120822
-39.793266,2.5904784,4.122308
-40.026382,2.5438383,4.1064363
-40.217854,2.512885,4.1070795
-40.4198,2.4794655,4.10647
-40.626827,2.4454892,4.106514
-40.8053,2.422194,4.117805
-41.05895,2.375115,4.108054
-41.29048,2.3367207,4.107826
-41.499695,2.3068385,4.1167483
-41.812298,2.2451077,4.098311
-42.093597,2.195097,4.092256
-42.38581,2.1432872,4.0863953
-42.721367,2.0797408,4.072213
-42.974373,2.043394,4.083498
-43.25208,2.0009568,4.0912576
-43.54157,1.9565256,4.0991607
-44.077225,1.8407452,4.050278
-44.488205,1.7646725,4.037228
-44.885227,1.694988,4.0320745
-45.25595,1.6350837,4.0373287
-45.688644,1.5596523,4.0331154
-46.260017,1.4477365,4.0041504
-46.753487,1.3607049,3.9978685
-47.30107,1.2615871,3.986228
-47.972237,1.1320117,3.9565744
-48.611767,1.014729,3.9405441
-48.842567,1.0094545,4.006914
-15.331984,1.152415,2.8148685
-15.455001,1.1421499,2.759369
-15.837503,1.2184725,2.7893753
-16.181631,1.2842281,2.8111253
-16.441643,1.3235428,2.8084316
-16.703646,1.3650184,2.809352
-16.946962,1.4015391,2.8066778
-17.95074,1.7051167,3.0788383
-18.070972,1.7037141,3.0418386
-18.324537,1.7503946,3.0554748
-18.587883,1.8021183,3.0757542
-18.789303,1.8329115,3.0753183
-18.953123,1.8510463,3.0624495
-19.112167,1.8683019,3.0494623
-19.24633,1.877089,3.028121
-19.273804,1.846138,2.964231
-19.281733,1.8075819,2.8920736
-19.406418,1.8138793,2.869267
-19.530045,1.8203862,2.8472729
-19.865278,1.9109621,2.919621
-17.947502,1.106415,1.9891453
-18.302677,1.200654,2.0630002
-18.34599,1.1706085,1.997499
-18.354092,1.1260478,1.9155397
-18.345133,1.0740588,1.8249807
-20.607542,1.9723718,2.831503
-20.854359,2.0369592,2.8818192
-20.99708,2.0588112,2.8834448
-21.120993,2.0734036,2.8771935
-21.273586,2.1011853,2.8870277
-21.400799,2.1187572,2.8854485
-21.512785,2.1303115,2.8772569
-21.623653,2.141982,2.869676
-21.643631,2.1130917,2.8138285
-21.590921,2.0507493,2.7176213
-21.671183,2.0489917,2.6945076
-21.645039,1.9979231,2.6116638
-21.62217,1.9477613,2.5297127
-20.762436,1.4986603,1.9577622
-20.741074,1.4440179,1.8678846
-20.723804,1.3906949,1.7794385
-21.512493,1.7318883,2.1810522
-21.534836,1.700814,2.1218991
-21.563139,1.6724825,2.0661912
-21.563148,1.6296797,1.9923325
-21.545332,1.5773096,1.9063096
-21.528421,1.5247428,1.8198595
-21.633324,1.5348954,1.8129177
-19.371696,0.30180335,0.22137451
-21.720123,1.4467039,1.6420784
-21.711012,1.3962722,1.558114
-21.699797,1.3440504,1.4716969
-21.705812,1.3006732,1.3965917
-21.693396,1.2465069,1.3073888
-21.694405,1.1991911,1.226963
-21.686024,1.1459458,1.1386843
-21.684387,1.0958762,1.0544314
-21.687235,1.0477729,0.97265434
-21.6436,0.9717715,0.8539815
-21.65768,0.9288304,0.7787514
-31.980062,1.3788624,0.5327215
-31.988974,1.4845259,0.6949744
-31.979937,1.6272924,0.9130082
-32.01277,1.6659744,0.9743581
-31.98651,1.8359189,1.2330885
-31.970758,1.9744477,1.4444385
-31.974068,2.065563,1.5844407
-32.000298,2.104601,1.646204
-31.971666,2.253914,1.8734293
-32.00283,2.2773557,1.9117436
-32.027218,2.3131304,1.9685769
-32.064007,2.32387,1.9879303
-32.102314,2.331502,2.0026898
-32.120083,2.376443,2.0733213
-32.153854,2.3911123,2.0986924
-32.183704,2.4122152,2.1337237
-32.22363,2.4153736,2.1420016
-32.25472,2.433437,2.1725874
-32.11294,2.8572583,2.8148365
-32.085278,2.9579282,2.968049
-32.115173,2.9671378,2.985157
-32.135834,2.9900258,3.0226293
-32.143272,3.0317461,3.0880642
-32.18082,3.028564,3.0868835
-32.230907,3.0077913,3.0597177
-32.240993,3.0438426,3.1167936
-32.22281,3.117731,3.2298136
-32.245926,3.133453,3.2567515
-32.301743,3.1052878,3.2189193
-32.32591,3.1196253,3.2439284
-32.3542,3.128345,3.2606897
-32.38274,3.1366174,3.2768378
-32.411556,3.144445,3.2923799
-32.44066,3.151831,3.307321
-32.47259,3.155714,3.3171706
-32.50576,3.1581552,3.324966
-32.54065,3.1586561,3.3299842
-32.575565,3.1592588,3.3352232
-32.614944,3.1549032,3.3332853
-32.649075,3.1567318,3.3404675
-32.683662,3.1581547,3.3471274
-32.72056,3.1571655,3.3503432
-32.757984,3.1557868,3.353074
-32.793602,3.1565247,3.3589635
-32.83115,3.1553724,3.3621845
-32.870693,3.1523457,3.3627706
-32.907913,3.151928,3.367227
-32.945187,3.151625,3.3719306
-32.984005,3.149954,3.3747425
-33.022903,3.1484063,3.377821
-33.0629,3.145999,3.3797507
-33.101456,3.1451912,3.3840756
-33.140076,3.1445045,3.3886638
-33.18085,3.14199,3.3907185
-33.219616,3.1415532,3.3958483
-33.258442,3.141239,3.4012442
-33.29894,3.139598,3.4048352
-33.339516,3.1380885,3.408711
-33.382374,3.1347897,3.4101372
-33.420372,3.1359472,3.4180088
-33.458397,3.1372232,3.4261374
-33.493633,3.1410003,3.4379015
-33.527706,3.1458325,3.4512367
-33.56173,3.1507633,3.464788
-33.59339,3.1576807,3.481217
-33.64012,3.152455,3.48061
-33.679962,3.1530218,3.4882722
-33.71688,3.1560545,3.4994955
-33.74602,3.1652586,3.5194511
-33.788883,3.1638577,3.5246348
-33.828793,3.1649168,3.5333652
-33.85772,3.1744077,3.5539436
-33.88096,3.1881094,3.5804338
-33.911427,3.1963603,3.5993953
-33.93427,3.2101712,3.626122
-33.97013,3.2144747,3.6397424
-34.007233,3.2179832,3.6523547
-34.064163,3.2076128,3.6459541
-34.09364,3.2168083,3.666606
-34.12493,3.2247374,3.685587
-34.16724,3.225164,3.6943755
-34.20762,3.2270713,3.7053022
-34.243378,3.2322164,3.720747
-34.287766,3.231735,3.7286391
-34.322815,3.2375665,3.7452164
-34.354424,3.2456975,3.7649894
-34.384567,3.2547925,3.786139
-34.426235,3.256585,3.7975316
-34.46723,3.2589545,3.8098187
-34.508938,3.2610335,3.8218327
-35.232044,2.8443847,3.2748466
-35.255486,2.8621857,3.3095102
-35.270863,2.8847082,3.3504786
-35.257427,2.9241793,3.4138966
-35.247566,2.9609704,3.473649
-35.242798,2.9942715,3.5286942
-35.241055,3.0253806,3.5807729
-35.24604,3.0522404,3.627214
-35.23959,3.0852675,3.6816654
-35.259777,3.102922,3.716011
-35.276722,3.1222498,3.752555
-35.291122,3.142819,3.7907171
-35.305935,3.162983,3.8283591
-35.32192,3.1823418,3.8649716
-35.33835,3.2013094,3.901093
-35.37194,3.2110677,3.9254675
-35.4932,3.1750326,3.8916616
-35.533882,3.1816502,3.9124432
-35.547516,3.2022376,3.951004
-35.6259,3.1898003,3.9479861
-35.69758,3.1812181,3.9501114
-35.737408,3.1888928,3.9728284
-35.773224,3.1986394,3.99825
-35.8634,3.1819286,3.9909716
-35.930157,3.177107,3.9987478
-35.9875,3.1771336,4.0127463
-36.02329,3.1876206,4.039774
-36.08789,3.1846542,4.0505
-36.148567,3.1838279,4.0640783
-36.23122,3.1731813,4.066016
-36.270958,3.182541,4.0923853
-36.337578,3.179874,4.104476
-36.38788,3.184813,4.125909
-36.45134,3.1841145,4.1408367
-36.538883,3.1731715,4.143919
-36.631676,3.1604521,4.145296
-36.730595,3.1456392,4.1446347
-36.83319,3.1298466,4.1432786
-36.93781,3.1138082,4.142106
-37.0242,3.1059759,4.150861
-37.14044,3.0862951,4.146436
-37.244335,3.0723538,4.1490946
-37.353653,3.0568113,4.150427
-37.466724,3.0403936,4.1512904
-37.606785,3.0139341,4.1414633
-37.710274,3.0026786,4.14923
-37.859016,2.9744093,4.1386957
-38.005695,2.9478412,4.1307774
-38.095383,2.943851,4.1482186
-38.245502,2.9175239,4.141896
-38.40402,2.888958,4.133936
-38.523476,2.875762,4.143214
-38.740288,2.8276203,4.1160455
-38.870316,2.8122454,4.124532
-39.014854,2.7923813,4.129004
-39.17224,2.7687714,4.1303596
-39.390797,2.724582,4.111402
-39.567127,2.696389,4.109969
-39.74306,2.6693425,4.1106644
-39.96542,2.627495,4.0974994
-40.14242,2.6022408,4.1020813
-40.336174,2.572393,4.103137
-40.51318,2.5491643,4.1117535
-40.73885,2.511019,4.106972
-40.945065,2.480454,4.110762
-41.191143,2.438297,4.104791
-41.425976,2.401109,4.1049447
-41.65864,2.3659217,4.1083646
-41.93152,2.3195827,4.102976
-42.272575,2.2539053,4.0817533
-42.571106,2.2031078,4.075991
-42.88619,2.1490407,4.0692177
-43.11276,2.123018,4.0889335
-43.44229,2.0679898,4.0850806
-43.84738,1.9928868,4.066297
-44.246063,1.9219444,4.0536757
-44.695488,1.8388593,4.033672
-45.052986,1.7841456,4.039795
-45.457397,1.7183781,4.039466
-46.01279,1.6134107,4.0109787
-46.474075,1.5371518,4.008636
-47.000786,1.4458966,3.998084
-47.539127,1.3545027,3.9911633
-48.08338,1.2645509,3.9891577
-48.76497,1.142004,3.967595
-14.81999,1.1829193,2.8052187
-15.049608,1.2038922,2.7789998
-15.436677,1.2762816,2.8049164
-15.696006,1.3097911,2.7942152
-15.957439,1.3454216,2.7870831
-16.268005,1.3986845,2.7993174
-16.556854,1.4465382,2.8077111
-16.824127,1.4888182,2.8119092
-17.022387,1.5092006,2.7947006
-18.01062,1.8017771,3.064764
-18.299435,1.8585284,3.0903902
-18.46796,1.8748896,3.0744104
-18.649437,1.8967383,3.0651827
-18.84196,1.9235418,3.0622392
-19.03041,1.9499688,3.0598512
-19.201618,1.9711769,3.0526648
-19.255844,1.9501953,2.999627
-19.285028,1.9199669,2.9364872
-19.277231,1.875709,2.8576813
-19.447115,1.8986154,2.854518
-19.563759,1.9020422,2.830048
-19.926683,2.0015895,2.9158769
-17.645678,1.0674131,1.8159041
-18.3196,1.2846408,2.0344248
-18.359444,1.2532701,1.9674363
-18.35898,1.2055268,1.8814144
-18.356739,1.1566358,1.7939348
-20.766684,2.1013622,2.8797345
-20.871109,2.1059637,2.8615818
-21.034763,2.135986,2.8741932
-21.153597,2.147999,2.8659372
-21.29868,2.1719258,2.8725343
-21.450665,2.1997294,2.8844514
-21.525448,2.1947136,2.857112
-21.625658,2.2012272,2.8441348
-21.678284,2.1870217,2.8061304
-21.647318,2.1352334,2.721973
-21.633434,2.0905695,2.6464024
-21.599342,2.0361018,2.5584931
-20.789131,1.620446,2.0195146
-20.775564,1.5705743,1.9350529
-20.76921,1.5235436,1.8540068
-21.516802,1.8367996,2.2279058
-21.555859,1.8142838,2.179432
-21.483047,1.7370908,2.0614595
-21.513145,1.7094796,2.0063958
-21.540565,1.6803699,1.9494567
-21.536734,1.635345,1.8720722
-21.517513,1.5819814,1.7838135
-21.618687,1.5897212,1.7745247
-21.697437,1.5421252,1.6747589
-21.704924,1.5013142,1.6027379
-21.711605,1.4596279,1.5295067
-21.703331,1.4094067,1.444973
-21.710785,1.3671215,1.3707862
-21.696823,1.312563,1.2802782
-21.688236,1.2602673,1.1926193
-21.682772,1.2090402,1.1062479
-21.68112,1.1593132,1.0217571
-21.683235,1.1111126,0.9392042
-21.681892,1.0603049,0.8530569
-21.67575,1.0060236,0.7621207
-21.660654,0.9457114,0.66291094
-21.633972,0.8776088,0.5529866
-31.98024,1.424366,0.5076723
-31.992641,1.5205183,0.6574898
-31.980202,1.6699848,0.8885994
-32.007435,1.7211409,0.96967125
-31.987865,1.8740463,1.2058349
-32.000996,1.9485209,1.3223724
-32.006233,2.0362284,1.4590254
-31.998781,2.1461368,1.6294065
-31.991827,2.2500615,1.7905879
-32.018345,2.2834332,1.8444204
-32.01479,2.3734026,1.9842625
-32.063667,2.3608234,1.968308
-32.073658,2.420624,2.0622916
-32.112144,2.4266708,2.0747151
-32.18336,2.4485052,2.1145096
-32.2358,2.5005007,2.2001457
-32.32138,2.4962869,2.2009568
-32.096012,2.971492,2.9253044
-32.12267,2.9858797,2.950325
-32.13787,3.016903,3.0004382
-32.159172,3.0380907,3.0357428
-32.162014,3.0851247,3.1099362
-32.17632,3.114564,3.1576424
-32.206013,3.121869,3.17211
-32.248043,3.1122992,3.1613083
-32.28994,3.1033788,3.1515708
-32.320015,3.1104531,3.1658802
-32.342484,3.1273026,3.1948667
-32.36582,3.1426585,3.2216434
-32.393326,3.1524608,3.2401524
-32.426003,3.1557276,3.24895
-32.459064,3.1585772,3.257187
-32.492104,3.1615179,3.2656217
-32.528973,3.1600127,3.2675023
-32.553356,3.1732094,3.2913132
-32.58846,3.173902,3.296589
-32.62625,3.171692,3.297628
-32.663685,3.1700985,3.2996612
-32.70029,3.1696167,3.3034196
-32.73695,3.1692455,3.307417
-32.774128,3.1684887,3.3109221
-32.81325,3.1658657,3.3117518
-32.85057,3.1653416,3.3157606
-32.886024,3.1669023,3.322918
-32.922466,3.167585,3.3288574
-32.962383,3.1649468,3.329998
-33.000916,3.163903,3.3335667
-33.042534,3.1600556,3.3331132
-33.084282,3.1563442,3.3329563
-33.12257,3.1561651,3.3380566
-33.162983,3.154171,3.3405933
-33.202446,3.153272,3.344819
-33.241447,3.1529796,3.3500166
-33.279976,3.1532905,3.3561783
-33.321243,3.1513312,3.3591342
-33.36478,3.1476007,3.359621
-33.406803,3.1454422,3.3624883
-33.452248,3.14058,3.3615508
-33.492264,3.1405993,3.3677673
-33.52331,3.1482847,3.385117
-33.557095,3.1537046,3.3992686
-33.597706,3.153604,3.4055676
-33.640114,3.1522357,3.4101477
-33.6791,3.1538002,3.4190278
-33.717525,3.1559522,3.4288397
-33.752995,3.1605368,3.4422102
-33.798,3.1578574,3.4453201
-33.82261,3.170943,3.4709468
-33.870716,3.1662354,3.471374
-33.922043,3.1594205,3.468948
-33.959984,3.1627908,3.4810572
-33.997295,3.1667337,3.4940648
-34.045868,3.1626718,3.4958916
-34.083847,3.1664274,3.5088367
-34.119904,3.1716466,3.5239267
-34.160397,3.1738532,3.5348845
-34.198322,3.1779718,3.548617
-34.236225,3.1822104,3.5626101
-34.279343,3.18304,3.5719557
-34.31591,3.1884136,3.5877218
-34.32522,3.211855,3.6285996
-34.34012,3.2313447,3.6639957
-34.369484,3.2412796,3.6862226
-34.423763,3.2352827,3.6865978
-34.44619,3.2497494,3.71522
-34.47525,3.2599673,3.7380595
-34.522106,3.2591486,3.7458897
-34.55168,3.2691426,3.7685876
-35.271652,2.860416,3.2223358
-35.28549,2.8841705,3.2652645
-35.26071,2.9306095,3.3388534
-35.251442,2.9672153,3.399012
-35.24724,3.0003622,3.454414
-35.25396,3.0267723,3.500699
-35.26312,3.0514877,3.544682
-35.26967,3.0774074,3.5902467
-35.2787,3.101649,3.633545
-35.300575,3.1185312,3.6670613
-35.31478,3.1395063,3.7060208
-35.327145,3.1612878,3.7460437
-35.351875,3.1762345,3.7770782
-35.37713,3.1908367,3.8077087
-35.428642,3.1915784,3.820294
-35.505295,3.1794553,3.8163066
-35.55168,3.1834078,3.8334517
-35.59806,3.1875296,3.8509626
-35.639023,3.1945474,3.872354
-35.751274,3.1660247,3.8482447
-35.746452,3.196274,3.8997662
-35.83196,3.1819024,3.894333
-35.905216,3.1740112,3.897462
-35.974743,3.1683264,3.9036598
