x,y,z
-31.074041,1.7957349,1.4484873
-31.115135,1.8111911,1.4724722
-31.15276,1.8397624,1.5153661
-31.193092,1.8554044,1.5397544
-31.237738,1.8536191,1.539197
-31.281971,1.8536458,1.541326
-31.322353,1.8673351,1.5631366
-31.358284,1.89522,1.605371
-31.34483,2.0821056,1.8755407
-31.369352,2.1370363,1.9565325
-31.355364,2.305642,2.200323
-31.3703,2.3784983,2.3069267
-31.355175,2.532773,2.5300002
-31.367844,2.6010113,2.6299047
-31.36553,2.705661,2.7818313
-31.357386,2.8197255,2.9471316
-31.381252,2.8463712,2.9875078
-31.364967,2.970871,3.167561
-31.3707,3.0360122,3.2628222
-31.385561,3.0765586,3.3229823
-31.383974,3.1527581,3.4339356
-31.37606,3.2394438,3.5597534
-31.387568,3.2798736,3.6196609
-31.401123,3.3141809,3.6708498
-31.417986,3.340167,3.7102094
-31.431322,3.3722596,3.758253
-31.451258,3.389968,3.7858782
-31.467995,3.4132323,3.821409
-31.489786,3.4260316,3.8421185
-31.515478,3.4311614,3.8519983
-31.544405,3.430304,3.8534522
-31.583836,3.410849,3.8286672
-31.612097,3.4118257,3.8328555
-31.64355,3.4074013,3.8294756
-31.666998,3.4167428,3.845588
-31.693579,3.4206755,3.8541143
-31.71573,3.4317641,3.8727715
-31.744173,3.4325552,3.8769722
-31.778881,3.4236436,3.8675907
-31.810974,3.4191828,3.8645465
-31.8439,3.4137356,3.8601925
-31.873322,3.4137979,3.86364
-31.896475,3.423118,3.8801196
-31.921717,3.4292564,3.8921866
-31.951815,3.428465,3.894613
-31.992016,3.4138029,3.8777344
-32.026268,3.4078538,3.8731196
-32.06147,3.4009433,3.8672495
-32.09805,3.392545,3.8593953
-32.121746,3.4013147,3.8755095
-32.148605,3.4058838,3.885831
-32.175404,3.4105234,3.8963041
-32.19575,3.4231753,3.9179378
-32.221474,3.4289947,3.9301403
-32.254086,3.426442,3.9308183
-32.285896,3.4250422,3.933169
-32.32984,3.409563,3.9161747
-32.372326,3.3963385,3.9024134
-32.404125,3.3958101,3.9062386
-32.42624,3.406331,3.9253209
-32.453327,3.4111733,3.9366488
-32.47608,3.42076,3.9545352
-32.515926,3.4117517,3.9470155
-32.555016,3.4039152,3.9412084
-32.578144,3.4132214,3.9589005
-32.620415,3.402528,3.9493842
-32.644936,3.4104486,3.9653149
-32.669838,3.4179168,3.9806786
-32.70381,3.4162612,3.9837162
-32.764153,3.388757,3.951834
-32.799564,3.3863716,3.9541168
-32.825073,3.3937201,3.9696364
-32.84569,3.4056773,3.9914193
-32.87254,3.4116309,4.005156
-32.906338,3.4111276,4.0102777
-32.95602,3.3962107,3.9961593
-32.99557,3.3909705,3.9951537
-33.03471,3.386366,3.9951108
-33.05041,3.402749,4.023177
-33.08054,3.4062748,4.034136
-33.120346,3.401499,4.034136
-33.171806,3.38702,4.0213823
-33.21604,3.3791184,4.0175037
-33.241734,3.387031,4.0346594
-33.267307,3.395009,4.051957
-33.299316,3.397706,4.062361
-33.33611,3.3966246,4.0678873
-33.389904,3.3821435,4.055957
-33.43122,3.3779845,4.0577087
-33.453003,3.3893285,4.0798197
-33.49565,3.384457,4.0808554
-33.528458,3.3873672,4.092135
-33.565018,3.3875303,4.099944
-33.611115,3.3807144,4.098835
-33.642082,3.3853946,4.1127105
-33.683277,3.382646,4.1171064
-33.729744,3.3762972,4.1170087
-33.77768,3.3691885,4.1160936
-33.824482,3.3631923,4.1167617
-33.876728,3.3536644,4.1130857
-33.93053,3.3434162,4.108678
-33.977215,3.3384423,4.1111465
-34.024708,3.3331845,4.1134157
-34.082523,3.321257,4.107436
-34.140606,3.3095617,4.101961
-34.186596,3.3062563,4.1072216
-34.234768,3.301769,4.1111593
-34.26568,3.3087022,4.129505
-34.35669,3.2772222,4.1001863
-34.404686,3.2737947,4.1060095
-34.441467,3.2776546,4.121006
-34.515263,3.2586389,4.1079426
-34.57513,3.248746,4.1063757
-34.63379,3.239974,4.106409
-34.66874,3.2458513,4.124537
-34.764122,3.215745,4.0990252
-34.816135,3.2120469,4.105919
-34.874897,3.2046695,4.1085625
-34.94866,3.1889443,4.10139
-35.016056,3.1773782,4.0995092
-35.07847,3.1690714,4.1017933
-35.130543,3.1669478,4.1116867
-35.206158,3.1519582,4.1065245
-35.285896,3.1351933,4.0995836
-35.346878,3.1292143,4.105673
-35.438736,3.1068552,4.0928164
-35.501717,3.1006231,4.0991855
-35.57106,3.0913544,4.1022854
-35.647633,3.0786881,4.1017456
-35.720562,3.068388,4.104266
-35.80316,3.0535283,4.1018696
-35.913734,3.024899,4.084117
-35.97008,3.0244834,4.098955
-36.078316,2.9983177,4.0848875
-36.143803,2.9941077,4.0960555
-36.240788,2.9747453,4.0905232
-36.32765,2.960928,4.09163
-36.422913,2.9435768,4.089217
-36.52748,2.9223669,4.0829945
-36.583374,2.9248538,4.103298
-36.719776,2.8898299,4.0828633
-36.77599,2.8929634,4.104568
-36.906723,2.8620481,4.089729
-36.9923,2.8525639,4.098572
-37.10896,2.8295202,4.093344
-37.20343,2.8171153,4.1
-37.313286,2.7984295,4.1004925
-37.431934,2.77654,4.09818
-37.572166,2.7459958,4.087458
-37.68319,2.7289038,4.091406
-37.826103,2.6988642,4.0826063
-37.925022,2.6882777,4.0944457
-38.088593,2.6511998,4.079912
-38.223488,2.6270275,4.0792794
-38.398605,2.5871654,4.06368
-38.517113,2.5713944,4.072977
-38.65942,2.5467072,4.0741262
-38.851944,2.502849,4.0573187
-38.98736,2.482726,4.064636
-39.129265,2.460826,4.070998
-39.290947,2.4320774,4.0716267
-39.436295,2.4105296,4.0799966
-39.612167,2.3782122,4.0790987
-39.812576,2.3377013,4.071619
-40.023445,2.2944965,4.0628557
-40.294052,2.2305408,4.036438
-40.47232,2.2019606,4.043643
-40.69512,2.1582918,4.03843
-40.930317,2.1114988,4.031828
-41.177975,2.0616765,4.02404
-41.402794,2.0213256,4.0260215
-41.57182,2.0016398,4.0471277
-41.83686,1.9498307,4.042074
-42.21689,1.860415,4.00726
-42.45435,1.8213623,4.016612
-42.759396,1.7610843,4.0101795
-43.0754,1.6989543,4.0042896
-43.39041,1.6389766,4.002236
-43.824604,1.5422256,3.9734697
-44.069164,1.5088062,3.9966927
-44.552868,1.4008577,3.9647732
-44.84623,1.3555112,3.9832597
-28.265942,3.0776231,3.3229914
-28.302229,3.0819771,3.3256488
-28.338394,3.0864394,3.3285408
-28.352438,3.0553446,3.280673
-28.290129,2.8970575,3.050799
-28.327366,2.9004505,3.0521698
-28.45934,3.0668142,3.2871866
-28.507374,3.092955,3.3215199
-28.55361,3.117085,3.3530898
-28.591835,3.127743,3.3654246
-28.628048,3.1352437,3.3733082
-28.659477,3.1341054,3.368844
-28.711178,3.1724694,3.4213014
-28.739979,3.1671655,3.4109979
-28.772108,3.1685202,3.4103436
-28.80524,3.172162,3.4130526
-28.837755,3.1747968,3.4143777
-28.870192,3.177523,3.4158988
-28.902794,3.1808908,3.4184132
-28.936987,3.1882153,3.4267116
-28.968655,3.1901112,3.4272318
-29.00072,3.1932,3.4295402
-29.032251,3.1952708,3.430438
-29.06285,3.1952088,3.4283085
-29.093433,3.1952283,3.4263558
-29.127075,3.2036636,3.436665
-29.15713,3.2027411,3.4334679
-29.187958,3.2041237,3.433673
-29.217804,3.2028036,3.4300122
-29.248932,3.2054646,3.4321904
-29.279985,3.2082093,3.4345508
-29.309608,3.2065704,3.4305978
-29.340397,3.20892,3.4325
-29.37112,3.2113516,3.4345808
-29.402536,3.2166653,3.4409137
-29.432076,3.2153423,3.4376464
-29.46177,3.2146559,3.4353604
-29.492,3.2162902,3.43651
-29.522057,3.2174432,3.4370146
-29.551712,3.21699,3.4352345
-29.58206,3.2199848,3.4385352
-29.613102,3.2269948,3.4477491
-29.643984,3.2340884,3.4571443
-29.674215,3.238452,3.4626145
-29.704346,3.242896,3.4682598
-29.7342,3.246293,3.4724326
-29.764292,3.252022,3.4800663
-29.793,3.2482505,3.4738846
-29.823069,3.2552624,3.483501
-29.852179,3.2550232,3.4825835
-29.881233,3.2542953,3.4810052
-29.910694,3.258155,3.4861822
-29.93963,3.2564487,3.4832807
-29.969688,3.271184,3.504455
-29.998137,3.262855,3.491983
-30.026886,3.257421,3.4837923
-30.0566,3.2769034,3.5120678
-30.08543,3.2767,3.5116272
-30.11432,3.2810888,3.51795
-30.143116,3.2861161,3.525259
-30.171843,3.2866998,3.5261269
-30.200523,3.2890513,3.5296292
-30.229034,3.295429,3.5390668
-30.257524,3.2990563,3.544538
-30.285938,3.3027565,3.5501661
-30.313923,3.3121734,3.564199
-30.342201,3.3148885,3.56849
-30.370802,3.3131618,3.5663428
-30.399284,3.3132017,3.5668287
-30.427294,3.3178263,3.5740623
-30.455536,3.319703,3.577333
-30.483528,3.3233426,3.583229
-30.511446,3.327053,3.5892787
-30.53854,3.3359032,3.602881
-30.56545,3.3448195,3.6166272
-30.590364,3.3644934,3.6461167
-30.614862,3.384223,3.6757264
-30.639915,3.3989463,3.6980724
-31.039444,1.5582218,1.0150232
-31.088617,1.5510209,1.0061927
-31.079721,1.8044031,1.3772111
-31.113031,1.8545337,1.4519873
-31.152712,1.874445,1.482789
-31.194567,1.8843617,1.4991035
-31.238468,1.8859828,1.5034151
-31.284996,1.8782048,1.4941325
-31.335903,1.8560178,1.4639826
-31.365711,1.9060512,1.5389471
-31.346283,2.1113162,1.8395553
-31.381844,2.131735,1.8714576
-31.35271,2.345622,2.1843753
-31.385572,2.3654675,2.215434
-31.352194,2.571201,2.5162597
-31.381458,2.593235,2.550466
-31.360752,2.7469318,2.7755756
-31.365372,2.8266435,2.89334
-31.395027,2.8392313,2.9138498
-31.366867,2.9925044,3.1380405
-31.374304,3.053187,3.2281141
-31.40312,3.061345,3.2422109
-31.379997,3.186554,3.4255037
-31.382751,3.2487278,3.517613
-31.392399,3.2932217,3.584158
-31.41081,3.3173456,3.6212997
-31.43007,3.3387446,3.654529
-31.448076,3.3618147,3.6901855
-31.461987,3.3920267,3.7361388
-31.483543,3.406374,3.759266
-31.501328,3.4273176,3.7919064
-31.533228,3.4215508,3.7861862
-31.567993,3.410976,3.773632
-31.60362,3.3994226,3.7597551
-31.636375,3.393416,3.7539124
-31.660973,3.4016094,3.768486
-31.689648,3.4028192,3.7731047
-31.709717,3.4181652,3.7979984
-31.73959,3.4173493,3.7998204
-31.769848,3.4160798,3.801057
-31.80886,3.4014432,3.7832887
-31.841486,3.3971457,3.7803555
-31.874586,3.3924108,3.7768726
-31.899784,3.3995538,3.790365
-31.928938,3.4008791,3.795632
-31.955833,3.4054852,3.8056188
-31.98686,3.4043033,3.8074453
-32.026463,3.3915195,3.7928956
-32.062435,3.3841758,3.7861493
-32.095,3.3817124,3.786395
-32.12442,3.3835754,3.7928276
-32.153828,3.3855195,3.799437
-32.165382,3.4101772,3.8381362
-32.200005,3.4054112,3.8353832
-32.22368,3.4143825,3.8520424
-32.25626,3.4124231,3.8533797
-32.29066,3.408475,3.852002
-32.33623,3.3916154,3.8326044
-32.378605,3.3790798,3.81939
-32.41085,3.3786192,3.82318
-32.43306,3.3896368,3.8430786
-32.45739,3.398119,3.859474
-32.4783,3.410262,3.8810146
-32.517017,3.4029222,3.875474
-32.566956,3.3839254,3.8538375
-32.603256,3.3799455,3.8531888
-32.630363,3.3857741,3.866225
-32.653423,3.3957438,3.8850477
-32.682823,3.399166,3.8948622
-32.713203,3.4016593,3.9034598
-32.76197,3.3860652,3.8872058
-32.801796,3.3797193,3.8838205
-32.83502,3.380039,3.8897011
-32.85932,3.3889766,3.9074836
-32.89039,3.391477,3.9164958
-32.923595,3.3920774,3.9229844
-32.961704,3.38831,3.923594
-33.00485,3.3802133,3.9184084
-33.047096,3.3732586,3.914901
-33.07059,3.3832,3.9344606
-33.102917,3.3853369,3.9434829
-33.138077,3.3851247,3.9494073
-33.178425,3.3806329,3.949643
-33.22121,3.3743343,3.9475582
-33.24905,3.380805,3.9627843
-33.282665,3.382514,3.9716775
-33.311558,3.3881867,3.9859715
-33.348125,3.387693,3.9920828
-33.40037,3.3748622,3.981821
-33.44323,3.3698761,3.9821825
-33.46303,3.383133,4.006935
-33.491844,3.3893075,4.022318
-33.534832,3.3846886,4.023475
-33.57733,3.3806958,4.0255914
-33.63443,3.366054,4.013796
-33.67538,3.3638086,4.018504
-33.70748,3.3682375,4.032096
-33.742756,3.3704414,4.04286
-33.78775,3.3658142,4.044798
-33.8394,3.3567388,4.0410814
-33.8742,3.3598163,4.0533404
-33.908985,3.3630073,4.065845
-33.93843,3.369962,4.0833178
-33.967785,3.3770025,4.100977
-34.007168,3.377335,4.1100774
-34.065605,3.3651733,4.10326
-34.112705,3.360887,4.106735
-34.15925,3.3572264,4.111167
-34.22044,3.3443766,4.1040554
-34.27427,3.3366618,4.1036882
-34.330395,3.3278317,4.1021
-34.37828,3.3245125,4.1076703
-34.426277,3.3213732,4.113632
-34.50006,3.3026898,4.100257
-34.560616,3.2925863,4.0979023
-34.61131,3.2887933,4.1036434
-34.6614,3.2856264,4.110344
-34.728382,3.2727761,4.1052246
-34.80446,3.2550735,4.094375
-34.855835,3.2521696,4.102044
-34.914734,3.2452269,4.104946
-34.987232,3.2309284,4.099083
-35.051052,3.2219768,4.1000223
-35.109814,3.216213,4.1050835
-35.197517,3.194876,4.091539
-35.262825,3.1863475,4.0937967
-35.326042,3.179325,4.098123
-35.39559,3.1692803,4.0990877
-35.472332,3.1558545,4.0963116
-35.540825,3.1472244,4.0995464
-35.625908,3.130393,4.093377
-35.708214,3.1155415,4.0899057
-35.765636,3.113852,4.1022043
-35.893555,3.0769577,4.073683
-35.949066,3.0770957,4.088745
-36.018993,3.0703597,4.0960855
-36.128387,3.0447083,4.0819664
-36.194794,3.0406094,4.0930295
-36.29934,3.0185556,4.0839176
-36.37833,3.0093172,4.089822
-36.466503,2.9961967,4.0917006
-36.569702,2.9765954,4.086708
-36.661777,2.9627695,4.0886517
-36.762398,2.9455762,4.087285
-36.886578,2.9183269,4.075287
-36.970493,2.9099298,4.0846124
-37.067135,2.8963323,4.088647
-37.17831,2.8768945,4.0868025
-37.298286,2.8542938,4.082091
-37.412773,2.8347936,4.081307
-37.520004,2.8190746,4.0851316
-37.620735,2.8067195,4.0930576
-37.763573,2.777276,4.0834846
-37.885513,2.7573917,4.084663
-38.055138,2.7186227,4.0668406
-38.160713,2.707005,4.0779614
-38.323677,2.6728218,4.066491
-38.46986,2.6463444,4.063747
-38.66185,2.6026297,4.044379
-38.774117,2.5913298,4.058584
-38.90591,2.5730546,4.0664415
-39.074112,2.5415347,4.0619435
-39.21637,2.5208774,4.0690255
-39.334187,2.5102136,4.086604
-39.50905,2.4788988,4.0849447
-39.708473,2.439537,4.0766096
-39.966614,2.3799105,4.050274
-40.172844,2.3406656,4.044588
-40.362633,2.3085258,4.0467243
-40.583565,2.2664247,4.040831
-40.81238,2.2228508,4.034934
-41.02104,2.187623,4.037958
-41.263844,2.1418307,4.0328383
-41.456356,2.1145866,4.045591
-41.75333,2.0531602,4.0297155
-42.05396,1.9922707,4.0162034
-42.309612,1.9480124,4.0188003
-42.616478,1.8884492,4.0101566
-42.91958,1.831881,4.0060143
-43.236412,1.7726517,4.001686
-43.567955,1.7105694,3.9971595
-43.956024,1.6326363,3.9822054
-44.277267,1.5777154,3.9880176
-44.765118,1.4733632,3.957677
-16.625362,1.2175856,2.9485478
-16.740982,1.2105882,2.8997703
-16.821754,1.191577,2.8400102
-16.872433,1.1618981,2.7702532
-16.895058,1.1219692,2.6906333
-16.918278,1.0820582,2.611052
-28.269262,3.1091542,3.3176699
-28.294119,3.095814,3.2949276
-28.324318,3.0905492,3.2838979
-28.330238,3.0462432,3.2164187
-28.418737,3.1355307,3.342413
-28.46792,3.1628358,3.3788247
-28.512693,3.1838546,3.4062428
-28.554192,3.2001739,3.426947
-28.563282,3.1599326,3.3655782
-28.595352,3.1596792,3.3623242
-28.629747,3.1638448,3.365562
-28.664026,3.1681106,3.3690162
-28.699316,3.1746469,3.3758492
-28.732782,3.178025,3.3781528
-28.767231,3.1836762,3.3838391
-28.798891,3.183977,3.3817863
-28.832588,3.1887293,3.3862967
-28.865402,3.1919389,3.3886204
-28.89837,3.1957877,3.3919435
-28.929546,3.1958957,3.3898602
-28.962578,3.2004738,3.3943782
-28.993885,3.2013023,3.3934712
-29.027164,3.2071614,3.399994
-29.058775,3.209264,3.4010773
-29.089897,3.2103522,3.400732
-29.121181,3.2120748,3.4013772
-29.15301,3.215537,3.404635
-29.185518,3.2212958,3.4113264
-29.216196,3.2221708,3.4109063
-29.247383,3.2247872,3.4131021
-29.27797,3.2258272,3.4130397
-29.307497,3.223624,3.4082632
-29.337383,3.2226057,3.405283
-29.368385,3.2255492,3.4081888
-29.397482,3.2219129,3.401463
-29.428396,3.225018,3.4047184
-29.458248,3.2243137,3.4024186
-29.49025,3.2325883,3.4134073
-29.52065,3.2348282,3.4155598
-29.550503,3.2349195,3.414599
-29.579992,3.2334168,3.4113407
-29.611595,3.242585,3.4238796
-29.64143,3.2434707,3.424255
-29.672998,3.2544813,3.43963
-29.703033,3.25776,3.4436493
-29.732214,3.2560904,3.4404154
-29.761581,3.255613,3.4389944
-29.791693,3.2608023,3.4459958
-29.821411,3.263834,3.4498649
-29.85112,3.2675018,3.4547281
-29.88041,3.2678902,3.4547977
-29.908092,3.2504447,3.4285603
-29.938332,3.2610567,3.4438438
-29.968262,3.2706285,3.4576445
-29.997286,3.267959,3.4534016
-30.026543,3.2692842,3.4551163
-30.055632,3.2667642,3.4511971
-30.084814,3.2659993,3.4499245
-30.113987,3.263628,3.4463286
-30.143253,3.2786984,3.468576
-30.172115,3.3028073,3.5042372
-30.20108,3.2944984,3.4920163
-30.229958,3.295227,3.4932098
-30.258774,3.29715,3.49622
-30.287577,3.2985864,3.4985628
-30.316458,3.298417,3.4985814
-30.345137,3.3011217,3.5028996
-30.373856,3.3027797,3.505722
-30.402914,3.3005934,3.5029144
-30.431017,3.3079944,3.5143251
-30.45642,3.3372774,3.558116
-30.484617,3.3397787,3.5623808
-30.512997,3.3406754,3.5643249
-30.54053,3.3472316,3.5746775
-30.569267,3.3454792,3.5728087
-30.597095,3.3493848,3.5793452
-30.625252,3.3511274,3.5827374
-30.65338,3.3529434,3.586288
-31.038586,1.600492,1.0018716
-31.087482,1.5944788,0.994627
-31.105026,1.728365,1.1937566
-31.11115,1.8983903,1.4461341
-31.16684,1.853086,1.3811255
-31.192814,1.9268999,1.4917245
-31.2356,1.9324129,1.5017467
-31.281395,1.9269328,1.4956589
-31.356226,1.8222969,1.3437257
-31.354143,1.9800799,1.5780573
-31.356487,2.1128135,1.7754602
-31.37626,2.1829193,1.8807225
-31.361567,2.3514261,2.1305819
-31.386105,2.3960176,2.1982932
-31.352924,2.5995731,2.4994216
-31.3883,2.6049166,2.509461
-31.358578,2.781656,2.7709885
-31.380962,2.8150713,2.8221946
-31.39647,2.8639054,2.8960142
-31.366962,3.0192654,3.1258655
-31.382067,3.0613813,3.189755
-31.401533,3.0914376,3.2359948
-31.381523,3.2085383,3.409546
-31.389305,3.2593038,3.4860086
-31.40063,3.3002033,3.5480323
-31.417126,3.3285408,3.5917063
-31.43491,3.353077,3.6298404
-31.452465,3.3770874,3.6672196
-31.46981,3.4005713,3.703847
-31.490381,3.4170203,3.7302399
-31.515572,3.4242926,3.7433033
-31.545673,3.422426,3.7431188
-31.582798,3.408218,3.7250595
-31.614391,3.4043815,3.7221498
-31.64452,3.4033318,3.72335
-31.673737,3.4039798,3.7270732
-31.6945,3.4186726,3.7512035
-31.727234,3.4135604,3.7466855
-31.753363,3.4192545,3.757873
-31.78248,3.4202025,3.7622466
-31.82031,3.4078908,3.7475257
-31.855598,3.3999653,3.7392268
-31.882812,3.4043837,3.7488065
-31.908867,3.4104643,3.7608318
-31.936302,3.414489,3.7699447
-31.9682,3.4122376,3.7700849
-32.006668,3.4011059,3.7575364
-32.041138,3.3958988,3.7535863
-32.075356,3.3913262,3.7506247
-32.108505,3.3884344,3.7501478
-32.136086,3.392978,3.760387
-32.161556,3.4002087,3.7745185
-32.18317,3.4121966,3.795489
-32.212555,3.4143312,3.8024352
-32.241932,3.4165483,3.8095596
-32.26266,3.4292185,3.831623
-32.325993,3.3912158,3.781673
-32.36183,3.3865166,3.7792091
-32.39736,3.3824465,3.7777243
-32.41986,3.3933969,3.7976036
-32.44217,3.4043932,3.817583
-32.469387,3.4098067,3.8297062
-32.50451,3.4066126,3.8297346
-32.54828,3.3943646,3.8170843
-32.5837,3.391418,3.8176477
-32.612427,3.3956795,3.828433
-32.640118,3.4010305,3.840808
-32.669228,3.404943,3.8512213
-32.702805,3.4044094,3.8554723
-32.74554,3.3949494,3.8473225
-32.78647,3.3876433,3.842296
-32.826035,3.3819766,3.8396666
-32.85637,3.3854036,3.849801
-32.87192,3.4028168,3.8794436
-32.908966,3.3999455,3.8809435
-32.955242,3.3888044,3.87108
-33.003956,3.375865,3.8588629
-33.03875,3.3758702,3.8646681
-33.07193,3.3774548,3.8727388
-33.083393,3.3981743,3.9072335
-33.12652,3.391149,3.9035883
-33.176632,3.3784566,3.8922918
-33.21275,3.3780458,3.897969
-33.252956,3.374378,3.8992867
-33.278156,3.3833475,3.9179616
-33.302044,3.3933372,3.9380753
-33.354763,3.3799748,3.9264865
-33.414955,3.3611035,3.9075863
-33.448517,3.3638325,3.9181385
-33.47601,3.3713968,3.9353116
-33.497288,3.3837495,3.9590049
-33.54545,3.3754673,3.9549534
-33.57273,3.3832903,3.9726872
-33.634907,3.3650482,3.9555387
-33.68175,3.3586884,3.954496
-33.698322,3.3747501,3.9835277
-33.73379,3.3769743,3.9941435
-33.762825,3.383916,4.0111256
-33.821583,3.3698468,4.0003214
-33.878716,3.3573852,3.9918425
-33.90722,3.3651793,4.0102873
-33.926357,3.379403,4.037264
-33.96258,3.3819118,4.0488834
-34.04978,3.3503342,4.0159545
-34.08769,3.3523188,4.02721
-34.122894,3.3562183,4.041073
-34.129345,3.3789172,4.079472
-34.176697,3.3749967,4.083333
-34.22418,3.371255,4.08758
-34.280838,3.361978,4.0848484
-34.330017,3.357743,4.088799
-34.38215,3.3519516,4.0909214
-34.42877,3.3498366,4.0979233
-34.489754,3.33925,4.0942836
-34.54525,3.3323567,4.0955596
-34.605263,3.323111,4.094055
-34.6488,3.3239248,4.1054754
-34.723778,3.3066268,4.094238
-34.784447,3.2981105,4.094313
-34.843117,3.2911036,4.0965033
-34.898262,3.2864294,4.101819
-34.966232,3.274879,4.098794
-35.03072,3.2656903,4.098957
-35.09242,3.2584214,4.1017375
-35.158855,3.248936,4.102029
-35.262096,3.220069,4.0788403
-35.30313,3.225088,4.0974474
-35.37722,3.2128112,4.0951643
-35.463966,3.1943927,4.085745
-35.515354,3.194828,4.0994363
-35.606613,3.1750822,4.0890694
-35.687305,3.161306,4.086239
-35.73835,3.1629107,4.102079
-35.835342,3.1418848,4.091256
-35.93675,3.1193354,4.079059
-36.008255,3.11204,4.08526
-36.10242,3.0941987,4.0794096
-36.176003,3.0867941,4.086145
-36.27891,3.0659037,4.0775456
-36.33916,3.0656781,4.09328
-36.44845,3.0429502,4.0834017
-36.554096,3.022603,4.0767527
-36.626408,3.0181012,4.0886235
-36.743477,2.9937754,4.07837
-36.817047,2.989628,4.091395
-36.96738,2.951891,4.067128
-37.01891,2.9584541,4.0929475
-37.167747,2.9229686,4.0724034
-37.236362,2.9229362,4.091646
-37.362537,2.8987174,4.084716
-37.4705,2.8829498,4.0876093
-37.60008,2.8587809,4.0819473
-37.745506,2.8288522,4.0707464
-37.828857,2.825233,4.088393
-38.016487,2.7797587,4.062029
-38.118538,2.7698479,4.0741463
-38.252007,2.7479928,4.074272
-38.427624,2.710328,4.058661
-38.592564,2.6779184,4.049421
-38.730072,2.6570947,4.052942
-38.83986,2.647644,4.0687594
-39.016785,2.6133633,4.0600977
-39.143944,2.598786,4.0721416
-39.301506,2.573618,4.074354
-39.472836,2.5442948,4.07335
-39.671417,2.5060587,4.0646124
-39.860798,2.4723134,4.061361
-40.08661,2.426691,4.0478096
-40.330246,2.3761322,4.0308933
-40.53953,2.339036,4.0281014
-40.783775,2.2910662,4.0164127
-40.993423,2.25638,4.0184608
-41.199986,2.2239306,4.0238137
-41.413433,2.190332,4.0293784
-41.6612,2.1465378,4.02713
-41.931618,2.0967233,4.0210986
-42.240417,2.0359871,4.007223
-42.504105,1.9915729,4.009423
-42.80165,1.9378638,4.005377
-43.143425,1.8719127,3.9929419
-43.462975,1.8148708,3.9901671
-43.85669,1.7367506,3.9722056
-44.089554,1.7100418,3.9985032
-44.564342,1.6114473,3.9689827
-44.881584,1.5627291,3.9819374
-16.204264,1.2508256,2.948441
-16.423313,1.2770925,2.930564
-16.649105,1.3068767,2.9173355
-16.790798,1.3085806,2.8778453
-16.915386,1.304919,2.8337946
-16.948841,1.2693672,2.758573
-16.955204,1.2239614,2.6735282
-16.968472,1.1807492,2.5906324
-16.958473,1.1287346,2.498704
-16.967815,1.0834374,2.4135213
-16.976965,1.0377564,2.327879
-16.954346,0.97974753,2.2292824
-28.281597,3.1042035,3.2507896
-28.319492,3.1105723,3.256781
-28.321817,3.06078,3.1804662
-28.421032,3.1661975,3.3319683
-28.458921,3.174576,3.341199
-28.488361,3.1692019,3.3302917
-28.520378,3.1681755,3.3258333
-28.560932,3.1822174,3.3436208
-28.595766,3.1867452,3.3474813
-28.628414,3.1876187,3.3460245
-28.66476,3.1955676,3.3550692
-28.698368,3.1987839,3.357203
-28.730497,3.1994023,3.355565
-28.764751,3.2044241,3.3604975
-28.798342,3.2084649,3.3640466
-28.830526,3.2098968,3.3638005
-28.863918,3.2141252,3.3677564
-28.89596,3.2157378,3.3679023
-28.928425,3.2185237,3.3698473
-28.961279,3.2224865,3.3735995
-28.992876,3.2238214,3.373516
-29.025093,3.2268763,3.3760433
-29.056353,3.2278392,3.375526
-29.086935,3.2272499,3.3727584
-29.118128,3.2283792,3.3726015
-29.149675,3.230686,3.3742533
-29.180378,3.2308898,3.3728333
-29.211435,3.2322702,3.3732204
-29.243172,3.2359269,3.3770533
-29.274458,3.2385724,3.3794389
-29.304821,3.2385573,3.3779163
-29.335659,3.2402697,3.379024
-29.365654,3.2393148,3.3762093
-29.395655,3.2384384,3.3735642
-29.426538,3.2409437,3.3760176
-29.45693,3.241878,3.3761826
-29.486618,3.2401352,3.3724036
-29.516588,3.2395723,3.370438
-29.546803,3.2401905,3.3702903
-29.57699,3.2408888,3.3703141
-29.607372,3.2427702,3.3721604
-29.640512,3.2596622,3.3964996
-29.670038,3.258391,3.3937435
-29.700134,3.2605162,3.3961177
-29.731121,3.2688112,3.407774
-29.75976,3.2622335,3.397235
-29.789864,3.2657015,3.4017763
-29.819477,3.2659223,3.4015102
-29.851244,3.285626,3.430457
-29.877775,3.2577198,3.3881936
-29.90914,3.2770293,3.416658
-29.938503,3.276448,3.4153976
-29.967913,3.2764971,3.415132
-29.997538,3.2805078,3.4208484
-30.026842,3.2795985,3.419249
-30.05626,3.2815402,3.4219704
-30.085579,3.281337,3.4215302
-30.11499,3.2878723,3.431233
-30.14425,3.292818,3.4386039
-30.173506,3.2861774,3.4286737
-30.202784,3.28572,3.4280548
-30.231043,3.3192062,3.4783225
-30.260546,3.3050175,3.4572372
-30.28946,3.3081145,3.4620905
-30.318377,3.3101754,3.4654417
-30.347294,3.3117547,3.4681225
-30.376038,3.3150733,3.4734554
-30.40402,3.3256755,3.4897413
-30.433138,3.3235924,3.4870872
-30.461458,3.328792,3.4953833
-30.489668,3.3340635,3.5038333
-30.51684,3.3460531,3.5223842
-30.545425,3.3470325,3.5245075
-30.574265,3.3464246,3.5243068
-30.600067,3.3635983,3.550746
-30.627737,3.3686635,3.5591211
-30.65595,3.37048,3.5626884
-30.983656,1.9158907,1.389844
-31.027311,1.9202988,1.397912
-31.068121,1.9369595,1.4243565
-31.105688,1.9658515,1.46913
-31.160814,1.9220593,1.4054523
-31.189756,1.9825559,1.49753
-31.235062,1.9781268,1.4927673
-31.278147,1.9820714,1.5005746
-31.371918,1.813519,1.2512751
-31.348192,2.0424716,1.594676
-31.367245,2.1202478,1.7126794
-31.347824,2.3104305,1.9980803
-31.373264,2.3557491,2.0676737
-31.353134,2.5286481,2.3271418
-31.368948,2.591404,2.4226289
-31.373257,2.6814642,2.5587025
-31.35596,2.8227642,2.7708778
-31.386835,2.8340874,2.789845
-31.362656,2.9805875,3.0095735
-31.369373,3.0452409,3.107686
-31.391012,3.0717907,3.149242
-31.377954,3.1760206,3.305986
-31.379543,3.2426748,3.4069467
-31.391485,3.2837949,3.4700432
-31.406406,3.3167834,3.521092
-31.423782,3.343288,3.56255
-31.440876,3.3692675,3.6032434
-31.459896,3.39041,3.636798
-31.475124,3.4180374,3.679947
-31.498632,3.4290042,3.698514
-31.526588,3.4314322,3.7045212
-31.556892,3.4296434,3.7043662
-31.601492,3.402779,3.6673393
-31.630957,3.403337,3.6707835
-31.661062,3.4029083,3.6728315
-31.687681,3.4084258,3.6836777
-31.71095,3.4193306,3.7024813
-31.740974,3.4191265,3.705018
-31.774403,3.413703,3.6999593
-31.814491,3.3983192,3.6803794
-31.84657,3.3957596,3.6796694
-31.874481,3.3996277,3.688427
-31.895138,3.414104,3.7127419
-31.921732,3.419676,3.7240782
-31.95566,3.4148145,3.7202392
-31.988968,3.4111063,3.7181544
-32.0308,3.3959923,3.699532
-32.067944,3.3878102,3.6910992
-32.100567,3.386001,3.6920156
-32.127678,3.391569,3.7037163
-32.147415,3.4065475,3.7291179
-32.172615,3.4143047,3.7440763
-32.201836,3.4169533,3.75168
-32.22809,3.4232929,3.76468
-32.258934,3.4240353,3.7696414
-32.30708,3.404323,3.745144
-32.357433,3.38274,3.7180781
-32.390556,3.3818007,3.7208815
-32.42015,3.3850431,3.729772
-32.439278,3.4000745,3.7556624
-32.46593,3.4065003,3.7692218
-32.502705,3.4018464,3.7669497
-32.54243,3.3942792,3.7605944
-32.584732,3.3843255,3.750926
-32.621998,3.3800535,3.7494812
-32.64385,3.3919606,3.7712035
-32.667454,3.4019084,3.7901652
-32.7023,3.400424,3.7929034
-32.735218,3.4010415,3.7987092
-32.78742,3.382885,3.7779565
-32.821095,3.3832574,3.7836037
-32.843952,3.3941088,3.804153
-32.86871,3.4030375,3.8220232
-32.90862,3.397774,3.8199174
-32.95241,3.3892164,3.8132772
-32.99481,3.3822818,3.8090384
-33.033596,3.3789077,3.809912
-33.058804,3.3878102,3.828097
-33.083874,3.3967729,3.8464127
-33.117725,3.3980677,3.8540595
-33.16904,3.3845391,3.8411078
-33.21387,3.3769674,3.8366048
-33.250885,3.3762598,3.8417706
-33.27525,3.3861718,3.8617723
-33.298878,3.3966155,3.8825552
-33.344658,3.3890939,3.8785315
-33.405445,3.3699226,3.8585577
-33.447567,3.366073,3.8598905
-33.46333,3.3830342,3.889964
-33.504887,3.3798819,3.8924356
-33.539825,3.3820062,3.9022536
-33.580936,3.3795938,3.9059582
-33.63332,3.3689852,3.8985927
-33.667828,3.3719685,3.9099004
-33.703583,3.374141,3.920195
-33.734264,3.3800976,3.9357154
-33.781506,3.3742666,3.9353585
-33.838577,3.3617837,3.9261632
-33.873245,3.3654006,3.938844
-33.905933,3.3704839,3.9535882
-33.942516,3.3729668,3.9649284
-33.996323,3.3639102,3.9609282
-34.04436,3.3590856,3.962752
-34.086506,3.3584456,3.9702997
-34.1179,3.3650484,3.9875941
-34.15194,3.3699799,4.0027533
-34.19552,3.3688622,4.01001
-34.261906,3.3534465,3.99855
-34.299534,3.3566298,4.0117817
-34.334366,3.3616784,4.027567
-34.36213,3.3711662,4.0492554
-34.437065,3.351862,4.0334587
-34.48829,3.3474655,4.0373297
-34.51893,3.355657,4.0576954
-34.557365,3.3592598,4.072209
-34.60591,3.3570657,4.079364
-34.66182,3.3508391,4.081499
-34.71571,3.3460941,4.0857306
-34.773422,3.3394713,4.0877514
-34.82023,3.3393211,4.0982213
-34.887157,3.3281646,4.09488
-34.953606,3.3176994,4.0926657
-35.01205,3.312025,4.096741
-35.08123,3.300868,4.094144
-35.143845,3.2936597,4.096757
-35.205128,3.2875166,4.100935
-35.304142,3.2619028,4.081138
-35.341297,3.2691734,4.102486
-35.417854,3.2562447,4.099025
-35.50871,3.2365072,4.087502
-35.56482,3.234925,4.098591
-35.657135,3.2155094,4.088138
-35.709637,3.216419,4.1027675
-35.81607,3.191117,4.0858808
-35.880035,3.1871636,4.095178
-35.96412,3.1738634,4.0935183
-36.05172,3.1594007,4.0908256
-36.13803,3.1460834,4.0898714
-36.23274,3.1293616,4.0852604
-36.335133,3.1096768,4.0775743
-36.436306,3.0911999,4.0717626
-36.520638,3.0809853,4.0760484
-36.58296,3.0811217,4.092724
-36.72227,3.0473208,4.0704403
-36.7742,3.0529141,4.0941076
-36.906967,3.02346,4.0778985
-36.996784,3.0134058,4.0843925
-37.128845,2.985793,4.07143
-37.19819,2.98556,4.0899105
-37.323463,2.9622037,4.082827
-37.41096,2.955289,4.094639
-37.548096,2.9284356,4.084812
-37.66349,2.911273,4.086318
-37.82647,2.8756075,4.068182
-37.968563,2.8493068,4.061042
-38.049763,2.8479173,4.081483
-38.223873,2.810571,4.063797
-38.397793,2.7743897,4.0482645
-38.493767,2.7691677,4.0663533
-38.674866,2.7321105,4.051528
-38.83114,2.7054949,4.048546
-38.941162,2.697001,4.065123
-39.069942,2.6821616,4.0757613
-39.26377,2.6442976,4.063654
-39.379955,2.6356301,4.082089
-39.57128,2.6006985,4.074851
-39.747993,2.5720646,4.0749383
-39.9611,2.5316958,4.0644736
-40.23699,2.470822,4.0352373
-40.43265,2.4391718,4.035858
-40.617985,2.4121456,4.042038
-40.867283,2.364646,4.029886
-41.116436,2.31866,4.0206437
-41.344433,2.2810917,4.02072
-41.530052,2.2586327,4.0360556
-41.8297,2.2003891,4.019968
-42.137596,2.1412673,4.004955
-42.418755,2.0923848,4.0009727
-42.661877,2.0569954,4.010612
-43.055447,1.9764137,3.9825754
-43.304577,1.9423454,3.9969392
-43.653664,1.8793669,3.9884548
-44.018562,1.8136439,3.9799762
-44.4124,1.7414215,3.9685736
-44.830627,1.6642911,3.9558387
-14.87822,1.0568333,2.7702713
-15.2107315,1.1130183,2.776991
-15.681419,1.2164898,2.8315454
-15.971726,1.2630043,2.833024
-16.21962,1.2969632,2.8237233
-16.721636,1.3711753,2.8155522
-16.898525,1.3847904,2.7896676
-16.918602,1.3445356,2.709537
-16.948198,1.3074346,2.6326704
-16.97123,1.2678514,2.5532813
-16.995739,1.2286065,2.474268
-16.974882,1.172663,2.3776374
-16.987492,1.1284933,2.2933087
-17.004288,1.0855894,2.2102947
-17.019981,1.0420094,2.1265292
-16.980492,0.97724295,2.0197048
-28.261585,3.1048186,3.191094
-28.303562,3.1167982,3.2056293
-28.37434,3.174644,3.2885113
-28.411942,3.1817026,3.2959523
-28.326948,2.989019,3.0057912
-28.478018,3.181904,3.2903118
-28.515831,3.1903412,3.3000264
-28.556183,3.2036622,3.317113
-28.591114,3.2080936,3.3210015
-28.625332,3.2115648,3.3235226
-28.664635,3.2247105,3.3405862
-28.696274,3.2241282,3.3371797
-28.729837,3.2273664,3.3395529
-28.763844,3.2317681,3.3437357
-28.796667,3.2341282,3.3449202
-28.828896,3.2355087,3.344696
-28.86284,3.2407317,3.3503008
-28.894667,3.241757,3.3496647
-28.927172,3.2444816,3.3516407
-28.959827,3.247835,3.354621
-28.991928,3.2502012,3.3561778
-29.023731,3.2521172,3.3571148
-29.054815,3.2525005,3.3558006
-29.085234,3.2513452,3.3522239
-29.116068,3.2513523,3.3504515
-29.147284,3.2525234,3.3504887
-29.178259,3.2532368,3.3498907
-29.21014,3.256745,3.3535657
-29.241745,3.2597973,3.3566089
-29.272558,3.2607622,3.3565555
-29.30265,3.259633,3.3533926
-29.333574,3.261304,3.3545127
-29.364286,3.262512,3.3549886
-29.394041,3.2605312,3.3506937
-29.424704,3.2618997,3.3515153
-29.45504,3.2622573,3.350861
-29.485085,3.2616017,3.3487253
-29.51526,3.261571,3.3475862
-29.545914,3.263806,3.3499303
-29.576271,3.265028,3.3507915
-29.606592,3.2663293,3.3518257
-29.636454,3.2655184,3.349711
-29.668093,3.2746487,3.3627152
-29.698229,3.2761898,3.3642693
-29.728409,3.2783575,3.3668242
-29.758692,3.2817018,3.3712158
-29.788818,3.2845764,3.374946
-29.818602,3.2853334,3.375515
-29.84743,3.2779293,3.363751
-29.878712,3.2931218,3.3863244
-29.907753,3.2875166,3.3773885
-29.93766,3.2913294,3.3827958
-29.967402,3.2941198,3.3867016
-29.99676,3.2914894,3.3824282
-30.026636,3.298832,3.393344
-30.05617,3.3013027,3.396913
-30.08559,3.3016496,3.3973074
-30.114996,3.3015218,3.3970304
-30.144413,3.3058698,3.4035983
-30.173826,3.2992923,3.3936272
-30.203224,3.3010418,3.3963475
-30.232685,3.2995663,3.3942208
-30.261904,3.304766,3.402278
-30.290922,3.3116894,3.4129996
-30.32007,3.3142889,3.4172053
-30.348095,3.331254,3.443265
-30.376598,3.338395,3.4544592
-30.40553,3.3395643,3.4566364
-30.434443,3.3408074,3.4589744
-30.463072,3.3443215,3.4648056
-30.491413,3.3495545,3.4732933
-30.519567,3.355408,3.4827666
-30.547848,3.3596864,3.4898982
-30.57497,3.370616,3.5071611
-30.60625,3.3563976,3.486342
-30.63318,3.3674684,3.503911
-30.661058,3.37258,3.5124922
-31.036934,1.7008317,0.9805894
-31.074568,1.7458372,1.0502872
-31.075794,1.9450798,1.3535962
-31.09833,2.0376647,1.4953561
-31.142248,2.0374272,1.4966288
-31.184322,2.0443976,1.5088825
-31.230005,2.0378418,1.5007448
-31.27476,2.035224,1.4986429
-31.376661,1.840527,1.2062626
-31.341366,2.1054242,1.6086702
-31.374758,2.1368084,1.6581278
-31.34319,2.3627033,2.0013514
-31.379421,2.3755887,2.0228558
-31.350662,2.5718224,2.3210707
-31.373896,2.6134167,2.3858747
-31.358,2.756776,2.604123
-31.362848,2.8383212,2.729096
-31.390255,2.8587658,2.7619843
-31.357075,3.0260196,3.015954
-31.37203,3.0701256,3.0844164
-31.395363,3.0926886,3.1204681
-31.36758,3.2292976,3.328012
-31.378931,3.2732887,3.396226
-31.393854,3.3076031,3.4498935
-31.411898,3.333879,3.4914937
-31.430437,3.358032,3.52992
-31.445524,3.388085,3.5772076
-31.468472,3.401593,3.5997038
-31.48751,3.4220767,3.6326776
-31.508413,3.4383268,3.6593318
-31.541225,3.4322834,3.6526632
-31.583115,3.4104118,3.6223989
-31.611866,3.41254,3.628086
-31.641216,3.413686,3.6323576
-31.669308,3.4170256,3.6399555
-31.69223,3.4288812,3.6602998
-31.718834,3.4344606,3.6713233
-31.752312,3.4290588,3.6660461
-31.78931,3.418507,3.6531768
-31.823133,3.4133177,3.6483598
-31.85431,3.4124188,3.6499853
-31.87986,3.4199696,3.6642113
-31.904919,3.4281015,3.6793404
-31.934223,3.4300435,3.685339
-31.970201,3.4227107,3.677661
-32.010517,3.409786,3.6617923
-32.046936,3.4026937,3.6546369
-32.0816,3.3983026,3.6515493
-32.111664,3.4002075,3.657824
-32.132137,3.4145498,3.6824865
-32.155983,3.424302,3.7004147
-32.18704,3.4248786,3.7048812
-32.218533,3.4250321,3.7087889
-32.249214,3.4262989,3.714395
-32.282898,3.4240866,3.7149606
-32.33612,3.3991024,3.682238
-32.373276,3.3935966,3.678164
-32.401726,3.3983335,3.6891494
-32.42383,3.410215,3.7106209
-32.44844,3.419116,3.7277756
-32.48071,3.419529,3.7326021
-32.519054,3.4135194,3.7281508
-32.56368,3.401134,3.7145233
-32.601,3.3968925,3.712834
-32.627876,3.4037247,3.7272892
-32.65027,3.4150927,3.748363
-32.6818,3.4170952,3.7559218
-32.723267,3.4093099,3.7494082
-32.772465,3.3942778,3.7325435
-32.81391,3.387292,3.727406
-32.84223,3.3931928,3.7409148
-32.85598,3.4128554,3.7742524
-32.888172,3.4149687,3.78241
-32.925117,3.4128041,3.784508
-32.988262,3.3870072,3.752883
-33.022408,3.3880525,3.7597952
-33.039196,3.4046266,3.7889392
-33.075962,3.4034355,3.7927907
-33.104507,3.4095514,3.8071244
-33.15809,3.394247,3.791099
-33.19908,3.3901043,3.791054
-33.239075,3.3870533,3.79266
-33.25912,3.4007068,3.8179739
-33.28818,3.4068437,3.8327093
-33.33057,3.4022417,3.8323822
-33.391327,3.383253,3.8119442
-33.43297,3.3799324,3.813681
-33.45859,3.3893354,3.8333533
-33.48829,3.3955507,3.8486161
-33.52034,3.3999991,3.8614779
-33.595184,3.3722599,3.8295739
-33.6355,3.3710363,3.8347845
-33.660362,3.3814015,3.8561866
-33.690693,3.3877187,3.8720272
-33.724102,3.391849,3.8849137
-33.774006,3.3843,3.881773
-33.829235,3.373328,3.8740683
-33.866043,3.3756187,3.8847547
-33.89312,3.3847542,3.9049191
-33.927914,3.3886023,3.9179091
-33.983093,3.37877,3.91232
-34.039852,3.3682687,3.905994
-34.074184,3.3730013,3.9205441
-34.10176,3.3822405,3.9412909
-34.142056,3.3832312,3.9509451
-34.208935,3.3673482,3.9379554
-34.262486,3.3604321,3.9372582
-34.288654,3.3710341,3.9602456
-34.325764,3.3748078,3.9741466
-34.36914,3.3748431,3.9831593
-34.441372,3.357512,3.9691749
-34.484325,3.3583598,3.9795918
-34.508125,3.3708029,4.005498
-34.556767,3.3685348,4.012019
-34.61198,3.36267,4.0139585
-34.70571,3.3348575,3.9872572
-34.714195,3.3565905,4.0257998
-34.731087,3.3733263,4.0577965
-34.81687,3.3512998,4.03935
-34.891304,3.3362203,4.0302463
-34.92221,3.345576,4.053034
-34.942524,3.360721,4.0833683
-35.008457,3.351203,4.082033
-35.075386,3.341555,4.080776
-35.132687,3.3374014,4.0867825
-35.1886,3.3342743,4.094301
-35.260742,3.32303,4.091726
-35.341644,3.307745,4.084322
-35.408947,3.2998881,4.08659
-35.48269,3.2891827,4.08554
-35.541046,3.2865746,4.094898
-35.634884,3.2667787,4.0830765
-35.698357,3.262421,4.090785
-35.78577,3.2468305,4.084864
-35.86876,3.2339106,4.082588
-35.934433,3.2296898,4.091309
-36.043667,3.2053864,4.0757895
-36.108997,3.2021966,4.086389
-36.17039,3.2011409,4.099828
-36.289692,3.1740148,4.082121
-36.36048,3.1695528,4.092107
-36.480686,3.143399,4.076508
-36.56102,3.1356516,4.083303
-36.649837,3.124629,4.08657
-36.764683,3.1028318,4.077558
-36.84159,3.0980272,4.0889454
-36.981483,3.0668633,4.0699897
-37.056393,3.0639398,4.0843825
-37.186287,3.0384853,4.07316
-37.28364,3.0272565,4.0788403
-37.398266,3.0095181,4.0775557
-37.522648,2.9885077,4.073108
-37.612343,2.982123,4.085716
-37.752914,2.9560382,4.076701
-37.885372,2.933993,4.0728703
-38.03385,2.9065108,4.063685
-38.135963,2.8977554,4.075801
-38.260933,2.8808336,4.0795026
-38.44831,2.8410969,4.0591183
-38.599586,2.8159976,4.055457
-38.71351,2.8055792,4.0682564
-38.9062,2.7669613,4.0517282
-39.02966,2.7545762,4.063837
-39.195995,2.7274876,4.061224
-39.32364,2.7150817,4.0747175
-39.526566,2.6769261,4.062408
-39.70866,2.647215,4.059828
-39.894882,2.6171346,4.057879
-40.150993,2.5643332,4.0341883
-40.333027,2.5380352,4.0382953
-40.57077,2.4941828,4.026145
-40.753853,2.46976,4.034316
-40.972866,2.4346128,4.0331755
-41.18151,2.4040594,4.0377073
-41.441917,2.3581223,4.0288997
-41.650764,2.329997,4.038337
-41.9824,2.2645833,4.0144687
-42.2708,2.214509,4.0067005
-42.524868,2.1766043,4.0117354
-42.85084,2.1183128,4.000093
-43.163776,2.0658011,3.9956179
-43.487732,2.0117874,3.9918203
-43.913197,1.9298162,3.9660091
-44.118385,1.9142349,3.9994278
-44.610344,1.8173776,3.9660063
-44.895363,1.7821162,3.9867802
-14.27191,1.0648017,2.7394996
-14.702607,1.1462786,2.769683
-15.037717,1.2001405,2.7753243
-15.4604,1.2838464,2.812399
-15.706925,1.3133106,2.7977304
-16.014622,1.3640463,2.8058558
-16.364862,1.4305668,2.8317394
-16.648031,1.4768674,2.8388243
-16.83763,1.4933574,2.816606
-16.929028,1.4774892,2.7616196
-16.849648,1.4033175,2.6457376
-16.935596,1.3379631,2.5009522
-16.97529,1.3040552,2.427434
-17.003096,1.265821,2.349338
-17.011196,1.2202983,2.2633286
-17.029657,1.1782434,2.1810656
-17.022476,1.1264837,2.0880504
-17.030952,1.0801115,2.000887
-17.025347,1.0281057,1.9073381
-16.971107,0.95715785,1.7922721
-28.293537,3.1338775,3.1717334
-28.373503,3.2051446,3.2761717
-28.400904,3.195926,3.2592707
-28.352554,3.0640473,3.057033
-28.456211,3.1776779,3.2258801
-28.50655,3.2063673,3.2664738
-28.54766,3.2205458,3.2852082
-28.582129,3.2238228,3.2875118
-28.61561,3.2256207,3.2876368
-28.660847,3.2491176,3.320744
-28.686317,3.236886,3.2997131
-28.721441,3.2426748,3.306089
-28.753157,3.2422166,3.3030372
-28.785385,3.242904,3.301784
-28.816536,3.2415574,3.297492
-28.851488,3.2482612,3.305509
-28.883545,3.2492166,3.3048368
-28.91628,3.2518573,3.3067884
-28.948462,3.2535222,3.3073115
-28.979662,3.253141,3.3047695
-29.011295,3.2539113,3.3040385
-29.042234,3.253163,3.301044
-29.074017,3.2546368,3.3014956
-29.105331,3.2551253,3.3004966
-29.137817,3.258916,3.3045988
-29.170197,3.2627957,3.308895
-29.200964,3.2624655,3.3068075
-29.231903,3.2627544,3.3057184
-29.263521,3.2652788,3.3081036
-29.294212,3.2651944,3.306548
-29.32489,3.2651901,3.3051682
-29.3565,3.2685041,3.3089232
-29.387411,3.269744,3.3095517
-29.418425,3.2716048,3.3111858
-29.449383,3.2735486,3.3129988
-29.480818,3.2777388,3.3183107
-29.511763,3.2803888,3.3213124
-29.541534,3.2782457,3.317008
-29.57169,3.2778041,3.3153658
-29.602394,3.2801528,3.318057
-29.632826,3.2814975,3.3192563
-29.662922,3.2812922,3.3181257
-29.693659,3.2849677,3.3230066
-29.723614,3.2843761,3.3213825
-29.753332,3.2822318,3.3174186
-29.78287,3.278532,3.311112
-29.814518,3.291226,3.330059
-29.843773,3.2855048,3.3207417
-29.874989,3.297819,3.3392081
-29.904533,3.2949727,3.3344092
-29.933653,3.286212,3.3205605
-29.963717,3.2884178,3.3236284
-29.993631,3.2890668,3.324349
-30.023554,3.2903378,3.326076
-30.053541,3.2944102,3.33216
-30.083408,3.2974699,3.3367362
-30.11321,3.3011518,3.3423176
-30.142925,3.3021848,3.3438716
-30.172611,3.30384,3.3464313
-30.202633,3.2870438,3.3206487
-30.232466,3.288307,3.3227015
-30.261417,3.3098052,3.3559356
-30.290998,3.3106744,3.3574772
-30.320915,3.3061733,3.3508034
-30.34945,3.3213537,3.374456
-30.379066,3.3202708,3.3731375
-30.409836,3.3078337,3.354404
-30.437138,3.3297625,3.3885717
-30.465595,3.3381543,3.4019647
-30.493511,3.3493357,3.4196901
-30.522118,3.354062,3.427536
-30.551212,3.3550558,3.4296904
-30.579573,3.3604698,3.438685
-30.605616,3.3784437,3.4670215
-30.63361,3.3839931,3.4763103
-30.661814,3.3879852,3.4832501
-30.69438,3.3709035,3.4578772
-31.027708,1.9970591,1.3497448
-31.070345,2.00587,1.3647327
-31.11518,2.0050447,1.3650007
-31.1439,2.0676193,1.4625974
-31.18018,2.0967145,1.5088725
-31.225582,2.090775,1.501483
-31.272385,2.08064,1.4877424
-31.323322,2.0576916,1.4544516
-31.345892,2.1275883,1.5634637
-31.383984,2.144717,1.5916829
-31.358011,2.3523903,1.9116044
-31.390673,2.3770483,1.9513464
-31.355646,2.5897431,2.2787251
-31.390911,2.598792,2.2945714
-31.361805,2.7767806,2.5686555
-31.377857,2.8292072,2.6507678
-31.393202,2.8805547,2.731224
-31.371758,3.01793,2.9429789
-31.390064,3.0547433,3.0011854
-31.39031,3.131025,3.1195831
-31.383867,3.2184083,3.254847
-31.38704,3.2806714,3.351768
-31.40568,3.307269,3.394343
-31.421701,3.338131,3.4434195
-31.440744,3.3615782,3.4812226
-31.460636,3.382401,3.5150504
-31.480917,3.4016662,3.5465293
-31.502762,3.4172661,3.572463
-31.53058,3.4213054,3.5808787
-31.56213,3.4185712,3.5790668
-31.602402,3.400682,3.5543427
-31.63854,3.390802,3.5418396
-31.667809,3.3930907,3.547832
-31.692644,3.4027853,3.5650768
-31.718578,3.4104435,3.5792809
-31.74862,3.41138,3.5833702
-31.779,3.411878,3.5868511
-31.822243,3.3927,3.5607057
-31.85597,3.3887277,3.557581
-31.881779,3.3967757,3.57263
-31.90709,3.405401,3.5885868
-31.93765,3.4063377,3.5930185
-31.974089,3.3991113,3.5852404
-32.015923,3.384797,3.566897
-32.051685,3.3793569,3.5619621
-32.083004,3.38018,3.5664902
-32.119778,3.3739285,3.5604825
-32.14371,3.384643,3.5799408
-32.165848,3.3974466,3.6025558
-32.19423,3.4021542,3.6131063
-32.22419,3.4049058,3.6207867
-32.252045,3.4102721,3.6324224
-32.292057,3.4010544,3.6223836
-32.3306,3.393989,3.6156397
-32.37496,3.3805087,3.5994473
-32.40738,3.381242,3.6044679
-32.43272,3.3900845,3.621581
-32.45746,3.399485,3.6395621
-32.49158,3.39847,3.6421638
-32.52899,3.3940773,3.6398444
-32.577705,3.3778968,3.6201968
-32.61269,3.3767462,3.622848
-32.6425,3.3811355,3.6337366
-32.66552,3.3925028,3.654952
-32.69564,3.396546,3.665434
-32.732117,3.394302,3.6667433
-32.772663,3.3882642,3.6625705
-32.821922,3.3740761,3.6465592
-32.85681,3.3741713,3.651567
-32.871223,3.3937705,3.6851435
-32.904953,3.3949957,3.691917
-32.942368,3.3929486,3.693995
-32.990967,3.3809237,3.681644
-33.031868,3.3762722,3.6801338
-33.05999,3.3832355,3.6955748
-33.092903,3.385981,3.704958
-33.119225,3.3945296,3.7228074
-33.165905,3.3856075,3.7154675
-33.20556,3.3829975,3.7173557
-33.24983,3.3767533,3.7141075
-33.28006,3.3824062,3.7280798
-33.31252,3.3862715,3.7395482
-33.35305,3.3837008,3.7418633
-33.397774,3.378012,3.7398195
-33.439724,3.3748014,3.7414346
-33.46696,3.3832905,3.7598405
-33.50783,3.3812556,3.763317
-33.55061,3.3779833,3.7651424
-33.587433,3.379437,3.7737823
-33.67513,3.3431673,3.7291017
-33.667934,3.377706,3.784778
-33.720425,3.368217,3.7782693
-33.758125,3.3697574,3.7874413
-33.80469,3.3651285,3.7880378
-33.845047,3.3651488,3.795285
-33.87072,3.3755717,3.8171978
-33.914307,3.3736076,3.821858
-33.94954,3.3775573,3.8348806
-34.004387,3.36838,3.8297338
-34.048935,3.3664513,3.834812
-34.09159,3.3659952,3.8420568
-34.134315,3.3656902,3.8496277
-34.16701,3.3720536,3.8665118
-34.219276,3.3659668,3.8663502
-34.273766,3.358788,3.8648489
-34.30034,3.3694196,3.8879006
-34.340565,3.3715699,3.8994234
-34.380108,3.374285,3.9118273
-34.444122,3.3622994,3.904364
-34.49578,3.3581738,3.9077675
-34.543335,3.3567672,3.9150088
-34.584576,3.359304,3.9277117
-34.62368,3.363235,3.9424095
-34.69301,3.3498788,3.934033
-34.725006,3.3582835,3.9550002
-34.778023,3.3548656,3.960281
-34.82018,3.3577905,3.9741693
-34.896217,3.3421304,3.963541
-34.92894,3.3507123,3.9852355
-34.968998,3.355361,4.001831
-35.032234,3.3477,4.002373
-35.098694,3.3386993,4.001382
-35.12303,3.3522453,4.030066
-35.193546,3.3417096,4.027461
-35.24064,3.343678,4.041333
-35.34075,3.3187869,4.020639
-35.355736,3.3376174,4.0566635
-35.416958,3.333187,4.062837
-35.462738,3.3367229,4.079423
-35.542973,3.3235397,4.074851
-35.612507,3.3160496,4.07782
-35.690945,3.3046732,4.0761375
-35.764103,3.2962801,4.078521
-35.84227,3.2859433,4.0787487
-35.894257,3.288273,4.0951204
-36.00582,3.263307,4.077693
-36.07427,3.2588038,4.0861087
-36.16641,3.2439308,4.0819902
-36.240143,3.2378695,4.0890856
-36.343525,3.2190437,4.080857
-36.426765,3.2097135,4.084639
-36.533363,3.190692,4.077014
-36.603905,3.1878567,4.08939
-36.726986,3.162968,4.0755606
-36.807148,3.156983,4.0848804
-36.920193,3.1376746,4.0786915
-37.02102,3.1241066,4.0798025
-37.133144,3.1064904,4.0765963
-37.232082,3.0948884,4.080941
-37.34576,3.077918,4.079478
-37.44272,3.068257,4.087003
-37.606792,3.0327115,4.0651603
-37.6967,3.027104,4.0783863
-37.847214,2.9985836,4.0659456
-37.98269,2.9767241,4.0617714
-38.10905,2.9591072,4.0630217
-38.237526,2.9414198,4.064807
-38.41187,2.9074755,4.049182
-38.524532,2.8972068,4.0605345
-38.676174,2.8733897,4.0576043
-38.857437,2.8398156,4.044838
-38.979958,2.8282084,4.056719
-39.09829,2.8187263,4.071492
-39.278343,2.7883654,4.064663
-39.439293,2.76564,4.0668454
-39.63654,2.7314408,4.0578713
-39.786743,2.7142737,4.0676427
-40.005814,2.6749182,4.055379
-40.271698,2.6213775,4.0298524
-40.46959,2.591673,4.029936
-40.668922,2.5626209,4.031779
-40.886993,2.528686,4.029894
-41.16048,2.4784298,4.013204
-41.31662,2.466556,4.0354815
-41.57952,2.4223728,4.0275006
-41.81093,2.3893573,4.0317264
-42.12686,2.3319716,4.0143285
-42.452965,2.273362,3.9977055
-42.6678,2.2496724,4.015291
-43.03914,2.1811595,3.993318
-43.32213,2.1404557,3.9987125
-43.613205,2.098989,4.005195
-44.091988,2.0057926,3.9681253
-44.36031,1.9745033,3.9877553
-44.84419,1.8847616,3.9592047
-13.4131775,1.0626221,2.7594333
-13.762873,1.1117201,2.7552042
-14.203961,1.1901498,2.7816296
-14.579309,1.2512338,2.793507
-14.937992,1.3093684,2.8045883
-15.234308,1.350256,2.8003454
-15.536272,1.394568,2.8012218
-15.910299,1.4633844,2.8288746
-16.195887,1.5061386,2.831644
-16.490643,1.553484,2.840744
-16.7538,1.5922124,2.842362
-16.927004,1.6027489,2.8154655
-16.913944,1.5520287,2.7239428
-16.94468,1.5156462,2.647695
-16.891079,1.4504101,2.5401807
-16.036858,1.1088064,2.1299238
-16.079224,1.0725923,2.051405
-17.023445,1.3052127,2.2355795
-17.001348,1.2487981,2.13698
-17.026634,1.2090197,2.0569925
-17.0499,1.1683033,1.9759593
-17.024988,1.1095378,1.8742394
-17.027943,1.060601,1.7836185
-16.985796,0.9942391,1.6726761
-16.936974,0.92458487,1.5575595
-28.354216,3.2046437,3.2198586
-28.32034,3.098837,3.0550146
-28.400423,3.1712575,3.1629534
-28.443262,3.185973,3.1826706
-28.493542,3.2138019,3.2225857
-28.537348,3.231934,3.247734
-28.571701,3.2345958,3.2492237
-28.607437,3.239962,3.2549286
-28.648802,3.2558749,3.2769132
-28.676758,3.2478738,3.2622004
-28.70902,3.247791,3.2597156
-28.744514,3.254087,3.2671075
-28.775324,3.2515643,3.2609777
-28.809797,3.2564793,3.2663646
-28.841341,3.255705,3.2630386
-28.87238,3.2539618,3.2582707
-28.905125,3.2559927,3.2593794
-28.938745,3.2602262,3.263947
-28.971554,3.2629683,3.2662692
-29.004053,3.265272,3.2679696
-29.036915,3.2687244,3.271502
-29.068613,3.2696157,3.2711291
