x,y,z
-32.457066,3.1729047,4.1023026
-32.489925,3.1703792,4.1051025
-32.5329,3.156098,4.0940003
-32.5752,3.1430993,4.084575
-32.609444,3.1398082,4.0868187
-32.637352,3.1439185,4.0979376
-32.669197,3.1436286,4.103929
-32.71267,3.1305943,4.0949783
-32.754364,3.1199455,4.0889926
-32.79782,3.107777,4.081369
-32.83269,3.1051908,4.08514
-32.85924,3.1115656,4.099513
-32.898407,3.1047685,4.098569
-32.948944,3.0865502,4.0844483
-32.99066,3.077858,4.0816
-33.03093,3.0709546,4.0809793
-33.064754,3.0707462,4.08825
-33.093063,3.0760915,4.102047
-33.140873,3.0624993,4.094094
-33.187256,3.0507126,4.0883994
-33.244686,3.0288298,4.071298
-33.273273,3.0346608,4.0861473
-33.304672,3.0378833,4.0981007
-33.372787,3.0074358,4.071808
-33.422066,2.9949083,4.066163
-33.458546,2.994291,4.074204
-33.487297,3.0007014,4.09031
-33.54306,2.983349,4.0797205
-33.596123,2.9688568,4.072575
-33.64824,2.9556236,4.067055
-33.682747,2.9578207,4.0789905
-33.71786,2.9596033,4.09058
-33.790493,2.93018,4.0676126
-33.837837,2.922398,4.068946
-33.881535,2.9179037,4.074098
-33.916393,2.920805,4.0875607
-33.970528,2.9083536,4.0842876
-34.026203,2.8950853,4.0803475
-34.072346,2.889717,4.0852594
-34.11598,2.88656,4.092759
-34.172253,2.8738925,4.090121
-34.23077,2.8599253,4.08632
-34.28687,2.8482125,4.0851994
-34.327686,2.8483024,4.096981
-34.38142,2.8389983,4.098877
-34.45309,2.8168998,4.087376
-34.5018,2.8120453,4.0945063
-34.561676,2.7994275,4.093631
-34.63361,2.7786374,4.0844164
-34.69193,2.7680087,4.086199
-34.742004,2.7635064,4.0946426
-34.803505,2.7513618,4.0953445
-34.91293,2.7067978,4.062722
-34.95725,2.7074153,4.0773025
-35.02822,2.6902876,4.073821
-35.128464,2.654174,4.051244
-35.170353,2.6574,4.069273
-35.265644,2.6258564,4.0521903
-35.346024,2.6047375,4.0461235
-35.37646,2.6162279,4.0732436
-35.48928,2.5753455,4.048052
-35.553448,2.5660388,4.0549073
-35.61328,2.5598042,4.065113
-35.725334,2.5215957,4.044062
-35.790215,2.5131803,4.0528507
-35.88727,2.4855845,4.043225
-35.970234,2.4671755,4.0430346
-36.03041,2.4628918,4.0569177
-36.124706,2.4387374,4.0519943
-36.215515,2.4172723,4.0501437
-36.30511,2.3971086,4.0500107
-36.387985,2.3813927,4.0545564
-36.448273,2.3790512,4.0721006
-36.58378,2.3344889,4.0505137
-36.650055,2.3297029,4.06662
-36.806602,2.2751434,4.0371523
-36.87343,2.2711277,4.054928
-37.043354,2.2112246,4.022149
-37.125294,2.200156,4.0345635
-37.268272,2.1568418,4.0184436
-37.341026,2.151817,4.0373406
-37.471123,2.1169643,4.0301876
-37.57793,2.095128,4.035256
-37.70403,2.0639653,4.0327916
-37.85128,2.0227757,4.0223813
-37.9601,2.0020995,4.0305166
-38.113407,1.9596603,4.0207067
-38.24474,1.9292111,4.021996
-38.36559,1.9047637,4.0291266
-38.532307,1.8585434,4.018843
-38.712368,1.8069382,4.00516
-38.88382,1.7606821,3.9970045
-39.035477,1.7249947,3.9985232
-39.115837,1.7239959,4.0289106
-39.357395,1.6476843,3.9997263
-39.56903,1.5869448,3.984446
-39.706406,1.561841,3.9984288
-39.880466,1.5207441,4.0009084
-39.979507,1.5147011,4.031391
-23.595781,1.9442532,3.394257
-23.746601,2.0004442,3.431635
-23.980064,2.1096096,3.523624
-24.111446,2.1566074,3.5534415
-24.199177,2.1769,3.5565567
-24.246124,2.1715713,3.5337067
-24.640272,2.3917572,3.7443
-25.031433,2.6143599,3.9595928
-25.162212,2.6691418,4.001985
-25.269756,2.7096415,4.030086
-24.684673,2.2841802,3.5686116
-24.69807,2.2580829,3.5254765
-24.786781,2.2834392,3.536882
-25.283169,2.5923061,3.8504539
-25.2547,2.5397277,3.7805643
-24.970957,2.3057833,3.5159354
-25.027885,2.3107438,3.5067883
-25.058636,2.2971268,3.4778013
-25.094357,2.287061,3.4527483
-25.128185,2.2756028,3.4262924
-25.15612,2.2597408,3.3951287
-25.179619,2.24043,3.3602524
-25.206072,2.223171,3.3276725
-25.229492,2.2034397,3.2924237
-25.251253,2.1822262,3.2555733
-25.268143,2.156975,3.2142715
-25.286085,2.1322348,3.173542
-26.511972,3.0696807,4.207165
-26.528605,3.0531802,4.17892
-26.568916,3.055747,4.172114
-26.59219,3.0445116,4.149905
-26.640585,3.054051,4.1512227
-26.686922,3.062213,4.151169
-26.733088,3.0705466,4.1514864
-26.779684,3.079574,4.152769
-26.820642,3.084055,4.1490364
-26.866299,3.092887,4.150434
-26.907,3.0976672,4.1473503
-26.948177,3.1031194,4.145186
-26.989815,3.1092472,4.1439476
-27.036549,3.1203098,4.148568
-27.066904,3.1166093,4.1362424
-27.10645,3.1215582,4.134062
-27.166859,3.14649,4.155306
-27.213293,3.1587577,4.1620007
-27.262821,3.1744328,4.1728563
-27.2916,3.1702907,4.1606474
-27.333565,3.1792412,4.1639175
-27.35581,3.168775,4.1444526
-27.394344,3.1747055,4.1444
-27.429548,3.1774902,4.1407547
-27.466257,3.182033,4.139307
-27.503378,3.1872466,4.138778
-27.537273,3.1892838,4.1345882
-27.575203,3.1958423,4.135898
-27.609941,3.1992116,4.1335216
-27.642584,3.2004771,4.1287336
-27.69108,3.2196217,4.1454983
-27.719522,3.2166767,4.135885
-27.756756,3.2238574,4.138544
-27.801533,3.2401128,4.1522713
-27.837887,3.247003,4.1548386
-27.865137,3.243341,4.144747
-27.891968,3.2391906,4.1341352
-27.924837,3.242447,4.132589
-27.95671,3.2446766,4.1298914
-27.99482,3.254935,4.1370716
-28.034935,3.2681618,4.147999
-28.062479,3.2656033,4.139761
-28.092218,3.2659705,4.135178
-28.122784,3.2675672,4.132185
-28.157108,3.2744048,4.1357136
-28.187101,3.275621,4.132434
-28.229424,3.2941542,4.1505623
-28.261604,3.2990313,4.151993
-28.290459,3.2993982,4.1479464
-28.315325,3.2940745,4.136941
-28.34535,3.2963328,4.1353827
-28.373384,3.295784,4.1304264
-28.40293,3.2976348,4.128523
-28.449629,3.326314,4.160043
-28.47807,3.327217,4.15716
-28.502842,3.3223696,4.1471877
-28.526615,3.3158324,4.135165
-28.55683,3.3198843,4.1364193
-28.586601,3.32344,4.1371365
-28.613218,3.3218021,4.1314335
-28.654934,3.3466837,4.1590223
-28.679676,3.3422854,4.150024
-28.705458,3.3397179,4.1433816
-28.728724,3.3324966,4.1309524
-28.754925,3.3306499,4.1253343
-28.784521,3.335383,4.128066
-28.813107,3.3384254,4.128745
-28.841322,3.3409562,4.128853
-28.87527,3.35545,4.1441402
-28.900398,3.3522062,4.137108
-28.925573,3.3490274,4.130215
-28.949976,3.3441243,4.121198
-28.976595,3.344058,4.1183643
-29.006075,3.350638,4.1240244
-29.03439,3.3549109,4.1268344
-29.066105,3.3676505,4.14047
-29.09317,3.3696945,4.1405983
-29.120897,3.3736138,4.1431785
-29.142029,3.3607864,4.1245117
-29.168154,3.3606343,4.12203
-29.192945,3.3569398,4.115095
-29.221233,3.3629491,4.120593
-29.249186,3.3684351,4.1254954
-29.276003,3.3709817,4.1267138
-29.305916,3.3832684,4.140443
-29.328688,3.3738756,4.1265326
-29.353302,3.3699818,4.1197033
-29.37852,3.3679667,4.1153345
-29.404287,3.367835,4.1134353
-29.431393,3.3726223,4.1178985
-29.458233,3.3768778,4.121745
-29.484827,3.3805985,4.1249714
-29.510887,3.382568,4.1260138
-29.536179,3.3815658,4.1233034
-29.561068,3.3788037,4.118391
-29.586397,3.3779316,4.1159616
-29.612246,3.3795614,4.116806
-29.637691,3.3794312,4.115447
-29.663477,3.381196,4.116584
-29.689548,3.3848586,4.120222
-29.714924,3.3849282,4.119297
-29.740196,3.3844533,4.117729
-29.765472,3.3840432,4.1163025
-29.790325,3.3806434,4.111082
-29.816347,3.385864,4.1170235
-29.842407,3.392377,4.124688
-29.86686,3.3855019,4.1151624
-29.892054,3.3848066,4.113654
-29.917809,3.390296,4.120177
-29.94296,3.3897316,4.1189528
-29.968208,3.3904567,4.1194487
-29.993288,3.388797,4.116926
-30.018179,3.3829145,4.1090145
-30.043335,3.3807707,4.10598
-30.068628,3.3817542,4.107036
-30.093967,3.3858662,4.1121855
-30.119202,3.3882046,4.1151037
-30.144386,3.3893833,4.116584
-30.169567,3.388176,4.1150417
-30.194738,3.3888712,4.1160116
-30.219978,3.3865685,4.1131706
-30.245264,3.3843303,4.1104693
-30.27065,3.3809326,4.106331
-30.29569,3.3849497,4.1118126
-30.320936,3.3847437,4.111904
-30.346235,3.3839912,4.111348
-30.371445,3.3845277,4.1125116
-30.396938,3.38207,4.109873
-30.422224,3.3821254,4.11053
-30.447512,3.3822455,4.111329
-30.473335,3.3781517,4.1067553
-30.498583,3.379015,4.1086273
-30.523376,3.382998,4.114574
-30.54932,3.3791041,4.1104345
-30.574545,3.3801627,4.1127295
-30.600388,3.377625,4.1104546
-30.626957,3.3714952,4.1036205
-30.652119,3.373363,4.107132
-30.677498,3.3740766,4.109217
-30.703907,3.369984,4.1051846
-30.729588,3.3696136,4.105995
-30.753582,3.3766103,4.1163235
-30.779661,3.3745465,4.1150765
-30.80686,3.3682985,4.1085234
-30.833868,3.3633409,4.103691
-30.860487,3.3602772,4.1013513
-30.887342,3.3566785,4.098391
-30.9141,3.3537588,4.096364
-30.938364,3.3593874,4.1053405
-30.961962,3.36689,4.116766
-30.989508,3.3617563,4.11209
-31.017763,3.3548875,4.1052656
-31.045752,3.349306,4.1001577
-31.071524,3.3504353,4.103681
-31.09859,3.3480177,4.102743
-31.125717,3.3456736,4.101965
-31.1529,3.3434048,4.1013484
-31.173313,3.3586261,4.1230545
-31.204535,3.3462896,4.109755
-31.232058,3.3436387,4.108848
-31.261158,3.337472,4.103546
-31.291943,3.3278015,4.093876
-31.31949,3.3259902,4.094252
-31.347355,3.3236585,4.0940375
-31.372522,3.3273642,4.1015344
-31.397633,3.3311338,4.10917
-31.425554,3.3290222,4.109432
-31.458218,3.3174887,4.0978737
-31.486937,3.3143601,4.0970078
-31.518469,3.3059843,4.0896053
-31.54522,3.307168,4.0943246
-31.57354,3.3054705,4.0954847
-31.597088,3.3127003,4.107933
-31.624765,3.3123288,4.1108932
-31.656122,3.305565,4.1059103
-31.69236,3.2906752,4.090841
-31.721336,3.2888079,4.0921707
-31.748966,3.2893662,4.096608
-31.775894,3.2911696,4.1026697
-31.801004,3.2959642,4.112528
-31.829334,3.2955775,4.1159935
-31.864006,3.2853806,4.1073327
-31.896627,3.2787824,4.1032467
-31.933983,3.2653284,4.090751
-31.963463,3.2641566,4.0935907
-31.992197,3.264227,4.098047
-32.012173,3.2770698,4.1183615
-32.04446,3.2720995,4.116729
-32.08424,3.2568836,4.102565
-32.116024,3.253281,4.1028237
-32.154205,3.2411876,4.09274
-32.189648,3.2332253,4.0878496
-32.21448,3.239641,4.100683
-32.240086,3.2449791,4.112258
-32.27313,3.2407238,4.112176
-32.31701,3.2229633,4.0957227
-32.351738,3.2172472,4.0940876
-32.38522,3.213338,4.094756
-32.41648,3.2123525,4.0990744
-32.444504,3.2153983,4.1083684
-32.480076,3.2095442,4.106971
-32.527752,3.1898086,4.0889263
-32.56468,3.1831026,4.0867586
-32.603226,3.1748478,4.0828466
-32.630077,3.1800733,4.095252
-32.659355,3.1825957,4.104487
-32.694668,3.1785593,4.1059556
-32.73977,3.1641448,4.0951433
-32.78464,3.1504474,4.085347
-32.821472,3.1457086,4.0863695
-32.846863,3.1531553,4.1019773
-32.88539,3.1469924,4.101526
-32.93316,3.1316867,4.0903945
-32.973125,3.1247227,4.0892825
-33.013794,3.1173553,4.0878325
-33.046368,3.1182518,4.0962305
-33.085056,3.113309,4.097886
-33.122185,3.1101146,4.101718
-33.184242,3.0834117,4.078248
-33.219467,3.0826726,4.085253
-33.25933,3.0777738,4.0875416
-33.29583,3.0762098,4.0938325
-33.349323,3.059361,4.082585
-33.409622,3.0368946,4.065073
-33.449574,3.0331576,4.0693426
-33.480648,3.0374575,4.0829697
-33.518303,3.036074,4.090189
-33.573635,3.0196338,4.0803647
-33.62316,3.0086312,4.07695
-33.671677,2.9988563,4.075123
-33.70361,3.0032716,4.0895357
-33.75553,2.9912326,4.085488
-33.812107,2.975784,4.077813
-33.86644,2.962615,4.0729294
-33.905037,2.962466,4.082826
-33.941086,2.9644897,4.095283
-34.01216,2.939145,4.077448
-34.062153,2.930841,4.078808
-34.10179,2.9308147,4.0895114
-34.156025,2.919839,4.0883055
-34.204475,2.9135938,4.092516
-34.2705,2.8945165,4.0828896
-34.31258,2.893667,4.093421
-34.372368,2.8800428,4.0902395
-34.440617,2.8607144,4.0811453
-34.48515,2.858943,4.0912905
-34.54289,2.8479881,4.0917454
-34.60084,2.8372626,4.0926957
-34.667408,2.820908,4.0878983
-34.73428,2.8048277,4.0836945
-34.795067,2.7933836,4.0847025
-34.860355,2.7792873,4.083187
-34.948845,2.7500691,4.066098
-35.00541,2.7427952,4.072382
-35.07662,2.7261982,4.0692096
-35.15906,2.702769,4.059293
-35.222866,2.692004,4.062848
-35.29866,2.673952,4.0592117
-35.37404,2.6566906,4.0567503
-35.44749,2.6411495,4.056407
-35.530952,2.6198611,4.050593
-35.586952,2.6160958,4.062871
-35.680836,2.58945,4.052435
-35.75466,2.5756369,4.0552993
-35.814224,2.5708365,4.067484
-35.934498,2.5302405,4.0445533
-36.014587,2.5142608,4.0464854
-36.111217,2.4891274,4.039866
-36.177925,2.4819758,4.0512557
-36.251015,2.4715102,4.059765
-36.369053,2.4359205,4.0444603
-36.430874,2.432842,4.060916
-36.54981,2.398181,4.0476255
-36.643833,2.378141,4.0488234
-36.743786,2.3554468,4.048032
-36.86096,2.324041,4.039647
-36.967346,2.2992396,4.038052
-37.07494,2.2744808,4.0370865
-37.187798,2.2476249,4.0348034
-37.28476,2.2298288,4.0414033
-37.438526,2.1830993,4.022387
-37.512413,2.1785798,4.0421743
-37.668106,2.1326604,4.0254526
-37.7582,2.1210012,4.0399795
-37.908363,2.0797052,4.02898
-38.066658,2.0353746,4.01624
-38.187057,2.0107698,4.021527
-38.327168,1.9772666,4.019891
-38.478737,1.9391,4.0151377
-38.61985,1.906919,4.0163693
-38.793724,1.860035,4.0061636
-38.928177,1.8328571,4.013401
-39.08269,1.7971022,4.0144157
-39.24801,1.7572975,4.0131025
-39.4871,1.6846697,3.9863486
-39.645958,1.650141,3.9916344
-39.80355,1.6171341,3.9991436
-39.97376,1.5794196,4.0039787
-23.281696,1.839112,3.2351327
-23.68586,2.0459707,3.426824
-23.782303,2.068503,3.4311304
-24.107038,2.2328048,3.582438
-24.160578,2.2312315,3.563304
-24.205973,2.2247295,3.5392485
-24.581787,2.428364,3.7354822
-24.948277,2.6300893,3.9317665
-25.093704,2.6926587,3.983046
-25.21922,2.7435951,4.022731
-25.292011,2.7608936,4.0272183
-24.672367,2.31724,3.539094
-24.722115,2.3156533,3.5220265
-24.803696,2.3358712,3.5286512
-25.288647,2.6333628,3.8356156
-25.044014,2.4315577,3.6029925
-24.996061,2.3635507,3.5147657
-25.030773,2.3527856,3.4888043
-25.064947,2.3416288,3.4625182
-25.097916,2.3295841,3.4353552
-25.126987,2.3146694,3.4051142
-25.155611,2.2993279,3.3744717
-25.185802,2.2850444,3.3450756
-25.209558,2.265851,3.3102741
-25.232292,2.2456973,3.2744384
-25.255344,2.2255757,3.2386737
-25.272846,2.2009594,3.1978798
-25.289452,2.1753378,3.1559534
-26.497599,3.0886283,4.1785817
-26.546244,3.097576,4.1791124
-26.570616,3.087328,4.157942
-26.607725,3.087371,4.148602
-26.649176,3.0911317,4.1436524
-26.693626,3.0976124,4.141981
-26.739779,3.105805,4.1424475
-26.785751,3.1141677,4.143284
-26.828512,3.120102,4.1414757
-26.871737,3.126711,4.140606
-26.911827,3.1308627,4.1370287
-26.952997,3.1362023,4.1349792
-26.99815,3.1453667,4.1375537
-27.043106,3.1546965,4.1404877
-27.090172,3.166306,4.146267
-27.138714,3.1796813,4.1543026
-27.190388,3.1964297,4.1665063
-27.227652,3.2000508,4.1633515
-27.266495,3.2054017,4.162374
-27.307978,3.2135658,4.164877
-27.332287,3.2052202,4.1478305
-27.365957,3.206093,4.141862
-27.396355,3.2038324,4.132243
-27.439028,3.2141175,4.137771
-27.473562,3.2164128,4.1338367
-27.50907,3.2199078,4.131457
-27.545523,3.2246103,4.130647
-27.586475,3.2343569,4.136056
-27.61757,3.233832,4.129153
-27.662224,3.248238,4.1404705
-27.694637,3.2495885,4.1360617
-27.727493,3.251592,4.132544
-27.764668,3.2586784,4.135331
-27.806025,3.270882,4.144494
-27.841402,3.2765627,4.1458044
-27.869574,3.2740047,4.1371136
-27.895435,3.2687352,4.1251645
-27.933823,3.2786372,4.131959
-27.966982,3.2825046,4.1314344
-28.007704,3.2960267,4.142933
-28.045029,3.3057528,4.149869
-28.075108,3.30658,4.1458974
-28.09776,3.2978892,4.1301994
-28.130852,3.3028407,4.131501
-28.160015,3.3027906,4.1266756
-28.194593,3.3102155,4.131243
-28.232311,3.322308,4.14174
-28.26407,3.326542,4.1425323
-28.291304,3.3245854,4.135671
-28.318949,3.3232775,4.1296897
-28.350119,3.3272095,4.130353
-28.38042,3.3300867,4.129779
-28.411785,3.3347816,4.1315727
-28.453903,3.3562946,4.154631
-28.482302,3.3571663,4.151804
-28.50739,3.352913,4.142582
-28.531824,3.3475647,4.1320353
-28.56198,3.351564,4.1333675
-28.591347,3.35449,4.133423
-28.61893,3.3545918,4.129975
-28.65824,3.3751755,4.1525908
-28.684925,3.374293,4.1480575
-28.710958,3.3723142,4.142195
-28.734783,3.3663063,4.131265
-28.759958,3.362702,4.1234503
-28.787643,3.3638592,4.121766
-28.818607,3.3715603,4.128506
-28.848518,3.3775907,4.1331944
-28.880617,3.3884242,4.144105
-28.910213,3.3946369,4.1491904
-28.929636,3.3796654,4.127211
-28.95698,3.3812943,4.1265497
-28.983475,3.3812222,4.123773
-29.011265,3.3841863,4.124959
-29.039747,3.38901,4.1286035
-29.067873,3.3933203,4.1316595
-29.095167,3.395926,4.1325927
-29.11906,3.3902698,4.1229496
-29.147469,3.3959987,4.1280336
-29.171217,3.3898745,4.1178994
-29.198385,3.3927672,4.1194553
-29.225916,3.3969307,4.1227164
-29.251886,3.3969822,4.1207314
-29.277641,3.396503,4.11812
-29.305964,3.403885,4.12574
-29.33317,3.4083476,4.129651
-29.357677,3.404479,4.122836
-29.382788,3.4024756,4.1184916
-29.40932,3.405347,4.120525
-29.434443,3.4034758,4.1164675
-29.460728,3.405885,4.1180224
-29.487738,3.411378,4.123643
-29.51478,3.4175482,4.130207
-29.540537,3.4189646,4.130658
-29.565563,3.4174309,4.1273317
-29.590082,3.4135447,4.121002
-29.615938,3.4157643,4.122671
-29.640654,3.41261,4.117404
-29.666344,3.4143589,4.118575
-29.691776,3.4149642,4.1183157
-29.717188,3.4156356,4.118199
-29.742582,3.4163735,4.1182265
-29.767225,3.4123282,4.112076
-29.792456,3.411983,4.1108036
-29.818161,3.4153423,4.114419
-29.843283,3.414522,4.1126394
-29.868483,3.4143732,4.1117935
-29.893621,3.413682,4.110295
-29.919323,3.419128,4.1168613
-29.944271,3.4167454,4.113268
-29.969395,3.4162493,4.1121917
-29.994411,3.4139943,4.1088743
-30.019377,3.4099803,4.103317
-30.044647,3.4115005,4.1050406
-30.069942,3.4149094,4.1092863
-30.095089,3.4147358,4.1089106
-30.120268,3.4170585,4.1118503
-30.145395,3.4170146,4.1117554
-30.170527,3.4164271,4.111006
-30.195625,3.418336,4.113571
-30.220755,3.4178774,4.113102
-30.24605,3.413229,4.107216
-30.271381,3.4098618,4.10306
-30.296572,3.4102058,4.1038055
-30.321798,3.4100075,4.1039
-30.347216,3.407444,4.100962
-30.37195,3.4134493,4.1092663
-30.397272,3.4122305,4.1081953
-30.422749,3.409863,4.1056824
-30.447922,3.4105964,4.1072726
-30.473618,3.4071474,4.103464
-30.49881,3.4080114,4.105337
-30.523811,3.4101527,4.108931
-30.548588,3.4135695,4.1142435
-30.574804,3.4079628,4.107852
-30.600286,3.4072704,4.107923
-30.625563,3.4078548,4.109714
-30.650951,3.4078994,4.110859
-30.677584,3.4019632,4.1042786
-30.70317,3.4015386,4.1049294
-30.7285,3.4023888,4.107297
-30.754387,3.4008899,4.1066675
-30.77972,3.4018722,4.1093216
-30.806116,3.3987002,4.1066365
-30.83338,3.392587,4.100196
-30.859282,3.3919678,4.1009493
-30.885376,3.390815,4.1010704
-30.911148,3.3909338,4.1029
-30.937473,3.3893185,4.102542
-30.963842,3.387773,4.102337
-30.990639,3.3850994,4.100733
-31.0173,3.3830976,4.1000614
-31.044214,3.38057,4.098773
-31.069702,3.3823023,4.1030536
-31.096476,3.380515,4.102848
-31.12352,3.3782036,4.102029
-31.150621,3.3759665,4.101371
-31.177778,3.3738036,4.1008754
-31.206198,3.3687396,4.0967083
-31.233738,3.3661351,4.0957785
-31.260075,3.3665771,4.0988336
-31.286936,3.365903,4.1005154
-31.31488,3.3629308,4.099313
-31.342087,3.361813,4.100559
-31.370708,3.3578146,4.098179
-31.395195,3.3627558,4.10732
-31.42535,3.3559623,4.1014996
-31.453306,3.353971,4.101899
-31.481615,3.3514702,4.101718
-31.51517,3.3390622,4.0889664
-31.54277,3.3384967,4.0914087
-31.565973,3.3462095,4.1044626
-31.59226,3.3481257,4.11019
-31.619509,3.348359,4.113841
-31.653765,3.3364167,4.1020975
-31.69199,3.3181775,4.082468
-31.719227,3.319265,4.087446
-31.747509,3.318684,4.09038
-31.773687,3.321662,4.0978856
-31.7973,3.3287625,4.1106596
-31.825562,3.328404,4.1140757
-31.860544,3.3177395,4.104579
-31.896885,3.3054614,4.093158
-31.93003,3.298481,4.0885053
-31.961386,3.2944767,4.0876846
-31.987717,3.2980182,4.0964117
-32.0112,3.305634,4.1103034
-32.038208,3.3081656,4.117888
-32.073807,3.2988,4.1106853
-32.1121,3.2861395,4.0994816
-32.145172,3.280993,4.0977564
-32.18136,3.2719827,4.091325
-32.209957,3.2732763,4.0977983
-32.235054,3.2791677,4.110047
-32.26759,3.2755437,4.1105757
-32.310074,3.2596512,4.096034
-32.34744,3.250646,4.0901356
-32.380867,3.2468066,4.0907216
-32.41161,3.246426,4.0956616
-32.43863,3.2505984,4.10628
-32.473186,3.2459414,4.106142
-32.516487,3.2314048,4.094015
-32.557175,3.2203488,4.0862904
-32.593685,3.2144096,4.0849442
-32.624886,3.2146575,4.0912466
-32.6531,3.2183003,4.101765
-32.687843,3.2148871,4.1038
-32.736977,3.1962574,4.087515
-32.780804,3.1838222,4.0788975
-32.8176,3.1791744,4.0798264
-32.843994,3.1855187,4.0941076
-32.884094,3.1778374,4.091603
-32.92651,3.168133,4.086809
-32.973995,3.153726,4.0765367
-33.012497,3.1486423,4.07757
-33.04561,3.1490564,4.0852804
-33.08152,3.1468983,4.0900345
-33.118057,3.144324,4.094411
-33.165417,3.1317577,4.0870814
-33.21018,3.1220229,4.0832705
-33.255146,3.1124525,4.079815
-33.286976,3.1151872,4.0909853
-33.336914,3.1017008,4.0832334
-33.39715,3.079482,4.0654573
-33.435226,3.0773933,4.071411
-33.471577,3.0769987,4.079465
-33.51641,3.0694401,4.0793247
-33.564457,3.059452,4.076536
-33.614548,3.048092,4.0723457
-33.662403,3.0389848,4.070944
-33.69924,3.0393074,4.080553
-33.74426,3.033092,4.082799
-33.810257,3.0101855,4.0661545
-33.85634,3.0038438,4.068651
-33.89487,3.0037608,4.0784283
-33.930206,3.0063367,4.0913525
-33.991516,2.9888606,4.0817633
-34.04727,2.976156,4.077801
-34.09143,2.9726837,4.084424
-34.12308,2.9788537,4.101994
-34.19736,2.9532866,4.0842953
-34.250626,2.9438953,4.0848985
-34.308815,2.9312527,4.08212
-34.350243,2.9311464,4.093419
-34.42046,2.9105868,4.0823855
-34.47797,2.8996053,4.082161
-34.54055,2.8854432,4.0787086
-34.587364,2.8826923,4.087944
-34.651093,2.8685148,4.084982
-34.732025,2.843041,4.0701065
-34.774387,2.844298,4.084361
-34.846024,2.8261108,4.077949
-34.92374,2.8044167,4.0681233
-34.967922,2.8053398,4.0827026
-35.07164,2.7676916,4.05663
-35.13369,2.7577934,4.060327
-35.17685,2.760328,4.0773525
-35.284184,2.7224152,4.0522785
-35.368443,2.6998577,4.0437264
-35.41135,2.703584,4.062812
-35.493195,2.683492,4.0575094
-35.583683,2.658703,4.0477867
-35.61783,2.6685884,4.073937
-35.746174,2.6221461,4.0429497
-35.788914,2.6275,4.065039
-35.88306,2.602775,4.0570273
-36.000023,2.5654364,4.036869
-36.036175,2.5755868,4.064641
-36.171925,2.528865,4.0361905
-36.22469,2.5301933,4.0558424
-36.31363,2.5114279,4.0560355
-36.423424,2.4816308,4.045938
-36.490078,2.4763694,4.0602107
-36.587914,2.454411,4.0587225
-36.67251,2.4402456,4.0652227
-36.81521,2.3954155,4.0429697
-36.89164,2.3868456,4.055836
-37.023335,2.349574,4.0421104
-37.131207,2.3256497,4.041601
-37.27215,2.285303,4.0264482
-37.38091,2.2624304,4.028219
-37.478508,2.245902,4.036407
-37.624317,2.2056575,4.023573
-37.69938,2.2017083,4.04436
-37.866974,2.1523356,4.024839
-37.963413,2.1390033,4.038384
-38.112083,2.100813,4.030528
-38.240276,2.0734532,4.033052
-38.376484,2.0430484,4.0336905
-38.540283,2.00043,4.02462
-38.729385,1.9470079,4.007324
-38.89621,1.9051995,4.0010567
-39.061066,1.8653572,3.9974823
-39.127617,1.8714199,4.0331635
-39.342438,1.810627,4.0140357
-39.569366,1.7458196,3.993019
-39.754658,1.7010074,3.9896746
-39.855232,1.6946602,4.0183644
-23.34606,1.9315271,3.2527318
-23.720146,2.117889,3.4275384
-23.821753,2.1432514,3.435659
-24.142925,2.3033407,3.5861082
-24.17768,2.2902367,3.555149
-24.21336,2.2776923,3.5248947
-24.630104,2.5043578,3.7498956
-24.965996,2.6843197,3.9271293
-25.118027,2.750297,3.983571
-25.23265,2.7935755,4.016271
-25.278744,2.7931933,4.002197
-24.724216,2.3975875,3.558137
-24.750874,2.380842,3.5248861
-24.845798,2.4098008,3.541823
-25.32969,2.703116,3.8501983
-25.02071,2.4598348,3.5682817
-25.017317,2.4231284,3.513661
-25.053268,2.413357,3.4889083
-25.087976,2.4027221,3.4633021
-25.12147,2.3912125,3.4368181
-25.150372,2.3763783,3.406694
-25.179495,2.3616123,3.3767166
-25.20549,2.344457,3.3441052
-25.23508,2.3298194,3.3144064
-25.258936,2.310797,3.279786
-25.275864,2.2863526,3.2390132
-25.298407,2.2658978,3.2028146
-25.31285,2.238975,3.1592164
-26.514025,3.1364326,4.180897
-26.560009,3.1432247,4.1793203
-26.588068,3.1360512,4.1617293
-26.628197,3.1385796,4.1554937
-26.670748,3.1432805,4.151931
-26.714424,3.1491535,4.1498895
-26.756727,3.1541624,4.146994
-26.802578,3.1623993,4.1480412
-26.84885,3.1713202,4.1500616
-26.896133,3.181445,4.1536736
-26.937225,3.1865714,4.1515427
-26.978785,3.1923623,4.150343
-27.003157,3.1832044,4.131506
-27.057987,3.201254,4.1451674
-27.09626,3.2048588,4.1417756
-27.1482,3.2211967,4.153763
-27.20151,3.2393138,4.1680813
-27.23867,3.242857,4.165064
-27.26456,3.235937,4.1495504
-27.309381,3.247134,4.1559963
-27.344082,3.2489152,4.151197
-27.369473,3.241737,4.1356335
-27.41491,3.2544208,4.1442842
-27.452602,3.2597625,4.144149
-27.492811,3.2679212,4.147574
-27.53022,3.2735257,4.1480074
-27.568012,3.2797976,4.149379
-27.602575,3.2829475,4.1470375
-27.637053,3.2862096,4.144941
-27.657846,3.2748845,4.1249714
-27.706232,3.2936158,4.142148
-27.737963,3.294479,4.137397
-27.7716,3.2976327,4.135575
-27.816256,3.3135333,4.1496706
-27.85485,3.3229885,4.1559067
-27.875292,3.311603,4.1363163
-27.904799,3.3107686,4.129921
-27.937065,3.3133464,4.1278687
-27.970627,3.3176918,4.1281195
-28.010845,3.3304944,4.1390657
-28.045889,3.3373024,4.142618
-28.078575,3.3414302,4.142907
-28.101152,3.3327785,4.1272063
-28.129885,3.3320358,4.121519
-28.161154,3.334749,4.1202707
-28.193184,3.3386853,4.120653
-28.236694,3.3585262,4.141255
-28.270819,3.366083,4.1464314
-28.297127,3.3629856,4.1381884
-28.323471,3.3599591,4.1300974
-28.352985,3.3615525,4.127948
-28.38399,3.365511,4.1288886
-28.419846,3.3769815,4.139494
-28.448328,3.377712,4.1364923
-28.479733,3.3831038,4.139522
-28.505186,3.3794177,4.1310196
-28.534634,3.3821156,4.1307554
-28.559776,3.377997,4.121825
-28.5881,3.379128,4.1196938
-28.61741,3.3820715,4.1199627
-28.65202,3.3943486,4.1323156
-28.681082,3.3974771,4.1329856
-28.708117,3.3972125,4.1293554
-28.73769,3.4016662,4.131879
-28.763084,3.3986502,4.1248307
-28.790056,3.398611,4.121689
-28.813993,3.392817,4.111164
-28.840988,3.392918,4.1083264
-28.870579,3.3983526,4.1124673
-28.901756,3.407385,4.121353
-28.931902,3.4147553,4.1281624
-28.958607,3.4151766,4.1260195
-28.985823,3.4168453,4.1255617
-29.011679,3.41565,4.121441
-29.038826,3.4174654,4.1213026
-29.065922,3.4193563,4.1213264
-29.091986,3.4189622,4.118434
-29.119478,3.4221811,4.120318
-29.14596,3.423112,4.1192794
-29.171047,3.4205637,4.1137547
-29.196836,3.4198575,4.110695
-29.223917,3.422776,4.1124372
-29.249462,3.421615,4.108902
-29.2742,3.4181454,4.102398
-29.299196,3.4153328,4.0968084
-29.326536,3.419723,4.100724
-29.354338,3.4259756,4.1071477
-29.381824,3.4317098,4.112958
-29.407095,3.4303641,4.1095314
-29.432213,3.4284873,4.105462
-29.457033,3.4254808,4.0999618
-29.481434,3.420744,4.0922384
-29.506973,3.4202547,4.0901585
-29.534395,3.4276109,4.0984664
-29.560411,3.4296536,4.099839
-29.585981,3.4299684,4.098993
-29.612553,3.4351456,4.1046133
-29.639256,3.4415936,4.111972
-29.663637,3.4367127,4.104446
-29.689743,3.4408987,4.1089363
-29.712772,3.427735,4.0905848
-29.738384,3.4290478,4.0913925
-29.76351,3.4274209,4.088375
-29.78909,3.428866,4.08947
-29.815979,3.4406042,4.1042213
-29.839922,3.430149,4.0897055
-29.864874,3.4269772,4.0848656
-29.890497,3.4298897,4.0881233
-29.915728,3.429255,4.0867476
-29.941458,3.434709,4.093479
-29.96708,3.4402316,4.100357
-29.9921,3.437986,4.0970163
-30.017101,3.4345984,4.0922194
-30.04199,3.4270558,4.0819793
-30.066969,3.417768,4.0694838
-30.09225,3.41397,4.064306
-30.117664,3.4150603,4.06565
-30.143063,3.41923,4.071125
-30.16841,3.4192448,4.071157
-30.193756,3.4193246,4.07133
-30.218985,3.4236898,4.0772285
-30.244263,3.4245024,4.0784807
-30.26964,3.422969,4.0766845
-30.295221,3.4184875,4.071043
-30.320568,3.418893,4.071923
-30.345816,3.4205692,4.0745373
-30.370453,3.428935,4.0860534
-30.39516,3.434954,4.094518
-30.420397,3.4350142,4.0951586
-30.445847,3.4333339,4.093553
-30.472557,3.422093,4.0793695
-30.498999,3.414534,4.070113
-30.524357,3.4154634,4.0721283
-30.549606,3.417059,4.075079
-30.57513,3.4169173,4.07579
-30.599174,3.4252481,4.087739
-30.623732,3.4300365,4.095064
-30.6495,3.4282863,4.093817
-30.673819,3.4337993,4.1022043
-30.702068,3.420795,4.086236
-30.725956,3.428236,4.097274
-30.75098,3.4303467,4.1013412
-30.777304,3.4271379,4.0984592
-30.804466,3.4210105,4.091797
-30.83112,3.4173481,4.088442
-30.857689,3.4143548,4.0860276
-30.884153,3.41203,4.084553
-30.91156,3.4067957,4.079317
-30.938345,3.40402,4.0773754
-30.963871,3.4054837,4.0810575
-30.989183,3.4076076,4.085663
-31.015669,3.4062314,4.0857363
-31.042608,3.4037395,4.0844088
-31.068968,3.4031,4.0855703
-31.096663,3.3989763,4.0822325
-31.124002,3.3961139,4.0806117
-31.150028,3.3968751,4.0837903
-31.176523,3.3965235,4.085575
-31.201103,3.4009647,4.0936766
-31.228086,3.3995714,4.0942216
-31.256884,3.3941293,4.089555
-31.285025,3.3905354,4.087367
-31.311924,3.389959,4.0891743
-31.338577,3.3900433,4.0919037
-31.366074,3.3884406,4.092505
-31.392204,3.389842,4.0970707
-31.419476,3.3889732,4.098755
-31.448248,3.38526,4.096818
-31.477707,3.380464,4.09355
-31.506666,3.3769188,4.091977
-31.536644,3.3717132,4.088332
-31.56484,3.3700817,4.08938
-31.594374,3.366209,4.0876074
-31.623344,3.3635826,4.0875163
-31.651382,3.3627744,4.08984
-31.682508,3.3568482,4.0856514
-31.713766,3.3510165,4.081669
-31.741302,3.351614,4.0860205
-31.768135,3.3534365,4.09201
-31.79965,3.3478713,4.088605
-31.83166,3.3418303,4.0846777
-31.858961,3.343325,4.090464
-31.891926,3.3363285,4.0854845
-31.923513,3.3317165,4.0836368
-31.951317,3.3328924,4.089243
-31.979515,3.333578,4.0942955
-32.008118,3.333776,4.0988007
-32.037148,3.3334897,4.102765
-32.07237,3.3248131,4.09618
-32.109028,3.3145611,4.087707
-32.143375,3.3078094,4.0837665
-32.172745,3.3079093,4.088568
-32.201706,3.3086553,4.0942616
-32.233738,3.3055687,4.09521
-32.26497,3.3036976,4.0977764
-32.29985,3.2974637,4.0949593
-32.335323,3.2907882,4.091693
-32.369114,3.2864485,4.0914555
-32.40487,3.280003,4.088689
-32.435135,3.2803059,4.0944395
-32.47017,3.2751853,4.093527
-32.504364,3.2712798,4.0942287
-32.548855,3.2559595,4.08088
-32.582867,3.2528486,4.0827966
-32.614975,3.2520323,4.0876493
-32.645126,3.2534945,4.0954046
-32.6859,3.2436283,4.0892973
-32.726383,3.2344484,4.084168
-32.76396,3.2286572,4.0833297
-32.801678,3.2229939,4.0827675
-32.83847,3.2185345,4.083798
-32.861557,3.2281618,4.102124
-32.901123,3.2212358,4.1003532
-32.95493,3.2005556,4.0820074
-33.00095,3.1880803,4.0738087
-33.0362,3.1864052,4.078837
-33.065388,3.1906753,4.0911517
-33.103508,3.1865706,4.093461
-33.150795,3.1741617,4.0859156
-33.201195,3.1593008,4.0756016
-33.249016,3.1472545,4.068843
-33.277924,3.152638,4.083063
-33.316128,3.1497638,4.087529
-33.36741,3.1355848,4.0786943
-33.421955,3.1190126,4.0672164
-33.463634,3.114021,4.06964
-33.500595,3.1132975,4.077242
-33.542477,3.1085892,4.0802784
-33.597984,3.0927653,4.070423
-33.647003,3.0827742,4.0676117
-33.684387,3.0826359,4.076482
-33.72369,3.081101,4.0838523
-33.780132,3.0660505,4.075674
-33.832413,3.0547504,4.0720625
-33.878513,3.0486755,4.074685
-33.916355,3.0492792,4.085163
-33.964626,3.0420263,4.0867586
-34.01895,3.0304785,4.0836277
-34.072857,3.0196388,4.081523
-34.123,3.0119724,4.0832415
-34.16529,3.0104027,4.092066
-34.231857,2.9913259,4.081271
-34.284573,2.982788,4.082629
-34.329296,2.980298,4.0909853
-34.39055,2.966324,4.08667
-34.452766,2.952114,4.0823526
-34.504158,2.945864,4.087141
-34.55988,2.9369311,4.0891705
-34.635456,2.9148293,4.0769124
-34.683887,2.9116251,4.0857587
-34.76226,2.8886733,4.073185
-34.808174,2.8877983,4.085045
-34.88145,2.8692007,4.077836
-34.94785,2.8556013,4.0763702
-35.022507,2.8371367,4.069961
-35.092392,2.8222446,4.06773
-35.169914,2.8030102,4.0611796
-35.238922,2.7896428,4.0612354
-35.311897,2.7742634,4.059478
-35.387405,2.7578177,4.056936
-35.45121,2.748982,4.0627418
-35.55215,2.7181711,4.0458646
-35.602085,2.718534,4.061936
-35.697754,2.692091,4.050454
-35.7847,2.6714463,4.0454307
-35.8574,2.659651,4.049915
-35.9365,2.6446085,4.0514345
-36.02287,2.6259243,4.0496426
-36.111908,2.6062949,4.0473304
-36.213837,2.5800462,4.0388165
-36.27448,2.5773551,4.054379
-36.395306,2.5419288,4.0376854
-36.465088,2.5351245,4.049934
-36.5334,2.5294678,4.0636516
-36.65793,2.4941478,4.048716
-36.73314,2.4857914,4.060656
-36.863464,2.4489436,4.0454645
-36.974102,2.4232333,4.0416865
-37.07946,2.4009573,4.041787
-37.22364,2.3595362,4.024321
-37.31755,2.3445299,4.0325427
-37.42656,2.3224978,4.0347004
-37.53675,2.3005433,4.037535
-37.682198,2.2619095,4.0256057
-37.76986,2.2524238,4.04121
-37.93052,2.2081156,4.025637
-38.078415,2.171,4.017508
-38.195675,2.1493828,4.024131
-38.345432,2.1131663,4.0184603
-38.497437,2.076855,4.0136027
-38.647427,2.0424328,4.0113125
-38.80477,2.005575,4.0078177
-38.94035,1.9795747,4.014619
-39.09783,1.944519,4.0145206
-39.263596,1.9067338,4.01309
-39.51049,1.834135,3.9835587
-39.61846,1.8239858,4.0074053
-39.842552,1.7640111,3.9909801
-39.98788,1.7393284,4.0047107
-23.23647,1.9485393,3.2246628
-23.640945,2.1482859,3.4155917
-23.736921,2.169274,3.4193306
-24.063728,2.3289576,3.5711298
-24.13749,2.3391416,3.564869
-24.17973,2.3305447,3.5387702
-24.262121,2.34672,3.5395317
-24.618599,2.5336528,3.7255507
-25.018764,2.7517726,3.9473658
-25.164824,2.8134453,4.0005307
-25.261158,2.8447251,4.0211134
-24.678549,2.4387617,3.561081
-24.73017,2.4382963,3.5456533
-24.774624,2.4333246,3.5254254
-25.333431,2.7700639,3.8855886
-25.329128,2.7359672,3.8345337
-24.98958,2.474374,3.5284057
-25.024656,2.4640112,3.5029535
-25.059877,2.4537501,3.4777217
-25.093174,2.4421499,3.451079
-25.122528,2.4277492,3.4213476
-25.1487,2.4110007,3.3890123
-25.177832,2.3962479,3.359014
-25.207855,2.3820503,3.3297224
-25.230757,2.3625474,3.2943993
-25.251316,2.3411179,3.256887
-25.265642,2.3147898,3.213725
-25.28432,2.2914143,3.1739826
-25.307272,2.2710238,3.1377282
-26.519646,3.1680615,4.173208
-26.557297,3.1682434,4.1641555
-26.587286,3.162547,4.148324
-26.635641,3.1715019,4.1498394
-26.680038,3.1776166,4.148179
-26.725534,3.184904,4.148068
-26.770247,3.191852,4.147719
-26.811735,3.1964216,4.144698
-26.85432,3.202159,4.143214
-26.899782,3.210607,4.1451225
-26.937279,3.2125514,4.1393933
-26.981827,3.2208,4.141365
-27.02501,3.2281785,4.1424465
-27.063354,3.2315712,4.138863
-27.09755,3.231461,4.131165
-27.15468,3.2522898,4.1489773
-27.207403,3.2696908,4.162839
-27.252434,3.280489,4.168849
-27.28548,3.2804272,4.1617517
-27.31295,3.2752042,4.1484394
-27.350931,3.2800891,4.147594
-27.380075,3.2766342,4.136622
-27.41573,3.2796326,4.1336765
-27.458244,3.2896671,4.139521
-27.498423,3.297721,4.143059
-27.533697,3.3011012,4.1409416
-27.568878,3.3045979,4.1390753
-27.606018,3.310361,4.1401334
-27.63691,3.309783,4.133411
-27.674337,3.3163207,4.135652
-27.70712,3.3181126,4.132079
-27.739347,3.3194652,4.128051
-27.772495,3.322006,4.1256037
-27.821035,3.3420997,4.1453023
-27.847647,3.3377867,4.1344585
-27.877623,3.3373785,4.1286025
-27.90758,3.3370605,4.12294
-27.94075,3.3406816,4.122339
-27.975197,3.3460622,4.124059
-28.018549,3.3626032,4.1400337
-28.049055,3.363801,4.1366634
-28.078188,3.3634267,4.131377
-28.105125,3.3603582,4.122735
-28.139841,3.3673887,4.1270394
-28.175247,3.3756495,4.1330156
-28.202496,3.373402,4.1256576
-28.23846,3.3829958,4.1335297
-28.2689,3.3854127,4.132305
-28.298866,3.3873584,4.130557
-28.32559,3.3848867,4.12321
-28.356262,3.3881316,4.1232843
-28.387232,3.392035,4.1242886
-28.418486,3.3965988,4.1262274
-28.448875,3.400124,4.1269093
-28.478434,3.4026043,4.12632
-28.505735,3.4017558,4.121498
-28.535185,3.4044046,4.121274
-28.567741,3.41228,4.1279063
-28.593168,3.4088178,4.1199026
-28.62138,3.410005,4.1180015
-28.654259,3.4193048,4.1267285
-28.6823,3.4206643,4.125201
-28.709322,3.4203777,4.1215963
-28.740166,3.4270804,4.1271777
-28.769915,3.4321456,4.1307015
-28.795847,3.4303646,4.125349
-28.8221,3.4292316,4.120903
-28.849543,3.4304864,4.1196465
-28.874907,3.4277573,4.113231
-28.904587,3.4338074,4.1183934
-28.932451,3.4364555,4.1191626
-28.959152,3.4368532,4.117041
-28.98422,3.433825,4.110476
-29.012743,3.4384499,4.1140394
-29.038336,3.4367282,4.109312
-29.066204,3.4403396,4.1116724
-29.091291,3.4375865,4.1057034
-29.116898,3.436071,4.1014223
-29.145084,3.4410782,4.105815
-29.170656,3.439703,4.101839
-29.196018,3.437807,4.09723
-29.221191,3.4353876,4.0919847
-29.248497,3.4389253,4.0946827
-29.273272,3.435461,4.088166
-29.295723,3.424977,4.072397
-29.324526,3.4334478,4.081812
-29.351097,3.4354975,4.082776
-29.37888,3.441761,4.0893946
-29.404606,3.4415882,4.0875278
-29.42678,3.4290378,4.0692673
-29.451313,3.4242468,4.0613666
-29.476088,3.4201102,4.054386
-29.502443,3.4219737,4.055444
-29.530058,3.429256,4.0637736
-29.5571,3.4348302,4.0698934
-29.583092,3.4363139,4.0706234
-29.608662,3.43608,4.0691223
-29.635563,3.4424644,4.0765
-29.656797,3.4203188,4.045888
-29.68109,3.4125257,4.034461
-29.708319,3.4208968,4.0446553
-29.73479,3.4257612,4.05023
-29.760794,3.4283092,4.05277
-29.786997,3.432716,4.05785
-29.811913,3.4282317,4.0511103
-29.838017,3.4327738,4.0564833
-29.860178,3.4033117,4.016472
-29.88606,3.4043937,4.0173264
-29.912027,3.4067388,4.019925
-29.938736,3.418723,4.0354667
-29.964418,3.4200082,4.0367603
-29.99067,3.4309344,4.0510035
-30.015724,3.4233751,4.0405807
-30.041182,3.4218655,4.0383024
-30.066454,3.4138365,4.027357
-30.09194,3.408266,4.0197554
-30.117624,3.4099457,4.021906
-30.14327,3.4098954,4.0217967
-30.168848,3.4188924,4.033845
-30.194384,3.4201708,4.0356226
-30.219875,3.422114,4.038344
-30.245375,3.4229255,4.039605
-30.271742,3.4052458,4.01619
-30.297808,3.3990088,4.008136
-30.323595,3.398823,4.008231
-30.349064,3.4028916,4.01407
-30.373663,3.4159975,4.032043
-30.398706,3.4219875,4.040555
-30.424019,3.4244528,4.044409
-30.451328,3.4096498,4.025242
-30.478403,3.399105,4.0118265
-30.504704,3.395801,4.0081434
-30.53019,3.398537,4.0125837
-30.554493,3.4084997,4.026726
-30.5779,3.4226966,4.046568
-30.60326,3.4244254,4.049819
-30.629265,3.4226425,4.04844
-30.656021,3.4173539,4.0424423
-30.684381,3.404992,4.0270767
-30.711302,3.4004471,4.022195
-30.739,3.3930016,4.0135098
-30.762169,3.4052472,4.031111
-30.782436,3.4282386,4.063059
-30.809332,3.4239602,4.058755
-30.83632,3.4197547,4.0546093
-30.863403,3.415623,4.050623
-30.89092,3.4103804,4.0452228
-30.919085,3.4034379,4.037629
-30.946297,3.400124,4.0349197
-30.97112,3.4045672,4.0425644
-30.994503,3.4132056,4.0558243
-31.019934,3.4154084,4.0606003
-31.04699,3.4129615,4.0592723
-31.072403,3.415299,4.0643406
-31.102373,3.405346,4.0532036
-31.12941,3.4037116,4.0531406
-31.15603,3.403325,4.0547886
-31.181963,3.40477,4.058916
-31.204006,3.4156585,4.075563
-31.231054,3.414302,4.0761023
-31.258648,3.4118505,4.0752616
-31.287083,3.4077234,4.07228
-31.314554,3.4060106,4.072545
-31.34099,3.4067051,4.0760393
-31.366873,3.4086347,4.081217
-31.390755,3.4147003,4.091883
-31.416552,3.4167607,4.0973434
-31.44879,3.4061322,4.086234
-31.478857,3.400238,4.0814095
-31.510279,3.39212,4.0737534
-31.538767,3.3898735,4.0738554
-31.56605,3.3900154,4.0771456
-31.594635,3.3879285,4.077593
-31.622297,3.3876486,4.080467
-31.650982,3.385723,4.081265
-31.679726,3.3838801,4.082242
-31.709213,3.380975,4.0819097
-31.738075,3.3792992,4.0832486
-31.768414,3.3754244,4.081808
-31.80066,3.3687916,4.076876
-31.829746,3.3673787,4.078785
-31.858135,3.367186,4.0823445
-31.889956,3.3619719,4.0794926
-31.919594,3.3602514,4.081232
-31.948898,3.359183,4.083888
-31.977455,3.3593283,4.0881805
-32.006832,3.3584285,4.0912023
-32.037464,3.3559294,4.0922484
-32.06858,3.3529625,4.0927763
-32.101444,3.347851,4.090645
-32.1395,3.3361409,4.080171
-32.170105,3.3345962,4.0827885
-32.199463,3.3348122,4.0877333
-32.231033,3.3323379,4.0893297
-32.260014,3.333285,4.0953617
-32.30382,3.3160672,4.078417
-32.333443,3.3166685,4.084195
-32.367676,3.31185,4.083195
-32.398304,3.3115373,4.087988
-32.430374,3.309672,4.090904
-32.46156,3.3090005,4.0954146
-32.49807,3.302419,4.092582
-32.54056,3.2894256,4.081813
-32.576946,3.2836485,4.0802264
-32.61297,3.278535,4.0795813
-32.642097,3.2811117,4.0886497
-32.674747,3.279996,4.093192
-32.71359,3.2725246,4.089921
-32.761906,3.2555237,4.0749383
-32.803787,3.245668,4.068983
-32.832176,3.2498496,4.080537
-32.865307,3.249316,4.086342
-32.903847,3.2435725,4.085822
-32.95987,3.2209992,4.0647254
-33.00103,3.2134514,4.062282
-33.035183,3.212903,4.0685515
-33.06269,3.218773,4.0827703
-33.10192,3.2137063,4.0837193
-33.139576,3.210344,4.0868707
-33.194473,3.1914654,4.0712976
-33.238224,3.183203,4.068798
-33.269367,3.1865058,4.080435
-33.31865,3.1738749,4.072939
-33.364655,3.164525,4.0695724
-33.41563,3.1512332,4.061637
-33.45247,3.150435,4.068857
-33.491165,3.1482272,4.0745115
-33.53177,3.1446228,4.0786314
-33.578003,3.1365917,4.077627
-33.631226,3.1231635,4.0703907
-33.68036,3.113475,4.067782
-33.720272,3.1115158,4.0744743
-33.76722,3.1041808,4.0749793
-33.83155,3.0835285,4.0600357
-33.87895,3.0765874,4.061395
-33.91163,3.0812402,4.076456
-33.954025,3.0785725,4.083102
-34.010273,3.0657015,4.0780697
-34.061504,3.0569842,4.0780635
-34.11093,3.049932,4.0801764
-34.161186,3.0425787,4.0821342
-34.218338,3.0305548,4.0789375
-34.276413,3.0182734,4.075679
-34.319057,3.017326,4.085559
-34.38028,3.0035434,4.081035
-34.452827,2.9823422,4.0683823
-34.497295,2.9810205,4.0784454
-34.539722,2.981287,4.0904584
-34.608196,2.964172,4.0831842
-34.671345,2.951118,4.080737
-34.7376,2.93644,4.076759
-34.80271,2.9229722,4.07441
-34.876724,2.9041731,4.0664673
-34.946754,2.888474,4.0622635
-35.00763,2.8790839,4.065275
-35.09943,2.8505797,4.0477266
-35.16159,2.8413,4.051474
-35.20693,2.842785,4.0671253
-35.31473,2.8061943,4.0419893
-35.369373,2.8027291,4.0528736
-35.42786,2.7972178,4.061809
-35.515926,2.7744093,4.0526333
-35.589985,2.7604883,4.053278
-35.671936,2.742423,4.0499105
-35.770317,2.7153945,4.0375504
-35.822197,2.7157412,4.054214
-35.929817,2.6846309,4.038475
-36.005333,2.6723852,4.0427537
-36.074043,2.6643791,4.051748
-36.193924,2.6284702,4.032566
-36.249783,2.6284995,4.050531
-36.336548,2.6119926,4.0520334
-36.4252,2.595006,4.0534906
-36.51815,2.5762777,4.0536594
-36.632282,2.546948,4.043768
-36.725967,2.52909,4.0458226
-36.826435,2.5082893,4.045475
-36.94269,2.4800067,4.0383525
-37.06432,2.4497614,4.0299573
-37.165154,2.430807,4.033117
-37.273705,2.4086027,4.033702
-37.40739,2.3746214,4.0236716
-37.498535,2.3624015,4.034968
-37.63481,2.3287334,4.026611
-37.72904,2.316217,4.0387545
-37.899742,2.2676902,4.018071
-38.014008,2.2470388,4.0240126
-38.15055,2.216608,4.021681
-38.309597,2.17657,4.011446
-38.41909,2.160378,4.0235767
-38.56553,2.1279316,4.021848
-38.751842,2.0783565,4.0058517
-38.92172,2.0373652,3.9985218
-39.087894,1.9990861,3.9945889
-39.182003,1.9935524,4.019883
-39.45663,1.909739,3.9788795
-39.584534,1.8911967,3.994866
-39.735397,1.8635168,4.003966
-39.9103,1.8265038,4.006257
-23.345922,2.0591981,3.2659674
-23.680971,2.216656,3.415947
-23.78669,2.2431037,3.426403
-24.093975,2.3894224,3.5672145
-24.188652,2.411936,3.574942
-24.226929,2.40115,3.5467224
-24.404911,2.4753318,3.6118522
-24.826715,2.7008195,3.844562
-25.065327,2.8173418,3.9589581
-25.200321,2.871491,4.005305
-25.305267,2.9079056,4.0325384
-24.716738,2.502939,3.5663352
-24.728676,2.4769883,3.522637
-24.810314,2.4960709,3.5296922
-25.343918,2.8125029,3.8735418
-25.191288,2.6803584,3.7107744
-24.997463,2.5182278,3.5129604
-25.036007,2.5102153,3.4902697
-25.07049,2.4994798,3.4645772
-25.100986,2.4859915,3.4358153
-25.130312,2.4716253,3.406118
-25.157131,2.4554148,3.374353
-25.187578,2.4416633,3.3455057
-25.210842,2.4226828,3.3106365
-25.233734,2.4032557,3.275282
-25.256275,2.3833785,3.2394347
-25.27518,2.3606093,3.2002182
-25.28268,2.3290508,3.1506453
-26.497108,3.2087483,4.1792083
-26.532139,3.2067795,4.167689
-26.569735,3.206902,4.1587706
-26.605383,3.2056649,4.1483545
-26.659962,3.2194653,4.156041
-26.699207,3.221506,4.1498313
-26.742111,3.226686,4.147528
-26.78859,3.235034,4.149193
-26.833038,3.2420435,4.1494064
-26.871239,3.244163,4.1438513
-26.90997,3.2469206,4.1391954
-26.948015,3.2493029,4.1342106
-27.002018,3.265583,4.146307
-27.045666,3.2733812,4.1482296
-27.069847,3.26441,4.1297455
-27.11445,3.2735038,4.1335115
-27.176086,3.2982395,4.156689
-27.209871,3.2983904,4.149766
-27.261696,3.3152533,4.1636095
-27.291891,3.312546,4.153389
-27.33265,3.319842,4.155674
-27.357285,3.312111,4.1393948
-27.398932,3.3207035,4.143524
-27.427422,3.3168223,4.132208
-27.472006,3.3288426,4.140868
-27.502018,3.3267508,4.1319838
-27.545687,3.338531,4.1406064
-27.580782,3.3419676,4.138873
-27.611147,3.3407245,4.1313453
-27.647112,3.345448,4.1314344
-27.688503,3.3561797,4.139235
-27.718174,3.3547158,4.1317115
-27.751797,3.3576436,4.129842
-27.795115,3.3714633,4.1419196
-27.82991,3.3762522,4.1426363
-27.864105,3.3806138,4.142909
-27.891088,3.3769433,4.1330175
-27.923729,3.3798766,4.1316423
-27.953974,3.380186,4.126996
-27.985098,3.3816793,4.12395
-28.026112,3.3953156,4.1365986
-28.057005,3.3970244,4.1340194
-28.085629,3.3960776,4.1280994
-28.116425,3.3979688,4.125916
-28.14716,3.3999536,4.1239357
-28.18293,3.408671,4.1307526
-28.211369,3.4080834,4.1256104
-28.24518,3.4147983,4.130018
-28.276789,3.4188395,4.131047
-28.307487,3.4218636,4.1308365
-28.338501,3.425539,4.131555
-28.364706,3.4225948,4.1237216
-28.394428,3.424766,4.122629
-28.424467,3.4275875,4.1224623
-28.45405,3.4299364,4.1217537
-28.484676,3.4340625,4.1234503
-28.510818,3.4315085,4.1164627
-28.542019,3.4369402,4.120022
-28.573444,3.4430337,4.1245327
-28.60055,3.4424176,4.1202965
-28.626278,3.4396043,4.1132298
-28.658102,3.4471002,4.119815
-28.683464,3.4438682,4.1123238
-28.712128,3.4464087,4.1125154
-28.744236,3.455319,4.1212006
-28.773006,3.4586062,4.122527
-28.798609,3.456246,4.1164427
-28.81879,3.4436226,4.0968075
-28.84574,3.4436824,4.094036
-28.87296,3.4443905,4.092189
-28.90243,3.4497836,4.096631
-28.928978,3.4494944,4.093587
-28.953598,3.4452338,4.0853157
-28.979359,3.4433484,4.0802608
-29.002516,3.4357405,4.0676327
-29.03017,3.438041,4.068271
-29.052998,3.4293928,4.0543537
-29.081863,3.4347394,4.059179
-29.10917,3.4366798,4.0595183
-29.138525,3.4439344,4.067031
-29.16658,3.4483604,4.0708275
-29.193645,3.4505324,4.0716696
-29.216553,3.4416842,4.057802
-29.235846,3.4223692,4.0299416
-29.26184,3.4212227,4.0264893
-29.287447,3.4189732,4.0216117
-29.316933,3.4285097,4.0326204
-29.347334,3.4416504,4.048544
-29.37475,3.4460764,4.052824
-29.398397,3.438243,4.0406733
-29.422531,3.4316416,4.0302267
-29.446949,3.4256868,4.0206995
-29.471788,3.4209692,4.012889
-29.497469,3.4192595,4.0091815
-29.527521,3.4352994,4.0294576
-29.555157,3.4425802,4.0379925
-29.58104,3.442855,4.037138
-29.605762,3.4378824,4.029257
-29.628641,3.4235184,4.008747
-29.653412,3.4174824,3.9995277
-29.6795,3.4180136,3.999229
-29.70526,3.4168377,3.996679
-29.732494,3.4246068,4.006274
-29.759567,3.4324503,4.0160294
-29.786047,3.4374042,4.021936
-29.811867,3.4382796,4.0223837
-29.835903,3.424994,4.00373
-29.860674,3.4159179,3.9908178
-29.886667,3.416987,3.9916856
-29.912966,3.4216833,3.9975176
-29.938475,3.41814,3.992252
-29.965437,3.4336562,4.012842
-29.991001,3.4320276,4.010278
-30.016624,3.431058,4.00866
-30.042368,3.43253,4.010401
-30.067713,3.4227834,3.997003
-30.093292,3.4148839,3.9861596
-30.119076,3.410614,3.9802845
-30.144964,3.4165072,3.9882286
-30.170675,3.4295952,4.005971
-30.196304,3.4326508,4.0101795
-30.221922,3.4339907,4.0121183
-30.247627,3.432427,4.0101776
-30.274227,3.413115,3.984258
-30.30021,3.4110928,3.9818065
-30.326157,3.4103248,3.9811084
-30.351463,3.4179327,3.9918032
-30.37667,3.425011,4.001832
-30.402033,3.4291859,4.0079846
-30.428024,3.4269013,4.0054474
-30.453783,3.4270556,4.0062656
-30.482153,3.4071243,3.979969
-30.50853,3.404456,3.9770844
-30.533722,3.410149,3.985561
-30.558615,3.417089,3.995774
-30.582266,3.4306002,4.0149174
-30.607462,3.43411,4.020594
-30.63462,3.427041,4.012034
-30.662285,3.418273,4.0012407
-30.691751,3.4019032,3.9802494
-30.716986,3.4062805,3.9873228
-30.744051,3.4024606,3.9833915
-30.770061,3.4034307,3.9859786
-30.789532,3.4303951,4.023657
-30.81788,3.4214725,4.013011
-30.843533,3.4232216,4.016804
-30.870987,3.4185681,4.012032
-30.90233,3.4010632,3.99003
-30.92745,3.4053783,3.9974525
-30.954332,3.4038892,3.997124
-30.979357,3.4083343,4.004828
-31.00078,3.4233842,4.026824
-31.02796,3.4209223,4.025353
-31.055408,3.4179492,4.0232573
-31.081436,3.4191403,4.026807
-31.116657,3.3958898,3.9976633
-31.141329,3.401322,4.007025
-31.165907,3.4068148,4.0165176
-31.18873,3.41644,4.0315866
-31.214771,3.4179797,4.0358915
-31.24005,3.4213297,4.042671
-31.267817,3.4189444,4.04185
-31.299545,3.4079473,4.029608
-31.329384,3.4016771,4.023746
-31.356646,3.4012733,4.025771
-31.38033,3.4084473,4.0379424
-31.408129,3.40703,4.0387363
-31.43251,3.412599,4.0488777
-31.459742,3.412478,4.0515146
-31.488194,3.4101343,4.051267
