x,y,z
-31.559261,1.6032178,2.887055
-31.597187,1.602838,2.8907886
-31.640173,1.5877273,2.8792949
-31.681538,1.5781326,2.8736844
-31.721867,1.5720217,2.871828
-31.788895,1.4934123,2.7948189
-25.84173,1.0693054,2.8020282
-25.887733,1.0668712,2.7862883
-25.950142,1.0836308,2.7889962
-26.006516,1.0938354,2.7857108
-26.074123,1.1178136,2.7958498
-26.132607,1.1315205,2.796422
-26.195946,1.1516299,2.8034039
-26.245344,1.1551886,2.7946777
-26.331099,1.2043574,2.830287
-26.364677,1.1889768,2.8036652
-26.414137,1.1936777,2.79667
-26.492065,1.2354968,2.826058
-26.547276,1.2487423,2.8278732
-26.596571,1.2546268,2.8226957
-26.653728,1.271379,2.8283772
-26.71385,1.2927473,2.8388348
-26.763062,1.2997782,2.8353958
-26.812597,1.3075988,2.832922
-26.868273,1.3244653,2.8395972
-26.921444,1.3383398,2.843523
-26.973063,1.3504794,2.8459287
-27.02187,1.358958,2.844881
-27.06625,1.361197,2.8377786
-27.109308,1.3616467,2.8290377
-27.156939,1.3692772,2.8276463
-27.20649,1.3802693,2.8298063
-27.256256,1.3920624,2.8329554
-27.30742,1.4065936,2.8390517
-27.358334,1.4212909,2.8455086
-27.40508,1.4296861,2.8457751
-27.451675,1.4382257,2.8463535
-27.5004,1.4508002,2.8511977
-27.547028,1.4602811,2.8530707
-27.58942,1.4627483,2.8479571
-27.631393,1.4646869,2.842444
-27.679424,1.4778368,2.848537
-27.724396,1.4859114,2.8496017
-27.768177,1.4921575,2.8489451
-27.813896,1.5024648,2.8526092
-27.85741,1.5089746,2.8525243
-27.929333,1.5721095,2.9109411
-28.046852,1.7295811,3.0670285
-28.097254,1.7551768,3.087399
-28.136496,1.7585196,3.084931
-28.174742,1.7599928,3.0806518
-28.207779,1.7503345,3.0649433
-28.250824,1.7625957,3.0720959
-28.286032,1.7577605,3.0616126
-28.33972,1.7954671,3.0955386
-28.378942,1.8008213,3.0959358
-28.415575,1.800303,3.0903287
-28.454643,1.8058729,3.0911946
-28.494936,1.814884,3.095786
-28.53299,1.8186774,3.0950437
-28.571478,1.8239121,3.0959291
-28.60962,1.8285856,3.0963478
-28.648157,1.8347037,3.0984015
-28.685635,1.8382525,3.0978756
-28.723738,1.8439138,3.0996876
-28.75993,1.8443165,3.0960765
-28.797426,1.8488431,3.0969229
-28.836555,1.8588457,3.103664
-28.872372,1.8588762,3.0999937
-28.909197,1.8623657,3.1000862
-28.94635,1.8673012,3.1018186
-28.982069,1.8676217,3.0987768
-29.01796,1.868711,3.096654
-29.054005,1.8705695,3.0954533
-29.090712,1.8752246,3.0973263
-29.127161,1.8793037,3.0986962
-29.161087,1.8733397,3.0895023
-29.19873,1.8830199,3.0970383
-29.233318,1.8799429,3.0911145
-29.268684,1.8803408,3.0889878
-29.304316,1.8821864,3.0885053
-29.339373,1.8814142,3.0853353
-29.373535,1.8759837,3.077299
-29.406311,1.8624961,3.06076
-29.434391,1.8205717,3.0139523
-29.450483,1.701267,2.8845687
-29.485603,1.6913614,2.8720608
-29.522083,1.6897011,2.8684607
-29.558495,1.6874545,2.864336
-29.595116,1.6866612,2.8618693
-29.633476,1.7002535,2.8748984
-29.670834,1.7071409,2.8808637
-29.707575,1.7093611,2.88194
-29.743887,1.7075901,2.8788476
-29.780342,1.7072742,2.8774157
-29.816906,1.708415,2.8776474
-29.853592,1.7116947,2.8802743
-29.889925,1.7102983,2.877993
-29.926353,1.7103584,2.8773766
-29.962658,1.7077849,2.8740392
-29.999222,1.7114418,2.8774834
-30.035593,1.7104185,2.8760128
-30.07198,1.7094901,2.8747463
-30.108395,1.7100179,2.8751445
-30.144796,1.707912,2.872819
-30.181211,1.7086272,2.8736238
-30.217562,1.7128463,2.8782864
-30.253891,1.7151122,2.880958
-30.290066,1.7208807,2.8874865
-30.32671,1.7131062,2.8795977
-30.362906,1.7170153,2.8843365
-30.399277,1.7169278,2.884894
-30.43533,1.721704,2.8907661
-30.47161,1.7224841,2.8924575
-30.50805,1.7213132,2.8921614
-30.544386,1.7215986,2.893527
-30.580994,1.7192545,2.8921804
-30.617495,1.7183664,2.8924975
-30.654015,1.7175725,2.8930182
-30.690548,1.7168732,2.8937435
-30.72728,1.7149084,2.893221
-30.764147,1.7123592,2.892177
-30.801891,1.7044697,2.8855343
-30.838568,1.7041538,2.8870907
-30.87479,1.7066491,2.8917542
-30.911823,1.7044854,2.8915472
-30.94839,1.705133,2.8944454
-30.985744,1.701807,2.8932128
-31.023022,1.6992569,2.8929152
-31.060059,1.6981604,2.8942747
-31.097569,1.6951296,2.893682
-31.134823,1.6935518,2.8947449
-31.172272,1.6913955,2.8953018
-31.210932,1.6846085,2.891048
-31.247465,1.6867065,2.8963442
-31.28522,1.6841738,2.896833
-31.32302,1.6817429,2.8975391
-31.361252,1.6780646,2.897038
-31.398964,1.6765096,2.8988981
-31.437513,1.6723638,2.89813
-31.47552,1.6703393,2.8997202
-31.51314,1.6697612,2.9029498
-31.551434,1.6672692,2.9042735
-31.594486,1.6507952,2.890973
-31.630926,1.6545539,2.8991237
-31.672256,1.6443455,2.8926845
-31.711596,1.6402769,2.8928304
-31.756937,1.6202765,2.8763714
-25.561916,1.0771332,2.8130903
-25.605963,1.0714092,2.793345
-25.68053,1.0989861,2.805461
-25.734343,1.1044774,2.7968302
-25.798933,1.1222663,2.8001914
-25.864307,1.1415019,2.8052258
-25.941118,1.1743672,2.8236723
-25.997799,1.1849542,2.8209558
-26.045902,1.18595,2.8091793
-26.09761,1.191385,2.8018932
-26.167242,1.2184827,2.8159037
-26.229794,1.2378383,2.8226628
-26.288483,1.2530997,2.8256807
-26.341412,1.2617664,2.8224673
-26.399137,1.2768009,2.8257246
-26.455133,1.2901721,2.8275785
-26.5109,1.3037338,2.829844
-26.56019,1.3093843,2.8244925
-26.617924,1.3264291,2.8306417
-26.666906,1.332413,2.8260136
-26.71996,1.3441927,2.8273492
-26.770967,1.353636,2.8265529
-26.82226,1.3638735,2.8267455
-26.87202,1.3723869,2.8254008
-26.925629,1.3867419,2.8301191
-26.977226,1.3987453,2.832673
-27.025576,1.4064813,2.83111
-27.075928,1.4175434,2.8330898
-27.126928,1.4300394,2.8367128
-27.176455,1.4407897,2.8387513
-27.225786,1.4516985,2.841133
-27.274925,1.462765,2.843855
-27.321854,1.470787,2.843646
-27.365456,1.4738252,2.8384972
-27.411736,1.4814866,2.8382387
-27.457489,1.4886467,2.837627
-27.502344,1.4946582,2.835991
-27.548592,1.5033844,2.8373075
-27.592825,1.5090225,2.8355966
-27.640966,1.521909,2.8415327
-27.683844,1.525876,2.838399
-27.727703,1.5319142,2.8375545
-27.77075,1.5367832,2.8356423
-27.816107,1.5463326,2.8387432
-27.858585,1.550807,2.8367095
-28.023014,1.794833,3.0848799
-28.060688,1.7946382,3.07859
-28.104462,1.8069739,3.0855331
-28.14043,1.8037269,3.0762925
-28.17613,1.7999191,3.0665689
-28.207308,1.7863572,3.0466995
-28.244692,1.786011,3.0408149
-28.2709,1.7607605,3.0088067
-28.34107,1.8350313,3.0818205
-28.387064,1.8561482,3.0990005
-28.421877,1.8516624,3.089274
-28.460287,1.8558586,3.0888371
-28.496487,1.8548694,3.083025
-28.536598,1.8639109,3.0879593
-28.574255,1.8671021,3.08681
-28.612095,1.8710606,3.0865917
-28.649857,1.8751245,3.0866008
-28.68754,1.8792922,3.0868354
-28.725143,1.8835642,3.0872965
-28.763117,1.8892722,3.0894046
-28.800543,1.8937526,3.0903163
-28.837238,1.8963342,3.0893126
-28.873251,1.8970115,3.0863805
-28.910465,1.9017944,3.0879483
-28.948185,1.9086854,3.091888
-28.983278,1.90698,3.0867233
-29.019325,1.9087148,3.085351
-29.055696,1.9118862,3.0856252
-29.092005,1.9151549,3.086111
-29.12808,1.91785,3.0860868
-29.16394,1.9199691,3.0855474
-29.20023,1.9241996,3.0873857
-29.235222,1.9231484,3.0836387
-29.270811,1.9248788,3.0829892
-29.306366,1.9267025,3.0825434
-29.341476,1.9265997,3.0801196
-29.375422,1.9205236,3.0713463
-29.40737,1.9030721,3.0503788
-29.436205,1.8661366,3.0084362
-29.45405,1.7590845,2.8907495
-29.4875,1.7397916,2.8679895
-29.52478,1.7442136,2.8709764
-29.56198,1.7487333,2.8741746
-29.598476,1.7486205,2.8724637
-29.634724,1.7465739,2.8687596
-29.671309,1.7473252,2.8681874
-29.70816,1.7508764,2.8707528
-29.744623,1.7511411,2.8698602
-29.781136,1.752176,2.8699036
-29.817734,1.7546592,2.8716192
-29.854239,1.7565601,2.872808
-29.890373,1.7531381,2.8683214
-29.926674,1.7518404,2.8662415
-29.963596,1.7641821,2.8790646
-30.001451,1.8084574,2.9266524
-30.038282,1.8433487,2.9641619
-30.073938,1.8478494,2.9687867
-30.109364,1.8375373,2.9574294
-30.144936,1.8069901,2.9242043
-30.180788,1.8110886,2.92869
-30.21677,1.8024061,2.9193993
-30.252804,1.7978818,2.9147243
-30.289295,1.7819343,2.8977513
-30.324963,1.7924988,2.9096546
-30.361605,1.7801268,2.8967657
-30.397821,1.7786851,2.8958402
-30.434843,1.7658274,2.8826318
-30.471107,1.765929,2.8835855
-30.507658,1.7627399,2.8810716
-30.544012,1.7623525,2.8816986
-30.580236,1.7634115,2.883995
-30.616745,1.7618585,2.8835616
-30.653765,1.7563438,2.8789396
-30.690624,1.7529538,2.8767233
-30.727175,1.7523627,2.8776426
-30.764032,1.74984,2.876574
-30.80073,1.7487645,2.8771758
-30.837667,1.746434,2.876524
-30.874765,1.743526,2.8753529
-30.911432,1.7434125,2.8773074
-30.94823,1.7427199,2.8787394
-30.985579,1.739429,2.877472
-31.02257,1.7382567,2.8785973
-31.059587,1.737181,2.8799334
-31.096928,1.7348576,2.8800292
-31.13478,1.7306163,2.878168
-31.171906,1.729835,2.8801413
-31.208378,1.7318366,2.8852143
-31.246553,1.7272236,2.8832803
-31.284279,1.724725,2.8837314
-31.321682,1.7236664,2.8858376
-31.360634,1.7173522,2.8824153
-31.398525,1.7151575,2.8835258
-31.43545,1.716408,2.8884363
-31.474022,1.7124107,2.887838
-31.512669,1.708519,2.8874679
-31.549637,1.7100663,2.8930235
-31.58861,1.7057147,2.8923903
-31.628584,1.6988082,2.8891501
-31.669392,1.6900179,2.884027
-31.70891,1.6853306,2.8834004
-31.747526,1.6834097,2.8858361
-25.386747,1.1527314,2.8776698
-25.444319,1.1606398,2.8703504
-25.49028,1.1568933,2.8521528
-25.539698,1.1568503,2.837668
-25.572742,1.1396909,2.80694
-25.63961,1.158426,2.810863
-25.691742,1.1618462,2.8002887
-25.768555,1.1924305,2.8162303
-25.821964,1.198056,2.8082795
-25.884453,1.2141039,2.8106937
-25.945065,1.2285619,2.811819
-26.012323,1.2511041,2.821117
-26.07132,1.2647917,2.8220115
-26.131119,1.2799013,2.8245497
-26.190659,1.2952201,2.8275409
-26.25402,1.3156338,2.835822
-26.308434,1.3258693,2.834269
-26.36567,1.3399682,2.8367743
-26.415714,1.3456583,2.8311224
-26.472034,1.3595164,2.8338246
-26.521305,1.3649259,2.8282833
-26.57769,1.3797684,2.8324018
-26.63524,1.3966632,2.83881
-26.686848,1.4063058,2.8381295
-26.737812,1.4154947,2.8371844
-26.789072,1.4254727,2.8372316
-26.841516,1.4374912,2.8395438
-26.893747,1.4496827,2.8422313
-26.942644,1.4576592,2.8408155
-26.992271,1.467046,2.841021
-27.04564,1.4822536,2.8473701
-27.095306,1.492598,2.84893
-27.142235,1.4993155,2.846943
-27.190714,1.5087063,2.8478765
-27.239847,1.5195181,2.850451
-27.283062,1.5216038,2.8441787
-27.332684,1.5339847,2.8487172
-27.380487,1.5439789,2.8509564
-27.42811,1.5541234,2.8535233
-27.473223,1.5605857,2.8524232
-27.517447,1.5659058,2.8502865
-27.561943,1.5719981,2.849105
-27.60558,1.576942,2.84687
-27.652044,1.5871532,2.8503017
-27.695799,1.5930057,2.849318
-27.740505,1.6009204,2.850648
-27.785414,1.6096151,2.8529496
-27.831194,1.6203837,2.8575878
-27.875084,1.628058,2.859117
-28.029816,1.8515875,3.0890384
-28.044708,1.8066151,3.0354238
-28.067438,1.7759192,2.9969344
-28.134079,1.8343453,3.053093
-28.192554,1.8780446,3.093873
-28.230097,1.8789268,3.0893083
-28.266409,1.8773007,3.0821857
-28.264141,1.7901678,2.983933
-28.320004,1.8311627,3.0224466
-28.389326,1.9050999,3.096406
-28.430975,1.9170117,3.1042438
-28.468597,1.9198589,3.1025014
-28.507227,1.9254389,3.1038055
-28.543922,1.9265234,3.1004014
-28.580843,1.9283669,3.0979214
-28.61872,1.9329464,3.0984955
-28.65602,1.9363124,3.0978794
-28.693491,1.9404414,3.0981956
-28.73088,1.944674,3.0987387
-28.768187,1.9490099,3.0995045
-28.805408,1.9534483,3.100493
-28.841898,1.956001,3.0995517
-28.877283,1.9553368,3.095233
-28.914307,1.9600751,3.0968719
-28.951635,1.966244,3.100172
-28.986149,1.9632087,3.0935917
-29.02239,1.9662492,3.093708
-29.059114,1.9713843,3.0962067
-29.095041,1.9739544,3.096023
-29.130575,1.9752877,3.094596
-29.16624,1.977382,3.094099
-29.201706,1.9789028,3.093079
-29.237291,1.981185,3.0929914
-29.272388,1.9815569,3.0909185
-29.307755,1.9833579,3.0905056
-29.342405,1.9819069,3.08664
-29.376558,1.9778678,3.080042
-29.407684,1.9571748,3.055324
-29.43433,1.9090853,3.000708
-29.45889,1.8436179,2.927123
-29.487982,1.7996445,2.8771148
-29.525059,1.8040273,2.8801403
-29.562151,1.8091781,2.8841133
-29.598526,1.8097272,2.8831458
-29.63464,1.8083565,2.8801737
-29.670773,1.8070786,2.8774028
-29.70728,1.809253,2.878519
-29.744398,1.8182428,2.8872175
-29.780762,1.8206079,2.8887472
-29.81676,1.8190327,2.8860512
-29.852827,1.8182225,2.8842955
-29.889032,1.8195233,2.8849564
-29.925323,1.8229356,2.8880367
-29.962584,1.8493164,2.916453
-29.998722,1.8576288,2.9251199
-30.034376,1.8539214,2.9206796
-30.070017,1.8462675,2.9119997
-30.105818,1.8413966,2.9064765
-30.141724,1.8494053,2.9152064
-30.177574,1.8453925,2.9108224
-30.213419,1.8461823,2.9118156
-30.24935,1.8430264,2.9085712
-30.285557,1.8332341,2.8981338
-30.321877,1.8248823,2.8893795
-30.35814,1.8206608,2.8852634
-30.394676,1.81317,2.8776565
-30.430979,1.8111546,2.8761663
-30.467215,1.8105786,2.8763556
-30.50369,1.8074064,2.8737955
-30.53738,1.8345752,2.9046388
-30.575363,1.8154576,2.884776
-30.610312,1.826674,2.8983011
-30.645792,1.831933,2.9053855
-30.681965,1.8312387,2.9060397
-30.718243,1.8299673,2.9061608
-30.754547,1.82879,2.906488
-30.78994,1.8337433,2.9136286
-30.82964,1.8119717,2.8916082
-30.867294,1.8043833,2.88523
-30.90363,1.8049333,2.8878622
-30.939194,1.8095944,2.8950896
-30.976812,1.8036397,2.8908134
-31.014399,1.798454,2.887486
-31.050777,1.7993853,2.890943
-31.08865,1.7937305,2.8873181
-31.12569,1.7921829,2.8882809
-31.162437,1.7920678,2.8909087
-31.199194,1.7920489,2.893746
-31.236477,1.7901268,2.894617
-31.273441,1.7896359,2.8971496
-31.310606,1.7885764,2.8991709
-31.347605,1.788281,2.9021268
-31.38599,1.7834315,2.900247
-31.425476,1.7753668,2.8949952
-31.462824,1.7747107,2.89789
-31.499336,1.7768052,2.9038696
-31.537136,1.7750204,2.905757
-31.57565,1.7713518,2.9057183
-31.613543,1.769773,2.9080515
-31.658087,1.7498002,2.8906517
-31.69524,1.7510824,2.8963099
-31.736343,1.7419138,2.890822
-31.790777,1.6986127,2.8487458
-25.212809,1.1656041,2.8832664
-25.260738,1.1628768,2.865305
-25.318111,1.1696527,2.8566027
-25.370106,1.1713505,2.8432717
-25.42148,1.1726303,2.8297434
-25.4912,1.1929262,2.834763
-25.546337,1.198719,2.8260574
-25.60532,1.2088411,2.8217769
-25.667488,1.222729,2.8214083
-25.731636,1.2392175,2.8238425
-25.793852,1.2541487,2.825027
-25.854717,1.2681069,2.8255186
-25.92346,1.2912662,2.8353286
-25.983765,1.3056734,2.8367944
-26.035316,1.3106639,2.8291845
-26.086245,1.3152187,2.82134
-26.159512,1.3459344,2.839735
-26.207975,1.3484516,2.8303075
-26.266104,1.362659,2.832757
-26.317394,1.3691564,2.8277068
-26.372074,1.3800898,2.827311
-26.425564,1.3899848,2.8260832
-26.480349,1.4018955,2.8270974
-26.535894,1.4152174,2.8297553
-26.591202,1.428729,2.8328233
-26.65199,1.449821,2.8438215
-26.699678,1.4544606,2.8382874
-26.751938,1.465435,2.8393993
-26.803076,1.475343,2.8396144
-26.8554,1.4872794,2.842104
-26.906157,1.4975233,2.843049
-26.954494,1.5048156,2.8411388
-27.007101,1.5185041,2.8460083
-27.059898,1.5329931,2.8519053
-27.108131,1.5413911,2.851684
-27.154509,1.547431,2.849184
-27.199928,1.5523565,2.8456874
-27.247734,1.5611997,2.8464303
-27.299877,1.5771327,2.8547492
-27.344063,1.5812314,2.8508763
-27.391748,1.5911589,2.853262
-27.438465,1.5999687,2.8546429
-27.48385,1.607018,2.8543324
-27.529102,1.6142061,2.854322
-27.5712,1.6164358,2.8492336
-27.618076,1.6270807,2.8531747
-27.66256,1.634038,2.8533735
-27.705824,1.6392102,2.8518286
-27.748985,1.6445098,2.8505592
-27.792042,1.6499367,2.8495674
-27.834991,1.6554906,2.8488498
-27.907005,1.7165058,2.9074216
-28.040043,1.8976338,3.094575
-28.066902,1.8767726,3.0663571
-28.080872,1.8294756,3.009883
-28.145441,1.8837094,3.0622582
-28.195667,1.9103365,3.0852566
-28.23532,1.9157333,3.085617
-28.274265,1.9199464,3.0848274
-28.306637,1.9099708,3.0688696
-28.326141,1.870791,3.0214891
-28.401657,1.9586542,3.1113358
-28.436138,1.9542055,3.1016908
-28.474773,1.9596381,3.1028376
-28.512503,1.9632204,3.1020985
-28.549374,1.9649446,3.0994582
-28.587996,1.9713545,3.1020136
-28.625494,1.975251,3.1019564
-28.66267,1.978596,3.1014113
-28.69906,1.9800725,3.0989418
-28.734947,1.9803326,3.0952535
-28.77173,1.9833207,3.094643
-28.808895,1.9877262,3.0956888
-28.84619,1.992893,3.0976763
-28.883175,1.9975033,3.099166
-28.919865,2.0015545,3.100153
-28.957073,2.007688,3.103527
-28.991848,2.0059893,3.0984268
-29.027018,2.005704,3.0949726
-29.062002,2.004849,3.0909925
-29.098576,2.0100493,3.0937624
-29.134201,2.0120337,3.093102
-29.169783,2.0141122,3.0926461
-29.20659,2.0215971,3.0982428
-29.241426,2.0212097,3.0952768
-29.276114,2.0202484,3.0917754
-29.311094,2.0207076,3.0899343
-29.34633,2.022589,3.0897608
-29.380362,2.0185702,3.0831738
-29.410866,1.9953203,3.0554461
-29.441532,1.9708056,3.0263953
-29.460283,1.8730178,2.9164472
-29.491796,1.84461,2.8832073
-29.528826,1.8496377,2.887021
-29.56529,1.8514254,2.8873534
-29.601807,1.8539762,2.888629
-29.637941,1.8539491,2.8871546
-29.673916,1.8526795,2.8844013
-29.709982,1.852171,2.8825889
-29.745922,1.8504179,2.8794975
-29.782007,1.8500946,2.8780866
-29.818417,1.8538771,2.8813267
-29.854662,1.8564167,2.8832884
-29.890987,1.8610563,2.8876786
-29.92788,1.8778374,2.9056315
-29.963808,1.8799899,2.907463
-29.999891,1.8875902,2.9154358
-30.035112,1.869175,2.8946471
-30.070833,1.8602226,2.8844519
-30.106766,1.8567176,2.8803978
-30.14277,1.86134,2.8854566
-30.178677,1.8687322,2.8936872
-30.214716,1.8594792,2.8835483
-30.250721,1.8583524,2.882524
-30.286522,1.864013,2.8891263
-30.322308,1.8677566,2.8936982
-30.358164,1.8689148,2.8955016
-30.394003,1.8701651,2.8975024
-30.429865,1.8708384,2.898962
-30.466026,1.86759,2.8961725
-30.502247,1.8644352,2.8935857
-30.53903,1.8560255,2.8852758
-30.575409,1.8530605,2.8831
-30.611841,1.8501906,2.8811307
-30.646145,1.8654532,2.8993373
-30.682005,1.8667743,2.9022021
-30.719788,1.8541675,2.8897538
-30.756317,1.8516736,2.8885994
-30.79321,1.8472738,2.8854384
-30.8315,1.8349686,2.8736448
-30.870703,1.818769,2.8576598
-30.898155,1.8686388,2.9147496
-30.939013,1.8439696,2.8896155
-30.97764,1.8327312,2.879427
-31.013271,1.8369002,2.8863397
-31.049995,1.8358405,2.887586
-31.08659,1.8355417,2.8897724
-31.123823,1.8326817,2.8892426
-31.161112,1.8299208,2.8889275
-31.198118,1.8285859,2.8902855
-31.236023,1.8240345,2.888215
-31.273476,1.8215723,2.888548
-31.310423,1.8211961,2.8912754
-31.347574,1.8202558,2.8934908
-31.384554,1.8200748,2.8966427
-31.422352,1.8173497,2.8971128
-31.459583,1.8167064,2.899971
-31.49726,1.8148429,2.9016013
-31.535637,1.811105,2.9012938
-31.574085,1.8074713,2.9012136
-31.612375,1.804601,2.9020772
-31.651436,1.7998636,2.9010215
-31.693977,1.7860444,2.8901982
-31.733791,1.7802215,2.8882055
-31.779041,1.7607527,2.8715124
-25.079935,1.1791825,2.8673353
-25.126287,1.174263,2.8469172
-25.183475,1.1798761,2.836801
-25.239964,1.1851065,2.8265495
-25.296942,1.1911101,2.817278
-25.353222,1.1967258,2.8078632
-25.464508,1.2579548,2.8528605
-25.5466,1.2909982,2.8708735
-25.564213,1.2586937,2.8252091
-25.62648,1.2722337,2.824617
-25.693563,1.2912989,2.8297358
-25.759209,1.3094299,2.8342223
-25.82123,1.3242476,2.8357038
-25.880806,1.3369131,2.8353052
-25.938528,1.3480024,2.8335786
-25.990143,1.3527322,2.8257246
-26.055504,1.3731706,2.8338203
-26.115765,1.3884556,2.8370123
-26.164259,1.3907449,2.8273497
-26.22098,1.4028149,2.8277483
-26.27851,1.4162855,2.829792
-26.339859,1.4347901,2.8371778
-26.396864,1.448668,2.8401046
-26.45113,1.4597073,2.8403597
-26.506674,1.472754,2.8428774
-26.558567,1.481724,2.8414297
-26.612226,1.4933076,2.8428645
-26.66185,1.500175,2.8396454
-26.718431,1.5163999,2.8462677
-26.75509,1.5070143,2.8266149
-26.825172,1.5420449,2.853116
-26.871334,1.5458839,2.8475094
-26.92058,1.5541906,2.8467135
-26.971455,1.5651307,2.8488436
-27.013735,1.5644529,2.839016
-27.071283,1.5856447,2.8522286
-27.11509,1.5877409,2.8456283
-27.168215,1.6036849,2.8537312
-27.217686,1.6148095,2.8569574
-27.264458,1.6223392,2.8565674
-27.305756,1.6218662,2.8478794
-27.353924,1.6321838,2.8507485
-27.399904,1.6395106,2.850614
-27.442589,1.6419389,2.8454318
-27.491045,1.6539559,2.8505921
-27.538132,1.6642315,2.854066
-27.585024,1.674654,2.85786
-27.63135,1.6845894,2.8612928
-27.674921,1.6902254,2.8602786
-27.719824,1.6985338,2.8622727
-27.764214,1.706342,2.8638797
-27.808102,1.7136469,2.8650913
-27.851158,1.719806,2.8652124
-27.973635,1.8756986,3.0270019
-28.034222,1.9188066,3.067533
-28.073334,1.9217482,3.064857
-28.106558,1.9132466,3.0499067
-28.157396,1.9401762,3.07347
-28.203384,1.9582675,3.0876207
-28.248741,1.9758608,3.1013894
-28.285345,1.9755352,3.095807
-28.298584,1.9242845,3.0348344
-28.330683,1.9131055,3.017562
-28.40648,2.0010488,3.1086388
-28.444492,2.0050373,3.108233
-28.481058,2.005889,3.1045074
-28.518665,2.009438,3.1038446
-28.555676,2.0117917,3.101983
-28.591606,2.0116444,3.0974836
-28.630285,2.0187588,3.101069
-28.66785,2.0233755,3.102024
-28.704845,2.026791,3.101768
-28.7413,2.0290015,3.1002927
-28.777252,2.0300033,3.097589
-28.815619,2.0383008,3.1030436
-28.853182,2.0447423,3.1065626
-28.888935,2.0460434,3.1045074
-28.924862,2.0480957,3.1033854
-28.960342,2.0489318,3.1010194
-28.996382,2.0518336,3.1010423
-29.031609,2.052201,3.0983567
-29.067549,2.0552948,3.098796
-29.103424,2.058485,3.099444
-29.138384,2.058476,3.0966382
-29.17416,2.0618553,3.0976977
-29.208279,2.0587316,3.0916219
-29.24275,2.0570161,3.0872054
-29.279308,2.0646396,3.093286
-29.314451,2.0664122,3.0929523
-29.34874,2.064309,3.0883923
-29.38293,2.0616324,3.0832844
-29.414429,2.0444767,3.0621076
-29.441965,2.0035484,3.0144606
-29.463015,1.9202607,2.9195461
-29.493843,1.8887062,2.8824735
-29.530365,1.8910456,2.8833666
-29.565983,1.8875089,2.8777885
-29.603441,1.8973379,2.8872585
-29.639307,1.8959794,2.8843136
-29.67519,1.8947132,2.8815675
-29.711737,1.8995187,2.8857179
-29.747997,1.9024253,2.8878422
-29.784203,1.905427,2.890171
-29.819756,1.9012079,2.8845062
-29.855864,1.9037306,2.8864932
-29.892006,1.9076765,2.890173
-29.92786,1.9077249,2.8895812
-29.965696,1.9511094,2.9376774
-30.001085,1.9493499,2.935256
-30.016626,1.2456713,2.145753
-30.056927,1.1755092,2.0667615
-30.106997,1.9046907,2.8843951
-30.142828,1.8933127,2.8715663
-30.17879,1.8920093,2.8701334
-30.214785,1.8901336,2.868155
-30.251188,1.8730445,2.8492126
-30.286804,1.888655,2.8670397
-30.322649,1.892379,2.8716326
-30.358906,1.8868823,2.865982
-30.394743,1.8901258,2.8702283
-30.430614,1.8921311,2.8731828
-30.46702,1.8869138,2.8681412
-30.503002,1.887775,2.870008
-30.53973,1.8807528,2.86314
-30.576376,1.8758214,2.8587155
-30.612286,1.8782916,2.8626776
-30.646217,1.8967915,2.8846812
-30.682337,1.8961208,2.8853168
-30.721064,1.8769634,2.8653703
-30.757278,1.8771505,2.867169
-30.793703,1.8761044,2.8676882
-30.829708,1.877805,2.8713756
-30.865572,1.8802607,2.8760028
-30.899086,1.8953905,2.8948774
-30.93285,1.9079518,2.9109688
-30.973063,1.887516,2.8903408
-31.009188,1.8883548,2.8935518
-31.046318,1.8846607,2.8918118
-31.082916,1.8837082,2.893228
-31.119694,1.8821914,2.8941183
-31.156343,1.8814306,2.8959522
-31.193684,1.8781297,2.895062
-31.230568,1.8769052,2.8965864
-31.266762,1.8784108,2.9012446
-31.303864,1.8767219,2.9024577
-31.341957,1.871844,2.9002395
-31.379358,1.869698,2.9011588
-31.415993,1.8702779,2.905202
-31.453669,1.8676741,2.905826
-31.491184,1.8658276,2.9073935
-31.52852,1.8647373,2.9099045
-31.566338,1.8624377,2.9111876
-31.604895,1.8582804,2.910531
-31.644957,1.850311,2.9057894
-31.68541,1.8418033,2.9005766
-31.724035,1.8386261,2.901349
-31.768312,1.8212304,2.8866162
-24.919102,1.174051,2.822579
-24.971378,1.1737177,2.806168
-25.027905,1.177541,2.793993
-25.0916,1.1884077,2.7889047
-25.209068,1.2510297,2.8346386
-25.293978,1.283731,2.8516517
-25.355316,1.2943227,2.847332
-25.419977,1.3085957,2.8468995
-25.476254,1.3150032,2.8389645
-25.569872,1.359308,2.8688588
-25.600437,1.3406074,2.8364973
-25.654533,1.3458712,2.8281288
-25.709085,1.3519006,2.8207383
-25.77411,1.369246,2.8249207
-25.828884,1.376256,2.818974
-25.886261,1.3863947,2.816399
-25.951054,1.4049926,2.8226166
-26.013906,1.4220519,2.8275447
-26.072723,1.4351876,2.8287392
-26.125492,1.4419913,2.8237095
-26.175508,1.4459922,2.8160129
-26.24929,1.4776137,2.8368244
-26.301472,1.484988,2.8330307
-26.355036,1.4943326,2.8314638
-26.406912,1.5020545,2.8284245
-26.460136,1.5117528,2.8276248
-26.51219,1.5204229,2.8259583
-26.565544,1.5310776,2.8265495
-26.617249,1.5400937,2.8256335
-26.669739,1.5504932,2.826354
-26.724873,1.564718,2.831273
-26.782087,1.5821781,2.839799
-26.828802,1.5863974,2.8346243
-26.877716,1.5938232,2.8329878
-26.928745,1.6044707,2.8349266
-26.978682,1.6140559,2.8359284
-27.02932,1.6250339,2.8385835
-27.079315,1.6355598,2.8409433
-27.13084,1.6487193,2.846282
-27.176147,1.6533847,2.8427553
-27.222202,1.6594279,2.8408513
-27.269796,1.6680975,2.8419127
-27.31476,1.6731846,2.8392992
-27.36367,1.684639,2.8436713
-27.408768,1.690633,2.842342
-27.456112,1.700515,2.8453512
-27.502876,1.7099199,2.8480072
-27.547928,1.7169623,2.8482695
-27.590569,1.7203722,2.844749
-27.636864,1.7301998,2.84832
-27.680397,1.7357595,2.847414
-27.724905,1.7433422,2.8488479
-27.768908,1.7504272,2.849885
-27.811716,1.7557464,2.8491397
-27.856491,1.7649944,2.8528194
-28.011028,1.9793601,3.0809026
-28.052666,1.987253,3.0836911
-28.069778,1.9481814,3.0351305
-28.103422,1.9403319,3.0208402
-28.166786,1.9919,3.071938
-28.205473,1.9951527,3.0701222
-28.248693,2.008109,3.079115
-28.293785,2.025681,3.0933394
-28.324942,2.013902,3.0753045
-28.369936,2.0323653,3.0907788
-28.411463,2.043902,3.0987387
-28.445795,2.0394783,3.0891476
-28.482927,2.0415838,3.0868912
-28.521616,2.0476606,3.0891533
-28.559662,2.0525565,3.0902176
-28.59838,2.059498,3.0936718
-28.632696,2.0555546,3.085122
-28.669767,2.0588214,3.0847015
-28.707249,2.063486,3.085948
-28.74487,2.0689037,3.0881448
-28.782385,2.0744262,3.090568
-28.818233,2.0755045,3.0881314
-28.855354,2.0805812,3.090271
-28.890896,2.081204,3.0875282
-28.927238,2.0845273,3.0879126
-28.96351,2.0879486,3.0885096
-28.998552,2.0875533,3.0849242
-29.034342,2.0898628,3.084474
-29.070446,2.093574,3.0857005
-29.105946,2.0954218,3.0849304
-29.140892,2.0954,3.0821552
-29.176489,2.098089,3.0825286
-29.211552,2.0989075,3.0808926
-29.246288,2.098507,3.0779772
-29.281464,2.1001647,3.077479
-29.317028,2.1038842,3.0794034
-29.351704,2.1037579,3.0770836
-29.384945,2.0964935,3.066791
-29.416695,2.0807662,3.0470152
-29.445404,2.046698,3.0065737
-29.465712,1.960048,2.9066973
-29.49779,1.9366119,2.8783932
-29.53411,1.9382746,2.8785877
-29.570297,1.939373,2.8782415
-29.606194,1.9385881,2.8758583
-29.642683,1.9425116,2.8789062
-29.678476,1.9412534,2.8761787
-29.714933,1.9460247,2.880385
-29.750708,1.9449525,2.8780603
-29.786737,1.9466124,2.878931
-29.82306,1.9523265,2.8844981
-29.85884,1.9521925,2.8835258
-29.894327,1.9475279,2.8775048
-29.93033,1.9508796,2.8806796
-29.968765,2.008493,2.9455671
-30.00421,2.0133576,2.9506574
-30.019178,1.2968163,2.1365018
-30.05755,1.1306844,1.947514
-30.100122,1.0835874,1.8938298
-30.14505,2.011922,2.9482274
-30.18029,2.0093114,2.9452958
-30.215641,2.0028267,2.9380565
-30.251156,1.9944515,2.9287648
-30.28655,1.9940958,2.9286776
-30.321526,2.0037408,2.9400387
-30.358282,1.9758241,2.9088426
-30.39381,1.9764051,2.910102
-30.429605,1.9731157,2.907062
-30.46489,1.977181,2.912466
-30.500624,1.9753954,2.9113226
-30.621178,1.0940516,1.912426
-30.667297,1.0689292,1.8852406
-30.710552,1.072953,1.8912354
-30.64226,1.9823668,2.9237103
-30.67803,1.981041,2.923563
-30.834702,1.1225822,1.952457
-30.848312,1.3206754,2.1786814
-30.892723,1.3027709,2.1603255
-30.94364,1.2481353,2.1005292
-30.86215,1.948178,2.8946023
-30.898796,1.9447937,2.8927226
-30.93666,1.9355915,2.884367
-30.969742,1.9507961,2.9036913
-31.011494,1.9240623,2.8757405
-31.047619,1.9250095,2.879159
-31.083733,1.9260509,2.8827815
-31.120619,1.923909,2.8829117
-31.15755,1.9218647,2.8832536
-31.194864,1.9186094,2.8823347
-31.231543,1.9180698,2.8845763
-31.26842,1.9169736,2.8862925
-31.305325,1.9159746,2.8882184
-31.343212,1.9118104,2.8866935
-31.380985,1.9084008,2.8861222
-31.418015,1.9077005,2.8886967
-31.455063,1.9070985,2.8914843
-31.492132,1.906594,2.894483
-31.529,1.9068394,2.898426
-31.567455,1.9026363,2.8974967
-31.605762,1.8991868,2.8975224
-31.644854,1.8938985,2.8956065
-31.68502,1.8861282,2.891037
-31.72409,1.8817077,2.8903213
-31.761211,1.8825674,2.8955956
-24.797539,1.1632643,2.761219
-24.867031,1.177638,2.7589574
-24.963308,1.2170498,2.7815661
-25.101624,1.2963893,2.8439465
-25.165388,1.3078153,2.8399744
-25.241566,1.3313975,2.8483171
-25.292894,1.3319283,2.8340912
-25.36194,1.3497539,2.837308
-25.417177,1.3546705,2.8279119
-25.465326,1.3528879,2.8120122
-25.56026,1.3978648,2.8433447
-25.611477,1.3999639,2.831851
-25.675135,1.4149542,2.8336005
-25.730637,1.4220567,2.8276072
-25.791588,1.4351618,2.827941
-25.852852,1.4490654,2.8293405
-25.912218,1.4614353,2.8294177
-25.973534,1.4763556,2.832353
-26.031883,1.4885602,2.8327413
-26.090008,1.5009689,2.833571
-26.145254,1.5106316,2.8317924
-26.200844,1.5210733,2.8310323
-26.255718,1.5311124,2.8300686
-26.310915,1.5419319,2.8301272
-26.367949,1.5553184,2.8330793
-26.422714,1.5665176,2.8339615
-26.47927,1.5802927,2.8377552
-26.534088,1.5924661,2.8400836
-26.588188,1.6042261,2.8421817
-26.641098,1.6149659,2.8434052
-26.69093,1.6222672,2.841185
-26.74441,1.6345599,2.844439
-26.797659,1.6470327,2.848084
-26.847427,1.6554399,2.8475938
-26.899784,1.6676533,2.8513432
-26.95554,1.68491,2.8606796
-27.00022,1.6877232,2.8547468
-27.049704,1.697393,2.8563237
-27.098127,1.7059984,2.8569312
-27.145515,1.7135317,2.8565516
-27.19361,1.7224431,2.857823
-27.240263,1.7296615,2.857428
-27.28719,1.7376418,2.858018
-27.33396,1.74577,2.8589272
-27.378944,1.7515695,2.8574624
-27.426212,1.7612245,2.860345
-27.4729,1.7704079,2.862874
-27.51824,1.7778723,2.8636823
-27.562275,1.7836084,2.8627481
-27.606194,1.7894771,2.8621025
-27.649616,1.7948534,2.8610563
-27.69256,1.7997344,2.8596053
-27.736126,1.8059947,2.859809
-27.78028,1.8136411,2.8616786
-27.820408,1.8145094,2.856207
-27.88234,1.8551304,2.8948102
-28.016874,2.0314453,3.0838823
-28.04898,2.0215912,3.0671964
-28.079592,2.0086544,3.0471697
-28.1195,2.0135005,3.0469809
-28.163454,2.0266984,3.0562077
-28.177387,1.9797745,2.9985914
-28.239843,2.0312736,3.0507512
-28.297146,2.0740998,3.0934653
-28.32728,2.0604694,3.0732718
-28.369862,2.0736766,3.083188
-28.417048,2.0978622,3.1055427
-28.453722,2.099203,3.1024327
-28.492002,2.1044812,3.103848
-28.528564,2.1060264,3.101183
-28.565876,2.1095953,3.1008978
-28.60414,2.1158342,3.1037292
-28.640015,2.1164014,3.1002784
-28.676605,2.118994,3.099214
-28.713139,2.121687,3.0983677
-28.749376,2.1238358,3.0970097
-28.786936,2.1299512,3.1002407
-28.823708,2.1342366,3.1015096
-28.85974,2.1366851,3.100801
-28.896984,2.1431098,3.104703
-28.933489,2.1476972,3.1066265
-28.9681,2.1465569,3.102149
-29.003304,2.1474516,3.100078
-29.039612,2.1523304,3.1026335
-29.074728,2.1534147,3.1009731
-29.108753,2.150695,3.095076
-29.143162,2.1493628,3.0908504
-29.17841,2.1513712,3.0905266
-29.213453,2.152823,3.0896616
-29.248617,2.1550176,3.0897403
-29.283289,2.1553512,3.0877895
-29.317804,2.1551237,3.08529
-29.352726,2.1569421,3.0852213
-29.386435,2.1529794,3.0786357
-29.41697,2.1321263,3.0528102
-29.441938,2.0786805,2.9897451
-29.46763,2.0239694,2.925274
-29.49804,1.9921851,2.887113
-29.533867,1.9918642,2.8850794
-29.569597,1.9909809,2.8824964
-29.605963,1.9947715,2.8853664
-29.642422,1.9999676,2.889947
-29.678396,2.0019834,2.890976
-29.713898,2.0001626,2.8876953
-29.749626,2.000398,2.886869
-29.785524,2.0026925,2.8885012
-29.821054,2.001146,2.8858166
-29.856947,2.0042813,2.8886027
-29.892862,2.0088212,2.8930979
-29.927345,1.989181,2.8699026
-29.96634,2.0588596,2.9494438
-30.001287,2.0544953,2.943993
-30.03665,2.0620334,2.9523149
-30.053362,1.1305175,1.8812861
-30.096088,1.0646939,1.8054223
-30.141853,2.052377,2.9407363
-30.17706,2.0458374,2.9332447
-30.212244,2.0479214,2.9357572
-30.247456,2.0474703,2.9354477
-30.282923,2.0398912,2.9270368
-30.317932,2.0461833,2.9346633
-30.353342,2.042724,2.9311724
-30.388615,2.042636,2.9316502
-30.4249,2.0282097,2.9157476
-30.459995,2.0322404,2.9211445
-30.496983,2.0140698,2.901136
-30.62269,1.0849383,1.8352771
-30.667318,1.0783465,1.8290062
-30.711313,1.0784223,1.8305068
-30.756044,1.0727172,1.8254924
-30.79879,1.0828419,1.8387527
-30.705101,2.0524726,2.9523091
-30.846598,1.3493845,2.147911
-30.885351,1.3675756,2.1706395
-30.93185,1.3381436,2.138915
-30.851229,2.0255783,2.928094
-30.886513,2.0274258,2.9320989
-30.925484,2.0104349,2.9146466
-30.961014,2.0118208,2.9183211
-31.001276,1.9911287,2.8968554
-31.037983,1.9881489,2.895743
-31.073996,1.9885228,2.8985596
-31.111263,1.9837825,2.895636
-31.147808,1.9823959,2.8966403
-31.184217,1.9817553,2.8985944
-31.220121,1.98316,2.9029765
-31.25673,1.9820609,2.904605
-31.293552,1.9804091,2.9057045
-31.33118,1.9762638,2.9040694
-31.368692,1.9728677,2.9033918
-31.406275,1.9695733,2.902934
-31.442879,1.9696138,2.906365
-31.48035,1.9671669,2.9070768
-31.517435,1.9661129,2.909471
-31.553642,1.9677374,2.914999
-31.593082,1.9604359,2.910533
-31.63385,1.9500265,2.9026713
-31.67311,1.9442375,2.9001493
-31.709988,1.9449852,2.9051118
-31.749414,1.9394116,2.9030561
-31.799637,1.907659,2.8716493
-24.70593,1.1685321,2.7252593
-24.84705,1.2458043,2.784996
-24.928015,1.2707117,2.793645
-25.002401,1.2903433,2.7974272
-25.099655,1.3315744,2.8230624
-25.171967,1.350707,2.827077
-25.230711,1.3577049,2.8192425
-25.310211,1.3847027,2.8317657
-25.375624,1.3989685,2.831802
-25.438427,1.4111981,2.8300529
-25.552895,1.474397,2.880312
-25.57666,1.4494834,2.841412
-25.632935,1.4566915,2.8353496
-25.691912,1.466965,2.8326454
-25.753515,1.4803264,2.8333507
-25.815434,1.4944849,2.835126
-25.870438,1.501919,2.8302093
-25.931341,1.5159233,2.8323073
-25.990898,1.528981,2.8336682
-26.050753,1.5428319,2.8360915
-26.108212,1.5545566,2.8365345
-26.16492,1.5658951,2.8367977
-26.221415,1.577429,2.837484
-26.279251,1.5909247,2.8404503
-26.332201,1.5993121,2.8382587
-26.388046,1.611424,2.8401985
-26.441643,1.6213572,2.840043
-26.493046,1.6290953,2.8377585
-26.544294,1.6370032,2.8358421
-26.591465,1.6403084,2.829204
-26.652622,1.6610918,2.8414001
-26.722042,1.692874,2.8656096
-26.796593,1.7321186,2.8981133
-26.869041,1.7698479,2.9293022
-26.90505,1.7614627,2.9111218
-26.941181,1.7531703,2.8931422
-26.991966,1.7643263,2.8962955
-27.014256,1.7374701,2.8584447
-27.065384,1.7494953,2.8628254
-27.11102,1.7543898,2.859633
-27.157417,1.760644,2.8580732
-27.204113,1.7676528,2.8574948
-27.24982,1.7735851,2.855896
-27.295822,1.7802706,2.8552728
-27.344158,1.7907822,2.8590016
-27.389444,1.7971442,2.858334
-27.435802,1.8054931,2.860002
-27.479223,1.8096688,2.8572235
-27.523335,1.8152101,2.856091
-27.570408,1.8258355,2.860724
-27.615757,1.8341298,2.8629313
-27.659071,1.8394599,2.8619986
-27.703009,1.8461628,2.8627276
-27.747538,1.8542438,2.8651304
-27.789757,1.8587186,2.863658
-27.831528,1.8626931,2.8617582
-27.902359,1.9193294,2.9188213
-28.02477,2.0726955,3.0843844
-28.051388,2.052852,3.056479
-28.097506,2.069486,3.0695376
-28.137789,2.0755763,3.0709114
-28.17699,2.0798967,3.0704165
-28.217981,2.0881119,3.0744271
-28.25758,2.0939248,3.0758543
-28.29736,2.1004846,3.0782456
-28.332554,2.0976665,3.0701628
-28.375942,2.112684,3.082347
-28.42105,2.1322773,3.0998502
-28.45739,2.1329594,3.0960703
-28.493153,2.1324682,3.0910616
-28.530794,2.13653,3.0913224
-28.5694,2.1432462,3.0947094
-28.607616,2.1494346,3.0976105
-28.643948,2.1512623,3.0956564
-28.68097,2.155106,3.0961027
-28.716707,2.1558528,3.093122
-28.754297,2.1618207,3.0961995
-28.79154,2.167252,3.098774
-28.828003,2.170863,3.099372
-28.863737,2.1726465,3.0979795
-28.89943,2.1745267,3.096798
-28.935898,2.1790762,3.098773
-28.971075,2.1798623,3.0965347
-29.00642,2.1813865,3.0952377
-29.042294,2.1849394,3.0963674
-29.07791,2.1879435,3.0969658
-29.111692,2.1845868,3.090345
-29.14741,2.1884236,3.0920906
-29.18222,2.1891243,3.090323
-29.21685,2.189269,3.0880075
-29.251776,2.1907992,3.0873818
-29.286816,2.1930697,3.0877023
-29.321236,2.1928396,3.0852323
-29.356197,2.195293,3.08595
-29.38941,2.1894038,3.077125
-29.420853,2.173859,3.0572252
-29.446392,2.1246123,2.998436
-29.469425,2.0559156,2.917194
-29.501291,2.0334077,2.8894272
-29.536797,2.0317864,2.885912
-29.573086,2.0354614,2.8886213
-29.608948,2.036628,2.8885221
-29.644447,2.035283,2.8856063
-29.680277,2.0366344,2.8859067
-29.71622,2.0393825,2.8879209
-29.751846,2.0396168,2.8871136
-29.787342,2.038639,2.884994
-29.82318,2.0416644,2.887609
-29.858715,2.0415223,2.886644
-29.893953,2.0369062,2.8805795
-29.929783,2.0415125,2.8853083
-29.967607,2.0905766,2.94173
-30.002789,2.0934148,2.9445977
-30.037767,2.0911238,2.9416027
-30.072706,2.0850074,2.9342566
-30.097063,1.0843923,1.772438
-30.142918,2.076306,2.9239364
-30.178074,2.0809016,2.9292994
-30.21303,2.0927658,2.943191
-30.248102,2.0916681,2.942124
-30.283194,2.09066,2.9412537
-30.317795,2.1014867,2.9542108
-30.352953,2.0980487,2.9506993
-30.388659,2.086874,2.938303
-30.423737,2.0875323,2.9397306
-30.459375,2.0811088,2.9330335
-30.494324,2.083904,2.9371243
-30.627804,1.0785441,1.7722483
-30.675655,1.0452957,1.7349982
-30.718296,1.0623376,1.7561707
-30.761856,1.069715,1.7662511
-30.806072,1.0713441,1.7697835
-30.849424,1.078944,1.780345
-30.848003,1.3800223,2.130762
-30.882994,1.4215331,2.1806674
-30.928753,1.3955214,2.1525345
-30.851889,2.0556777,2.9179926
-30.88397,2.0744097,2.941516
-30.929699,2.0224721,2.8834643
-30.958801,2.055658,2.9238672
-31.000467,2.0279584,2.8940458
-31.036808,2.0263014,2.8943968
-31.074093,2.0208554,2.8904767
-31.10991,2.021981,2.8942327
-31.14604,2.0219066,2.8967
-31.182348,2.02128,2.8986282
-31.219376,2.0181656,2.897791
-31.255924,2.0170865,2.899396
-31.292315,2.0167487,2.9019508
-31.329874,2.012641,2.9002743
-31.366526,2.0118546,2.902513
-31.403404,2.010522,2.9042253
-31.440105,2.0099306,2.906887
-31.477476,2.0075104,2.907555
-31.514898,2.005191,2.9084415
-31.552599,2.002331,2.9088154
-31.591293,1.9970117,2.9064841
-31.629854,1.99244,2.905118
-31.669239,1.9860575,2.9017963
-31.710247,1.9759533,2.89435
-31.745832,1.9800086,2.903143
-31.79545,1.9497302,2.8729901
-24.74678,1.2471509,2.7414627
-24.905909,1.339855,2.8179178
-24.982792,1.3613052,2.823771
-25.03465,1.3608446,2.8079305
-25.108515,1.3805983,2.8126879
-25.185066,1.4034264,2.8208828
-25.258808,1.4243097,2.8274431
-25.352512,1.464565,2.854065
-25.40518,1.4669218,2.8423972
-25.47309,1.4841301,2.8461528
-25.54828,1.50895,2.8580222
-25.58017,1.4920642,2.8272185
-25.65368,1.5162148,2.8389258
-25.71138,1.5252442,2.8352723
-25.764385,1.5298994,2.8272972
-25.831852,1.5496378,2.8352485
-25.888409,1.5587065,2.832325
-25.950294,1.5737324,2.835865
-26.003174,1.5797386,2.830173
-26.058628,1.5888162,2.8279147
-26.114975,1.5992441,2.8272934
-26.172716,1.6116116,2.8289423
-26.228117,1.6218481,2.8285499
-26.284363,1.6334426,2.8298135
-26.351738,1.6581187,2.845242
-26.420206,1.6848073,2.8630986
-26.502361,1.728229,2.899167
-26.553686,1.7365935,2.8979445
-26.606827,1.7474926,2.8996348
-26.653374,1.7508721,2.8934107
-26.681862,1.7324364,2.8637638
-26.721703,1.7277346,2.8490515
-26.782528,1.7493672,2.8630457
-26.850014,1.7801766,2.8872557
-26.900656,1.7902942,2.8891878
-26.95202,1.8017776,2.8927913
-27.036375,1.8572898,2.9447489
-27.035643,1.800576,2.874053
-27.077656,1.8004591,2.8654113
-27.115696,1.7950275,2.8510528
-27.165525,1.8060427,2.8549309
-27.216427,1.8190401,2.8611708
-27.262846,1.8261294,2.8610544
-27.308699,1.8327549,2.860579
-27.3507,1.8340359,2.8543215
-27.397547,1.8427689,2.8564777
-27.441807,1.8479779,2.854866
-27.486746,1.854547,2.8549128
-27.533506,1.8643234,2.8586855
-27.577757,1.8705578,2.8586516
-27.62226,1.8775423,2.859599
-27.666616,1.8846622,2.860839
-27.70898,1.888829,2.858903
-27.75307,1.8962128,2.8607178
-27.79486,1.9000142,2.858632
-27.832678,1.8971105,2.8491116
-27.964048,2.061478,3.0286741
-28.032606,2.1175153,3.086289
-28.070192,2.11835,3.0816455
-28.110064,2.1236577,3.0821843
-28.151775,2.1328328,3.087234
-28.189468,2.1346242,3.0840216
-28.223024,2.1283772,3.0717664
-28.264086,2.1372707,3.0768523
-28.29891,2.1337245,3.0678725
-28.348064,2.1604571,3.0935683
-28.385921,2.1640556,3.0929823
-28.427135,2.1753259,3.1012864
-28.461397,2.1715736,3.0925045
-28.500385,2.178651,3.0962348
-28.53977,2.1871064,3.1016612
-28.576088,2.1887114,3.0993328
-28.612364,2.1904151,3.097219
-28.647839,2.1903148,3.09313
-28.68552,2.1960258,3.0958333
-28.723085,2.2018435,3.0987682
-28.759827,2.2058578,3.0997262
-28.79465,2.2048767,3.0950184
-28.83037,2.2065384,3.0934591
-28.867357,2.212125,3.096538
-28.903807,2.2165375,3.0983615
-28.93748,2.2127395,3.0907717
-28.973822,2.2173445,3.0930123
-29.009092,2.2188478,3.0917544
-29.04527,2.2236488,3.09442
-29.080986,2.2272666,3.0958104
-29.116982,2.2322633,3.0989017
-29.150986,2.2302945,3.093987
-29.184687,2.227128,3.0877671
-29.219395,2.2279058,3.0862284
-29.254078,2.2287755,3.084886
-29.288591,2.2290924,3.0829906
-29.323801,2.23272,3.0850492
-29.358664,2.235152,3.0858054
-29.390858,2.2247784,3.071702
-29.421108,2.2035139,3.0449567
-29.447212,2.1577868,2.9896932
-29.46984,2.0875652,2.9058418
-29.502,2.0671241,2.8802366
-29.53757,2.0661511,2.8774824
-29.573822,2.0697958,2.8802218
-29.611347,2.0832393,2.894528
-29.646358,2.0793123,2.8885937
-29.682528,2.0845368,2.8934689
-29.71802,2.0846758,2.8924804
-29.753504,2.0849068,2.8916888
-29.789341,2.089116,2.8956537
-29.824553,2.0869386,2.8922234
-29.859947,2.0867956,2.8912678
-29.895384,2.0873923,2.8912706
-29.930511,2.0828934,2.885388
-29.968859,2.1446252,2.9572845
-30.003716,2.1448534,2.9571333
-30.038414,2.139982,2.951089
-30.073397,2.1449287,2.9566522
-30.107937,2.1181824,2.9251194
-30.140915,1.0244937,1.6417933
-30.18599,1.0193393,1.6357803
-30.231083,1.0188408,1.635344
-30.276184,1.0184586,1.6351604
-30.321249,1.0194893,1.6367502
-30.366154,1.0238783,1.642395
-30.411083,1.0264366,1.6460066
-30.456087,1.0271654,1.6475863
-30.50108,1.0280097,1.6494169
-30.545643,1.0341544,1.657577
-30.591541,1.024214,1.6469941
-30.633484,1.0564997,1.6860204
-30.677628,1.0629802,1.69491
-30.723316,1.05533,1.687356
-30.634247,2.1208723,2.9367585
-30.80823,1.0915029,1.7328749
-30.841679,1.1689222,1.8252325
-30.84224,1.4519892,2.1582646
-30.883287,1.4538207,2.1622362
-30.926966,1.4402549,2.1483097
-30.851244,2.0892777,2.9089112
-30.883654,2.1059692,2.9302578
-30.923468,2.0840328,2.9065719
-30.951609,2.1202354,2.9508657
-30.999544,2.062415,2.8855133
-31.03278,2.0743034,2.9016094
-31.070814,2.065032,2.893124
-31.105715,2.0693738,2.900601
-31.141033,2.0718753,2.906025
-31.17767,2.0693283,2.905665
-31.214886,2.0649533,2.9032774
-31.251827,2.0619624,2.9025998
-31.290138,2.0545826,2.896925
-31.325321,2.0581987,2.904119
-31.361637,2.0580647,2.9070554
-31.398577,2.0561073,2.9079738
-31.434933,2.0561666,2.9113293
-31.472591,2.0524917,2.910459
-31.507893,2.0559359,2.9179263
-31.545187,2.0537353,2.9189634
-31.582996,2.050362,2.9187484
-31.6235,2.040096,2.910686
-31.66176,2.0363026,2.9102058
-31.70135,2.0294404,2.9062967
-31.739285,2.0271308,2.9077425
-31.787987,1.9989512,2.8795547
-24.758438,1.3533502,2.7899022
-24.862577,1.3968165,2.8179054
-24.935907,1.41446,2.8202014
-25.003325,1.4274447,2.8180747
-25.072353,1.4423308,2.8181763
-25.131918,1.4491968,2.8103528
-25.235132,1.4961178,2.843955
-25.307964,1.5162787,2.8504472
-25.385822,1.5417271,2.8627253
-25.449562,1.5546436,2.862342
-25.549028,1.6019258,2.8979893
-25.558762,1.5643396,2.8455143
-25.614937,1.5711539,2.8394704
-25.66349,1.570828,2.826148
-25.738277,1.5966718,2.8405457
-25.797886,1.6080613,2.8400064
-25.850542,1.6128414,2.832707
-25.90754,1.6223555,2.830624
-25.965454,1.6332102,2.8301864
-26.036821,1.6585851,2.845461
-26.11152,1.6882505,2.865621
-26.188372,1.7210815,2.8894916
-26.269953,1.7599819,2.9202118
-26.3129,1.7575741,2.9067907
-26.333939,1.7309523,2.867364
-26.371956,1.722935,2.8480883
-26.42237,1.7289937,2.8441925
-26.497498,1.7638109,2.8717365
-26.55192,1.7755253,2.874426
-26.611082,1.7932878,2.8839188
-26.649748,1.7871768,2.8675156
-26.69093,1.7841144,2.854567
-26.747547,1.8000484,2.8626184
-26.793858,1.8037648,2.857429
-26.846678,1.8159187,2.861701
-26.8932,1.8205342,2.857831
-26.976952,1.8734705,2.907627
-27.03651,1.8963504,2.9244313
-27.066813,1.8812296,2.8992171
-27.087116,1.8524144,2.8588195
-27.129902,1.8535805,2.8518863
-27.174816,1.8578756,2.8485813
-27.22092,1.8641136,2.8475962
-27.266891,1.8704951,2.8469238
-27.312725,1.8770194,2.8465605
-27.360903,1.8873158,2.8505898
-27.406425,1.8941302,2.8508554
-27.450598,1.8992658,2.8493733
-27.495848,1.9063587,2.8502421
-27.541342,1.9141998,2.8521028
-27.584354,1.9185226,2.8501205
-27.628414,1.9248061,2.8504963
-27.673466,1.9330597,2.8532505
-27.717237,1.9396126,2.8542113
-27.761602,1.947526,2.8568592
-27.801853,1.9488115,2.852076
-27.846659,1.9582162,2.8566961
-28.00306,2.1656895,3.0882611
-28.039543,2.1645384,3.0813494
-28.075691,2.1628687,3.073945
-28.113842,2.165013,3.071023
-28.157478,2.1778064,3.0804667
-28.204071,2.196945,3.0973597
-28.240541,2.1969619,3.092349
-28.277302,2.197701,3.088275
-28.308567,2.1873229,3.0714502
-28.34507,2.1876266,3.0670629
-28.403189,2.2342694,3.1164622
-28.430624,2.2160609,3.0908623
-28.465963,2.214817,3.085012
-28.503511,2.2186847,3.0851955
-28.541246,2.2232852,3.086339
-28.577824,2.225479,3.084786
-28.61564,2.2309186,3.0871181
-28.653091,2.2358356,3.0889473
-28.689697,2.2389667,3.0887957
-28.725266,2.2396746,3.085915
-28.76128,2.241741,3.0847187
-28.797474,2.2445385,3.0844746
-28.833603,2.2474344,3.084445
-28.870102,2.2516954,3.086114
-28.906725,2.2566907,3.0887432
-28.943037,2.2611532,3.0908484
-28.977448,2.2599995,3.0864553
-29.013428,2.2640204,3.088233
-29.049515,2.2687752,3.0909724
-29.084217,2.269173,3.0886798
-29.119259,2.270936,3.088087
-29.1546,2.274067,3.0891976
-29.188879,2.2734659,3.0860014
-29.223158,2.272954,3.0829997
-29.258055,2.2750862,3.0832067
-29.29216,2.2741156,3.0798411
-29.326702,2.2751513,3.0789328
-29.361082,2.2756383,3.0774646
-29.393478,2.2666132,3.0648355
-29.425781,2.2563868,3.0508637
-29.448725,2.1949792,2.9763904
-29.473467,2.1374495,2.9065404
-29.505169,2.115233,2.8785582
-29.54144,2.1193957,2.8819065
-29.577911,2.12558,2.887744
-29.613098,2.1235127,2.883893
-29.649324,2.129244,2.88938
-29.684189,2.12479,2.8828769
-29.719421,2.1229956,2.8796177
-29.754879,2.12322,2.8788424
-29.79069,2.1273947,2.8828473
-29.826311,2.130376,2.8855267
-29.86163,2.1302326,2.884585
-29.896694,2.1263201,2.8792553
-29.934505,2.1694767,2.9299293
-29.971243,2.2069433,2.9739428
-30.005672,2.2026658,2.9684534
-30.039782,2.1849573,2.9470916
-30.074472,2.1802123,2.9412189
-30.109032,2.1555967,2.91182
-30.14203,1.0571175,1.6063509
-30.187195,1.0552232,1.6041379
-30.232416,1.0521581,1.6006465
-30.277493,1.0569346,1.606585
-30.322506,1.0611825,1.6120105
-30.36801,1.0526721,1.6023922
-30.412811,1.0603702,1.6121426
-30.457716,1.064321,1.6175537
-30.502548,1.0683868,1.6232152
-30.548454,1.0584149,1.6123195
-30.59275,1.0685005,1.6253543
-30.637884,1.0684104,1.626421
-30.682606,1.0722928,1.6323156
-30.730135,1.0518706,1.6094851
-30.77046,1.091322,1.6578021
-30.805256,1.1661842,1.7481999
-30.845963,1.191035,1.7793708
-30.845638,1.4784424,2.1217928
-30.7691,2.1987078,2.9769049
-30.812992,2.1464846,2.9166675
-30.844757,2.166178,2.9417028
-30.885986,2.1346984,2.9062524
-30.920982,2.1372755,2.9112086
-30.952442,2.1565795,2.93603
-30.995903,2.1196728,2.8944926
-31.031713,2.1193357,2.896284
-31.067387,2.11973,2.8990335
-31.104166,2.115749,2.8967094
-31.14119,2.1112282,2.8938465
-31.177626,2.1093576,2.894207
-31.213928,2.108221,2.8955288
-31.249357,2.1103637,2.900805
-31.287186,2.1043277,2.8965487
-31.323784,2.1028454,2.8977504
-31.360817,2.1001906,2.8976727
-31.398317,2.0963657,2.896319
-31.432745,2.1021557,2.9063492
-31.469454,2.1010623,2.9083939
-31.507524,2.096269,2.9062014
-31.545012,2.093478,2.9064598
-31.58186,2.0926847,2.9091563
-31.619213,2.090728,2.9105916
-31.66053,2.0787833,2.9004636
-31.69832,2.0764098,2.901626
-31.73719,2.0716233,2.9000802
-31.775898,2.067575,2.8995023
-24.725874,1.3776338,2.7436547
-24.873936,1.4578035,2.8101583
-24.942198,1.4708598,2.8082452
-25.035133,1.5059228,2.8293757
-25.10148,1.5184596,2.82757
-25.187847,1.5492916,2.8450775
-25.258436,1.5667574,2.8490243
-25.344425,1.5987928,2.8685246
-25.407644,1.6107635,2.86734
-25.461702,1.614666,2.8579168
-25.571785,1.6714504,2.9045548
-25.576565,1.6296952,2.8473287
-25.64306,1.6464338,2.8521652
-25.69829,1.6527934,2.8462176
-25.755669,1.6615853,2.8430767
