x,y,z
-7.0366383,2.0788217,0.705101
-7.2482414,2.0474753,0.62517214
-7.154234,1.9638863,0.454381
-7.076771,1.8823581,0.2869506
-24.455053,3.1535735,1.9303336
-24.518003,3.1514196,1.9231033
-24.572145,3.1451006,1.907743
-24.63026,3.1409986,1.8967733
-24.679743,3.1326618,1.8775234
-24.707684,3.1131687,1.8363647
-24.722984,3.0868304,1.7817488
-24.731735,3.056665,1.7195959
-24.739847,3.0257485,1.6559529
-24.752438,2.9968703,1.596314
-24.765638,2.9679546,1.5365953
-24.75629,2.9259548,1.4510655
-24.764061,2.8930154,1.3833818
-24.753447,2.8489778,1.2937803
-24.74569,2.805852,1.2059474
-24.744999,2.766169,1.124888
-24.753036,2.731061,1.0528479
-24.754097,2.6911757,0.9713502
-24.743637,2.6435468,0.87451553
-24.729017,2.5924652,0.7708168
-24.761013,2.569793,0.72331905
-24.752481,2.5210292,0.6241617
-24.765125,2.485041,0.55028343
-34.594063,2.4789865,0.5048528
-34.59896,2.5234797,0.5954428
-34.634735,2.543489,0.6373043
-34.62912,2.5944223,0.74068165
-34.62278,2.6448212,0.84296894
-34.63194,2.6828077,0.92055845
-34.637043,2.723015,1.0025473
-34.655064,2.753242,1.0646949
-34.642788,2.8042932,1.1681895
-34.63199,2.8532796,1.2675524
-34.620552,2.9017215,1.3658047
-34.642277,2.9267569,1.4175954
-34.653965,2.9581432,1.4819813
-34.66269,2.9909701,1.5492129
-34.67579,3.020402,1.6097064
-34.69053,3.04832,1.6671948
-34.711025,3.0721679,1.7166181
-34.73394,3.0941887,1.762425
-34.75582,3.1165895,1.8089895
-34.792084,3.1299276,1.8376317
-34.82694,3.1440752,1.8678908
-34.863976,3.156863,1.8954787
-34.900204,3.1701014,1.9239745
-34.97856,3.1588087,1.9040546
-35.010994,3.174463,1.9373741
-35.059364,3.1809924,1.9527063
-35.12341,3.1788726,1.951015
-35.170586,3.1864462,1.968473
-35.14759,3.2325284,2.0618167
-35.11259,3.2842956,2.1663103
-35.11646,3.3143685,2.2280545
-35.107944,3.350555,2.3018103
-35.127487,3.371552,2.3456755
-35.14265,3.3946009,2.3935747
-35.165337,3.4135725,2.4334626
-35.19035,3.4312232,2.470765
-35.222466,3.445226,2.500917
-35.257755,3.4576383,2.527967
-35.29219,3.4704754,2.55587
-35.94836,3.185068,1.9996533
-36.042522,3.1731007,1.9793787
-36.108612,3.1749074,1.9861307
-36.182556,3.1733856,1.9864283
-36.247555,3.1763453,1.9955425
-36.33183,3.1708746,1.9882469
-36.410725,3.1682954,1.9866657
-36.517906,3.1536481,1.9616175
-36.586647,3.156494,1.9707623
-36.69331,3.1432867,1.9486966
-36.766163,3.1451855,1.9561338
-36.855347,3.1405437,1.950912
-36.947815,3.135032,1.9440799
-37.026512,3.1357148,1.9493637
-37.074,3.1494803,1.9801102
-37.12885,3.160371,2.0053124
-37.235012,3.1510248,1.9913435
-37.789124,2.9663918,1.6380601
-37.82981,2.9857783,1.6801629
-37.850258,3.012926,1.7372947
-37.87639,3.037737,1.7899132
-37.957157,3.0419567,1.8027978
-38.05675,3.0395687,1.8030148
-38.101826,3.057646,1.842762
-38.230865,3.0454185,1.8242054
-38.30117,3.0549376,1.8476119
-38.42946,3.0442505,1.8322554
-38.5479,3.0377433,1.8250628
-38.57456,3.0635183,1.8799105
-38.686165,3.0602634,1.8791475
-38.81834,3.0506802,1.8663931
-38.89495,3.060313,1.8905292
-39.0132,3.0565746,1.8892016
-39.094093,3.0655754,1.9123144
-39.24005,3.054057,1.8964014
-39.300606,3.0704024,1.9337077
-39.42824,3.06594,1.9315028
-39.489582,3.0826259,1.9696174
-39.66458,3.064819,1.9423528
-39.73529,3.079449,1.9767709
-39.869164,3.0755272,1.9761524
-39.967854,3.0826435,1.996562
-40.10065,3.0803087,1.9992456
-40.23891,3.0770931,2.0004363
-40.324448,3.0895073,2.0312257
-40.45981,3.0883467,2.036594
-40.63777,3.0761364,2.0213938
-40.713318,3.0927725,2.0605073
-40.905163,3.07844,2.0417438
-41.095066,3.065691,2.026205
-41.196373,3.0771627,2.056127
-41.34861,3.075918,2.062489
-41.524975,3.0693042,2.0590777
-41.647926,3.0770457,2.0825734
-41.783417,3.0822475,2.1015282
-41.962666,3.0773935,2.1020713
-42.15753,3.0697083,2.0976505
-42.334137,3.0674014,2.1034393
-42.428562,3.085282,2.146634
-42.60569,3.0843909,2.1554914
-42.83103,3.0733998,2.1461163
-42.990902,3.0783396,2.166233
-43.22545,3.0674992,2.1578078
-43.400528,3.070903,2.1757016
-43.632484,3.0629225,2.1732001
-43.825634,3.0643945,2.1882195
-44.08062,3.053907,2.181942
-44.29205,3.053735,2.1947112
-44.55,3.0451975,2.1928
-44.70307,3.0589623,2.2313604
-44.91554,3.061744,2.2505326
-45.15807,3.059763,2.261592
-45.36003,3.0667534,2.28906
-45.560337,3.0750399,2.319201
-45.771133,3.0823624,2.3480115
-46.171715,3.056245,2.3182902
-46.41532,3.0603275,2.3424277
-46.68374,3.0612645,2.3615437
-46.94026,3.0656118,2.3871536
-47.269043,3.058968,2.3941903
-47.563293,3.0597825,2.4148388
-47.889313,3.0568748,2.4296994
-48.26821,3.0471134,2.433505
-48.625824,3.0426831,2.447278
-48.939995,3.0468345,2.4764748
-49.336876,3.0399475,2.4876876
-49.66336,3.0456395,2.5210562
-50.117996,3.034148,2.5263658
-50.520386,3.0325322,2.549285
-50.887585,3.0379357,2.5848632
-51.29473,3.0396562,2.615291
6.5069447,1.9778299,0.8134146
5.907934,1.9451466,0.71223545
2.7701244,2.1155844,0.91411686
2.5334606,2.0537596,0.769588
1.389555,2.1040444,0.8179798
2.50247,1.877764,0.39165497
2.429762,1.7967682,0.2148056
-2.177225,2.3087292,1.0716462
-2.3713665,2.2567594,0.9506879
-3.6900787,2.3589075,1.1012092
-3.821804,2.3030186,0.975194
-4.906248,2.382831,1.0901341
-5.103815,2.3400912,0.98891926
-5.1639423,2.277905,0.85328245
-5.21731,2.2147608,0.7159996
-7.010929,2.418453,1.0592165
-7.219761,2.384616,0.9766054
-7.040331,2.289937,0.78406525
-7.1162796,2.1682837,0.52137566
-6.919632,2.0679698,0.31785345
-17.24946,2.9207156,1.6221223
-17.314846,2.8935685,1.5617585
-18.435041,3.1226153,1.9928455
-22.889091,3.0888562,1.7287183
-24.413273,3.1503859,1.8002009
-24.468107,3.1436594,1.784327
-24.522272,3.1367815,1.7681775
-24.58698,3.1354473,1.7631888
-24.641726,3.1292896,1.748548
-24.68801,3.1189108,1.7254529
-24.696985,3.0889275,1.6629705
-24.711731,3.061627,1.6058745
-24.71815,3.0294895,1.5390434
-24.73663,3.0034976,1.4845705
-24.751892,2.9754157,1.4258881
-24.746004,2.9351108,1.3425851
-24.750298,2.8999221,1.2695684
-24.74682,2.859725,1.1864462
-24.747915,2.821522,1.1073246
-24.757109,2.7874725,1.0365639
-24.771242,2.755854,0.970696
-24.74167,2.6973574,0.8505845
-24.737606,2.6533296,0.7596407
-24.752625,2.6203537,0.69099236
-24.753948,2.5782788,0.60395956
-24.77113,2.545553,0.535799
-34.608894,2.518095,0.4536872
-34.611454,2.564046,0.5484786
-34.635212,2.5931098,0.60902214
-34.6086,2.65903,0.7442608
-34.629505,2.6887205,0.806056
-34.646595,2.7206645,0.8724122
-34.623863,2.7803984,0.99504614
-34.657776,2.7990694,1.0345063
-34.70155,2.81071,1.0597448
-34.641846,2.8931072,1.2281828
-34.65905,2.9217439,1.2877998
-34.66897,2.9547865,1.3563247
-34.674767,2.9899771,1.429183
-34.687645,3.019964,1.4915123
-34.715214,3.0400643,1.5338569
-34.73549,3.0645597,1.5850863
-34.758133,3.0872464,1.6326623
-34.78498,3.1070645,1.6744485
-34.814972,3.1247659,1.7119675
-34.849377,3.139662,1.7438345
-34.88952,3.151077,1.7686925
-34.92709,3.164015,1.7966366
-34.9882,3.1632967,1.7970681
-35.03845,3.169111,1.8106956
-35.096733,3.1705422,1.8155193
-35.148285,3.1760008,1.8284822
-35.194195,3.18474,1.8480768
-35.25712,3.1843138,1.8492484
-35.319584,3.1844563,1.8515997
-35.36808,3.1923292,1.8695302
-35.125366,3.3531904,2.1949759
-35.149513,3.3721056,2.2350202
-35.170677,3.3923979,2.277834
-35.18881,3.4140449,2.3233714
-35.212498,3.4326982,2.3629007
-35.23986,3.4493957,2.398512
-35.269634,3.4648263,2.431592
-35.29779,3.4809763,2.466125
-35.946426,3.2012148,1.9078774
-36.093685,3.1646128,1.8370643
-36.16319,3.1654272,1.84125
-36.23565,3.165219,1.8434315
-36.313923,3.1627333,1.8411069
-36.40446,3.1551628,1.82867
-36.485466,3.1523726,1.8258457
-36.56818,3.1492734,1.8224587
-36.645435,3.148994,1.8247547
-36.725796,3.1477735,1.8252268
-36.815853,3.1428661,1.8184032
-36.904064,3.1392412,1.8141994
-36.979355,3.1414447,1.8216648
-37.04814,3.1466553,1.835166
-37.09693,3.160228,1.8653464
-37.19044,3.1560524,1.8602695
-37.192562,3.188422,1.9278736
-37.83124,2.9724557,1.5023541
-37.862785,2.9957578,1.5522327
-37.882484,3.0234761,1.610879
-37.910896,3.0477273,1.6626539
-38.033817,3.0367668,1.6446948
-38.082825,3.053662,1.681972
-38.165146,3.0585535,1.6955338
-38.294582,3.0469286,1.6765113
-38.376575,3.0528646,1.6922836
-38.536175,3.0320141,1.6552467
-38.564693,3.05746,1.7096648
-38.648674,3.063875,1.726584
-38.816154,3.0424929,1.6888242
-38.926476,3.0411963,1.6907439
-39.017685,3.0467572,1.7062411
-39.10739,3.0532146,1.7235737
-39.236393,3.0474494,1.7169867
-39.305977,3.0612295,1.7488532
-39.420765,3.061081,1.7534757
-39.50029,3.0724208,1.7806978
-39.633766,3.0675812,1.7763324
-39.71931,3.0779178,1.801753
-39.873516,3.0681438,1.7879801
-39.946762,3.083045,1.8224926
-40.111874,3.0715113,1.8055482
-40.250496,3.0685,1.8053627
-40.32829,3.0834339,1.8402138
-40.48195,3.0774398,1.8344731
-40.618958,3.0768628,1.8394051
-40.763172,3.0750194,1.8420196
-40.8836,3.0803118,1.8586011
-41.061363,3.0709658,1.8469911
-41.154537,3.0847259,1.8802123
-41.334885,3.0763443,1.870801
-41.546417,3.060988,1.8481493
-41.637535,3.0770812,1.8862677
-41.813133,3.0725718,1.8848753
-41.96799,3.0740557,1.8951883
-42.17015,3.0649,1.885282
-42.348003,3.0626118,1.8887601
-42.44419,3.0804012,1.9308233
-42.617245,3.080779,1.9397593
-42.835537,3.0717125,1.9309058
-43.03733,3.0675175,1.9315939
-43.22245,3.0680652,1.9415431
-43.42243,3.0663023,1.9473429
-43.63646,3.0625386,1.9496107
-43.869194,3.055916,1.9467554
-44.07144,3.0568798,1.9585204
-44.283226,3.0569017,1.968781
-44.49908,3.057171,1.9797935
-44.696926,3.0621283,1.9998941
-44.941208,3.0589385,2.0050182
-45.134167,3.0669305,2.0313773
-45.39599,3.0627506,2.0353222
-45.57186,3.0760221,2.0721068
-45.82426,3.0760136,2.0845041
-46.186413,3.057386,2.0628228
-46.445526,3.0590637,2.0792003
-46.67595,3.0670807,2.1076555
-46.98658,3.0624013,2.1131525
-47.3223,3.0550714,2.1142988
-47.60292,3.0586553,2.1359377
-47.923687,3.0570812,2.1486511
-48.291454,3.049591,2.1511707
-48.6846,3.0399966,2.150526
-48.96608,3.049745,2.1854768
-49.30316,3.0524285,2.2082272
-49.69613,3.0484753,2.219706
-50.130894,3.0404205,2.2246027
-50.594193,3.030512,2.2270403
-51.02172,3.0280344,2.243546
-51.37664,3.0377555,2.2824144
6.053507,2.0350485,0.37692595
4.8396854,2.0715837,0.4093709
4.2652607,2.0415423,0.3231225
2.492857,2.154231,0.49803972
2.4563503,2.0688992,0.3135352
0.47901917,2.2207775,0.5649233
-0.65963554,2.2784307,0.64577866
-1.7041626,2.3300824,0.71734524
-2.6288528,2.3716166,0.77175236
-3.8268833,2.454496,0.9046016
-4.046747,2.410593,0.8023219
-5.0946445,2.482757,0.917892
-5.1241627,2.4161193,0.7740755
-5.1948185,2.355323,0.6412802
-7.010586,2.4194257,0.71140337
-7.064295,2.3610578,0.5845771
-7.203039,2.3162365,0.48363686
-6.9353943,2.2061121,0.25799036
-17.146801,2.8905947,1.3540401
-17.499565,2.9317431,1.4294682
-24.338102,3.1605558,1.7025352
-24.390116,3.1518729,1.6829643
-24.45478,3.1495907,1.676528
-24.522608,3.1491885,1.6739721
-24.583704,3.145718,1.6651554
-24.647305,3.1437929,1.6595316
-24.67916,3.1256845,1.6207395
-24.692762,3.0978792,1.5620584
-24.70823,3.0707188,1.5046978
-24.720486,3.0414958,1.4431009
-24.73275,3.0118914,1.3807144
-24.746899,2.9829311,1.3196473
-24.729618,2.936019,1.221694
-24.74038,2.9041438,1.1546192
-24.740322,2.8656073,1.0738478
-24.736345,2.8241675,0.987093
-24.736332,2.7843506,0.9036627
-24.741394,2.746888,0.82506084
-24.746147,2.70863,0.74481297
-24.74364,2.6653054,0.65413
-24.760635,2.6332717,0.5866728
-24.751453,2.5843647,0.48447323
-34.65172,2.5362587,0.3655982
-34.612545,2.6134965,0.526247
-34.632236,2.6453161,0.59312105
-34.683994,2.65315,0.6104989
-34.635742,2.7331421,0.77676725
-34.661766,2.7584844,0.8302641
-34.620144,2.8308876,0.9808221
-34.668404,2.8394787,0.9997635
-34.707962,2.854088,1.0311255
-34.678738,2.9149415,1.1578174
-34.658943,2.9682326,1.2688961
-34.677708,2.99514,1.3255906
-34.69643,3.0216732,1.3815131
-34.710617,3.0507183,1.4426088
-34.73268,3.0743434,1.4925375
-34.758263,3.0954714,1.5373292
-34.78573,3.1152017,1.5792465
-34.81864,3.1314228,1.613946
-34.854794,3.14559,1.6444287
-34.888927,3.1608973,1.6772633
-34.941372,3.1654224,1.6879373
-34.987206,3.1739519,1.7068605
-35.046967,3.174633,1.709671
-35.094604,3.1824317,1.7271276
-35.15023,3.1859035,1.7357135
-35.20593,3.189562,1.7447028
-35.273003,3.1872745,1.7415056
-35.33082,3.1903183,1.749279
-35.390003,3.1928847,1.7560983
-35.45379,3.1933055,1.7585368
-35.511913,3.1969614,1.7676396
-35.162743,3.4085965,2.2031941
-35.185955,3.4278092,2.2441063
-35.212772,3.445074,2.2810307
-35.23595,3.4640226,2.3214087
-35.268826,3.4781146,2.3518457
-35.30148,3.4922857,2.3824525
-36.015903,3.1830616,1.7512116
-36.119633,3.1677446,1.7217226
-36.17925,3.1735756,1.7355404
-36.270077,3.1653526,1.7206497
-36.339035,3.1675804,1.7271643
-36.427773,3.16129,1.7163062
-36.51337,3.1569138,1.709404
-36.580837,3.1609292,1.7196774
-36.715565,3.136253,1.6714234
-36.78723,3.1394057,1.6800213
-36.856136,3.144042,1.69168
-36.94041,3.1425838,1.6909466
-36.997887,3.1525736,1.7135859
-37.070026,3.1567876,1.7244849
-37.135624,3.1639423,1.7414074
-37.223568,3.1624916,1.7408471
-37.802425,2.9693031,1.3502626
-37.847702,2.987568,1.390059
-37.861736,3.017805,1.4542084
-37.88811,3.0431285,1.5083704
-37.95759,3.0522344,1.5296011
-38.12153,3.0267746,1.4807067
-38.224686,3.0245428,1.4790411
-38.291714,3.035856,1.5049014
-38.398457,3.0332766,1.5026374
-38.478905,3.040495,1.520287
-38.54762,3.0521197,1.5469017
-38.625782,3.0607412,1.5674744
-38.72465,3.0626662,1.5745473
-38.83173,3.0623271,1.5771017
-38.943916,3.0608463,1.5774169
-39.041122,3.064834,1.5888438
-39.141747,3.0681763,1.5990272
-39.252323,3.0688286,1.6038494
-39.332973,3.079441,1.628818
-39.460373,3.0758595,1.6252437
-39.628525,3.0604644,1.5979757
-39.689896,3.0783672,1.6378102
-39.85987,3.0639772,1.6127596
-39.964684,3.0697932,1.6284256
-40.103146,3.0662923,1.6254563
-40.22689,3.0677514,1.6325378
-40.326454,3.076692,1.6547036
-40.467606,3.0744116,1.6544595
-40.55558,3.087572,1.6852269
-40.751934,3.071494,1.6575737
-40.864246,3.0791728,1.6775527
-40.992172,3.083213,1.6903477
-41.151398,3.0796611,1.6880903
-41.28856,3.0826554,1.6990085
-41.471188,3.0747135,1.688252
-41.598568,3.0816693,1.7072906
-41.804893,3.069611,1.6886268
-41.935513,3.0772338,1.7092285
-42.130615,3.0698836,1.7002254
-42.29359,3.071231,1.7086301
-42.471985,3.0697725,1.711618
-42.610775,3.0784056,1.7347226
-42.81665,3.0723665,1.7289534
-43.015923,3.0688975,1.7284431
-43.233646,3.0623689,1.7220831
-43.418633,3.0641448,1.7322793
-43.621147,3.0630748,1.7370496
-43.816856,3.0644834,1.74688
-44.07472,3.0538838,1.7333379
-44.27135,3.057266,1.7474475
-44.469242,3.0613732,1.7631693
-44.701347,3.0596318,1.7676582
-44.89446,3.0667462,1.7896647
-45.166092,3.05961,1.7841015
-45.39037,3.062912,1.7991352
-45.597435,3.0705636,1.8228536
-45.86229,3.0685759,1.8281007
-46.19834,3.0550323,1.8112707
-46.425232,3.062738,1.8358898
-46.729965,3.0579102,1.836586
-46.98755,3.0627851,1.8563218
-47.274605,3.063955,1.8692384
-47.59601,3.0608635,1.8743262
-47.915173,3.0597892,1.8836699
-48.270794,3.0544896,1.8853407
-48.638443,3.0491292,1.8873482
-48.971664,3.050997,1.9035807
-49.30632,3.054335,1.9230399
-49.72052,3.0475078,1.9237089
-50.124954,3.0442479,1.9316821
-50.574028,3.0366623,1.9320784
-51.01429,3.0326345,1.9397984
-51.311264,3.0506048,1.9893365
-2.7841492,2.3978195,0.41086674
-6.96521,2.5488245,0.63805723
-7.0114117,2.4891608,0.50872135
-7.018631,2.3564904,0.22340441
-17.534008,3.0616083,1.5001092
-17.461845,3.002859,1.3758779
-18.525166,3.173124,1.7175784
-23.13027,3.1546078,1.5866828
-23.383768,3.1560497,1.5852842
-23.43309,3.1426299,1.5558681
-23.501797,3.1375444,1.5438585
-23.575367,3.134844,1.5368481
-23.655817,3.135485,1.5368371
-23.738115,3.1373618,1.5394311
-23.813175,3.1364536,1.536233
-23.87767,3.131146,1.5238638
-23.949642,3.1295185,1.5192046
-24.093037,3.161302,1.5844035
-24.1784,3.167055,1.5952291
-24.231087,3.1578233,1.5747471
-24.303207,3.158066,1.5740929
-24.375107,3.1585765,1.5740194
-24.440193,3.1561096,1.5677371
-24.521507,3.1620235,1.5790105
-24.560207,3.1469557,1.5463896
-24.655268,3.1606338,1.573956
-24.67416,3.135643,1.5205832
-24.674498,3.1006684,1.4463019
-24.705296,3.0813026,1.4047055
-24.715784,3.0509071,1.3400083
-24.725704,3.0197856,1.2737856
-24.725834,2.9828453,1.195365
-24.729885,2.9475021,1.1202831
-24.731112,2.9100177,1.0407071
-24.740438,2.8765552,0.96955633
-24.743958,2.8392315,0.8903036
-24.724072,2.787594,0.7810259
-24.75362,2.7643042,0.7311921
-24.741135,2.7155128,0.62786245
-24.756983,2.6830525,0.55878735
-34.604084,2.668696,0.51610136
-34.63637,2.6909404,0.5636177
-34.645123,2.7298322,0.646122
-34.714024,2.7252672,0.63730717
-34.708946,2.7729523,0.7382865
-34.68471,2.8328989,0.8650155
-34.668,2.8864212,0.9782343
-34.702168,2.9046075,1.0172229
-34.732716,2.9250216,1.060894
-34.63001,3.0324562,1.2872906
-34.68341,3.036505,1.2965851
-34.705547,3.0606885,1.3481584
-34.74408,3.0742242,1.3773832
-34.755066,3.104827,1.4424319
-34.787167,3.1219964,1.4792905
-34.8201,3.1385243,1.5148058
-34.852142,3.1554668,1.5511951
-34.8986,3.1637769,1.5694838
-34.949745,3.1694539,1.5822597
-34.985916,3.1839075,1.6134496
-35.066547,3.1730547,1.5915909
-35.10503,3.186424,1.6205282
-35.162952,3.1890085,1.6268711
-35.2185,3.193144,1.636476
-35.27348,3.1977997,1.6471848
-35.334793,3.1992855,1.6512661
-35.401306,3.1983168,1.6502233
-35.451454,3.2062192,1.6677756
-35.53432,3.197434,1.6503992
-35.600803,3.1975188,1.6516166
-35.672035,3.1955554,1.6485643
-35.190826,3.467746,2.2192225
-35.234203,3.4768624,2.2392836
-35.264854,3.4922266,2.2724233
-35.318703,3.4964519,2.2822723
-36.064873,3.1741433,1.6093669
-36.143852,3.1710258,1.604034
-36.208084,3.1751418,1.6138425
-36.294434,3.169464,1.6032052
-36.364532,3.1716032,1.6089239
-36.45361,3.1656408,1.5977426
-36.559906,3.1526473,1.5719066
-36.6315,3.1554003,1.5789814
-36.72029,3.1511176,1.571392
-36.810852,3.1465855,1.5633111
-36.878777,3.152033,1.5760813
-36.95835,3.1529486,1.5794191
-37.033043,3.156249,1.5877552
-37.092518,3.1660256,1.6096153
-37.182117,3.1639898,1.6068735
-37.203228,3.189391,1.6613331
-38.117916,2.8671153,0.9915223
-38.196095,2.8744304,1.0085139
-37.869797,3.0355856,1.345829
-37.909657,3.0560443,1.3901386
-38.479675,2.8800974,1.0257659
-38.566765,2.885624,1.0391507
-38.618668,2.9042559,1.0798187
-38.67651,2.9208374,1.1162376
-38.714787,2.9444463,1.1672783
-38.55001,3.0387657,1.3652387
-38.58577,3.0622928,1.4160771
-38.680984,3.0655591,1.4248557
-38.954365,3.0094547,1.3104401
-39.065914,3.0089428,1.3114934
-39.182575,3.0073278,1.3103037
-39.284348,3.011136,1.320404
-39.412918,3.0068674,1.3138041
-39.49498,3.0179596,1.3390841
-39.683548,2.996197,1.2963486
-39.79548,2.9991539,1.3048744
-39.915043,3.0003388,1.3097787
-40.035725,3.0017838,1.3152723
-40.16084,3.002519,1.3193493
-40.316998,2.9948125,1.3060331
-40.472885,2.9880435,1.294725
-40.585777,2.994364,1.3105192
-40.716496,2.9961972,1.3170996
-40.811237,3.00866,1.3456702
-40.951736,3.0089815,1.3492432
-41.084087,3.012216,1.3588881
-41.217575,3.0157974,1.3693085
-41.329914,3.025592,1.3925848
-41.453537,3.0329576,1.4109154
-41.585102,3.0388653,1.4263058
-41.754993,3.0357232,1.4231567
-41.864525,3.0485,1.4528017
-42.014214,3.0518823,1.4632077
-42.168583,3.0548701,1.4728818
-42.332928,3.05624,1.4793186
-42.495,3.0589738,1.4886389
-42.65741,3.0624368,1.4995394
-42.83876,3.06237,1.5033045
-43.016087,3.064135,1.5109177
-43.191116,3.067304,1.5215006
-43.409454,3.0618591,1.5145888
-43.606834,3.0620837,1.5193777
-43.83797,3.0561378,1.5116992
-44.034504,3.058652,1.5214033
-44.26584,3.0549757,1.51862
-44.44597,3.062899,1.5395856
-44.704685,3.055984,1.5304933
-44.928448,3.057308,1.5383053
-45.14258,3.06163,1.5523472
-45.351574,3.0680008,1.570684
-45.63363,3.0617,1.5634894
-45.876663,3.064072,1.5740409
-46.187706,3.0553305,1.5622926
-46.46332,3.0545437,1.5668306
-46.693913,3.0630667,1.5903497
-46.982605,3.0627038,1.596129
-47.318577,3.0558043,1.5889635
-47.612198,3.0577056,1.5997481
-47.946693,3.054411,1.6003246
-48.26774,3.0550013,1.6089559
-48.575188,3.0593715,1.6254139
-48.936028,3.0570276,1.6286907
-49.280483,3.0590272,1.6409435
-49.71943,3.0486934,1.6288891
-50.12123,3.0460756,1.6325798
-50.583748,3.036819,1.6234269
-50.928787,3.0464683,1.652216
-51.314384,3.0522602,1.6736741
-7.0624485,2.5588121,0.32430506
-17.042664,3.1967435,1.6014385
-17.0182,3.0639668,1.3153343
-17.332855,3.0914295,1.3715405
-17.521759,3.092083,1.3711481
-17.67586,3.0856798,1.3558779
-18.19386,3.1249585,1.4356561
-18.477892,3.1528323,1.4930673
-18.600967,3.1430361,1.4707985
-18.761091,3.142984,1.4691896
-18.895802,3.1373692,1.4558353
-19.065464,3.1413107,1.4627557
-19.20637,3.138727,1.4558864
-19.372513,3.1434562,1.4645476
-19.513493,3.1423998,1.4609785
-19.65411,3.1419625,1.4587522
-19.78508,3.139616,1.4525051
-19.921608,3.139461,1.450933
-20.079496,3.145985,1.463562
-20.219337,3.1482565,1.467197
-20.337185,3.144946,1.459013
-20.45559,3.1423779,1.4524245
-20.572063,3.1398273,1.4458976
-20.700537,3.1414387,1.4482336
-20.841654,3.147553,1.4601574
-20.949783,3.1443353,1.4522805
-21.05605,3.1410658,1.4443145
-21.182985,3.1448138,1.451282
-21.291063,3.1432438,1.4469671
-21.417187,3.1480365,1.4561987
-21.51746,3.1450803,1.448977
-21.622238,3.1441011,1.4459772
-21.718868,3.1409237,1.4383178
-21.830135,3.1431758,1.4422264
-21.92624,3.140818,1.4363446
-22.034496,3.1431558,1.4404702
-22.133907,3.1429613,1.4392257
-22.237629,3.1448112,1.4423475
-22.334135,3.1446133,1.4411268
-22.43491,3.1464682,1.4442925
-22.530058,3.1467822,1.4441943
-22.619663,3.1455135,1.4407392
-22.706785,3.1437514,1.4362469
-22.809269,3.1483126,1.4452367
-22.889202,3.1446946,1.4368167
-22.979244,3.1454217,1.4376688
-23.064621,3.144764,1.4355812
-23.147575,3.1435623,1.4323483
-23.228138,3.1417997,1.4279304
-23.311365,3.1415298,1.4267058
-23.392918,3.1409862,1.4249096
-23.484154,3.1449518,1.4327388
-23.563759,3.1444569,1.4310694
-23.643131,3.1442664,1.4300599
-23.728527,3.1471236,1.4355617
-23.80531,3.1466317,1.4339323
-23.881866,3.1464295,1.4329295
-23.956152,3.1455836,1.4305658
-24.037004,3.1481364,1.4354606
-24.122267,3.1531963,1.4457169
-24.210499,3.1601675,1.4600611
-24.279055,3.158284,1.455523
-24.36129,3.1633475,1.4658184
-24.424177,3.1594281,1.4569526
-24.496716,3.160563,1.4588828
-24.55933,3.1571052,1.4510174
-24.653225,3.1698241,1.477695
-24.668966,3.1429837,1.4199233
-24.659409,3.1026328,1.333302
-24.702805,3.089568,1.3049421
-24.704113,3.0540302,1.2285948
-24.717968,3.0247352,1.1655765
-24.723906,2.990708,1.0924497
-24.71363,2.9471693,0.9990034
-24.724293,2.9146385,0.92906713
-24.737488,2.8830705,0.8611851
-24.732445,2.8405275,0.769856
-24.75428,2.812941,0.7104764
-24.74876,2.7688107,0.6157479
-24.7501,2.7279963,0.52810097
-34.613995,2.7074926,0.4786477
-34.63372,2.7387393,0.5458107
-34.640404,2.7786956,0.631598
-34.650757,2.8153028,0.7102213
-34.69368,2.828733,0.73928595
-34.72688,2.8487422,0.7824197
-34.63166,2.9548197,1.0095639
-34.695637,2.9528258,1.0056539
-34.72504,2.9738092,1.0508676
-34.665646,3.0518615,1.2180719
-34.66842,3.0885692,1.2968917
-34.72061,3.093558,1.3079143
-34.746307,3.1151555,1.3544378
-34.789196,3.1259747,1.3779273
-34.815857,3.1466246,1.4224296
-34.851944,3.161432,1.4544477
-34.904713,3.1663423,1.4653215
-34.94337,3.1796405,1.494122
-35.00618,3.179053,1.4932594
-35.066784,3.1800423,1.4957728
-35.116062,3.1876602,1.5124531
-35.175648,3.1897104,1.5172443
-35.21879,3.2010028,1.5417829
-35.28591,3.1994193,1.5388255
-35.34952,3.2000678,1.5406432
-35.41393,3.2006106,1.5422425
-35.462692,3.2095919,1.5618677
-35.56813,3.1896405,1.5197258
-35.63131,3.191912,1.5250401
-35.70044,3.191494,1.5246215
-35.771084,3.1906855,1.5233784
-35.842613,3.1898174,1.5220156
-35.918335,3.1873038,1.5171509
-35.987686,3.188244,1.5196667
-36.0867,3.175578,1.4931588
-36.15054,3.1799223,1.5029564
-36.22805,3.1782608,1.4999495
-36.329758,3.1660528,1.4744558
-36.478146,3.1336286,1.4058561
-36.60968,3.1098268,1.355669
-36.740044,3.087511,1.308671
-36.890926,3.057286,1.2448282
-36.956112,3.064735,1.2613358
-37.00713,3.078392,1.2910886
-37.063,3.0901232,1.3167405
-37.111595,3.1049883,1.3490791
-37.10652,3.1417155,1.4280162
-37.140633,3.1622698,1.4724836
-37.19854,3.1733322,1.4967284
-37.882286,2.939604,0.99944687
-37.99166,2.9340785,0.98843
-38.092552,2.9324124,0.9856515
-38.17508,2.9382074,0.99878025
-38.35247,2.9090052,0.9373927
-38.43423,2.916226,0.9535899
-38.49556,2.9312153,0.9863391
-38.536137,2.953816,1.0352979
-38.605545,2.9661603,1.0624309
-38.667957,2.9811838,1.0952759
-38.724033,2.9985652,1.1331453
-38.793175,3.0115943,1.1617632
-38.912384,3.0079443,1.154912
-38.995018,3.0171328,1.1753869
-39.133064,3.0084095,1.157783
-39.38532,2.9633403,1.0629268
-39.554565,2.9466305,1.0284085
-39.71821,2.9327154,0.9998627
-39.82458,2.9376888,1.0114908
-39.87127,2.9616063,1.0633922
-39.937943,2.979451,1.1023955
-40.000374,2.9987566,1.144515
-40.076538,3.0141277,1.1782856
-40.21109,3.012618,1.1762257
-40.314613,3.0207965,1.1947613
-40.51293,3.0023267,1.1567516
-41.66994,2.9242625,0.99906635
-41.698097,2.9579248,1.071857
-41.663162,3.0076888,1.1787686
-41.963425,2.9719522,1.1045356
-42.08994,2.981442,1.1261611
-42.159443,3.005562,1.1787939
-43.42021,2.963262,1.0995073
-43.477226,2.9942558,1.1668801
-43.615665,3.0074513,1.1966615
-43.703346,3.0322597,1.2510014
-44.23118,2.9635086,1.1078215
-44.338585,2.986174,1.1577444
-44.52779,2.9923337,1.1728654
-44.679394,3.0070825,1.2061534
-44.899925,3.0087,1.2117958
-45.158165,3.003993,1.2041683
-45.407047,3.0024526,1.2032886
-45.643715,3.0045276,1.2100949
-45.899178,3.0042675,1.2120552
-46.22499,2.9923012,1.1894588
-46.509346,2.9896095,1.1864719
-46.766647,2.9932256,1.196837
-47.07903,2.9884527,1.1896515
-47.375427,2.9880648,1.1917801
-47.685455,2.9868808,1.1923323
-47.88238,3.006167,1.2359471
-48.284966,2.9926505,1.210823
-48.552734,3.0029633,1.235795
-48.79081,3.0192947,1.273468
-49.20501,3.0094435,1.2563992
-49.690857,2.9908476,1.2211838
-49.74132,3.0398483,1.3275228
-50.351677,3.006886,1.2625675
-50.544228,3.037188,1.3299899
-51.17591,3.006544,1.270277
-51.331852,3.0448654,1.3546638
-6.983629,2.6856093,0.22286177
-17.13927,3.2994385,1.5994759
-16.981403,3.2249377,1.436933
-17.146034,3.2173276,1.4210706
-16.907745,3.0808709,1.1235495
-17.150095,3.0910056,1.1465588
-17.37316,3.0981276,1.162941
-17.543777,3.0945034,1.1557527
-17.770805,3.1047733,1.1789865
-18.507565,3.1565094,1.2943811
-18.623371,3.144778,1.26934
-18.769981,3.1412053,1.2621531
-18.92566,3.1406467,1.2615504
-19.040016,3.1303408,1.2395959
-19.23743,3.1420412,1.2658033
-19.367268,3.1371222,1.2556143
-19.538101,3.1437385,1.2706614
-19.645401,3.134162,1.2502556
-19.785162,3.133934,1.2502971
-19.951157,3.1416903,1.267797
-20.080055,3.139957,1.2645202
-20.197882,3.1357265,1.2557702
-20.330238,3.1362567,1.2574239
-20.485111,3.1440496,1.2749524
-20.602707,3.141683,1.2702475
-20.719189,3.1395695,1.266087
-20.837791,3.1386828,1.2645993
-20.966503,3.1415117,1.2712283
-21.077171,3.1394088,1.2670631
-21.192326,3.139275,1.2671952
-21.310307,3.140639,1.2705932
-21.419222,3.1396918,1.2689276
-21.5239,3.1379077,1.2654266
-21.643925,3.141745,1.2742047
-21.75728,3.1439984,1.2795124
-21.856316,3.1419833,1.2754822
-21.965096,3.1438212,1.2798657
-22.046692,3.1367486,1.26477
-22.158667,3.1407654,1.273901
-22.263388,3.1428075,1.278708
-22.347383,3.1378999,1.2683244
-22.45597,3.1423998,1.2784886
-22.539509,3.1382027,1.2696452
-22.648098,3.1438167,1.2822304
-22.7341,3.1414506,1.2773757
-22.806677,3.1343281,1.2621245
-22.920029,3.143417,1.2822804
-22.998743,3.1395087,1.2740407
-23.103973,3.1465716,1.2897577
-23.17862,3.1418736,1.2797818
-23.277355,3.1473856,1.2920995
-23.348753,3.1421254,1.2808876
-23.420044,3.137125,1.2702374
-23.517097,3.1433952,1.2841945
-23.590776,3.1401756,1.2774258
-23.669128,3.139336,1.2758484
-23.750685,3.1403065,1.2782173
-23.836054,3.1434162,1.285254
-23.907543,3.140728,1.2796268
-23.990978,3.1438472,1.286674
-24.0507,3.1364408,1.27074
-24.134289,3.1404526,1.2797265
-24.211596,3.1419666,1.2832556
-24.297787,3.1481798,1.2970395
-24.379671,3.1528285,1.3074031
-24.457325,3.1558812,1.3142781
-24.525063,3.1544251,1.3113093
-24.58119,3.1474211,1.2962284
-24.63163,3.1376886,1.2751918
-24.642714,3.1076422,1.2098207
-24.691118,3.0968082,1.1863766
-24.719296,3.0752883,1.1396127
-24.708765,3.0327072,1.0468907
-24.72112,3.0018878,0.97983456
-24.71372,2.9597075,0.8879914
-24.738989,2.9350958,0.83448267
-24.745243,2.8994184,0.75682974
-24.749998,2.86231,0.6760559
-24.77019,2.8335824,0.6135678
-24.759293,2.7861223,0.5102124
-34.63736,2.744921,0.42274475
-34.632904,2.7931414,0.52776194
-34.66567,2.8143818,0.5739398
-34.703163,2.8321054,0.61244535
-34.689533,2.88435,0.72624254
-34.73745,2.8943052,0.7478037
-34.79592,2.897342,0.7542739
-34.69493,3.0044672,0.98778296
-34.741707,3.014105,1.0086513
-34.773537,3.0332742,1.0503082
-34.76783,3.0757303,1.1427646
-34.808052,3.0890334,1.1716261
-34.78708,3.1395793,1.2817316
-34.84227,3.1433294,1.2897534
-34.880287,3.1574874,1.3204775
-34.91053,3.1761475,1.361023
-34.99361,3.1640959,1.3345623
-35.042435,3.1722217,1.3521209
-35.09061,3.1808271,1.3707237
-35.151306,3.1825714,1.3743553
-35.20005,3.191162,1.3929214
-35.26214,3.1926298,1.3959427
-35.330513,3.191024,1.3922553
-35.392937,3.1929376,1.3962436
-35.451763,3.1970208,1.404964
-35.51129,3.200978,1.4134059
-35.63234,3.1738663,1.3540416
-35.7965,3.1261053,1.2496028
-35.852997,3.1333303,1.265162
-35.919212,3.135977,1.2707267
-35.988823,3.1372786,1.2733507
-36.057957,3.1391456,1.2772064
-36.13321,3.1384492,1.2754636
-36.212704,3.1361697,1.2702584
-36.29249,3.134192,1.2657099
-36.379314,3.1294456,1.2551117
-36.511364,3.1048763,1.201232
-36.595802,3.102446,1.1956782
-36.777637,3.057762,1.0978651
-36.940243,3.0229137,1.0215139
-37.03996,3.0162468,1.0066881
-37.071358,3.039051,1.05621
-37.059975,3.0795937,1.1444664
-37.107346,3.095355,1.1786075
-37.15666,3.1103764,1.2111311
-37.26979,3.099794,1.1877322
-37.464504,3.0574894,1.0950413
-37.660732,3.0160792,1.0042896
-37.78601,3.0036592,0.9768467
-37.86043,3.0115008,0.9936571
-37.94971,3.0140147,0.99882317
-38.073437,3.0040865,0.9768019
-38.15585,3.010146,0.98970175
-38.271484,3.004453,0.9769182
-38.299103,3.0310974,1.0347843
-38.43269,3.0199282,1.0100226
-38.52182,3.0251682,1.0211086
-38.591133,3.0376816,1.0480833
-38.64882,3.0544052,1.0842562
-38.716415,3.0679038,1.1133771
-38.78238,3.0821605,1.1441503
-38.886654,3.0839853,1.1477442
-39.002224,3.0826483,1.1444187
-39.124493,3.0797617,1.1376972
-39.267853,3.070835,1.1177607
-39.700947,2.9719408,0.9010997
-39.764183,2.9905846,0.941412
-39.794186,3.0195322,1.0042534
-39.866615,3.0355854,1.0388947
-39.918606,3.0579493,1.0873327
-40.123047,3.0356104,1.0379906
-40.310467,3.019445,1.0021338
-40.466614,3.0133243,0.9882355
-40.686195,2.9901462,0.93700457
-40.715786,3.0212126,1.0044408
-42.161125,2.9224305,0.78408384
-42.20412,2.9537823,0.85206985
-42.246655,2.98524,0.92028475
-42.434612,2.9813726,0.91113377
-42.64653,2.9727573,0.8915658
-42.799183,2.9792793,0.9051328
-42.97567,2.980993,0.90815115
-43.176224,2.9780822,0.90102005
-43.394035,2.9723194,0.8876176
-43.579903,2.974824,0.89230967
-43.779465,2.9752617,0.89245224
-44.0079,2.9704804,0.8811321
-44.22899,2.9684653,0.87585115
-44.441734,2.969345,0.8768916
-44.65857,2.970467,0.8784394
-44.911835,2.9652915,0.8661499
-45.15049,2.9643679,0.8631573
-45.374374,2.9675822,0.86921406
-45.43746,3.003077,0.94607687
-45.614563,3.0169601,0.9755044
-46.015068,2.9897842,0.91478443
-46.22783,2.999437,0.934865
-46.73957,2.9559047,0.8381381
-46.85546,2.9858181,0.90263796
-46.934258,3.0226703,0.98236513
-47.75036,2.9327219,0.783504
-47.821785,2.9734654,0.8717103
-48.101486,2.9797416,0.88415384
-48.208637,3.0156002,0.96158934
-48.8861,2.960386,0.83875895
-49.131245,2.9769592,0.87370634
-50.676033,2.79395,0.46956778
-50.735813,2.8447661,0.5796809
-50.723354,2.9064014,0.71360016
-50.532555,2.9936981,0.90402174
-50.630135,3.0384367,1.000761
-17.259695,3.365595,1.5332961
-17.12933,3.2976427,1.3823013
-17.305264,3.292338,1.373714
-17.038,3.1084762,0.96654034
-17.272863,3.1171215,0.9894633
-17.370586,3.0962508,0.9454007
-17.668743,3.1214163,1.0055609
-17.780739,3.105252,0.97202873
-18.488392,3.1493232,1.0804253
-18.65622,3.1500044,1.0847015
-18.795424,3.1444495,1.0748229
-18.955559,3.144848,1.0783334
-19.10507,3.143365,1.0775328
-19.27355,3.1475604,1.0894852
-19.404531,3.142811,1.0812006
-19.53438,3.1384017,1.0736337
-19.703053,3.1451116,1.0910769
-19.842075,3.1446369,1.0922709
-19.99803,3.149575,1.1056037
-20.126286,3.1475766,1.1032648
-20.242733,3.1428626,1.0947685
-20.36055,3.139107,1.0883904
-20.500801,3.1424947,1.0980349
-20.645405,3.1479285,1.1122327
-20.764523,3.146507,1.110971
-20.880098,3.144613,1.1086078
-20.996151,3.143448,1.1078463
-21.122175,3.1459901,1.1153703
-21.211443,3.1375806,1.098268
-21.341457,3.1426127,1.1113062
-21.470179,3.1479485,1.1249843
-21.5766,3.1466727,1.1237898
-21.689678,3.1481545,1.1287465
-21.790817,3.146211,1.1259894
-21.887844,3.143368,1.1211872
-21.996819,3.1451337,1.1266832
-22.097826,3.1446931,1.127204
-22.210592,3.148943,1.1382008
-22.307148,3.148002,1.1375403
-22.412373,3.1507056,1.1450129
-22.498648,3.147005,1.1381207
-22.592844,3.1466672,1.1387291
-22.69335,3.1491983,1.1457319
-22.778156,3.1462755,1.1405067
-22.863476,3.1439605,1.1366186
-22.952179,3.143388,1.1366048
-23.037743,3.1420236,1.1347961
-23.1309,3.1441407,1.1407471
-23.216625,3.1437433,1.1410551
-23.31194,3.1477387,1.1511555
-23.390068,3.1451085,1.1464295
-23.463829,3.141008,1.1384015
-23.552647,3.143678,1.1454749
-23.628761,3.141344,1.1413541
-23.72037,3.1461694,1.1531963
-23.802767,3.1474457,1.157095
-23.872086,3.1432893,1.148849
-23.953976,3.1451597,1.1540356
-24.032904,3.146118,1.157167
-24.100353,3.1421423,1.1492763
-24.189281,3.148612,1.1646647
-24.269974,3.1516972,1.1724849
-24.343887,3.1519616,1.1739969
-24.416918,3.1521819,1.1753955
-24.496706,3.1561446,1.1851182
-24.560371,3.1524684,1.1777997
-24.61766,3.145819,1.1638427
-24.63702,3.1197867,1.1066909
-24.682222,3.1069636,1.0789642
-24.685379,3.0719094,1.0017147
-24.710615,3.0481553,0.9496374
-24.703835,3.0067582,0.85827017
-24.713013,2.9734302,0.78487873
-24.747257,2.9535725,0.7414789
-24.74841,2.9148705,0.65612936
-24.739445,2.8697298,0.55645275
-24.728157,2.8224182,0.45195675
-34.63086,2.8406956,0.5022416
-34.666733,2.8596694,0.5437832
-34.7017,2.879058,0.5862427
-34.682392,2.9345233,0.7088976
-34.729218,2.945184,0.7319536
-34.7743,2.9570098,0.75759363
-34.72388,3.0301182,0.9194989
-34.745953,3.0556962,0.97572327
-34.787746,3.0685916,1.0037394
-34.834324,3.078517,1.0251446
-34.918804,3.0654554,0.99540615
-34.85604,3.1414022,1.1636763
-34.99954,3.0935583,1.0565295
-35.069416,3.0903041,1.0485735
-35.147114,3.0829568,1.0314927
-35.174976,3.104501,1.0787029
-35.244816,3.1022396,1.0729184
-35.28521,3.1167054,1.1043596
-35.321777,3.1332371,1.1403947
-35.364094,3.1465821,1.1693282
-35.404385,3.1610107,1.2006693
-35.515644,3.1380286,1.1486745
-35.59934,3.1303134,1.130662
-35.641087,3.1446915,1.1618557
-35.68513,3.1579015,1.1904397
-35.730892,3.1702785,1.2171597
-35.784794,3.178683,1.2350187
-35.845726,3.1838074,1.2455535
-35.913845,3.1857054,1.2488828
-35.983433,3.1872263,1.2513566
-36.05123,3.1899245,1.2564392
-36.130417,3.187646,1.2504072
-36.207905,3.186584,1.2470689
-36.28164,3.187635,1.2484279
-36.3738,3.1808095,1.2321906
-36.532963,3.144944,1.1511116
-36.84591,3.0432634,0.92305994
-36.95295,3.0332434,0.8995714
-36.99337,3.052256,0.9408903
-37.03976,3.0687265,0.9765239
-37.09294,3.082411,1.0059261
-37.185505,3.080051,0.9994669
-37.277702,3.0783436,0.994442
-37.356655,3.0824287,1.0023413
-37.48104,3.0689225,0.970891
-37.557682,3.0748434,0.98284626
-37.633705,3.0813267,0.9960408
-37.78881,3.0580313,0.94260025
-37.856647,3.068596,0.96487284
-37.96515,3.064297,0.953866
-38.078545,3.0588088,0.94016504
-38.154274,3.0675995,0.9583998
-38.22328,3.0790863,0.98265314
-38.370884,3.0630634,0.9452677
-38.41061,3.0855703,0.99416256
-38.504986,3.0892367,1.0008278
-38.57501,3.1016293,1.0270257
-38.65502,3.1109033,1.0462136
-38.769993,3.1089132,1.0401154
-38.933693,3.0915935,0.9995918
-39.128807,3.0651393,0.93851566
-39.267597,3.0579,0.9205003
-39.461536,3.034085,0.86522293
-39.56993,3.0380702,0.8723116
-39.710506,3.032705,0.85835934
-39.752163,3.058059,0.91338825
-39.859505,3.0637717,0.92426014
-40.516594,2.9078636,0.57169485
-40.537357,2.9418974,0.64608
-40.519135,2.9869413,0.74523735
-40.61395,2.99947,0.77123165
-40.85703,2.9709196,0.7047105
-40.83014,3.018343,0.80919933
-42.116848,2.924156,0.58175325
-42.15163,2.9577377,0.6548133
-42.238796,2.9783049,0.69846773
-42.34724,2.9939861,0.7310481
-42.523624,2.9937968,0.727705
-42.71431,2.9911323,0.718688
-42.890846,2.9927676,0.7193203
-43.067833,2.9951952,0.7216697
-43.27491,2.9917004,0.71052647
-43.451103,2.996187,0.71738005
-43.66018,2.9943202,0.7097473
-43.897156,2.9874988,0.69077826
-44.104824,2.9881914,0.6887522
-44.28908,2.994866,0.7002139
-44.545753,2.9874682,0.67961264
-44.79965,2.9820015,0.6632743
-44.987156,2.9911814,0.68013
-45.253082,2.985801,0.6637492
-45.304546,3.0234475,0.74523926
-45.893764,2.958448,0.59274864
-46.08159,2.9722514,0.61966753
-46.211494,2.9976444,0.6729417
-46.446022,3.0045571,0.6839423
-46.664555,3.0154974,0.7040205
-47.097733,2.9898202,0.6402197
-47.48736,2.97402,0.59877396
-47.80634,2.9722812,0.5893097
-47.887905,3.0117192,0.6740713
-48.372498,2.985482,0.60807896
-48.6981,2.9873886,0.6064234
-49.114605,2.9766378,0.5754647
-49.168602,3.0241349,0.67827463
-50.729256,2.8431277,0.25472736
-50.70858,2.9062479,0.39298248
-50.73001,2.9628375,0.5161958
-16.784904,3.0487974,0.6068201
-16.740183,2.9944472,0.48546934
-17.462917,3.1120672,0.7667842
-17.673746,3.1174169,0.7848635
-17.937286,3.136109,0.8339648
-18.073498,3.1263747,0.81646967
-18.330956,3.1461942,0.8678479
-18.548077,3.1577368,0.89972544
-18.674335,3.1481917,0.8823042
-18.868904,3.1562383,0.9057584
-19.015556,3.1532574,0.9034128
-19.182798,3.1562893,0.91494894
-19.295147,3.1459596,0.89531946
-19.44897,3.1470537,0.90214777
-19.601475,3.1486037,0.9099302
-19.74274,3.147919,0.9124284
-19.873718,3.1451404,0.9099817
-20.027264,3.1492968,0.92351675
-20.143568,3.1437893,0.91457987
-20.291264,3.1478088,0.92761564
-20.410944,3.1445212,0.9236593
-20.559265,3.1502316,0.94042826
-20.674976,3.1470678,0.9366069
-20.80154,3.1477482,0.9415927
-20.930855,3.1499355,0.9499798
-21.040768,3.146813,0.9460454
-21.180244,3.1534998,0.9646616
-21.25893,3.141676,0.9405441
-21.388954,3.1466608,0.9550991
-21.509163,3.149175,0.963891
-21.606592,3.1448212,0.9568143
-21.722187,3.1470048,0.96472216
-21.83507,3.1488953,0.97189283
-21.938444,3.1481326,0.97290564
-22.040741,3.147527,0.97422504
-22.147217,3.1489193,0.9800787
-22.230927,3.1427689,0.9685664
-22.338238,3.1455076,0.9774065
-22.449568,3.1503036,0.9909115
-22.546482,3.150399,0.99358225
-22.641613,3.150334,0.99583673
-22.72773,3.147341,0.9913397
-22.821558,3.1477292,0.994544
-22.926538,3.1529527,1.0087729
-23.003975,3.1479292,0.9995003
-23.095434,3.1488476,1.003787
-23.179531,3.147278,1.0023422
-23.257088,3.1434526,0.9957013
-23.342815,3.143372,0.9975853
-23.435862,3.1468098,1.0074697
-23.525776,3.149447,1.0154824
-23.604424,3.1477392,1.0135355
-23.68827,3.1486862,1.0176139
-23.761051,3.1452014,1.0115438
-23.8437,3.14646,1.016264
-23.926048,3.1480312,1.0216622
-24.012701,3.1520298,1.0325589
-24.076069,3.1457295,1.0199461
-24.17382,3.1558337,1.0446882
-24.256172,3.1592638,1.0541849
-24.322166,3.1552885,1.0467806
-24.397573,3.1561973,1.0504723
-24.479027,3.1605034,1.0618677
-24.53882,3.1544533,1.0496612
-24.60851,3.1536443,1.0493579
-24.620651,3.1236172,0.98256636
-24.64694,3.1005476,0.93160295
-24.684635,3.0832622,0.8937874
-24.681694,3.0441942,0.80644846
-24.717342,3.0253525,0.76509
-24.714851,2.9854808,0.675941
-24.735083,2.9575489,0.6139283
-24.748959,2.925673,0.54296017
-34.645294,2.880682,0.45941782
-34.655674,2.9169137,0.54037
-34.678604,2.9440958,0.60082483
-34.694088,2.9757497,0.6714134
-34.71936,3.00051,0.72638035
-34.762733,3.0133343,0.75428677
-34.811287,3.0228658,0.77471733
-34.74392,3.104655,0.959003
-34.78678,3.1168535,0.9854851
-34.84109,3.122109,0.99620533
-34.897106,3.1265295,1.0050135
-34.946404,3.135122,1.023273
-35.128838,3.066297,0.86577797
-35.187786,3.0705686,0.8741622
-35.267662,3.0632045,0.85610294
-35.32343,3.0698729,0.86988497
-35.396873,3.0669494,0.86185884
-35.43794,3.0821092,0.89489746
-35.472164,3.1009135,0.9362087
-35.502407,3.1217065,0.9820337
-35.52371,3.1470134,1.0381184
-35.56226,3.1631021,1.0732379
-35.601772,3.178647,1.1071105
-35.641033,3.1942844,1.1411843
-35.68318,3.2084496,1.1718969
-35.72955,3.2205436,1.1978812
-35.794266,3.2237856,1.2036958
-35.857185,3.228177,1.2121038
-35.92732,3.2294145,1.2133012
-35.992428,3.2333434,1.2206049
-36.059624,3.236591,1.2263293
-36.156704,3.2265143,1.2016468
-36.217724,3.2333136,1.2154098
-36.308266,3.2272084,1.1997089
-36.399918,3.2211661,1.1841102
-36.567394,3.1827996,1.0946798
-36.83885,3.1012754,0.9066138
-36.906605,3.1083367,0.9207425
-37.005585,3.1026185,0.9056454
-37.042282,3.1231668,0.9505348
-37.115105,3.1289384,0.96163034
-37.207092,3.1273098,0.95577
-37.273136,3.136477,0.97456646
-37.361336,3.1371872,0.9739795
-37.443336,3.140745,0.9798703
-37.515404,3.1484842,0.9953003
-37.60062,3.1515398,0.99996805
-37.702133,3.148923,0.99159384
-37.787853,3.152676,0.99777365
-37.890778,3.150574,0.9904814
-37.98664,3.151561,0.9902258
-38.08354,3.1526659,0.99019
-38.203285,3.146262,0.9728627
-38.32128,3.1411467,0.9584303
-38.43673,3.1375656,0.9474592
-38.597694,3.1192827,0.9026203
-38.768005,3.0989075,0.8528743
-39.112167,3.0225306,0.6741452
-39.1379,3.0519059,0.73868036
-39.18103,3.0755594,0.7900324
-39.281773,3.08101,0.7994213
-39.5496,3.0348387,0.68972635
-39.592224,3.0597823,0.7439103
-39.702812,3.0640738,0.75041294
-39.869545,3.0520685,0.71921873
-40.414803,2.9290667,0.43146753
-40.39704,2.9743195,0.5322838
-40.537743,2.9734397,0.5264263
-40.551277,3.009434,0.60581875
-40.8703,2.959534,0.48632002
-40.878883,2.9975767,0.5703554
-42.30973,2.9980588,0.5303569
-42.474304,3.000829,0.5316706
-42.64101,3.003921,0.5336156
-42.821896,3.0045383,0.52965355
-42.99811,3.0071595,0.530241
-43.206825,3.0033007,0.5155287
-43.379692,3.0085547,0.5219917
-43.619232,2.9999878,0.49592447
-43.79134,3.007336,0.5069957
-43.972565,3.013576,0.515327
-45.58102,2.9194655,0.25892687
-45.49613,2.984909,0.40581512
-45.664825,3.001078,0.43628168
-45.93723,2.9985354,0.42229652
-46.12187,3.0136294,0.44985914
-46.446198,3.004209,0.4190712
-46.825096,2.9867659,0.36889744
-47.10778,2.9882627,0.36340046
-47.49801,2.972658,0.31687546
-47.703537,2.9904482,0.34960794
-48.03323,2.9885387,0.3350711
-48.291008,3.0000935,0.35239458
-48.66551,2.994189,0.32761002
-49.003967,2.9959204,0.32073116
-49.215153,3.0190563,0.36491966
10.497545,3.6800327,0.5302458
-0.7240391,3.4485724,0.5493703
-1.8021965,3.4641,0.6336751
-2.5299835,3.4533913,0.6439948
-17.195824,3.0859158,0.4920578
-17.2784,3.0608485,0.43970203
-17.761248,3.1276875,0.6087532
-17.928322,3.1241345,0.60779524
-18.16568,3.1380026,0.648551
-18.365543,3.1442368,0.6707139
-18.577358,3.1544607,0.70223856
-18.71082,3.1465657,0.69010925
-18.906105,3.1547556,0.71636915
-19.022903,3.1441336,0.69742537
-19.190311,3.1470478,0.71072626
-19.34387,3.1472483,0.71738434
-19.496937,3.1481218,0.72550106
-19.638813,3.1468015,0.7282438
-19.75898,3.140312,0.7185426
-19.921267,3.1459997,0.73771524
-20.089405,3.154218,0.7627549
-20.216444,3.1517491,0.76224756
-20.335884,3.147741,0.7579746
-20.490234,3.1544766,0.77908754
-20.60251,3.1496754,0.7727151
-20.743063,3.1538665,0.7875495
-20.851498,3.1491055,0.781075
-20.990305,3.1541855,0.7977905
-21.089462,3.147714,0.7870841
-21.20087,3.1455579,0.78649426
-21.328207,3.1490464,0.79914093
-21.445805,3.1500866,0.80590963
-21.586735,3.1593964,0.8320794
-21.682789,3.1546457,0.8250098
-21.8044,3.1589413,0.8391681
-21.922493,3.1627197,0.852015
-21.992844,3.1506886,0.8275933
-22.107239,3.1542869,0.83985996
-22.22859,3.1609843,0.8593216
-22.310278,3.1541724,0.8469758
-22.399176,3.1503317,0.8415456
-22.509012,3.1546137,0.8551054
-22.606775,3.1550243,0.85950994
-22.707804,3.1571825,0.86794233
-22.793388,3.1539967,0.8637905
-22.898705,3.1588554,0.8784108
-22.992222,3.1597023,0.8835721
-23.078363,3.1581235,0.88299847
-23.16425,3.1568737,0.88313866
-23.24987,3.155952,0.8839917
-23.333843,3.1547885,0.88422346
-23.418928,3.154516,0.88648224
-23.498278,3.1522615,0.88406515
-23.579445,3.1511724,0.88431597
-23.658342,3.1495116,0.88318586
-23.750378,3.1540115,0.89636326
-23.83934,3.157691,0.90757036
-23.916056,3.1563716,0.90708447
-23.99778,3.1577215,0.91276646
-24.071402,3.155776,0.9107342
-24.140951,3.1522858,0.9050665
-24.230202,3.1584492,0.9218025
-24.308205,3.1597703,0.92723227
-24.385283,3.1610727,0.9325743
-24.460821,3.1620421,0.9370985
-24.520552,3.1555378,0.92423105
-24.596891,3.157641,0.93130875
-24.624607,3.135284,0.8816004
-24.654602,3.1139026,0.8341484
-24.674194,3.0868697,0.77358913
-24.690216,3.0575998,0.70784664
-24.706324,3.0279787,0.64129543
-24.728405,3.0012136,0.5813632
-24.731876,2.963807,0.49679232
-34.657536,2.9196365,0.4211626
-34.66291,2.9589398,0.5102267
-34.690037,2.9831822,0.5645466
-34.693073,3.022692,0.65410423
-34.69878,3.0597346,0.73798275
-34.760605,3.0607262,0.7386131
-34.80966,3.0699544,0.7582412
-34.796642,3.1173196,0.8659725
-34.805958,3.1502287,0.9403181
-34.83883,3.1685293,0.98089933
-34.89481,3.1730657,0.98964167
-34.9452,3.1810548,1.0063467
-35.12419,3.1154761,0.85280657
-35.1917,3.115002,0.8498316
-35.26233,3.1131465,0.84362316
-35.31862,3.1195846,0.8565836
-35.394367,3.1156316,0.84544754
-35.43302,3.1320336,0.8814378
-35.473183,3.1475692,0.91540766
-35.500404,3.1698265,0.9649482
-35.524723,3.1933682,1.0174618
-35.561428,3.2103603,1.0547795
-35.60711,3.2227666,1.0814419
-35.655125,3.2340615,1.1055026
-35.703022,3.2454937,1.1298623
-35.756493,3.2543085,1.148119
-35.8858,3.2270596,1.08253
-36.00912,3.2036996,1.0258961
-36.106876,3.1932132,0.99912214
-36.189564,3.1903076,0.9899249
-36.264057,3.191589,0.9904237
-36.570763,3.0892065,0.74948597
-36.694542,3.0707297,0.70377207
-36.577927,3.1581447,0.9047513
-36.495983,3.2288394,1.0668654
-36.662045,3.1925633,0.9795656
-36.76319,3.1849177,0.9589524
-36.828373,3.1928256,0.97457695
-36.92199,3.1893156,0.96349907
-36.997173,3.193795,0.97102594
-37.08934,3.1918213,0.9634223
-37.17621,3.1924396,0.9618168
-37.280396,3.1867528,0.94540215
-37.378628,3.183965,0.93569946
-37.473656,3.182937,0.9300504
-37.57119,3.181473,0.92331266
-37.700344,3.1688178,0.8902688
-37.81485,3.1623325,0.8715992
-37.950478,3.148888,0.8365121
-38.068356,3.1426213,0.81817484
-38.191223,3.1352782,0.79721737
-38.262314,3.1466444,0.8201513
-38.375492,3.1438177,0.8096523
-38.529926,3.1276364,0.76763344
-39.142677,2.959196,0.3668928
-39.206482,2.9768207,0.40406084
-39.268585,2.995152,0.44285536
-39.27339,3.032045,0.5254116
-39.30148,3.061211,0.5897417
-39.448303,3.0530465,0.56586313
-39.55426,3.0583544,0.5737138
-39.637627,3.071054,0.5989685
-39.797714,3.0609674,0.5702119
-40.182602,2.985017,0.38525343
-40.33958,2.9785635,0.36470556
-40.429024,2.9925148,0.39243698
-40.495106,3.0134728,0.43673658
-40.88872,2.9423795,0.26221514
-40.910305,2.977261,0.339365
-40.9435,3.008776,0.4085021
-3.232853,3.6147876,0.5733228
-3.257454,3.5438497,0.41817808
-4.8034096,3.6139648,0.6695876
-5.508524,3.6119998,0.70918846
-5.635027,3.556833,0.59506035
-17.084457,3.1103652,0.29005575
-17.258928,3.1050336,0.2879324
-17.69426,3.1167598,0.33879232
-17.895866,3.120667,0.35886765
-18.155933,3.139433,0.41561985
-18.27838,3.1267924,0.39395
-18.548306,3.15048,0.4622674
-18.688236,3.14376,0.4548378
-18.828674,3.137848,0.44922256
-19.004402,3.1415653,0.4672284
-19.162151,3.1416118,0.47593546
-19.34814,3.1498458,0.5046263
-19.484255,3.145939,0.5031681
-19.63466,3.1465435,0.5126381
-19.786985,3.148463,0.5251517
-19.904037,3.1414757,0.5156121
-20.083542,3.1524932,0.55008364
-20.2118,3.1500323,0.5513139
-20.33649,3.1471972,0.55147886
-20.485392,3.1520395,0.5702653
-20.602917,3.1484485,0.5682802
-20.729536,3.1481612,0.57422304
-20.869793,3.15267,0.5917139
-20.980705,3.1489444,0.5889907
-21.095955,3.1471162,0.59076405
-21.215466,3.1472194,0.59710836
-21.323074,3.144147,0.59561014
-21.467712,3.1536021,0.6243987
-21.552525,3.1442816,0.6075058
-21.498518,3.089158,0.47957325
