x,y,z
-34.634274,1.6430001,3.4052896
-34.680588,1.6423638,3.4190207
-34.724472,1.6441975,3.4352293
-34.771423,1.6432807,3.4490728
-34.82337,1.6379087,3.459012
-34.88042,1.6281204,3.4651337
-34.935734,1.6202593,3.4732747
-34.984825,1.6183124,3.487043
-35.03395,1.6165323,3.5011735
-35.090836,1.6081014,3.5095172
-35.15952,1.5896792,3.5091515
-35.206303,1.5907323,3.526546
-35.278687,1.5699751,3.5247154
-35.359318,1.5427675,3.5175343
-35.420406,1.5326848,3.5258946
-35.483658,1.5211565,3.5332804
-35.54843,1.5087552,3.540213
-35.607967,1.5010395,3.551547
-35.634903,1.5200844,3.5863633
-35.65607,1.5435913,3.6250973
-35.671375,1.5715175,3.6676574
-35.656433,1.6229849,3.7303166
-35.693077,1.6333559,3.7578382
-35.72957,1.6438332,3.7855916
-35.767315,1.6533322,3.812665
-35.80705,1.6613233,3.8386254
-35.85095,1.6662068,3.862166
-35.89405,1.6717727,3.886467
-35.94068,1.6748064,3.908875
-35.991608,1.6748025,3.9290147
-36.036694,1.6792309,3.9530077
-36.08904,1.67852,3.9730525
-36.146538,1.6743081,3.9905453
-36.200386,1.6729417,4.010609
-36.260937,1.667062,4.027364
-37.459053,0.86744785,3.4183602
-37.46892,0.90394783,3.4730325
-37.457897,0.9543872,3.5384994
-37.456776,0.99745655,3.5980616
-37.45809,1.0383761,3.6558394
-37.477962,1.0664144,3.70368
-37.490513,1.0990586,3.7550292
-37.499508,1.1337123,3.807858
-37.45916,1.200206,3.884387
-37.453724,1.2432225,3.9431148
-37.46412,1.2755866,3.9938574
-37.479553,1.3044226,4.041987
-37.497738,1.3312652,4.0886726
-37.513954,1.3591137,4.1361012
-37.587048,1.3514066,4.1582475
-37.76403,1.2800579,4.1359534
-37.872147,1.2521548,4.145253
-38.00715,1.2086346,4.1444387
-38.12732,1.174958,4.1512957
-38.255985,1.1369863,4.1560354
-38.43802,1.0683012,4.1409545
-38.593903,1.0162938,4.138289
-38.794685,0.9392364,4.120167
-38.89759,0.92015266,4.1413937
-39.057686,0.8688767,4.142473
-39.234936,0.8089261,4.139134
-39.418686,0.7465253,4.1355214
-39.65155,0.65792346,4.1168356
-39.82679,0.6029527,4.120697
-34.584236,0.74712706,2.2247376
-34.605343,0.7833848,2.2742887
-34.314842,1.2323802,2.7466378
-34.202927,1.4120159,2.936935
-34.23536,1.4272752,2.9643497
-34.257225,1.453973,3.003097
-34.26879,1.4914324,3.0524168
-34.269806,1.5395739,3.1121397
-34.28682,1.5698085,3.1543016
-34.296604,1.6071494,3.2033648
-34.38248,1.564652,3.1750188
-34.402046,1.5914936,3.214077
-34.423508,1.6159928,3.2508922
-34.44634,1.6387525,3.2860618
-34.474102,1.6562741,3.3162546
-34.505737,1.6697648,3.34267
-34.546707,1.6740162,3.360394
-34.585823,1.6801336,3.3800354
-34.62606,1.6852064,3.3988328
-34.66379,1.6927099,3.420063
-34.71369,1.688803,3.4307323
-34.764286,1.6844931,3.441234
-34.81122,1.683794,3.4553123
-34.85566,1.685535,3.4718466
-34.910824,1.6777382,3.4797502
-34.964207,1.6718433,3.4896517
-35.02089,1.6633067,3.4973712
-35.07707,1.6555417,3.506054
-35.139214,1.642915,3.5105743
-35.20613,1.6265941,3.5120473
-35.267384,1.6155696,3.5186234
-35.33212,1.6019852,3.5231953
-35.40106,1.5853126,3.5253239
-35.460873,1.5766716,3.5349422
-35.52891,1.5616212,3.5391703
-35.60668,1.5391226,3.5371723
-35.674553,1.5251775,3.5430884
-35.74881,1.5065694,3.5452724
-35.808838,1.4997182,3.5580626
-35.639668,1.6725812,3.7265868
-35.68879,1.673176,3.7455983
-35.725956,1.6831281,3.7728467
-35.757324,1.6974981,3.8040028
-35.797718,1.7049706,3.82942
-35.84086,1.7104316,3.85331
-35.88679,1.7139027,3.8757215
-35.92689,1.7217798,3.9020157
-35.97559,1.7234321,3.9233193
-36.011116,1.7347503,3.9528213
-36.079494,1.7225227,3.9631696
-36.12887,1.7241845,3.985201
-36.1871,1.7197609,4.002547
-36.237938,1.7207577,4.0245557
-37.473625,0.90205455,3.391405
-37.432373,0.9735532,3.4741254
-37.43772,1.0123606,3.530623
-37.453148,1.0439365,3.5813632
-37.473457,1.0719306,3.6293006
-37.48494,1.1055324,3.6815977
-37.472076,1.1547983,3.745885
-37.443054,1.2139962,3.8175302
-37.45049,1.2488515,3.870419
-37.467575,1.2771587,3.918325
-37.48347,1.3059685,3.9666138
-37.497383,1.3357718,4.0156374
-37.49191,1.3774261,4.073344
-37.504105,1.4076529,4.122578
-37.52464,1.4324718,4.1678834
-37.670387,1.380692,4.1583977
-37.797512,1.3412495,4.1586494
-37.943657,1.2912536,4.152322
-38.089603,1.2424142,4.147794
-38.204456,1.2129598,4.1576505
-38.363678,1.1582224,4.1509676
-38.57185,1.0761669,4.1268754
-38.71776,1.0315616,4.1294003
-38.82955,1.0074251,4.1465344
-39.01193,0.94389796,4.138515
-39.21663,0.8690851,4.1244555
-39.384705,0.8161688,4.1259737
-39.55421,0.76357365,4.1288967
-39.75449,0.6951852,4.1230946
-39.99173,0.6080284,4.107081
-40.15226,0.56399584,4.119354
-34.605324,0.76634,2.179078
-34.21609,1.3838899,2.8396478
-34.206352,1.4469142,2.9150043
-34.23611,1.465127,2.9454384
-34.249245,1.5012219,2.9937496
-34.293694,1.502912,3.0078611
-34.27602,1.5709624,3.0878458
-34.25894,1.6370583,3.1656842
-34.28481,1.6570776,3.1979442
-34.375214,1.6102257,3.1646166
-34.401005,1.6304965,3.1974254
-34.414925,1.6624899,3.2417183
-34.440582,1.6822324,3.2740755
-34.470642,1.69737,3.3020196
-34.504025,1.709096,3.326748
-34.531868,1.7261083,3.3566694
-34.565464,1.7374125,3.3811784
-34.60798,1.7401793,3.397625
-34.65596,1.7379181,3.4094381
-34.684925,1.7535431,3.4384403
-34.745865,1.7395823,3.4395123
-34.782703,1.7480242,3.4619951
-34.848324,1.73049,3.4601965
-34.89714,1.728473,3.4732351
-34.94855,1.7243667,3.484531
-35.000034,1.7204411,3.4962168
-35.02382,1.7407928,3.5305924
-35.108406,1.7086601,3.5166426
-35.139835,1.7225585,3.545384
-35.22507,1.6909933,3.5326638
-35.294884,1.6730711,3.5328093
-35.356308,1.6625998,3.5400553
-35.456833,1.6204462,3.5190043
-35.50329,1.6231554,3.5388088
-35.593887,1.5904782,3.5271606
-35.63985,1.5941551,3.548366
-35.728413,1.5643008,3.5400524
-35.78006,1.5640583,3.558332
-35.64242,1.710798,3.7058482
-35.655895,1.7389395,3.748756
-35.694996,1.7472317,3.7743964
-35.73539,1.7545757,3.7993736
-35.775677,1.7620473,3.8246264
-35.818718,1.7675233,3.8483396
-35.85736,1.7763133,3.8750596
-35.90094,1.7815344,3.8989172
-35.95971,1.7758749,3.9138088
-36.00759,1.7782867,3.9357553
-36.059845,1.7777393,3.955462
-36.104717,1.7825768,3.9798803
-36.157677,1.7818749,3.9999495
-36.209152,1.7823989,4.021284
-36.27935,1.7702692,4.0325956
-37.430695,1.0240486,3.4517393
-37.451134,1.05249,3.500173
-37.469635,1.0819628,3.549447
-37.482365,1.1149826,3.6015377
-37.480804,1.1570499,3.6607084
-37.45166,1.2165914,3.733389
-37.448013,1.2588966,3.792379
-37.466324,1.2866566,3.8400307
-37.48502,1.3139307,3.8873258
-37.489983,1.3496165,3.941018
-37.49129,1.3872135,3.9960666
-37.476242,1.4345345,4.05827
-37.499474,1.4577916,4.102428
-37.51758,1.4840047,4.1488147
-37.632244,1.4516959,4.1525917
-37.769024,1.4068937,4.1480865
-37.888596,1.3732712,4.152498
-38.02884,1.3282478,4.149602
-38.204624,1.263423,4.133723
-38.26523,1.2666454,4.166481
-38.477417,1.1829145,4.139559
-38.61247,1.1447692,4.1453075
-38.813198,1.0703428,4.127416
-38.9767,1.0182567,4.125924
-39.064297,1.00951,4.1543202
-39.29382,0.9228225,4.132132
-39.466587,0.86887336,4.132869
-39.658447,0.8056929,4.1289124
-39.863663,0.7366066,4.1225986
-40.083187,0.66126204,4.11386
-40.330708,0.5725701,4.0984707
-34.466072,0.9817829,2.324533
-34.510986,0.988755,2.3444242
-34.54211,1.0113151,2.3803778
-34.168365,1.4854956,2.8764224
-34.19722,1.5047493,2.9079356
-34.248505,1.4992502,2.9144301
-34.249653,1.54813,2.9760714
-34.258835,1.5875156,3.0280418
-34.26517,1.629199,3.0822668
-34.27196,1.6696534,3.135189
-34.250977,1.7380593,3.2159748
-34.29901,1.7346733,3.2250047
-34.400574,1.6774504,3.1807446
-34.42137,1.702317,3.218289
-34.443535,1.7254682,3.2541585
-34.468872,1.745187,3.2866817
-34.4951,1.7637992,3.3181677
-34.531204,1.7727163,3.340231
-34.56417,1.7845898,3.3652925
-34.59635,1.7971168,3.3910875
-34.63508,1.8034701,3.411003
-34.67618,1.8076704,3.428977
-34.684338,1.8419533,3.4760222
-34.782608,1.7944672,3.4446893
-34.814907,1.8069766,3.471129
-34.865406,1.8033164,3.4822912
-34.907036,1.8076537,3.5012465
-34.98589,1.7798085,3.4899864
-35.02248,1.7889454,3.5138898
-35.05503,1.8015087,3.541129
-35.138546,1.7710917,3.528386
-35.16512,1.7889068,3.5608735
-35.177475,1.8182979,3.604134
-35.29702,1.7596023,3.5662308
-35.348186,1.7576036,3.5809975
-35.39939,1.7557843,3.5961523
-35.53985,1.683171,3.547172
-35.645103,1.6398203,3.525487
-35.70829,1.6303005,3.5348592
-35.761917,1.6285312,3.5514874
-35.77164,1.6606405,3.598596
-35.657436,1.7865071,3.728931
-35.69372,1.7969828,3.7564187
-35.73269,1.8054473,3.7822747
-35.770107,1.8150866,3.8093133
-35.81169,1.8216848,3.8338513
-35.854614,1.8273699,3.8577738
-35.90036,1.831109,3.8802056
-35.93949,1.839685,3.9069853
-35.993877,1.8375022,3.9247642
-36.03725,1.8432662,3.9495387
-36.095337,1.8388875,3.9659657
-36.150513,1.8367805,3.984589
-36.193005,1.8435595,4.0108833
-36.2414,1.846411,4.0341206
-37.44695,1.0726709,3.4192758
-37.471962,1.0980296,3.4653897
-37.484413,1.1314716,3.518117
-37.461163,1.1879263,3.5893602
-37.44941,1.2361908,3.653761
-37.45088,1.2753642,3.7107277
-37.470413,1.3025811,3.7581425
-37.489555,1.3298142,3.805593
-37.490295,1.3683527,3.861864
-37.469257,1.420011,3.9281664
-37.46882,1.458334,3.983972
-37.47021,1.4951196,4.0384912
-37.49418,1.5178325,4.0822797
-37.515415,1.5420325,4.127246
-37.519447,1.5763156,4.17975
-37.684185,1.5152242,4.1618905
-37.82705,1.4681914,4.1554136
-37.98594,1.4128416,4.1438646
-38.088455,1.3911567,4.157557
-38.228867,1.348383,4.156903
-38.400196,1.2890074,4.145493
-38.572254,1.2304361,4.1358275
-38.765717,1.1611252,4.1199284
-38.846256,1.1557193,4.1491356
-39.007652,1.1062586,4.14899
-39.211433,1.0347753,4.1352034
-39.37915,0.98420787,4.136752
-39.583645,0.9150238,4.127267
-39.775425,0.85399604,4.124553
-39.984,0.7853844,4.1183558
-40.173798,0.7279918,4.1207952
-40.43672,0.63388467,4.101612
-40.69986,0.54148936,4.085458
-24.052984,1.1424809,2.9742136
-24.107294,1.1403594,2.9529004
-24.149542,1.1286707,2.9228768
-24.185951,1.112212,2.8885293
-24.209347,1.0849419,2.84411
-24.19957,1.0298069,2.7733717
-24.231203,1.0085313,2.7345977
-24.22611,0.9559593,2.6660724
-34.439915,0.9955962,2.2552857
-34.558987,1.0350521,2.3341465
-34.272385,1.4609189,2.798882
-34.2496,1.5366144,2.888795
-34.21245,1.6261275,2.9926205
-34.257164,1.6272807,3.0058188
-34.29409,1.6367185,3.0276184
-34.26631,1.7129986,3.1174622
-34.287693,1.7375166,3.1545763
-34.265865,1.805366,3.235499
-34.341965,1.7739377,3.2161613
-34.40176,1.7594748,3.2142186
-34.4308,1.775603,3.2431698
-34.45429,1.7969356,3.2773886
-34.481014,1.8148799,3.3082738
-34.50986,1.8306012,3.3370113
-34.542694,1.8424149,3.361957
-34.579613,1.8503537,3.383182
-34.618256,1.8567061,3.4029703
-34.65928,1.8609223,3.4208035
-34.704605,1.86134,3.43508
-34.74931,1.8624659,3.450222
-34.79086,1.8665233,3.46838
-34.857124,1.8490353,3.4658957
-34.899384,1.8528619,3.4842196
-34.945457,1.8535063,3.4996567
-34.988293,1.8570588,3.518055
-35.0474,1.847018,3.5236964
-35.085655,1.8547177,3.5464067
-35.13967,1.849432,3.5570087
-35.18247,1.8535905,3.5767226
-35.21383,1.8671074,3.605359
-35.24769,1.8785393,3.6321526
-35.29833,1.876591,3.646647
-35.435642,1.806603,3.598524
-35.588455,1.7259974,3.541421
-35.653454,1.7149348,3.5488563
-35.729042,1.696145,3.5495663
-35.79864,1.6824312,3.5552645
-35.645744,1.8364494,3.7127075
-35.674225,1.8527186,3.745308
-35.708862,1.8643322,3.7738304
-35.745472,1.874475,3.8011703
-35.786964,1.8810794,3.8255181
-35.82764,1.8883371,3.850614
-35.86966,1.894691,3.8750868
-35.91597,1.8980901,3.8971658
-35.9637,1.9006231,3.9187012
-36.01508,1.9007654,3.9383984
-36.06349,1.9031336,3.960246
-36.115593,1.9031348,3.9803052
-36.156464,1.9109156,4.0072036
-36.231075,1.896153,4.0153074
-36.281704,1.8977618,4.0375147
-37.480236,1.1439738,3.432055
-37.461422,1.1977227,3.5017934
-37.45487,1.2428505,3.5642061
-37.45999,1.2799497,3.6199083
-37.480057,1.3071454,3.6675067
-37.494286,1.3377888,3.7179027
-37.492455,1.3781836,3.7760706
-37.45633,1.4393904,3.850614
-37.46659,1.4712789,3.9017034
-37.474022,1.5045853,3.9538603
-37.48018,1.5383289,4.006298
-37.505,1.5605519,4.049801
-37.50147,1.5994828,4.106131
-37.519905,1.6250477,4.152201
-37.61143,1.607693,4.1660495
-37.78259,1.5446951,4.146455
-37.895176,1.5166445,4.1538277
-38.046494,1.4672136,4.146265
-38.168106,1.4356339,4.1526713
-38.27611,1.4124475,4.16591
-38.447983,1.3543763,4.1549897
-38.66201,1.2742565,4.1296916
-38.817986,1.2274656,4.129191
-38.956154,1.1913617,4.1371527
-39.089718,1.1585944,4.1483383
-39.26484,1.1044567,4.1459475
-39.465893,1.0377498,4.136361
-39.65758,0.977329,4.13238
-39.865246,0.90985775,4.1251464
-40.071136,0.84469485,4.120913
-40.291435,0.7735076,4.1143146
-40.52111,0.6990187,4.1072426
-40.793747,0.6043999,4.089284
-41.03296,0.52834344,4.084829
-23.74979,1.1727631,3.0440354
-23.822302,1.1832545,3.0332584
-23.889788,1.1903205,3.0196557
-23.945438,1.1886129,2.9982066
-24.020956,1.2025425,2.9915977
-24.075825,1.2007327,2.9705834
-24.13544,1.2028627,2.9535089
-24.187613,1.1992869,2.9312959
-24.23047,1.1883292,2.902278
-24.264856,1.170459,2.8668194
-24.264557,1.1238911,2.8039775
-24.25777,1.071234,2.7351627
-24.25896,1.0244539,2.6718616
-24.261524,0.9781289,2.6088886
-34.408707,1.0123107,2.2024908
-34.46238,1.0097289,2.2120113
-34.50731,1.0173302,2.2324367
-34.52073,1.0603197,2.2901492
-34.244194,1.5281477,2.8160844
-34.246025,1.5765641,2.878333
-34.220776,1.6527748,2.9692926
-34.25009,1.6702361,2.9992633
-34.291405,1.6750379,3.0162477
-34.270245,1.743962,3.0992966
-34.31147,1.7482688,3.1158648
-34.236004,1.8697262,3.2523413
-34.337845,1.812751,3.2063742
-34.39531,1.8007288,3.2066007
-34.421936,1.8190825,3.2378502
-34.45064,1.8352132,3.2669082
-34.471962,1.8581984,3.3029404
-34.50312,1.8716068,3.3293824
-34.537098,1.8822737,3.3531675
-34.570923,1.893029,3.3771439
-34.610725,1.898273,3.3957448
-34.654167,1.9002862,3.411284
-34.698215,1.9018815,3.4265742
-34.741627,1.9041739,3.4427195
-34.790073,1.9021761,3.4548216
-34.83157,1.906415,3.4732156
-34.90695,1.8816185,3.4634929
-34.940193,1.8933365,3.4895568
-34.981697,1.8980303,3.5089364
-35.009422,1.9143057,3.5396237
-35.059265,1.9121575,3.552713
-35.12505,1.897176,3.5537553
-35.18575,1.8867736,3.559466
-35.225166,1.8938322,3.5820007
-35.25504,1.9085262,3.611887
-35.32815,1.889049,3.609755
-35.442566,1.8378704,3.5783272
-35.570156,1.7776315,3.5390882
-35.641304,1.7619362,3.5418687
-35.70366,1.7533875,3.5515985
-35.764763,1.7461278,3.5628095
-35.769695,1.781049,3.6128888
-35.662304,1.8984754,3.7379951
-35.701138,1.9069531,3.7636065
-35.740566,1.9150317,3.7890096
-35.782036,1.9216821,3.8132892
-35.815456,1.934134,3.8429165
-35.858875,1.9394917,3.8663654
-35.90295,1.9444842,3.889678
-35.946217,1.9501343,3.9137607
-35.99162,1.9544067,3.9368281
-36.042156,1.9552951,3.95716
-36.090446,1.9578784,3.9791937
-36.149193,1.9536064,3.9955668
-36.20574,1.9510605,4.013712
-36.266113,1.9462392,4.0302086
-37.429733,1.2222726,3.4406033
-37.444992,1.2533786,3.4916134
-37.4621,1.2829976,3.5413713
-37.47878,1.3126168,3.5911283
-37.487278,1.3471167,3.644896
-37.489822,1.3849778,3.7013497
-37.458984,1.4431045,3.774135
-37.462654,1.4792886,3.8289232
-37.47606,1.5091653,3.878584
-37.490616,1.5380738,3.9274578
-37.503166,1.5679286,3.9770699
-37.49292,1.611042,4.037023
-37.497303,1.6450553,4.089735
-37.50603,1.6761935,4.1401577
-37.550694,1.6862454,4.1744413
-37.721,1.6242526,4.154406
-37.894566,1.5616708,4.135064
-37.97653,1.5520682,4.156314
-38.162853,1.4844542,4.135264
-38.223152,1.4881604,4.1676226
-38.441338,1.4051442,4.1374993
-38.609947,1.350816,4.1294804
-38.784233,1.2945721,4.121252
-38.855556,1.2948058,4.1539683
-39.043434,1.2332356,4.1440516
-39.230377,1.1734438,4.1366763
-39.423103,1.1118813,4.129405
-39.617416,1.050792,4.123818
-39.841347,0.9757292,4.1102824
-40.02011,0.9252751,4.1146064
-40.21998,0.86525226,4.113962
-40.483177,0.7746825,4.09507
-40.671665,0.7231581,4.1029897
-40.8918,0.65714884,4.103168
-41.167217,0.5654278,4.089011
-23.391914,1.1325092,3.0291457
-23.498348,1.1652248,3.0374851
-23.560232,1.1662967,3.0172224
-23.63197,1.1748643,3.0041795
-23.705667,1.1852686,2.9931812
-23.78128,1.197525,2.9842644
-23.863628,1.2153234,2.9809093
-23.920841,1.2144892,2.9603868
-23.989708,1.2228365,2.948801
-24.046156,1.2218983,2.928699
-24.109375,1.2264738,2.9140978
-24.169807,1.2291429,2.897945
-24.218138,1.2223892,2.8729763
-24.258575,1.2093422,2.8421073
-24.286654,1.1861691,2.8015437
-24.296707,1.1479089,2.746337
-24.278673,1.0857477,2.6677012
-24.295284,1.0516753,2.6164122
-24.294416,1.0023136,2.5500422
-24.275162,0.93643236,2.4672132
-34.36991,0.9779217,2.078353
-34.394913,1.0094357,2.124095
-34.414318,1.0468445,2.1761656
-34.459324,1.0543389,2.1962867
-34.50215,1.0642967,2.2191668
-34.148323,1.668627,2.9073877
-34.23079,1.6298001,2.878056
-34.271145,1.6362967,2.896658
-34.24667,1.7102275,2.9859695
-34.256702,1.7472036,3.0364566
-34.24925,1.8013151,3.1047363
-34.27895,1.8170333,3.133008
-34.28093,1.8601565,3.189725
-34.332436,1.8537722,3.195242
-34.395706,1.8362322,3.1894765
-34.418804,1.8579247,3.2242494
-34.43861,1.8824661,3.2619715
-34.465183,1.9002755,3.292841
-34.49388,1.9158921,3.3215394
-34.524765,1.9293342,3.3481026
-34.56582,1.9333725,3.3652477
-34.604362,1.93976,3.3849034
-34.63849,1.9501407,3.4087014
-34.68119,1.9528744,3.4249535
-34.736427,1.9447215,3.4305072
-34.772842,1.9532528,3.452877
-34.814865,1.9569571,3.4705877
-34.86775,1.951508,3.479423
-34.932358,1.9364464,3.4790325
-34.981625,1.9346628,3.4919424
-35.0329,1.9314258,3.5036392
-35.008495,1.9904141,3.5760388
-35.11046,1.9459319,3.5479956
-35.16643,1.9394205,3.5571089
-35.216484,1.9379246,3.5712886
-35.27603,1.9291468,3.5787144
-35.354767,1.9057274,3.572463
-35.40242,1.9069736,3.5900064
-35.509937,1.8624978,3.5645585
-35.629936,1.8095589,3.5317316
-35.687393,1.8048251,3.5446982
-35.747738,1.7982144,3.556179
-35.79058,1.804838,3.5802183
-35.656197,1.9412045,3.7242393
-35.693584,1.9507451,3.750731
-35.7251,1.9645159,3.7812352
-35.75714,1.9778569,3.8114505
-35.80564,1.9795289,3.8312078
-35.83592,1.9941018,3.862804
-35.8938,1.9894743,3.8772926
-35.93704,1.9951756,3.90127
-35.984634,1.9980009,3.9228826
-36.036655,1.9979842,3.942206
-36.0827,2.0021567,3.9654489
-36.136948,2.0010138,3.9842653
-36.19121,2.0000734,4.0035224
-36.238663,2.0037823,4.02705
-37.43344,1.2667711,3.4163957
-37.456345,1.2928824,3.4633303
-37.47195,1.3234153,3.5140429
-37.480927,1.3578281,3.5680065
-37.482418,1.3965561,3.6255188
-37.45684,1.451596,3.696456
-37.463352,1.4862561,3.7503114
-37.474083,1.5179985,3.801711
-37.484356,1.5497127,3.8530488
-37.493374,1.5818725,3.9047084
-37.47883,1.6276832,3.9672518
-37.460434,1.6752183,4.0309534
-37.49356,1.6921725,4.070293
-37.494183,1.7278492,4.124416
-37.519394,1.7490786,4.1672187
-37.638573,1.7168177,4.1688995
-37.78836,1.6680944,4.158765
-37.95681,1.6100044,4.142516
-38.05532,1.5918605,4.1573825
-38.19613,1.5510359,4.1559834
-38.29274,1.5352168,4.173954
-38.53831,1.4394634,4.134122
-38.714214,1.3828733,4.1243534
-38.820515,1.3644598,4.143152
-38.981617,1.3177547,4.142556
-39.152557,1.2669578,4.1401844
-39.3368,1.210391,4.134982
-39.51324,1.1590536,4.1346664
-39.6673,1.1202574,4.144118
-39.889275,1.0480797,4.1321726
-40.103535,0.98125887,4.125388
-40.317715,0.9158881,4.1211014
-40.50937,0.8630135,4.1264873
-40.765602,0.77976036,4.1137586
-41.009773,0.7040527,4.10771
-41.28959,0.6127877,4.0937433
-23.29483,1.1623449,3.000938
-23.374514,1.1748052,2.990734
-23.4454,1.1814492,2.97549
-23.52186,1.1924632,2.9646735
-23.595299,1.2017157,2.9525614
-23.674904,1.2158964,2.9454575
-23.749372,1.226763,2.9355822
-23.811134,1.2285581,2.917395
-23.882526,1.2378776,2.9066896
-23.93726,1.234905,2.8844733
-24.00909,1.2452474,2.8753552
-24.084127,1.258496,2.8693843
-24.154884,1.2688615,2.8609476
-24.210707,1.2678244,2.8416657
-24.24122,1.2467568,2.802926
-24.268742,1.2230797,2.761684
-24.301224,1.2031956,2.7242494
-24.309845,1.1635032,2.6672077
-24.306763,1.113518,2.5998378
-24.30769,1.0661201,2.5349207
-24.308088,1.0175424,2.468708
-24.306713,0.96668863,2.4000845
-24.292267,0.90372515,2.3190832
-34.24875,1.0503283,2.0571942
-34.351692,0.9893451,2.0019355
-34.32125,1.0862472,2.1193023
-34.36642,1.0935163,2.1388483
-34.383953,1.1323788,2.1928282
-34.205036,1.7024512,2.8882089
-34.223175,1.7317905,2.931003
-34.244167,1.7577069,2.970161
-34.273132,1.7751026,3.000307
-34.291107,1.803339,3.0419726
-34.284172,1.8559201,3.109295
-34.271214,1.913456,3.1816835
-34.344635,1.8857942,3.1646047
-34.386475,1.8893158,3.180441
-34.411232,1.9092095,3.2134814
-34.434494,1.9302602,3.247767
-34.461605,1.9474425,3.278082
-34.48966,1.9635661,3.307363
-34.51928,1.9780855,3.3350577
-34.54563,1.9954338,3.3657327
-34.582176,2.0034668,3.3869348
-34.62791,2.0033627,3.3999567
-34.669296,2.0072436,3.417204
-34.710007,2.0118005,3.4352841
-34.761436,2.0072258,3.444291
-34.80849,2.0066326,3.4575133
-34.853004,2.0083623,3.4732509
-34.888454,2.0177917,3.49685
-34.95177,2.0041916,3.497642
-34.98517,2.0155003,3.5234227
-35.012466,2.0317087,3.5541496
-35.043503,2.0447779,3.5818553
-35.15991,1.989943,3.5430827
-35.209267,1.9890954,3.5576458
-35.247147,1.9973886,3.5813046
-35.288998,2.0026398,3.6021528
-35.360935,1.9849617,3.6010442
-35.462124,1.9456334,3.5794883
-35.59585,1.8827968,3.5359812
-35.653145,1.8781555,3.5486293
-35.73017,1.8592498,3.5480127
-35.796215,1.848901,3.5558558
-35.64168,1.9984744,3.7142434
-35.68327,2.0049534,3.7377539
-35.717594,2.0166636,3.7662978
-35.753914,2.026948,3.7936435
-35.792988,2.035316,3.8193564
-35.8334,2.0427985,3.8444114
-35.871506,2.0519176,3.8711228
-35.920544,2.0536494,3.8912807
-35.966595,2.057551,3.9136171
-36.00887,2.064095,3.938531
-36.059288,2.065339,3.9588923
-36.10894,2.0672593,3.9800882
-36.163857,2.0659242,3.998642
-36.21348,2.0682178,4.020647
-36.263073,2.0706918,4.043044
-37.467476,1.3430717,3.4325252
-37.474613,1.378823,3.4879608
-37.46188,1.4265463,3.5535822
-37.448444,1.4741168,3.6188726
-37.4554,1.5086541,3.6729374
-37.48068,1.531744,3.7173228
-37.4938,1.5619743,3.767726
-37.487495,1.6034904,3.8274603
-37.459927,1.6570818,3.8969727
-37.459515,1.6941123,3.9526587
-37.461773,1.7292018,4.006659
-37.478813,1.7554338,4.05344
-37.49628,1.7812147,4.0998755
-37.511753,1.8079262,4.147067
-37.591156,1.7985822,4.165919
-37.717262,1.7636735,4.165302
-37.881577,1.7085364,4.149844
-38.038387,1.6586709,4.139509
-38.13965,1.640003,4.153918
-38.223713,1.6311438,4.1763453
-38.452755,1.5454288,4.1419024
-38.64448,1.4811316,4.1248794
-38.769947,1.4529011,4.135587
-38.906693,1.4195545,4.143403
-39.04638,1.3855288,4.1516395
-39.218666,1.3356922,4.149567
-39.447662,1.2582335,4.1292415
-39.635834,1.2028768,4.1259246
-39.80413,1.1586432,4.1315846
-40.03732,1.0833824,4.1172867
-40.240414,1.0244341,4.115645
-40.47615,0.9509189,4.105762
-40.65124,0.9081831,4.1178236
-40.913685,0.8247354,4.1046996
-41.122192,0.7685816,4.1110106
-41.411716,0.67562175,4.0955567
-41.725075,0.5734463,4.0765243
-22.940712,1.0640392,2.8790936
-23.145716,1.1601295,2.9461942
-23.211529,1.161762,2.9256797
-23.283781,1.1681728,2.909975
-23.364513,1.1809285,2.9006252
-23.44859,1.1965401,2.8943844
-23.526726,1.2084103,2.8849654
-23.591969,1.2113805,2.8673506
-23.68727,1.2366545,2.871574
-23.771,1.2540815,2.8686523
-23.853043,1.2708077,2.8654451
-23.92791,1.2826731,2.8578653
-24.036766,1.3208399,2.8764744
-24.128666,1.3469396,2.8837223
-24.177553,1.3404179,2.859096
-24.23458,1.3403578,2.8410788
-24.274235,1.3267858,2.8098025
-24.273796,1.2352293,2.6828365
-24.294285,1.2052732,2.6351576
-24.31459,1.1747899,2.5869508
-24.340532,1.148596,2.5431094
-24.329063,1.0907335,2.4669952
-24.329344,1.0418732,2.3999143
-24.328508,0.99128985,2.330947
-24.33476,0.94602036,2.2673335
-24.292519,0.85771704,2.159141
-34.21695,1.0702298,1.9920335
-34.296623,1.0369985,1.9662409
-34.274334,1.1245203,2.0745897
-34.28709,1.1694298,2.135572
-34.3355,1.1725838,2.1504278
-34.374176,1.186862,2.1776853
-34.41625,1.1971941,2.2007031
-34.25201,1.6924016,2.8105903
-34.216103,1.7778487,2.9144406
-34.23871,1.8019204,2.95183
-34.249733,1.8373005,3.0014029
-34.277122,1.855761,3.032793
-34.282,1.896164,3.0877047
-34.298286,1.9247429,3.1299324
-34.229546,2.0348423,3.258862
-34.32129,1.9896786,3.2226171
-34.39675,1.9610085,3.204245
-34.421696,1.9802737,3.2367635
-34.44335,2.0023413,3.2722754
-34.466465,2.0227811,3.306107
-34.497154,2.0361135,3.3325462
-34.53131,2.046232,3.3557181
-34.56409,2.0575333,3.3802218
-34.604156,2.0623848,3.3981414
-34.646038,2.0657291,3.4146447
-34.689777,2.0675814,3.4297624
-34.734776,2.0684958,3.4440808
-34.78042,2.0690203,3.4581704
-34.822857,2.072379,3.4753203
-34.88664,2.058227,3.4748578
-34.929802,2.0613785,3.4921756
-34.987377,2.0529792,3.4980192
-35.04313,2.0463824,3.50592
-35.04779,2.0806458,3.5549202
-35.09409,2.0816948,3.570764
-35.17475,2.0561492,3.5604
-35.215843,2.0617833,3.5812516
-35.256863,2.067547,3.6023831
-35.309475,2.0646133,3.615141
-35.355247,2.067044,3.6333647
-35.523254,1.978857,3.5636635
-35.620014,1.9449089,3.5474162
-35.668835,1.9467151,3.566134
-35.74945,1.9257243,3.5631804
-35.808372,1.9208307,3.5760074
-35.647915,2.071714,3.737238
-35.6907,2.077299,3.7598324
-35.72619,2.0880563,3.7874732
-35.76733,2.0949082,3.8115811
-35.80838,2.1018937,3.8359776
-35.85007,2.1085153,3.8602028
-35.89462,2.1132915,3.882894
-35.943558,2.1152594,3.9031963
-35.98726,2.1208444,3.927024
-36.033875,2.124618,3.9493928
-36.07894,2.129532,3.972999
-36.131508,2.1297438,3.9925761
-36.18712,2.1282148,4.0108495
-36.24735,2.1240058,4.02701
-37.474262,1.3909073,3.399684
-37.449783,1.4461036,3.4724836
-37.457047,1.481091,3.5273724
-37.46846,1.5131853,3.5796885
-37.485664,1.5414753,3.6286912
-37.496952,1.5730591,3.6805172
-37.49673,1.6111689,3.7378583
-37.45712,1.6720264,3.8142986
-37.450844,1.7126491,3.8733888
-37.46236,1.7425354,3.9233847
-37.483074,1.7668839,3.9687748
-37.501816,1.7921758,4.014978
-37.495113,1.8316126,4.072729
-37.495964,1.8664014,4.1265697
-37.522408,1.8866713,4.1686683
-37.64024,1.8566693,4.170846
-37.8234,1.7918639,4.1462893
-37.94145,1.7635415,4.151492
-38.064014,1.7335365,4.1561313
-38.21273,1.690419,4.1514583
-38.301968,1.6795838,4.172374
-38.518547,1.6027644,4.143972
-38.713455,1.5387154,4.1266055
-38.81143,1.5257428,4.1484365
-38.97298,1.480936,4.147504
-39.171577,1.4184816,4.1348286
-39.327545,1.3786871,4.139829
-39.490826,1.33623,4.1439896
-39.67861,1.2827361,4.14149
-39.891117,1.2183931,4.132739
-40.097504,1.1584015,4.1284876
-40.326233,1.0890245,4.1193056
-40.52542,1.0351837,4.122222
-40.714787,0.9872122,4.130463
-41.02688,0.88300586,4.1031246
-41.273674,0.81116796,4.0990925
-41.546738,0.7288151,4.090147
-41.794334,0.65982413,4.091671
-42.091232,0.5700779,4.082116
-22.555113,0.987319,2.8086653
-22.663536,1.0139551,2.8095775
-22.796585,1.0577886,2.827217
-23.021317,1.1644819,2.9049573
-23.108688,1.1799483,2.8973722
-23.179834,1.1848099,2.8800974
-23.253044,1.1914396,2.8648424
-23.33115,1.20186,2.8535748
-23.437609,1.2327263,2.8624482
-23.520138,1.2473643,2.8560905
-23.612282,1.2694297,2.8573723
-23.716675,1.3010333,2.8684487
-23.806585,1.3228588,2.8704195
-23.897505,1.3460748,2.874196
-23.979065,1.3629746,2.8721385
-24.078129,1.3936162,2.8841524
-24.139912,1.3967044,2.8690796
-24.208382,1.4052105,2.8597069
-24.242407,1.3873825,2.8240757
-24.285378,1.3764338,2.7955003
-24.236927,1.2931879,2.6936178
-24.266956,1.2711973,2.653799
-24.327362,1.2268541,2.5739813
-24.32286,1.1757977,2.5044007
-24.348053,1.1486111,2.459363
-24.347544,1.099524,2.3916326
-24.329475,1.0347745,2.3074813
-24.34073,0.99404216,2.24819
-24.335176,0.9381511,2.1729646
-34.232613,1.0958681,1.9561954
-34.247143,1.1399968,2.0168028
-34.30312,1.1349821,2.022256
-34.30054,1.1975904,2.1035795
-34.32526,1.2278659,2.1486635
-34.37608,1.2283194,2.1605315
-34.50865,1.2522628,2.2221193
-34.554573,1.2584002,2.2408676
-34.362957,1.6173208,2.671379
-34.19173,1.8415425,2.9283562
-34.2391,1.8401835,2.938108
-34.252304,1.8731403,2.9853768
-34.284203,1.8870797,3.0119705
-34.29192,1.9244926,3.064064
-34.291546,1.9690776,3.1238465
-34.28985,2.014125,3.1840272
-34.30788,2.0397305,3.223217
-34.395073,2.0003002,3.192752
-34.418182,2.021147,3.227067
-34.44336,2.0398324,3.2591147
-34.467037,2.0596538,3.2924156
-34.494053,2.076241,3.3223329
-34.52388,2.0901642,3.3494968
-34.55843,2.0998209,3.3722486
-34.59782,2.1052485,3.3906674
-34.641533,2.1070232,3.4054012
-34.686497,2.1078665,3.419322
-34.730198,2.1099281,3.4346762
-34.773888,2.1121316,3.450338
-34.81821,2.1139443,3.465757
-34.86707,2.112189,3.4776735
-34.913364,2.1127183,3.4921236
-34.985317,2.0928445,3.48592
-35.011948,2.1095154,3.5172276
-35.036324,2.127812,3.5502458
-35.081882,2.129447,3.5664897
-35.14093,2.1208293,3.572598
-35.200138,2.1124353,3.5791893
-35.24037,2.1187353,3.6007094
-35.296333,2.1133156,3.6107268
-35.35586,2.1055374,3.6186538
-35.510155,2.0284235,3.558486
-35.593624,2.0045214,3.5514097
-35.6613,1.9926496,3.5565076
-35.735558,1.9764895,3.5577517
-35.7987,1.9686978,3.5674634
-35.665066,2.0993116,3.7109756
-35.69283,2.1155262,3.7437124
-35.724693,2.1288118,3.773727
-35.760002,2.1396987,3.8015652
-35.79955,2.1477196,3.8268166
-35.844868,2.1519215,3.8486252
-35.889393,2.1567717,3.8712344
-35.93237,2.1627514,3.895084
-35.979748,2.1659524,3.9165368
-36.022583,2.1722333,3.94104
-36.06835,2.1767254,3.9640827
-36.120125,2.1775253,3.9839559
-36.174942,2.1765974,4.0025034
-36.227486,2.177311,4.022795
-36.280025,2.1782198,4.0435114
-37.45002,1.4943626,3.4539046
-37.46576,1.524015,3.5042887
-37.48418,1.5517821,3.5530043
-37.495922,1.5832999,3.6050134
-37.47494,1.6338854,3.6735735
-37.456375,1.6824248,3.7401147
-37.45932,1.7178597,3.7951756
-37.46573,1.7509301,3.8481326
-37.47886,1.7798355,3.897502
-37.49398,1.8073623,3.9456954
-37.50789,1.8353415,3.9942656
-37.49384,1.8786592,4.0555325
-37.50113,1.9096982,4.1065044
-37.52022,1.9339923,4.1519227
-37.59881,1.9258226,4.1710944
-37.74663,1.8807786,4.16111
-37.915726,1.8254024,4.143841
-38.03666,1.7967036,4.1487365
-38.168793,1.7628782,4.1503773
-38.244576,1.7591963,4.1762567
-38.49055,1.6680844,4.1353226
-38.671295,1.6121407,4.1228695
-38.786087,1.5908575,4.1377974
-38.951115,1.5449693,4.1350513
-39.06234,1.5269628,4.154061
-39.266712,1.4635212,4.1404676
-39.45478,1.4094391,4.1350746
-39.65039,1.3529122,4.1292176
-39.843258,1.2989731,4.1265526
-40.07478,1.2277968,4.1131206
-40.26906,1.1757879,4.1146407
-40.49698,1.1091919,4.107512
-40.712616,1.0497777,4.106885
-40.910595,0.9998691,4.1141677
-41.190662,0.91357136,4.098789
-41.41636,0.8537791,4.1027837
-41.6727,0.7815733,4.1004224
-41.97405,0.69087625,4.088203
-42.288834,0.5961547,4.0757246
-22.25798,0.9842336,2.8078985
-22.381918,1.0182662,2.8147721
-22.505306,1.0528362,2.8228092
-22.631111,1.0898764,2.8338337
-22.75112,1.1240613,2.842813
-22.869091,1.1577876,2.8519835
-22.971077,1.1817362,2.8523889
-23.079967,1.2110274,2.8584561
-23.175287,1.2318964,2.8569221
-23.267357,1.2511756,2.85431
-23.373466,1.2807753,2.8622303
-23.47407,1.3073287,2.8676915
-23.569244,1.3307955,2.8706045
-23.664013,1.3546543,2.8743687
-23.753448,1.375371,2.8754654
-23.869759,1.416199,2.897071
-23.951353,1.4326284,2.894793
-24.028507,1.4463217,2.8901372
-24.12119,1.472085,2.8980308
-24.16228,1.4597201,2.8676677
-24.240135,1.4752922,2.8659005
-24.265184,1.4508481,2.8235598
-24.247791,1.3932433,2.747222
-24.22335,1.3292098,2.66405
-24.250134,1.3046315,2.6214204
-24.279919,1.2821872,2.5810475
-24.31461,1.2634745,2.54462
-24.347551,1.1956143,2.4401236
-24.331638,1.134078,2.3588142
-24.361097,1.1096013,2.3164039
-24.35066,1.0510166,2.2379408
-24.33556,0.9874561,2.154018
-24.345074,0.94411397,2.0914292
-24.305422,0.8570955,1.9821105
-34.197495,1.1162016,1.9002018
-34.257812,1.1064968,1.8998861
-34.249,1.1780374,1.9922276
-34.2782,1.2041113,2.032772
-34.3155,1.2204967,2.062377
-34.362682,1.2255461,2.079246
-34.397003,1.244971,2.1124792
-34.412918,1.2843544,2.168261
-34.465237,1.2834558,2.1787486
-34.523727,1.3312397,2.255704
-34.347412,1.6706905,2.6689572
-34.194073,1.8748364,2.9066873
-34.225903,1.8891759,2.9336333
-34.24684,1.9141479,2.9723797
-34.270775,1.9358094,3.0075016
-34.31321,1.939256,3.0226727
-34.24042,2.053122,3.1588168
-34.29287,2.046078,3.1624947
-34.284576,2.0962582,3.2286572
-34.345085,2.0817661,3.2244759
-34.41123,2.0625908,3.2154703
-34.436954,2.0806553,3.2469387
-34.460587,2.1003926,3.2802572
-34.488167,2.1163793,3.3095913
-34.516117,2.131884,3.3384695
-34.546917,2.1447592,3.3646078
-34.582508,2.1534197,3.3863478
-34.622364,2.1584387,3.4043355
-34.664692,2.1614487,3.4203358
-34.70699,2.1645927,3.4366283
-34.758232,2.160458,3.445428
-34.79731,2.1665344,3.465117
-34.852547,2.1595736,3.4713426
-34.902695,2.1570113,3.4823685
-34.932503,2.1708348,3.5105624
-35.00385,2.1518946,3.5050278
-35.018173,2.177915,3.5460482
-35.050888,2.18943,3.5721998
-35.128017,2.1669755,3.5637817
-35.18583,2.1597517,3.5712128
-35.232834,2.1609445,3.587421
-35.28948,2.1551483,3.596764
-35.33516,2.157707,3.6147475
-35.43794,2.1188297,3.5914478
-35.5771,2.0546255,3.543437
-35.64896,2.039907,3.545279
-35.704777,2.0370183,3.5591497
-35.772778,2.0258358,3.5651045
-35.7865,2.0527797,3.6087189
-35.68015,2.1620939,3.732627
-35.71051,2.1763446,3.7635245
-35.74503,2.1877177,3.7917366
-35.781586,2.1977186,3.81875
-35.81874,2.2073414,3.8455348
-35.858715,2.2151306,3.8707147
-35.906025,2.2181993,3.8915796
-35.951057,2.2228844,3.914174
-35.99979,2.2253199,3.9348516
-36.04925,2.2274523,3.955463
-36.099453,2.2292864,3.9760194
-36.149635,2.2313042,3.9969754
-36.20286,2.2316122,4.016594
-36.255325,2.2325919,4.0370746
-37.459824,1.5348613,3.4243808
-37.480267,1.5616355,3.472364
-37.476105,1.6028545,3.53331
-37.457214,1.6523061,3.6014466
-37.452557,1.69281,3.6614327
-37.45996,1.7258563,3.714726
-37.474026,1.7547429,3.764329
-37.493248,1.7804327,3.8111467
-37.50649,1.8093135,3.8607373
-37.479874,1.8602877,3.929214
-37.44928,1.9128413,3.998746
-37.467407,1.937895,4.044776
-37.495754,1.9571819,4.086001
-37.50583,1.9862807,4.1354723
-37.536827,2.0038981,4.175447
-37.700226,1.9509934,4.157856
-37.856926,1.9027841,4.145118
-37.976105,1.8752865,4.150046
-38.118153,1.8366598,4.146832
-38.205536,1.8270715,4.167495
-38.368565,1.7793498,4.158774
-38.558342,1.7191954,4.1414537
-38.73963,1.6646023,4.1296787
-38.84447,1.6492119,4.149012
-39.00991,1.6045227,4.146867
-39.204094,1.546848,4.1361084
-39.39902,1.490097,4.1273518
-39.54312,1.4590282,4.138748
-39.74276,1.4023595,4.1325393
-39.941383,1.3474574,4.128976
-40.183174,1.2736084,4.1133494
-40.425888,1.2009263,4.100252
-40.59619,1.1631382,4.113069
-40.791428,1.1149683,4.119958
-41.03989,1.0439053,4.1127405
-41.331432,0.9550955,4.0954685
-41.579895,0.8873277,4.094211
-41.817627,0.82583,4.0988507
-42.12793,0.73405385,4.0858064
-42.48555,0.62374115,4.063366
-42.71506,0.5707681,4.079382
-21.96376,0.9967203,2.8095503
-22.102833,1.0372033,2.8216553
-22.208479,1.0580387,2.815998
-22.37445,1.1171708,2.8471646
-22.475317,1.1366718,2.8415022
-22.603638,1.1742425,2.8536468
-22.691738,1.1869886,2.8425822
-22.821236,1.2270186,2.8583255
-22.921228,1.2487879,2.8570042
-23.023788,1.2729113,2.8584757
-23.131056,1.3008702,2.8642201
-23.22984,1.3239098,2.865654
-23.332565,1.3503015,2.8708897
-23.43555,1.3776169,2.8775492
-23.525896,1.3969662,2.8767567
-23.637962,1.432054,2.8921824
-23.70625,1.4372642,2.8780622
-23.813122,1.4702005,2.8922892
-23.887943,1.4810324,2.884583
-23.968813,1.4966817,2.882122
-24.054922,1.5166888,2.8844895
-24.124865,1.5253911,2.8756304
-24.203506,1.5409663,2.874165
-24.24725,1.5308337,2.8464198
-24.295847,1.5244141,2.822682
-24.302307,1.4857919,2.765513
-24.266111,1.4136126,2.673133
-24.28004,1.3794115,2.6203508
-24.255093,1.3140609,2.5346894
-24.278858,1.2864726,2.488737
-24.303703,1.2594283,2.443386
-24.339275,1.2407901,2.4070168
-24.337406,1.1912339,2.337696
-24.352856,1.1552684,2.2828207
-24.358797,1.1108196,2.2187958
-24.36734,1.0678871,2.1563253
-24.355463,1.0068092,2.0741515
-24.33905,0.94076204,1.9864016
-24.316395,0.8681016,1.8912458
-34.185265,1.1191332,1.8134165
-34.20636,1.1564581,1.8671942
-34.203423,1.2211897,1.9526691
-34.23925,1.239639,1.9845839
-34.271797,1.2615733,2.020588
-34.2899,1.299448,2.0749807
-34.317524,1.3259876,2.1163492
-34.370346,1.3243287,2.1254606
-34.449127,1.294668,2.1027412
-34.420746,1.3810759,2.212685
-34.466988,1.4931359,2.3742042
-34.338554,1.7259119,2.6599808
-34.268814,1.8441393,2.8042593
-34.228245,1.9309831,2.912838
-34.251984,1.9530768,2.9486103
-34.269688,1.9806943,2.9905834
-34.282364,2.0126944,3.0374374
-34.261047,2.0763621,3.1194506
-34.286346,2.095145,3.1515098
-34.263847,2.1579885,3.232314
-34.34728,2.122539,3.2045512
-34.41229,2.104727,3.196546
-34.4374,2.1232681,3.2286592
-34.461006,2.1429255,3.2620387
-34.48674,2.160476,3.2931585
-34.51466,2.1759362,3.3220587
-34.545437,2.1887922,3.3481994
-34.582256,2.1964123,3.3687654
-34.62274,2.2009623,3.386139
-34.662548,2.2061644,3.4043503
-34.702927,2.2109625,3.4222617
-34.7471,2.2127388,3.437088
-34.79321,2.2130907,3.4505596
-34.835434,2.216725,3.467681
-34.890724,2.2101052,3.474122
-34.94286,2.2062764,3.4837284
-34.993088,2.204183,3.4953623
-35.052067,2.195579,3.5003905
-35.037254,2.243592,3.5646353
-35.09271,2.2377975,3.572866
-35.168716,2.216932,3.5657492
-35.214947,2.218706,3.5823035
-35.27427,2.2110295,3.589342
-35.33097,2.205593,3.5989285
-35.40662,2.1868124,3.5951757
-35.51137,2.1478279,3.5713024
-35.63585,2.0958433,3.5348377
-35.707237,2.0821671,3.5375328
-35.757454,2.0836227,3.5557075
-35.81772,2.078353,3.5673866
-35.657883,2.2231176,3.7281895
-35.713516,2.2201853,3.7420487
-35.748055,2.2315965,3.770256
-35.781693,2.2435937,3.7991552
-35.81811,2.2537515,3.8263779
-35.855865,2.2630565,3.8529062
-35.900948,2.2676804,3.8750625
-35.94672,2.2719824,3.8970985
-35.991688,2.2769208,3.9199357
-36.04113,2.2791708,3.9404097
-36.09284,2.280184,3.9599342
-36.146072,2.2804475,3.9789915
-36.200848,2.2799754,3.9976068
-36.251015,2.282508,4.019271
-36.284107,2.2954376,4.0507717
-37.47312,1.6220598,3.4520178
-37.44931,1.6745179,3.5235896
-37.4522,1.7107298,3.5801525
-37.461655,1.7427666,3.632862
-37.47618,1.7715886,3.6826458
-37.495052,1.7976904,3.7299962
-37.506348,1.8278573,3.7809634
-37.444153,1.8987701,3.8677096
-37.455055,1.928256,3.9177766
-37.460674,1.9603829,3.9701052
-37.47476,1.9876022,4.018146
-37.49252,2.0126188,4.064299
-37.500088,2.042902,4.114939
-37.513786,2.069666,4.1625714
-37.61376,2.0509238,4.1721888
-37.746307,2.0158057,4.1688285
-37.923416,1.9585549,4.1480937
-38.041245,1.9328835,4.1542406
-38.183716,1.8954257,4.1515822
-38.293915,1.8751106,4.163566
-38.49718,1.8090348,4.139872
-38.678493,1.7552261,4.127179
-38.825706,1.7193372,4.129657
-38.942715,1.6990335,4.14513
-39.074512,1.6722562,4.1563873
-39.261555,1.61987,4.14909
-39.461327,1.5626678,4.139436
-39.641975,1.5157363,4.1387663
-39.84574,1.4591823,4.13225
-40.030235,1.4128158,4.134538
-40.29547,1.3306649,4.1123805
-40.502308,1.2767432,4.1121492
-40.70629,1.2253835,4.1151633
-40.92584,1.1683354,4.1156645
-41.2016,1.0878041,4.1016393
-41.42705,1.0310683,4.1057053
-41.73294,0.94077206,4.088992
-41.980347,0.87760425,4.0923977
-42.287285,0.79052734,4.0820875
-42.567516,0.71666694,4.0825267
-42.950706,0.60133266,4.0588927
-21.63364,0.9950552,2.8019853
-21.764212,1.0273046,2.805418
-21.90509,1.0665691,2.816173
-22.048412,1.1083069,2.8300357
-22.145042,1.1228232,2.8186855
-22.268127,1.1540568,2.8238611
-22.437773,1.214853,2.8581977
-22.528587,1.2279947,2.847248
-22.631193,1.2490587,2.8444605
-22.749142,1.2805071,2.8523555
-22.860603,1.3086555,2.857603
-22.966394,1.3339348,2.8605733
-23.072483,1.3601394,2.8649874
-23.178116,1.3867929,2.8703747
-23.275265,1.4085734,2.8713937
-23.363329,1.4249315,2.8674188
-23.47416,1.4572382,2.8799915
-23.555752,1.470454,2.8737106
-23.656338,1.4972484,2.8816566
-23.746525,1.5175657,2.8834472
-23.826477,1.5313263,2.878911
-23.90757,1.5463953,2.8760853
-24.016922,1.582211,2.8951397
-24.09242,1.5944946,2.8902192
-24.164925,1.6050651,2.8838367
-24.229012,1.6098714,2.8717198
-24.264442,1.5936918,2.8377666
-24.305515,1.5816567,2.808291
-24.285704,1.5234444,2.729971
-24.278845,1.4742236,2.6610036
-24.31782,1.4596965,2.628943
-24.237274,1.3517528,2.4968915
-24.256561,1.3206282,2.446875
-24.160814,1.1974397,2.297545
-24.196709,1.1779501,2.2597961
-24.329556,1.2371376,2.307549
-24.321505,1.1820266,2.2314463
-24.32194,1.1330562,2.1618943
-24.348873,1.1055236,2.1157227
-24.37873,1.0801296,2.0719342
-24.368242,1.0198944,1.9897909
-24.350185,0.9520745,1.8990927
-24.318676,0.8712902,1.7938089
-34.19169,1.1588228,1.7810721
-34.24133,1.1624565,1.795712
-34.196693,1.2755034,1.9388299
-34.231457,1.2949955,1.9720783
-34.264412,1.3162484,2.007451
-34.277367,1.3594921,2.0685296
-34.31553,1.3740792,2.0962129
-34.345753,1.3971517,2.133842
-34.393238,1.4012864,2.149568
-34.4308,1.52317,2.323678
-34.48738,1.5170801,2.327941
-34.31635,1.8385267,2.7296371
-34.195076,2.0041742,2.929328
-34.2433,2.0020595,2.9377017
-34.248978,2.040934,2.9926891
-34.281506,2.0536847,3.0180802
-34.305748,2.074093,3.052187
-34.324417,2.0993965,3.0918365
-34.278053,2.1839414,3.197948
-34.352222,2.1575413,3.1795874
-34.39704,2.1582096,3.1917424
-34.42624,2.1729043,3.2196593
-34.45036,2.1919222,3.25244
-34.47601,2.2093847,3.2835417
-34.50323,2.2253072,3.3129926
-34.529587,2.2418122,3.3431444
-34.561935,2.2531085,3.3676362
-34.59726,2.2618659,3.389441
-34.638172,2.266017,3.40633
-34.68159,2.268211,3.421229
-34.72436,2.271066,3.4369974
-34.770992,2.2709508,3.449709
-34.816353,2.2720275,3.4638748
-34.87222,2.2650235,3.4695373
-34.92097,2.263866,3.4816775
-34.95913,2.271056,3.502902
-35.01861,2.2620606,3.5070634
-35.01698,2.2994883,3.5606031
-35.078457,2.2892683,3.5638013
-35.13809,2.2807977,3.5691013
-35.18691,2.280593,3.5833073
-35.259926,2.2630365,3.5796137
-35.306866,2.264734,3.5962534
-35.38525,2.2442243,3.5900998
-35.451347,2.2329535,3.5938363
-35.56645,2.1878936,3.5631914
-35.66169,2.1576045,3.5482316
-35.72313,2.1512363,3.5580897
-35.778225,2.1494956,3.5729098
-35.807335,2.1654577,3.6058288
-35.686405,2.2812462,3.7391129
-35.719345,2.293583,3.768116
-35.75358,2.3050508,3.796361
-35.79504,2.3118315,3.8200774
-35.83864,2.3173184,3.8426805
-35.88142,2.3234293,3.8660712
-35.922626,2.33063,3.8906994
-35.969013,2.3346703,3.9124193
-36.019905,2.336061,3.9317756
-36.068504,2.3390393,3.9528828
-36.115543,2.3431244,3.9752626
-36.166378,2.3450615,3.9958034
-36.22106,2.344881,4.01457
-36.27421,2.3458266,4.0346513
-36.342957,2.3378305,4.046614
-37.45215,1.7257106,3.4970179
-37.472317,1.7517676,3.5444984
-37.48973,1.7791972,3.5932646
-37.511497,1.8039377,3.6395822
-37.51217,1.8403294,3.6965094
-37.44985,1.9113483,3.7845645
-37.458015,1.9425483,3.8364344
-37.468952,1.971947,3.886653
-37.494045,1.9934263,3.929843
-37.497658,2.0263104,3.9831104
-37.499153,2.0600054,4.0370083
-37.501797,2.0927672,4.09001
-37.513012,2.1207337,4.138814
-37.55689,2.131555,4.1729836
-37.720097,2.081174,4.1555924
-37.87737,2.0349512,4.1427126
-37.996014,2.0092912,4.1479306
-38.109146,1.9871054,4.1567383
-38.21332,1.9700215,4.1704097
-38.341393,1.9417711,4.1756463
-38.56311,1.8686595,4.145599
-38.7382,1.8196301,4.1362104
-38.859325,1.7975895,4.149277
-39.020134,1.757395,4.148903
-39.20554,1.7066302,4.1413875
-39.387302,1.658756,4.137321
-39.51954,1.6349385,4.152733
-39.736214,1.573147,4.140467
-39.97892,1.5009255,4.1219273
-40.195503,1.4420674,4.1148944
-40.369938,1.4034059,4.1240425
-40.620346,1.3321323,4.1109385
-40.79944,1.2937617,4.122971
-41.068172,1.2174275,4.109601
-41.348457,1.1378145,4.0958843
-41.58354,1.0793076,4.0986285
-41.80417,1.0283465,4.1081543
-42.116432,0.9401803,4.0944877
-42.41899,0.8580141,4.0870667
-42.781715,0.75287104,4.067017
-43.032307,0.6959045,4.0804253
-43.433212,0.57940865,4.058302
-21.291878,0.98507977,2.8030863
-21.415955,1.0107591,2.7991796
-21.552965,1.0446274,2.803647
-21.715233,1.0940206,2.8235683
-21.810509,1.1055455,2.808282
-21.983086,1.1630743,2.837566
-22.07063,1.1714549,2.8204274
-22.250153,1.2353988,2.857553
-22.349152,1.252111,2.8496509
-22.470665,1.283155,2.8562698
-22.568195,1.3002806,2.8498158
-22.666168,1.3182781,2.844699
-22.784794,1.3498368,2.8535395
-22.9066,1.3842669,2.8658457
-23.012983,1.4097517,2.869792
-23.116703,1.4342599,2.8732762
-23.217785,1.4577727,2.876256
-23.314798,1.479312,2.8777156
-23.40852,1.4993286,2.8780818
-23.498264,1.5173161,2.8768058
-23.587673,1.5356686,2.8763237
-23.679598,1.5563326,2.878644
-23.764755,1.5729766,2.877214
-23.859472,1.5968285,2.8836875
-23.957962,1.6240251,2.894104
-24.043407,1.6427405,2.896062
-24.120874,1.6563466,2.893011
-24.184296,1.6603053,2.880077
-24.249668,1.6659939,2.8692384
-24.283606,1.6488731,2.8343258
-24.279938,1.6036751,2.769431
-24.201088,1.5013471,2.643013
-24.28749,1.5225613,2.6492863
-24.266727,1.462333,2.567803
-24.261454,1.4131138,2.4980521
-24.099947,1.2410359,2.2943363
-24.157154,1.2383676,2.274757
-24.185316,1.2127256,2.230194
-24.20427,1.1793766,2.177199
-24.286137,1.1967864,2.1801877
-24.35345,1.1533098,2.1002665
-24.369553,1.1165066,2.043644
-24.359056,1.0566025,1.9612083
-24.370434,1.0144215,1.8984423
-24.336227,0.9320891,1.7905512
-24.302828,0.8489413,1.6814446
-34.187366,1.1406252,1.6832514
-34.200222,1.1883235,1.750257
-34.218044,1.2292125,1.8091183
-34.193604,1.317862,1.9246373
-34.215984,1.351305,1.9745278
-34.232296,1.3909085,2.031705
-34.26759,1.4087114,2.0631328
-34.29852,1.4310441,2.0999675
-34.34451,1.4367568,2.117319
-34.386276,1.4470346,2.1401544
-34.39171,1.4955809,2.2078943
-34.466854,1.5236437,2.2626715
-34.489265,1.5529039,2.3079062
-34.491585,1.6018872,2.3760414
-34.364548,1.8264964,2.6583457
-34.206635,2.026984,2.9004884
-34.242004,2.0374546,2.92319
-34.260727,2.0636866,2.964067
-34.283024,2.086152,3.0006366
-34.313637,2.10058,3.0280576
-34.325356,2.132226,3.0751557
-34.369476,2.1339147,3.0881958
-34.277252,2.2583158,3.2404022
-34.371082,2.2147615,3.2022448
-34.42115,2.2108157,3.2091374
-34.44765,2.2276456,3.2395592
-34.473885,2.2445264,3.270091
-34.499237,2.2619822,3.3013167
-34.526176,2.2779129,3.3308926
-34.559124,2.2886791,3.3547864
-34.592545,2.29901,3.3782897
-34.632164,2.3042433,3.3962564
-34.67491,2.307012,3.4116392
-34.718937,2.308888,3.4261885
-34.762955,2.310908,3.4410505
-34.810886,2.31,3.4528756
-34.858204,2.309768,3.4656124
-34.902252,2.3122416,3.4814587
-34.96692,2.2991426,3.4806442
-35.005714,2.3060033,3.5015879
-35.05588,2.3044214,3.5136065
-35.055893,2.3401537,3.5657024
-35.09903,2.3437996,3.5835366
-35.16549,2.330643,3.5837002
-35.23082,2.3187428,3.585485
-35.28038,2.31848,3.5998106
-35.371254,2.2893057,3.584003
-35.43238,2.2816417,3.5911098
-35.546757,2.237509,3.560526
-35.651924,2.2007117,3.5381207
-35.70833,2.1978903,3.5513148
-35.77849,2.1860852,3.555512
-35.821358,2.1928778,3.5790653
-35.681408,2.3203287,3.725749
-35.71433,2.3326693,3.754712
-35.750748,2.3427198,3.7814689
-35.790726,2.350508,3.8060775
-35.831345,2.3579524,3.8304944
-35.874855,2.3636475,3.8533254
-35.913788,2.3723035,3.8792653
-35.960907,2.375949,3.9004107
-36.00571,2.3811567,3.9232879
-36.05884,2.3814287,3.9415317
-36.107388,2.3846655,3.9628959
-36.15205,2.3903732,3.986857
-36.21598,2.3848119,4.0001783
-36.265247,2.3881516,4.022316
-36.319946,2.3885014,4.041832
-37.46632,1.7612801,3.468656
-37.48733,1.786859,3.5158386
-37.492928,1.8209524,3.5710006
-37.484497,1.8625536,3.6330624
-37.448307,1.9190865,3.7087379
-37.45935,1.9489017,3.7595906
-37.469955,1.9786932,3.8103914
-37.48577,2.0054035,3.8583717
-37.497944,2.0338547,3.9079218
-37.494213,2.0705078,3.9647717
-37.491577,2.106205,4.0206513
-37.50073,2.1353874,4.0706835
-37.497086,2.170935,4.1262393
-37.51692,2.1940928,4.1709332
-37.630287,2.1696024,4.1746597
-37.78654,2.1242151,4.1612167
-37.959354,2.0716245,4.1426387
-38.071613,2.0501819,4.151318
-38.187546,2.0275903,4.1597147
-38.306335,2.0042892,4.168227
-38.54429,1.92427,4.1310067
-38.71778,1.8767253,4.1217127
-38.805614,1.8708634,4.1470714
-38.99984,1.8154824,4.1334767
-39.14837,1.7826362,4.138949
-39.313732,1.7429184,4.1400046
-39.463173,1.7114961,4.1485634
-39.677284,1.6516466,4.1363163
-39.875633,1.6002581,4.13193
-40.111343,1.5334752,4.1173368
-40.285694,1.4952908,4.1255813
-40.53963,1.4233184,4.1102195
-40.739826,1.3762772,4.1147065
-40.936176,1.3320885,4.1226206
-41.199547,1.2605016,4.11251
-41.488686,1.1796796,4.0978227
-41.750282,1.1122077,4.0944266
-42.040394,1.0345056,4.0859523
-42.357407,0.94752693,4.0733657
-42.592796,0.89579654,4.0864434
