x,y,z
-28.433372,3.3422697,2.7215166
-28.465282,3.3360467,2.7087045
-28.512426,3.3540487,2.7395625
-28.551947,3.3605802,2.749807
-28.585953,3.3583796,2.7443533
-28.615053,3.3478706,2.7239528
-28.643307,3.3355584,2.700323
-28.678627,3.3354726,2.6987748
-28.721573,3.34954,2.7228036
-28.76837,3.3717191,2.7615256
-28.804573,3.3747885,2.7657967
-28.840899,3.37843,2.7711377
-28.86991,3.3675706,2.750317
-28.89803,3.3544183,2.725377
-28.930626,3.3502986,2.7167854
-28.963078,3.3457892,2.7075195
-28.996857,3.3442018,2.7035666
-29.038925,3.3621316,2.7349477
-29.074236,3.365011,2.7391472
-29.108873,3.3665624,2.7409787
-29.139212,3.357274,2.7232246
-29.169044,3.3461545,2.70218
-29.203257,3.3465338,2.701981
-29.245394,3.3698852,2.7434149
-29.281158,3.376191,2.7540216
-29.313202,3.371613,2.744947
-29.343271,3.3604243,2.7239242
-29.375582,3.356002,2.715187
-29.409882,3.3583622,2.718772
-29.447857,3.3747044,2.7477322
-29.48552,3.3916347,2.7777996
-29.517452,3.3870912,2.7689695
-29.555716,3.409503,2.8090482
-29.581923,3.3796868,2.7544484
-29.615412,3.381632,2.7574744
-29.646137,3.369725,2.735404
-29.593592,2.8957205,1.875082
-29.618221,2.809178,1.717586
-29.645178,2.7236278,1.5619001
-39.452007,1.703937,0.32649422
-39.515957,1.7217872,0.36825943
-39.51784,1.7675562,0.45659685
-39.551468,1.7987525,0.5206599
-39.534264,1.8520489,0.6213989
-39.49916,1.912437,0.7337694
-39.50213,1.9556782,0.817646
-39.522873,1.9909322,0.8882928
-39.59123,2.005944,0.92560863
-39.481216,2.0951154,1.0848889
-39.568844,2.101753,1.1084762
-39.460003,2.1884575,1.263258
-39.55632,2.191439,1.280962
-39.468742,2.2678304,1.4184937
-39.517254,2.2896352,1.4669619
-39.48426,2.343092,1.5668573
-39.528576,2.3662038,1.6174784
-39.68612,2.3463333,1.5987477
-39.541252,2.440917,1.7648239
-39.528603,2.484843,1.8489933
-39.58006,2.5047734,1.8945904
-39.618057,2.5296574,1.9482021
-39.63911,2.5605803,2.0115023
-39.724552,2.568485,2.0381775
-39.752373,2.5969489,2.0976791
-39.765488,2.630402,2.165102
-40.673893,2.356594,1.7475257
-39.822155,2.6863215,2.2825985
-39.796383,2.7322712,2.3696232
-39.863457,2.7469478,2.4075751
-39.85602,2.7862377,2.4840775
-39.953426,2.791223,2.5071473
-39.98892,2.8164618,2.5618691
-40.02663,2.840971,2.6155205
-40.090874,2.8571773,2.6564484
-41.1287,2.5726748,2.235951
-40.243294,2.8828433,2.7284455
-40.328125,2.8934865,2.7613993
-40.45335,2.8924177,2.7767925
-40.6511,2.8705902,2.7611427
-40.879604,2.8409328,2.7343044
-41.1693,2.7949977,2.6837544
-41.209114,2.8218405,2.7429767
-41.30749,2.832246,2.7777987
-41.421066,2.8388445,2.8072615
-41.588608,2.8311672,2.81599
-41.719563,2.8342648,2.8410983
-41.79281,2.8534105,2.890102
-41.914787,2.8599262,2.9209185
-41.97139,2.8840418,2.9776335
-42.001247,2.915167,3.0446072
-43.076027,2.68068,2.7305074
-43.0711,2.7238271,2.8167357
-43.052616,2.7700448,2.9072366
-43.06101,2.8093252,2.9878044
-43.06232,2.850122,3.0704684
-43.064842,2.890399,3.152347
-43.17437,2.9053135,3.1989884
-43.35168,2.904967,3.2249746
-43.58792,2.8920162,3.2343607
-43.786304,2.888846,3.2579694
-43.92968,2.8989148,3.3002353
-44.164093,2.8896542,3.317111
-44.371597,2.8874245,3.344293
-44.56613,2.8890007,3.3773417
-44.763653,2.8909018,3.4116063
-45.01339,2.8829408,3.4338546
-45.26156,2.8765748,3.4592195
-45.492924,2.8748534,3.4915915
-45.75497,2.8681962,3.5187097
-45.979156,2.8702729,3.557953
-46.29619,2.855566,3.5773249
-46.52366,2.8594909,3.6210847
-46.80494,2.8544736,3.6549954
-47.11434,2.8457026,3.6857052
-47.39615,2.8435023,3.7257218
-47.703217,2.8382103,3.7634635
-48.016323,2.8334074,3.803288
-48.35965,2.8249705,3.8405123
-48.689697,2.8205273,3.8840098
-49.013172,2.8188417,3.9322963
-49.35623,2.8155613,3.9805298
-50.070152,2.7542105,3.96774
-50.778408,2.697542,3.96391
-51.60186,2.6266778,3.9492269
-52.50473,2.5480304,3.931291
-53.469616,2.4648502,3.9140863
-54.762978,2.3383577,3.8598528
-0.15820122,1.6656477,2.9176984
-0.30944443,1.6053407,2.7686224
-2.0084019,1.7760544,2.8724232
-2.48308,1.7701998,2.789425
-2.5174084,1.6986961,2.6348634
-2.377472,1.5220561,2.28695
-2.4424057,1.4546854,2.1369648
-2.4686012,1.3809681,1.9796376
-2.5007267,1.308094,1.8233571
-2.560955,1.2399077,1.6728554
-2.6256714,1.0937409,1.3601694
-2.6390018,1.0170205,1.1993055
-2.639101,0.9376192,1.0349789
-2.642315,0.8584528,0.8708477
-2.6410027,0.7780967,0.7050767
-2.6571293,0.7007108,0.5430851
-16.234755,3.052956,3.441525
-16.429329,3.052178,3.412438
-16.598373,3.0468664,3.377748
-16.902077,3.0717936,3.386073
-17.117271,3.0787537,3.370162
-17.336758,3.0877883,3.3579655
-17.57442,3.1021059,3.3540912
-17.811565,3.1175663,3.3526955
-17.979725,3.1181488,3.3306293
-18.179947,3.1271768,3.321392
-18.32087,3.1229978,3.2935438
-18.502968,3.1295252,3.2818604
-18.66,3.1308098,3.2630372
-18.804008,3.1296268,3.241056
-18.993355,3.1406338,3.2376776
-19.21221,3.1602213,3.2477355
-19.252975,3.1347408,3.1907663
-19.46923,3.1554835,3.2036428
-19.613705,3.1583047,3.1900306
-19.837788,3.1833456,3.210659
-19.862467,3.1551728,3.1506715
-20.074009,3.1786335,3.1699095
-20.206566,3.1811776,3.1575766
-20.275036,3.1662238,3.118577
-20.47089,3.1880684,3.136817
-20.559473,3.1798704,3.1088648
-20.693691,3.185473,3.1026936
-20.855587,3.2000186,3.1109004
-20.908825,3.182741,3.0695248
-21.106522,3.2096345,3.0979285
-21.112885,3.1786869,3.0353694
-21.305302,3.2056081,3.0646162
-21.363628,3.1913383,3.028823
-21.524902,3.2101433,3.0459518
-21.621534,3.2089946,3.0315614
-21.736715,3.2143805,3.027895
-21.805836,3.2051365,3.0009627
-21.945032,3.2196164,3.012473
-21.970219,3.1962945,2.9631596
-22.136442,3.2212126,2.992134
-22.155117,3.1960363,2.9400525
-22.301283,3.2154188,2.9606261
-22.356651,3.2035022,2.9304042
-22.53651,3.236392,2.9736881
-22.539875,3.2064552,2.9142594
-22.738983,3.2480607,2.9725266
-22.784042,3.2338846,2.9392838
-22.889185,3.242338,2.94352
-22.99073,3.2500248,2.946721
-22.984392,3.2168865,2.882388
-23.136843,3.2450132,2.9198847
-23.193037,3.236393,2.8964977
-23.295176,3.2461958,2.903973
-23.404007,3.2592843,2.9171624
-23.41594,3.2337182,2.8658018
-23.56874,3.265756,2.911152
-23.612713,3.2537167,2.8827004
-23.756458,3.283633,2.9250174
-23.803263,3.2734401,2.8999424
-23.892975,3.2817774,2.9062757
-23.962555,3.281911,2.8988929
-24.02063,3.2773395,2.883658
-24.058342,3.263967,2.853568
-24.180824,3.2886567,2.8883104
-24.224377,3.2784257,2.863778
-24.251001,3.2605221,2.826213
-24.35965,3.2805872,2.85359
-24.432518,3.2846396,2.8537645
-24.45054,3.2630813,2.8101544
-24.558702,3.2845864,2.840498
-24.630217,3.2891095,2.8418489
-24.649975,3.2686498,2.8003073
-24.736935,3.281366,2.8159785
-24.829807,3.2976356,2.837944
-24.85682,3.2811544,2.803463
-24.9197,3.2829952,2.8007216
-25.017088,3.3030727,2.8296914
-25.06491,3.2978823,2.8149924
-25.083282,3.277223,2.7734876
-25.179596,3.2982135,2.8044376
-25.227951,3.2939234,2.7915344
-25.264198,3.283161,2.767416
-25.295918,3.2699063,2.7389917
-25.409956,3.3028784,2.7913775
-25.456633,3.2985902,2.778792
-25.492844,3.2884493,2.7560215
-25.549934,3.29048,2.754632
-25.629383,3.30598,2.7769647
-25.677013,3.3031569,2.7672424
-25.70113,3.2863545,2.7330046
-25.781576,3.3037477,2.7589722
-25.850227,3.314531,2.7734284
-25.899277,3.3135855,2.7673068
-25.9347,3.3042588,2.746458
-25.998934,3.3133662,2.7582188
-26.04224,3.3094,2.7469587
-26.103558,3.3173695,2.7568784
-26.115713,3.2931957,2.7099452
-26.189222,3.3098211,2.7353444
-26.251076,3.3191793,2.7479625
-26.287031,3.3111987,2.7298765
-26.32193,3.3025165,2.7105823
-26.367218,3.30117,2.7043753
-26.441866,3.3209662,2.7358665
-26.474415,3.3110743,2.7145753
-26.516005,3.3077707,2.7050648
-26.553722,3.3017395,2.6907349
-26.600769,3.3027773,2.6890707
-26.675797,3.325336,2.725926
-26.71965,3.3246953,2.721405
-26.738514,3.304755,2.6823983
-26.802925,3.3205144,2.7073293
-26.854376,3.3265269,2.7148852
-26.895813,3.3247826,2.7085977
-26.936184,3.3223283,2.7010841
-26.975521,3.3191547,2.6923246
-27.017841,3.3186278,2.688364
-27.078342,3.333877,2.7128143
-27.121294,3.3345072,2.7110505
-27.151598,3.3242147,2.6896734
-27.194965,3.3255105,2.6891937
-27.22831,3.3179593,2.672822
-27.292082,3.3383787,2.7069168
-27.337742,3.3426914,2.712041
-27.360432,3.325586,2.678554
-27.405535,3.3297052,2.6834154
-27.454014,3.337441,2.6948628
-27.49827,3.3414254,2.6995873
-27.54235,3.345552,2.7046204
-27.566559,3.3297155,2.6735725
-27.611382,3.3349488,2.6806917
-27.648495,3.3324208,2.673801
-27.692184,3.337042,2.6799064
-27.751925,3.3594546,2.7183237
-27.769796,3.336525,2.6745577
-27.808708,3.3366585,2.6726556
-27.847162,3.3364618,2.6701932
-27.894756,3.347066,2.6873918
-27.940508,3.3560429,2.7016883
-27.968853,3.3445923,2.678897
-27.995228,3.330513,2.6513453
-28.03705,3.3353503,2.6582322
-28.077269,3.3385158,2.6621203
-28.125032,3.3517244,2.684339
-28.166563,3.35741,2.6929078
-28.19607,3.3473742,2.672872
-28.225113,3.336498,2.6513267
-28.266449,3.342503,2.6605873
-28.315268,3.3595614,2.6900578
-28.35133,3.3589945,2.6874194
-28.385502,3.355786,2.6799927
-28.414858,3.3453434,2.659387
-28.449482,3.3427615,2.653163
-28.486452,3.3439455,2.653851
-28.534477,3.363174,2.6875567
-28.568546,3.3604472,2.6811743
-28.600998,3.3550415,2.6699238
-28.628723,3.341399,2.6436315
-28.667229,3.346326,2.65134
-28.703518,3.3476567,2.652503
-28.75173,3.3713663,2.6946716
-28.791975,3.3812943,2.711656
-28.823114,3.3741236,2.6973615
-28.857882,3.3740182,2.6960363
-28.889675,3.3679407,2.6837993
-28.91762,3.353533,2.6563187
-28.951471,3.351344,2.65126
-28.985552,3.3497117,2.6472507
-29.030565,3.3734832,2.689866
-29.06571,3.3753421,2.6923313
-29.098873,3.3725982,2.6863818
-29.131706,3.3689988,2.6788917
-29.161037,3.3560686,2.6543012
-29.1967,3.3596957,2.6601295
-29.236893,3.3766258,2.6904163
-29.273584,3.3847065,2.7044926
-29.304647,3.376355,2.6884203
-29.338121,3.3751707,2.6855402
-29.368761,3.364609,2.6654592
-29.402231,3.3631177,2.6620693
-29.441303,3.382091,2.6963172
-29.47739,3.391694,2.7133803
-29.510504,3.3904827,2.710597
-29.544075,3.391256,2.7114902
-29.577715,3.392592,2.7134476
-29.611004,3.3925898,2.712973
-29.643158,3.3869665,2.70219
-29.59173,2.9250703,1.8522868
-29.621302,2.8684607,1.7477093
-29.641724,2.7447488,1.5197215
-39.49671,1.7939072,0.34921026
-39.478138,1.8482993,0.45289373
-39.589703,1.8451838,0.4589777
-39.50028,1.9294114,0.613101
-39.461945,1.9904754,0.7278056
-39.566418,1.9904006,0.7392297
-39.513958,2.0563571,0.8620362
-39.523945,2.0955787,0.93971634
-39.528526,2.1366472,1.0204611
-39.517426,2.183646,1.1110897
-39.48096,2.2402418,1.2176719
-39.513165,2.268975,1.2776217
-39.518612,2.308027,1.3547773
-39.512943,2.3510115,1.4384236
-39.5306,2.3846445,1.5064917
-39.538795,2.4216125,1.5800686
-39.534973,2.462754,1.660502
-39.574406,2.4875257,1.7138987
-39.48989,2.5574937,1.8416438
-39.554356,2.57265,1.8792028
-39.625275,2.58568,1.913404
-39.633118,2.6211882,1.9844422
-39.668636,2.6467688,2.03928
-39.772278,2.6488128,2.0559235
-39.801426,2.676735,2.1147408
-39.8234,2.7069767,2.1773362
-39.84404,2.7375154,2.2404175
-39.85739,2.7702978,2.3071122
-40.672638,2.5419328,1.9550877
-39.869644,2.8399043,2.4469132
-39.92165,2.8597445,2.492906
-40.045753,2.8570309,2.5031486
-40.030968,2.8980727,2.583053
-40.032795,2.9336236,2.6541839
-40.984497,2.6808949,2.2712555
-40.241646,2.9424639,2.6985602
-40.36944,2.940683,2.7114515
-40.50099,2.9384422,2.7239733
-40.958298,2.8427289,2.591608
-41.13476,2.8301272,2.5893369
-41.174995,2.8568983,2.648322
-41.328842,2.8520334,2.6587543
-41.49909,2.8434463,2.6639357
-41.67242,2.8349152,2.6697087
-41.739212,2.8558881,2.720818
-41.862545,2.8620663,2.749714
-41.94166,2.8803818,2.7972546
-41.968925,2.9123676,2.8655086
-43.080204,2.6677628,2.520864
-43.056625,2.7159576,2.6151814
-43.061485,2.7566683,2.6982822
-43.053787,2.8002362,2.785542
-43.052727,2.8418958,2.869917
-43.062973,2.8805997,2.9499192
-43.128036,2.9062045,3.0109148
-43.344612,2.8967364,3.0215454
-43.56532,2.8874469,3.0331898
-43.677574,2.903851,3.082222
-43.89042,2.8982618,3.1004791
-44.137245,2.8862746,3.1105022
-44.292717,2.89541,3.1509771
-44.48671,2.8970218,3.18156
-44.726044,2.890017,3.200976
-44.97705,2.8818088,3.2196603
-45.22654,2.875198,3.241496
-45.41861,2.8814597,3.2816906
-45.655354,2.8797512,3.311965
-45.911354,2.8754523,3.3397517
-46.199074,2.8663194,3.3622255
-46.500534,2.8560452,3.3844175
-46.68479,2.86927,3.438301
-47.069187,2.84645,3.446756
-47.38224,2.8385916,3.4759068
-47.605286,2.848404,3.5286546
-47.867813,2.852348,3.575098
-48.278008,2.8320549,3.592946
-48.61921,2.8256216,3.6295724
-48.948128,2.822971,3.6723638
-49.35964,2.8083973,3.7026134
-49.702675,2.8069978,3.7503095
-50.127537,2.7943265,3.7867193
-50.469078,2.796822,3.8425484
-50.86725,2.7923403,3.8923302
-51.39836,2.7698708,3.9244065
-52.21824,2.7074974,3.916154
-53.097023,2.6409044,3.9079895
-54.087727,2.5630224,3.8930426
-0.16053963,1.840029,2.8353624
-1.2880611,1.9160533,2.8423061
-2.3465347,1.9881315,2.8504658
-2.451456,1.8500514,2.5465546
-2.3845196,1.6855698,2.211028
-2.433941,1.6156394,2.0581336
-2.4398174,1.5387409,1.8966432
-2.5280952,1.4749763,1.7517343
-2.6056786,1.4096396,1.6051178
-2.612852,1.3325853,1.443574
-2.639471,1.2585847,1.2859578
-2.6537342,1.1822634,1.1252947
-2.6240692,1.0979228,0.95390177
-2.6062412,1.0152018,0.7844591
-2.6403522,0.9415159,0.6271033
-2.6326275,0.8599112,0.45894957
-14.5813875,2.8470926,3.0169888
-15.2119,2.9286234,3.1039844
-16.205305,3.0886006,3.3061233
-16.290451,3.0641997,3.2450047
-16.5004,3.0666087,3.2231808
-16.651203,3.0573354,3.1849499
-16.906338,3.071569,3.1818252
-17.133024,3.0808501,3.1722121
-17.35741,3.0907981,3.1643271
-17.582262,3.1020288,3.159082
-17.790012,3.1104958,3.1503935
-17.966038,3.1126192,3.1327653
-18.194113,3.1279888,3.1357865
-18.373074,3.1327732,3.1233606
-18.598274,3.1497507,3.1301517
-18.751816,3.1502542,3.112268
-18.83064,3.1328247,3.0671139
-19.017405,3.1430488,3.0650673
-19.226284,3.15995,3.073958
-19.356209,3.1574576,3.0531187
-19.53355,3.1680918,3.0532365
-19.635233,3.1594858,3.0235314
-19.85736,3.1838844,3.0462704
-19.94704,3.1733027,3.0141225
-20.05626,3.1685076,2.991407
-20.285587,3.1979275,3.0236163
-20.278755,3.1616037,2.9510908
-20.48684,3.1867967,2.9773917
-20.557575,3.1732183,2.9417214
-20.688604,3.1776597,2.935351
-20.89669,3.2057717,2.967698
-20.93757,3.1846495,2.9204845
-21.096142,3.1995285,2.9320712
-21.099325,3.1672595,2.866921
-21.332752,3.206802,2.9195209
-21.473675,3.218526,2.9269557
-21.520538,3.2009046,2.886343
-21.710846,3.2298782,2.9228234
-21.755053,3.2121093,2.8823156
-21.9332,3.238864,2.9158268
-21.940475,3.2093515,2.8560877
-22.050873,3.2146547,2.854416
-22.13935,3.2130156,2.8413744
-22.17554,3.1936226,2.7987604
-22.356213,3.2250478,2.8415494
-22.451424,3.2272475,2.8355556
-22.561916,3.2354379,2.8398619
-22.604502,3.2195334,2.8036795
-22.784985,3.2544591,2.853633
-22.774937,3.2196593,2.785685
-22.951794,3.2548702,2.8366814
-22.965397,3.2291083,2.7842236
-23.072514,3.2391882,2.7929091
-23.190292,3.2540524,2.8099852
-23.209038,3.23062,2.7617288
-23.3662,3.262208,2.8078442
-23.401457,3.2457607,2.7717586
-23.513826,3.2607498,2.7898145
-23.59166,3.2622142,2.7847762
-23.636234,3.2502108,2.7566266
-23.803314,3.289952,2.8180118
-23.82468,3.2688174,2.774312
-23.956163,3.2950387,2.8127556
-24.017569,3.2916405,2.8000073
-24.032469,3.267997,2.7521415
-24.140896,3.285871,2.7765937
-24.206505,3.2851717,2.7688475
-24.235882,3.26826,2.7328882
-24.313866,3.2737167,2.7360806
-24.432346,3.298515,2.7732801
-24.433483,3.2688313,2.7151523
-24.512232,3.2758243,2.7213922
-24.609978,3.2924592,2.7447162
-24.64528,3.2793067,2.7157736
-24.716114,3.2837,2.7177944
-24.80356,3.2967908,2.7352743
-24.847939,3.2887356,2.7155433
-24.91042,3.2900376,2.712419
-24.98307,3.2969184,2.7192645
-25.049929,3.3012216,2.7216568
-25.07775,3.28528,2.6882262
-25.153835,3.2950587,2.7005072
-25.214096,3.2967894,2.698595
-25.27218,3.2976487,2.6952186
-25.289036,3.2759914,2.6518025
-25.380644,3.2959528,2.682621
-25.421974,3.2881794,2.6640673
-25.476341,3.2879646,2.659071
-25.534452,3.2901835,2.6585011
-25.605804,3.3004885,2.6724882
-25.671062,3.3076837,2.6810088
-25.69571,3.2909214,2.6466475
-25.78441,3.3129432,2.6819339
-25.838322,3.3143551,2.6803217
-25.903156,3.3228514,2.6915221
-25.91942,3.3012123,2.6485686
-25.977913,3.306216,2.6536126
-26.046978,3.3184125,2.671702
-26.097145,3.318811,2.6686006
-26.122368,3.3029675,2.6362324
-26.181873,3.3099213,2.6450777
-26.243416,3.3186686,2.6572475
-26.281004,3.3114398,2.640582
-26.316385,3.30273,2.621274
-26.369995,3.3068593,2.6252708
-26.427883,3.3143744,2.6354747
-26.481583,3.3192918,2.641039
-26.526793,3.31836,2.6360464
-26.55446,3.3046494,2.6078758
-26.60454,3.3076124,2.6100526
-26.681217,3.3310807,2.6496081
-26.716898,3.323842,2.6333466
-26.739014,3.3060558,2.597897
-26.800476,3.3191042,2.6186843
-26.85482,3.3270242,2.6301913
-26.905813,3.3326552,2.637586
-26.941448,3.3260205,2.6226344
-26.984642,3.3257227,2.619298
-27.0243,3.3226388,2.6109123
-27.084938,3.3376694,2.635713
-27.127722,3.3378122,2.6333318
-27.155617,3.325036,2.6073308
-27.199331,3.3262513,2.6069922
-27.246662,3.330992,2.6131644
-27.301628,3.343108,2.6329203
-27.337973,3.338386,2.6218324
-27.365353,3.325225,2.5952792
-27.414783,3.3330975,2.6073918
-27.463497,3.340707,2.6190763
-27.514105,3.350632,2.6350718
-27.549393,3.345627,2.6236548
-27.575857,3.3316329,2.5957203
-27.626802,3.342842,2.6142178
-27.666273,3.3424873,2.6114664
-27.708931,3.3457355,2.6153936
-27.74783,3.345184,2.6123571
-27.780355,3.337741,2.596644
-27.822344,3.3409107,2.6005425
-27.864185,3.3442092,2.6047206
-27.916075,3.3595378,2.6311588
-27.954107,3.3591416,2.6286006
-27.983656,3.3486717,2.6074576
-28.013773,3.338711,2.5872774
-28.050121,3.336377,2.581225
-28.099043,3.3501804,2.6050653
-28.141708,3.3565593,2.6152139
-28.17773,3.354572,2.6099143
-28.209763,3.3473067,2.5948691
-28.248125,3.3486497,2.595798
-28.28864,3.3532515,2.6028018
-28.330555,3.3602273,2.6142454
-28.366058,3.3583035,2.6092238
-28.402164,3.35738,2.6060896
-28.426655,3.3388891,2.5703883
-28.46002,3.3335965,2.559196
-28.51688,3.3656552,2.6173763
-28.553572,3.3665092,2.6176696
-28.58691,3.3619938,2.6080217
-28.616837,3.3516273,2.5875278
-28.645412,3.3385851,2.5620823
-28.68478,3.3443794,2.571671
-28.734707,3.3700082,2.6181765
-28.768547,3.3668735,2.611238
-28.807905,3.374403,2.6241655
-28.841919,3.3719182,2.618494
-28.87596,3.369522,2.6130152
-28.905397,3.3575199,2.589684
-28.935751,3.34697,2.5690756
-28.972801,3.3508341,2.5753293
-29.020237,3.3788905,2.6266727
-29.05101,3.3695376,2.608376
-29.08789,3.3746493,2.617052
-29.119816,3.3677804,2.6034336
-29.148144,3.35122,2.5717754
-29.182037,3.3486888,2.566287
-29.225777,3.3737445,2.612258
-29.26195,3.378877,2.6211205
-29.298735,3.3864431,2.634552
-29.32804,3.3712142,2.605497
-29.357573,3.3555818,2.5757108
-29.39211,3.3559294,2.5757556
-29.43298,3.379318,2.6188192
-29.468145,3.3836114,2.626288
-29.502588,3.3856544,2.6295843
-29.537853,3.391543,2.6400857
-29.57474,3.405509,2.6656938
-29.605278,3.391387,2.6388988
-29.640089,3.3970816,2.6491218
-29.59182,2.9560516,1.8252921
-29.622438,2.9057302,1.7309136
-29.637606,2.7504895,1.44063
-39.395416,1.9102619,0.39528513
-39.48269,1.9177125,0.4185195
-39.55028,1.9339471,0.45711708
-39.475075,2.0109067,0.6008978
-39.561535,2.0188534,0.6252074
-39.506245,2.0859292,0.75166464
-39.483635,2.1386206,0.85316324
-39.53703,2.1598248,0.9004135
-39.59014,2.1811848,0.94799995
-39.50621,2.2569191,1.08884
-39.538353,2.285974,1.14957
-39.515274,2.3362994,1.2466483
-39.51512,2.3772264,1.3275962
-39.528625,2.4125767,1.3990016
-39.52783,2.4530077,1.4790173
-39.535988,2.4897332,1.5526967
-39.54836,2.5246081,1.6232133
-39.5699,2.555896,1.687654
-39.549988,2.6018422,1.7767935
-39.57606,2.6309962,1.8375974
-39.608273,2.6578703,1.8945899
-39.724632,2.6555638,1.9027591
-39.75968,2.6816425,1.9585938
-39.793495,2.7080822,2.0150704
-39.78327,2.7491696,2.0959415
-39.837173,2.7686903,2.140956
-39.906906,2.7831473,2.1776829
-40.000286,2.7902007,2.2023215
-40.01021,2.8242528,2.2716212
-40.049488,2.848831,2.325336
-39.94762,2.9173334,2.4510617
-39.927956,2.9595153,2.5334568
-39.992268,2.9757545,2.573481
-40.026047,3.0013528,2.628841
-40.068153,3.0244517,2.6801982
-40.938244,2.8049462,2.339787
-40.47052,2.9786513,2.6349874
-41.06599,2.8447342,2.4349742
-41.133495,2.8638585,2.4815378
-41.207874,2.881262,2.5255013
-41.409977,2.8637152,2.514079
-41.565487,2.8599675,2.5250692
-41.73472,2.853326,2.5319104
-41.794083,2.8767202,2.5864568
-41.90889,2.8857257,2.6185842
-41.97504,2.9078255,2.6714568
-42.06173,2.9248652,2.7166152
-43.06241,2.7118545,2.4057217
-43.062233,2.7541342,2.4917264
-43.050423,2.7990053,2.5816512
-43.055244,2.8395135,2.6648073
-43.056667,2.8806138,2.7488217
-43.115345,2.907971,2.8119593
-43.310062,2.9037988,2.827694
-43.532825,2.8941777,2.8358636
-43.642105,2.9114149,2.884848
-43.868248,2.903001,2.8960595
-44.13483,2.8868523,2.8965888
-44.223804,2.9106798,2.956746
-44.474285,2.9002502,2.9671278
-44.698982,2.896563,2.9881625
-44.955933,2.8873057,3.0019326
-45.163425,2.889511,3.0330534
-45.321106,2.9027972,3.0806923
-45.565727,2.8995066,3.1054196
-45.824863,2.8946075,3.1287827
-46.137493,2.880699,3.140541
-46.390724,2.879705,3.17138
-46.687088,2.8719075,3.1938396
-46.98385,2.8655524,3.2194266
-47.26662,2.8632443,3.2516642
-47.519005,2.8677802,3.2942085
-47.842567,2.8610654,3.3228383
-48.175137,2.85444,3.3529377
-48.52733,2.8461754,3.3823152
-48.870255,2.8412538,3.4175234
-49.247314,2.832467,3.4493074
-49.624763,2.8255408,3.485126
-50.039383,2.81464,3.5177088
-50.405876,2.8133514,3.5640507
-50.853294,2.8015344,3.599319
-51.3021,2.7917962,3.639236
-51.694725,2.7926195,3.6938396
-52.21932,2.7763367,3.7304707
-52.640762,2.7773688,3.7896333
-53.122063,2.772193,3.8439732
-53.855446,2.7350898,3.8654819
-54.834896,2.6689224,3.859375
-2.3268242,2.214315,2.93532
-2.444212,2.154152,2.7941694
-2.406271,2.0725906,2.627018
-0.8722153,1.6953912,2.0200014
-2.3961468,1.8405032,2.140255
-2.4232483,1.7671752,1.9830513
-2.469841,1.6967225,1.8296604
-2.5851917,1.6370387,1.6906967
-2.6076488,1.5628605,1.5326686
-2.5926323,1.4824107,1.3661432
-2.6298828,1.4102173,1.2107625
-2.592266,1.3253126,1.0378904
-2.568447,1.2422318,0.86731625
-2.6273365,1.1730826,0.7161145
-2.6843605,1.1036026,0.56457806
-13.741457,2.8205183,2.834507
-14.271552,2.8749392,2.8855848
-14.193954,2.8121915,2.7645774
-15.223742,2.9709175,2.9738722
-15.206887,2.9224708,2.8755856
-16.193867,3.0811598,3.089899
-16.359436,3.0733593,3.05476
-16.54914,3.0714853,3.0291553
-16.701416,3.0624723,2.9931726
-16.939907,3.0730522,2.987815
-17.194546,3.0884728,2.9906592
-17.34702,3.082248,2.9605942
-17.636568,3.1080546,2.9809856
-17.81322,3.1093223,2.9637237
-17.974922,3.1079745,2.9428296
-18.190294,3.120197,2.9438396
-18.400574,3.1323438,2.9453206
-18.592144,3.141046,2.9418836
-18.7887,3.1519947,2.942552
-18.935062,3.1514018,2.9252067
-19.010927,3.1336148,2.8805242
-19.239637,3.1554575,2.900097
-19.421923,3.1664758,2.9027004
-19.619776,3.1825922,2.914065
-19.699541,3.168198,2.8761
-19.842392,3.1712048,2.8668146
-20.053904,3.1937964,2.8900504
-20.067207,3.162502,2.8250027
-20.263752,3.1826305,2.8449378
-20.385162,3.1824708,2.831718
-20.488888,3.177815,2.8112984
-20.697723,3.2043443,2.8430734
-20.771374,3.19214,2.8106217
-20.89604,3.1954808,2.8043537
-21.03589,3.2040691,2.8071704
-21.087864,3.1864738,2.7662168
-21.311731,3.222348,2.8155746
-21.344746,3.1996772,2.7664204
-21.506952,3.2180533,2.7868896
-21.52409,3.190723,2.7300544
-21.755344,3.2329476,2.7916517
-21.811077,3.2188685,2.7576847
-21.921196,3.2230692,2.7550673
-21.942066,3.197761,2.7021065
-22.104069,3.2204843,2.7316165
-22.135893,3.199281,2.6859002
-22.341228,3.238637,2.7445917
-22.345154,3.2082174,2.6832252
-22.47007,3.2207778,2.6961832
-22.549915,3.2177813,2.6824212
-22.665133,3.2280893,2.691897
-22.773476,3.236525,2.6983342
-22.836657,3.2286794,2.6766071
-22.930872,3.2328184,2.6758952
-23.02638,3.2379603,2.6771026
-23.13261,3.2477806,2.6866674
-23.178009,3.234399,2.6557422
-23.271957,3.2403402,2.6588101
-23.394316,3.2581947,2.6829906
-23.43103,3.2421298,2.6476493
-23.56794,3.2671504,2.6848192
-23.59923,3.2493272,2.6465583
-23.733547,3.274669,2.684679
-23.797398,3.271069,2.6717744
-23.929707,3.29711,2.7115393
-24.001266,3.2977428,2.7064114
-24.021978,3.2764268,2.6623616
-24.084555,3.273547,2.6511455
-24.182407,3.286777,2.6687417
-24.235071,3.2801328,2.6510224
-24.277542,3.2689898,2.6253333
-24.365042,3.2788334,2.6372437
-24.438452,3.2826128,2.6384277
-24.460072,3.2621975,2.5963302
-24.58878,3.2930923,2.6463642
-24.643005,3.2888122,2.633388
-24.666962,3.269866,2.5940933
-24.80231,3.3061838,2.654355
-24.851213,3.3001647,2.6385012
-24.877361,3.2827313,2.6021042
-24.976444,3.3027291,2.6333551
-25.040836,3.3054268,2.6334686
-25.072554,3.291272,2.6031604
-25.138748,3.2954466,2.6060944
-25.216042,3.305988,2.6206641
-25.253832,3.29552,2.5972028
-25.279903,3.2786245,2.562101
-25.369001,3.29679,2.5907788
-25.4309,3.3003018,2.5929127
-25.47905,3.2963152,2.5814657
-25.504787,3.2795494,2.546771
-25.607624,3.3077605,2.594172
-25.656693,3.305082,2.5853062
-25.68632,3.2909565,2.5555716
-25.758991,3.3028526,2.5734615
-25.856472,3.3305223,2.620326
-25.902428,3.3271189,2.6103973
-25.930172,3.312437,2.5798402
-25.997238,3.3226717,2.5950203
-26.052002,3.325483,2.5966554
-26.107758,3.3292599,2.6001277
-26.11288,3.2999506,2.5428257
-26.173864,3.3074925,2.5533142
-26.249523,3.3253994,2.582963
-26.291475,3.3209004,2.571425
-26.320406,3.307492,2.5434995
-26.37539,3.3122876,2.549181
-26.427357,3.315298,2.5516295
-26.49567,3.3304062,2.5764837
-26.53128,3.3222544,2.5584269
-26.550774,3.3021967,2.5183802
-26.610847,3.312261,2.5340834
-26.685411,3.3338244,2.5711503
-26.725178,3.329411,2.5601778
-26.743118,3.3080816,2.5178843
-26.791883,3.310763,2.5201283
-26.87869,3.3442183,2.5795374
-26.921679,3.3432255,2.575091
-26.953123,3.3329191,2.553382
-26.997574,3.3334002,2.5517483
-27.040455,3.3327823,2.5481138
-27.104507,3.350536,2.5787063
-27.141747,3.3456638,2.5672488
-27.169582,3.332556,2.5404854
-27.204203,3.3253589,2.524754
-27.263372,3.34048,2.5506563
-27.313858,3.348246,2.5629063
-27.356403,3.3490145,2.5621505
-27.380604,3.332575,2.5293117
-27.427998,3.3382232,2.5377336
-27.489052,3.3576312,2.5719113
-27.5311,3.358935,2.5723166
-27.564156,3.3513942,2.556221
-27.590656,3.3370805,2.5274816
-27.62898,3.3348427,2.5213537
-27.686783,3.3533797,2.554153
-27.726004,3.3527038,2.5510302
-27.765566,3.3525746,2.5489664
-27.798054,3.3447561,2.532525
-27.830292,3.3365831,2.515441
-27.88875,3.358543,2.5548964
-27.931307,3.362816,2.5612307
-27.970385,3.3632832,2.5604587
-28.001087,3.3537796,2.5410004
-28.02984,3.341711,2.5167446
-28.066185,3.338948,2.5099888
-28.126251,3.3667228,2.5606508
-28.164242,3.3668702,2.5594401
-28.195526,3.3582673,2.5418081
-28.224041,3.345745,2.5168247
-28.261478,3.3452854,2.5145526
-28.315554,3.3685348,2.5569324
-28.354753,3.3714495,2.5610843
-28.38958,3.36822,2.553701
-28.421467,3.360606,2.5380836
-28.452042,3.3508255,2.5184078
-28.489388,3.3514478,2.518355
-28.54261,3.3778214,2.5668702
-28.578117,3.3764381,2.5631065
-28.608524,3.366574,2.5433764
-28.636784,3.3527117,2.5161247
-28.672276,3.3511302,2.5120587
-28.706013,3.3464704,2.5022097
-28.761559,3.3823016,2.5688086
-28.797304,3.3824136,2.5680323
-28.8337,3.3839886,2.570045
-28.868658,3.3829281,2.567109
-28.895012,3.3641622,2.530754
-28.930178,3.3632653,2.528172
-28.965748,3.3633766,2.5275216
-29.002695,3.3667898,2.5331373
-29.042854,3.3780994,2.5537071
-29.07964,3.3821833,2.5606499
-29.113886,3.380395,2.5565176
-29.145653,3.3722558,2.540401
-29.178978,3.3678772,2.531416
-29.215715,3.3727992,2.540049
-29.254375,3.383819,2.5602455
-29.288866,3.3834078,2.558844
-29.323637,3.3840106,2.5593858
-29.354956,3.3736067,2.5391226
-29.38965,3.3739212,2.5391674
-29.426912,3.3835897,2.556944
-29.464888,3.3970692,2.581964
-29.500721,3.4036999,2.5940466
-29.534685,3.4034667,2.5931587
-29.568953,3.4047148,2.5951
-29.603567,3.4079113,2.6007552
-29.636492,3.4032958,2.5916405
-29.592207,2.9866896,1.8021865
-29.623608,2.9411016,1.7154527
-29.635849,2.7694223,1.3898716
-39.51053,1.9277604,0.27812767
-39.516872,1.9705644,0.36354303
-39.511772,2.017754,0.45668173
-39.524055,2.0571518,0.53598404
-39.5172,2.1040757,0.6285472
-39.487072,2.1599545,0.7368274
-39.535606,2.1833856,0.7878852
-39.531635,2.2277355,0.8757591
-39.547157,2.2639284,0.94926023
-39.476326,2.3334692,1.081173
-39.52095,2.3574936,1.1332626
-39.52156,2.3982556,1.2146316
-39.523006,2.438306,1.2947121
-39.53332,2.4746728,1.3683357
-39.546204,2.5097966,1.4397736
-39.537445,2.5525198,1.5243754
-39.547367,2.5880828,1.5965114
-39.556656,2.6235893,1.6685238
-39.569412,2.6575978,1.737927
-39.591446,2.6881392,1.8013425
-39.616272,2.7175565,1.8628297
-39.65638,2.7416523,1.9152012
-39.711956,2.7605474,1.9587188
-39.816643,2.763279,1.97471
-39.871124,2.7829463,2.0197735
-39.891655,2.813706,2.0837889
-39.966675,2.826882,2.1179643
-40.024624,2.8457148,2.1618562
-39.93317,2.9113429,2.2849035
-39.951622,2.942076,2.3488617
-39.973007,2.9717622,2.4110603
-40.006844,2.997571,2.4667625
-40.00656,3.0335011,2.5394402
-40.0317,3.061683,2.5991406
-40.086887,3.08105,2.6441903
-40.275574,3.062253,2.6259947
-41.06392,2.8746347,2.3288193
-41.123043,2.896327,2.3791656
-41.335514,2.8757825,2.360114
-41.4752,2.876298,2.3761444
-41.66221,2.8647509,2.3727765
-41.749027,2.880867,2.4149837
-41.853603,2.89264,2.450324
-41.926777,2.912996,2.4998136
-42.0438,2.922357,2.5317082
-43.012367,2.7171006,2.218595
-43.050503,2.7499774,2.2900043
-43.047333,2.7929995,2.377676
-43.044365,2.8356888,2.4647536
-43.051636,2.8756466,2.5474372
-43.0912,2.9077656,2.6177144
-43.24862,2.912409,2.6448617
-43.472404,2.9025447,2.6497307
-43.61277,2.9127748,2.6865687
-43.839134,2.9044087,2.6949406
-44.086327,2.8926222,2.6987
-44.180786,2.9153502,2.7562628
-44.432365,2.9047408,2.763085
-44.68071,2.8961275,2.773725
-44.916412,2.8914318,2.7910757
-45.13092,2.8922873,2.8175297
-45.309036,2.9015694,2.857283
-45.55031,2.8991132,2.8801255
-45.824936,2.8913314,2.8958826
-46.092434,2.8863392,2.9166684
-46.39158,2.8766873,2.9315572
-46.645615,2.8770266,2.9619899
-46.967472,2.866133,2.977118
-47.27648,2.8592324,2.9991188
-47.53432,2.8630447,3.0374641
-47.800964,2.866586,3.0763698
-48.148327,2.857505,3.0986147
-48.478855,2.8530645,3.1286268
-48.824165,2.8478317,3.1588311
-49.21225,2.8373318,3.183226
-49.59018,2.830459,3.2140818
-49.979145,2.8237636,3.2467232
-50.358818,2.8204942,3.28552
-50.748505,2.8176136,3.3264341
-51.222984,2.803977,3.355115
-51.683395,2.7948496,3.3916616
-52.123764,2.7909665,3.436902
-52.641487,2.7783475,3.4732704
-53.048355,2.7837873,3.534264
-53.62745,2.7677922,3.5712152
-54.11698,2.766725,3.628806
-54.84298,2.7372012,3.655416
-1.1602249,2.3104103,2.834464
-1.9211464,2.329407,2.7926168
-2.4310684,2.3192937,2.7163415
-2.513195,2.2542706,2.5700927
-2.566021,2.1854346,2.4190521
-2.3868732,2.007256,2.0623136
-2.413,1.9338439,1.9048247
-2.4857807,1.8672142,1.7567749
-2.5933743,1.8059673,1.6164722
-2.603241,1.7300053,1.4556956
-2.593031,1.6506598,1.2900481
-2.7304382,1.5944912,1.1576195
-2.6301155,1.5002122,0.9703512
-2.8010445,1.4498415,0.84679604
-2.6238232,1.3416309,0.63862276
-2.6234665,1.262296,0.472548
-14.221764,2.8699856,2.6296177
-14.273754,2.8324342,2.5461826
-14.85746,2.9015262,2.6304326
-15.078459,2.900117,2.6050773
-14.95413,2.8285003,2.4689617
-16.269382,3.0575776,2.8115606
-16.44957,3.0531323,2.7842164
-16.65363,3.0547197,2.7670393
-16.939537,3.0752566,2.7809758
-17.14545,3.07959,2.7694159
-17.361992,3.0873768,2.7639985
-17.603714,3.1020465,2.7703686
-17.772606,3.1011581,2.7518578
-18.017786,3.119019,2.764586
-18.18955,3.1207538,2.7513132
-18.391808,3.1307151,2.7520695
-18.608908,3.1453846,2.761126
-18.801056,3.1550558,2.7623725
-18.890285,3.1399164,2.7226014
-19.031559,3.1383646,2.705789
-19.227066,3.1514897,2.7139645
-19.411306,3.162743,2.7194252
-19.593239,3.1743855,2.725955
-19.707401,3.1688662,2.7037897
-19.855827,3.1731763,2.6985688
-20.05486,3.192171,2.7186847
-20.071873,3.1616397,2.6546164
-20.276176,3.1837578,2.6807218
-20.385744,3.180026,2.6628814
-20.481283,3.172762,2.6391745
-20.696823,3.2010288,2.6769295
-20.835682,3.2078803,2.6781144
-20.895237,3.1917017,2.6396737
-20.977165,3.1824853,2.6134157
-21.178257,3.210216,2.6515784
-21.316525,3.2196403,2.658228
-21.339443,3.193527,2.603066
-21.52013,3.2175705,2.6356993
-21.549128,3.1938155,2.5848656
-21.737099,3.2218714,2.6250772
-21.811077,3.2134717,2.6014872
-21.93555,3.2222393,2.6082816
-21.948273,3.1939254,2.549806
-22.137192,3.225697,2.5976253
-22.155863,3.1997721,2.5435457
-22.324753,3.2263107,2.5825953
-22.356606,3.2053835,2.5375586
-22.501736,3.2250264,2.564794
-22.59315,3.2260983,2.559164
-22.731506,3.2448606,2.5852752
-22.767311,3.2264311,2.5450926
-22.87547,3.235167,2.5536122
-22.949303,3.2314916,2.54004
-23.047356,3.2374535,2.5438905
-23.177076,3.256275,2.5710268
-23.186466,3.228623,2.5146585
-23.316204,3.2485967,2.5441823
-23.360626,3.235103,2.5134683
-23.5399,3.2765677,2.5821924
-23.605251,3.2724755,2.5687246
-23.622047,3.2484465,2.5192032
-23.786186,3.286295,2.5819917
-23.802307,3.2623224,2.5327048
-23.939596,3.2903767,2.5780668
-24.020405,3.294815,2.5806293
-24.024273,3.2657828,2.5222769
-24.104198,3.270351,2.5252342
-24.206427,3.2854326,2.547512
-24.232025,3.2662349,2.5072336
-24.29036,3.262043,2.4944463
-24.442434,3.3018575,2.5623941
-24.430334,3.2653842,2.4905968
-24.522293,3.2781065,2.5091043
-24.591965,3.280678,2.5090766
-24.643246,3.2746372,2.49329
-24.716742,3.2797601,2.4981217
-24.805817,3.2931097,2.5182133
-24.847095,3.2828894,2.4949331
-24.903467,3.2804642,2.4860888
-24.998985,3.2985642,2.5152483
-25.059614,3.2991056,2.5120516
-25.075365,3.27616,2.4654388
-25.171768,3.2962337,2.4985404
-25.235909,3.2995625,2.5007162
-25.273672,3.2887733,2.4767628
-25.323906,3.2849422,2.465767
-25.39987,3.295772,2.4820766
-25.456863,3.2963486,2.479404
-25.485136,3.2806766,2.4465446
-25.541403,3.2812183,2.4439101
-25.640673,3.3074102,2.4891562
-25.683895,3.3010526,2.4738026
-25.72715,3.2948282,2.4587379
-25.802206,3.308165,2.480259
-25.862846,3.3131683,2.486288
-25.904593,3.306716,2.4709544
-25.956516,3.30682,2.4679298
-26.014818,3.311279,2.473116
-26.068775,3.3132796,2.473755
-26.121397,3.3147025,2.4733663
-26.157145,3.3051627,2.4524584
-26.210163,3.3072908,2.453486
-26.271507,3.3154101,2.4658237
-26.312874,3.310151,2.4530773
-26.351482,3.3030663,2.4369311
-26.39788,3.3015714,2.4313364
-26.463314,3.3139784,2.4519615
-26.516413,3.317956,2.4567766
-26.538761,3.2995615,2.4194713
-26.600214,3.3101804,2.436891
-26.650772,3.3130562,2.439766
-26.714155,3.3260965,2.4618754
-26.744139,3.3137014,2.436009
-26.785048,3.309823,2.4262552
-26.84058,3.3177736,2.4389
-26.889318,3.3206546,2.442008
-26.944794,3.329384,2.4562292
-26.974545,3.3171165,2.4307508
-27.018532,3.3167684,2.4278665
-27.071985,3.324757,2.4408178
-27.12041,3.3288188,2.4463744
-27.156502,3.322315,2.4319372
-27.203745,3.3258357,2.4365454
-27.250807,3.3295102,2.4414864
-27.294079,3.3300087,2.4404378
-27.34348,3.33648,2.4507713
-27.377682,3.3288941,2.4344354
-27.414602,3.3239117,2.4230723
-27.470425,3.3375325,2.447114
-27.510157,3.3357503,2.441905
-27.55361,3.3378875,2.4441862
-27.58375,3.3265984,2.4209423
-27.62061,3.3221724,2.4107852
-27.675936,3.3374357,2.4381642
-27.717747,3.3388064,2.4391184
-27.763731,3.345009,2.449317
-27.798351,3.3389213,2.4361172
-27.830034,3.3294835,2.416551
-27.873812,3.333906,2.4234514
-27.9295,3.3527122,2.4578385
-27.963688,3.3466177,2.4447365
-27.99726,3.339743,2.4301672
-28.036888,3.3403387,2.4298906
-28.072653,3.3362591,2.4207087
-28.117249,3.3436182,2.433415
-28.158598,3.3471825,2.438901
-28.193914,3.342985,2.4295764
-28.228,3.3371253,2.4170952
-28.265644,3.3361876,2.4140544
-28.31654,3.3542936,2.447484
-28.35538,3.3558037,2.4491892
-28.395016,3.3587506,2.4536738
-28.416739,3.3348029,2.4066815
-28.45932,3.3423684,2.4200592
-28.501928,3.3505068,2.434568
-28.547827,3.3645592,2.4604406
-28.582855,3.3613777,2.453318
-28.613464,3.3506997,2.4318476
-28.642262,3.3365147,2.4036698
-28.67739,3.3331325,2.3962245
-28.717691,3.3392553,2.4070344
-28.776846,3.3814068,2.4869962
-28.805567,3.3671339,2.4587393
-28.840511,3.3646235,2.453072
-28.876581,3.3644576,2.4519277
-28.904253,3.3467903,2.4172077
-28.9384,3.3422785,2.407761
-28.974045,3.3410184,2.4045815
-29.016954,3.356606,2.4337845
-29.057127,3.366885,2.4528208
-29.092937,3.3672972,2.4529305
-29.125135,3.3587198,2.43579
-29.159252,3.3547664,2.4275541
-29.193941,3.3522651,2.422131
-29.234274,3.3657973,2.4475489
-29.273602,3.377623,2.4697156
-29.305922,3.3690262,2.4526448
-29.3383,3.3600507,2.434865
-29.36994,3.3479536,2.4111018
-29.408632,3.3597164,2.4332438
-29.449215,3.3798275,2.471469
-29.485003,3.3835673,2.4782338
-29.520668,3.3874028,2.4852047
-29.556213,3.391333,2.4923816
-29.589941,3.387557,2.4847536
-29.623566,3.3829474,2.475545
-29.64037,3.289304,2.2950335
-29.61169,2.9240437,1.5918365
-29.624374,2.752589,1.2615542
-39.505806,2.0467832,0.33613586
-39.511276,2.0891263,0.42144346
-39.5373,2.1226203,0.49070263
-39.542786,2.1641943,0.57456684
-39.5629,2.1995008,0.6470823
-39.517277,2.2605362,0.7659707
-39.494514,2.3117716,0.86708546
-39.5443,2.334332,0.91656065
-39.56231,2.3690505,0.9879141
-39.530697,2.4222503,1.0923905
-39.528973,2.4636083,1.1755624
-39.541622,2.4992492,1.2484679
-39.534397,2.5418582,1.3337917
-39.542458,2.578512,1.4084449
-39.54985,2.615096,1.4829478
-39.564705,2.6487486,1.5522141
-39.582233,2.6812332,1.6193967
-39.593464,2.7156746,1.6900373
-39.618073,2.7453115,1.7521658
-39.65955,2.7691393,1.8040519
-39.69653,2.7944546,1.858604
-39.752293,2.8135686,1.9022884
-39.839615,2.8225594,1.9282813
-39.91436,2.8359365,1.9621034
-39.944344,2.8637486,2.021284
-40.06953,2.8616915,2.0283656
-39.945232,2.9373953,2.1711016
-39.954933,2.9709496,2.2402668
-39.97176,3.0021336,2.3053017
-39.992367,3.032029,2.368104
-40.021114,3.059399,2.42655
-40.06761,3.0815406,2.4760127
-40.077347,3.1143045,2.5438018
-40.994503,2.8894925,2.1698847
-41.13128,2.889489,2.182652
-41.274456,2.8883946,2.1938386
-41.430244,2.8845758,2.200686
-41.5652,2.8871782,2.2187676
-41.733143,2.881653,2.2233734
-41.865044,2.8864741,2.2458162
-41.93024,2.9092255,2.2987304
-42.021103,2.9255762,2.3410177
-43.033073,2.7094803,1.9944024
-43.055378,2.746676,2.0730333
-43.04913,2.790771,2.163148
-43.03852,2.835615,2.254438
-43.05437,2.8737843,2.334619
-43.093285,2.9063478,2.405558
-43.286858,2.9028509,2.4173622
-43.47623,2.901309,2.432845
-43.62647,2.9095957,2.4648194
-43.822803,2.9082794,2.481574
-44.069263,2.8969016,2.4825678
-44.19423,2.9132261,2.5288315
-44.429417,2.906473,2.538394
-44.666912,2.9004462,2.549756
-44.900185,2.8965204,2.565112
-45.072227,2.9063363,2.6028671
-45.283653,2.9090095,2.6298418
-45.53565,2.9046574,2.6464038
-45.794624,2.900224,2.6635723
-46.065304,2.8948524,2.6800532
-46.363785,2.8855839,2.6913342
-46.632507,2.8834236,2.7144408
-46.928123,2.8776727,2.7328987
-47.227978,2.8726654,2.7534199
-47.49684,2.8747094,2.7855296
-47.76883,2.8775477,2.8196974
-48.11177,2.8695111,2.8385797
-48.50497,2.8547165,2.8486362
-48.809616,2.8567157,2.8846836
-49.15391,2.853746,2.9145527
-49.58904,2.8379087,2.927054
-49.979507,2.8313847,2.954482
-50.3598,2.8284316,2.9884205
-50.718216,2.8307395,3.0311885
-51.281265,2.8042326,3.0351253
-51.675404,2.8054595,3.0795822
-52.149483,2.7971563,3.1125665
-52.601654,2.7943687,3.154931
-53.14479,2.7812767,3.1853762
-53.68165,2.771822,3.2229228
-54.188698,2.7690735,3.2715364
-54.799778,2.755348,3.3082275
-1.397171,2.421544,2.6359873
-2.302925,2.4572375,2.6263404
-2.4760342,2.4033227,2.495738
-2.519144,2.3330224,2.3427267
-2.5340595,2.2589266,2.1844254
-2.3653011,2.1594956,1.9897928
-2.4205723,2.090182,1.8380399
-2.454544,2.0178695,1.6820364
-2.5709,1.9574456,1.5435882
-2.5865765,1.8824749,1.3838773
-2.5663986,1.7240005,1.0515361
-2.5701637,1.6463964,0.8876829
-2.5914402,1.5712953,0.727592
-2.6004372,1.4940033,0.5641217
-2.5541668,1.4073081,0.3860407
-13.194855,2.868752,2.4863772
-13.158119,2.7611976,2.2645378
-14.208227,2.863727,2.3850203
-14.710322,2.9148269,2.4470558
-14.824662,2.8909185,2.3869953
-15.199777,2.9205863,2.4156842
-14.945337,2.8221292,2.2328544
-16.318134,3.0633502,2.6146855
-16.542137,3.0681765,2.6050806
-16.738056,3.0680923,2.5877652
-16.91251,3.064292,2.5646443
-17.171059,3.0800498,2.5749216
-17.382282,3.0865316,2.5700788
-17.711546,3.1211152,2.61344
-17.916927,3.1288357,2.6117725
-18.039318,3.1181219,2.5790467
-18.25748,3.1307929,2.586646
-18.457905,3.140357,2.5893679
-18.576021,3.130828,2.5596027
-18.809652,3.1505136,2.5805502
-19.003204,3.1614208,2.5867715
-19.060844,3.138723,2.5350132
-19.246586,3.1492558,2.5412073
-19.423813,3.158569,2.5456371
-19.620815,3.174082,2.5612574
-19.768805,3.17753,2.5561032
-19.849846,3.1635315,2.5205636
-20.052334,3.1833093,2.5446482
-20.054787,3.148418,2.472619
-20.369148,3.201447,2.5560703
-20.479721,3.1981215,2.540245
-20.552233,3.1842954,2.50596
-20.67802,3.1863625,2.500064
-20.878712,3.2113347,2.5352144
-20.91077,3.1867847,2.4822803
-21.094193,3.208296,2.511787
-21.12218,3.1829848,2.4576907
-21.273457,3.1960802,2.4725728
-21.46524,3.2228394,2.5122833
-21.513302,3.204837,2.471686
-21.689663,3.2284403,2.506217
-21.72438,3.2067432,2.4591742
-21.870768,3.222043,2.4791307
-21.900719,3.199159,2.430101
-22.084782,3.2285302,2.475965
-22.154675,3.219876,2.452991
-22.181593,3.1965566,2.4034095
-22.361437,3.226939,2.4517584
-22.39002,3.2046804,2.404282
-22.517338,3.217905,2.4216962
-22.61862,3.2224102,2.4233384
-22.773458,3.247208,2.4623208
-22.779957,3.2177079,2.4018826
-22.884335,3.2248745,2.4088073
-23.007069,3.239643,2.429862
-23.105892,3.2459455,2.4354987
-23.17419,3.2408817,2.420309
-23.173925,3.2090092,2.3557086
-23.366451,3.2538807,2.4329276
-23.39767,3.234953,2.3923783
-23.563292,3.2709713,2.4536324
-23.58459,3.2484734,2.4066162
-23.699234,3.2649207,2.431898
-23.80357,3.2777598,2.4506307
-23.83991,3.262131,2.4165483
-23.972328,3.2881522,2.460044
-24.014439,3.2755363,2.4317117
-24.063255,3.265958,2.4090853
-24.170126,3.2825637,2.4353948
-24.212976,3.2708395,2.4088988
-24.247362,3.2552989,2.3753014
-24.38807,3.2891347,2.434174
-24.437841,3.2813578,2.415257
-24.44263,3.2523427,2.3565555
-24.584316,3.288831,2.4207878
-24.640831,3.285052,2.4095602
-24.65932,3.2627838,2.3636274
-24.798233,3.300299,2.430184
-24.850842,3.2955172,2.4172707
-24.889206,3.28367,2.3910937
-24.970745,3.2941265,2.40701
-25.050518,3.3042138,2.4223228
-25.070856,3.2834485,2.3794527
-25.131756,3.2841673,2.377193
-25.219296,3.2996078,2.4028382
-25.267323,3.294088,2.3889122
-25.297943,3.279086,2.3570714
-25.40432,3.3064706,2.4055777
-25.450123,3.3004441,2.3908472
-25.482075,3.2866015,2.3613238
-25.541777,3.288828,2.3623328
-25.621769,3.3033185,2.386702
-25.679678,3.3052945,2.387364
-25.69767,3.2835402,2.342938
-25.81069,3.319483,2.4083357
-25.85827,3.3161757,2.3991094
-25.890894,3.3036997,2.3724518
-25.960396,3.3145182,2.3902292
-26.01951,3.3192115,2.396391
-26.052197,3.3071318,2.3705926
-26.108723,3.3106682,2.3746357
-26.149021,3.3037517,2.3587594
-26.212048,3.3122282,2.3723402
-26.264057,3.3136532,2.3724937
-26.31702,3.3160257,2.3745036
-26.34444,3.300814,2.3428922
-26.407106,3.3104603,2.3589134
-26.457495,3.311779,2.3590312
-26.513094,3.3171709,2.3670006
-26.539774,3.3016014,2.3348098
-26.598291,3.3096664,2.3479886
-26.655964,3.3175468,2.360865
-26.708166,3.3216746,2.3665833
-26.728031,3.3009608,2.3246102
-26.798798,3.3201022,2.3592587
-26.859962,3.3323207,2.3806586
-26.904398,3.3315294,2.3770833
-26.928232,3.3139818,2.341289
-26.985779,3.3243086,2.3591757
-27.033394,3.3267457,2.3619142
-27.088877,3.3362377,2.3782845
-27.135138,3.338188,2.3801637
-27.157246,3.3190513,2.341413
-27.209423,3.3265586,2.3540683
-27.263111,3.3358853,2.3702765
-27.310225,3.339632,2.3757553
-27.345716,3.3327923,2.360828
-27.377829,3.322732,2.3397017
-27.428556,3.3306012,2.353238
-27.489145,3.3486316,2.3864574
-27.533714,3.3514388,2.3902922
-27.557114,3.333043,2.3531485
-27.597994,3.3322983,2.350163
-27.638012,3.3308318,2.3458085
-27.699724,3.3526673,2.3865914
-27.743635,3.356135,2.3918586
-27.771252,3.3419478,2.3629584
-27.809387,3.339276,2.3563824
-27.847517,3.3367107,2.3500361
-27.903622,3.3551476,2.3844304
-27.942547,3.3541212,2.3811283
-27.974674,3.3450668,2.36228
-28.001032,3.3287907,2.3294382
-28.04702,3.336647,2.3434377
-28.09814,3.3515456,2.3711376
-28.142147,3.3579776,2.382441
-28.176119,3.351565,2.3688293
-28.205065,3.3383,2.3419294
-28.23903,3.3316095,2.327815
-28.286411,3.3437154,2.3502445
-28.331587,3.3533576,2.3679194
-28.37109,3.3552804,2.3706203
-28.405819,3.3503163,2.3599553
-28.436052,3.3384295,2.335847
-28.472708,3.336265,2.3306642
-28.51978,3.3509052,2.3581967
-28.557827,3.3516047,2.3586364
-28.591345,3.3449116,2.3447127
-28.622688,3.334326,2.3232293
-28.661026,3.3357549,2.3251524
-28.70392,3.3457062,2.3436942
-28.749361,3.3611104,2.3728828
-28.787834,3.3642192,2.3781552
-28.829803,3.3745522,2.3975244
-28.860426,3.3627417,2.3737774
-28.896257,3.3612568,2.3701658
-28.928751,3.3527222,2.3528352
-28.962246,3.346053,2.339159
-28.99824,3.3448355,2.3361282
-29.044329,3.3674583,2.3795977
-29.07981,3.3660076,2.3761573
-29.11797,3.3713834,2.3860521
-29.145086,3.3485522,2.3409553
-29.182272,3.351413,2.3459835
-29.223198,3.365181,2.3723106
-29.261562,3.3727593,2.386588
-29.29821,3.375934,2.3922963
-29.333038,3.3737895,2.3876467
-29.364902,3.361795,2.3637943
-29.397974,3.3530407,2.3462815
-29.44415,3.391423,2.4207873
-29.478071,3.3869364,2.4116478
-29.510971,3.3780055,2.3938498
-29.547579,3.3841147,2.4054322
-29.584599,3.3930442,2.4225411
-29.618649,3.388913,2.4141703
-29.642479,3.3312843,2.301361
-29.60874,2.9434052,1.5436888
-39.57046,2.0864074,0.2550726
-39.50336,2.15829,0.3958497
-39.520187,2.1952915,0.4719634
-39.537857,2.2316434,0.54686403
-39.528645,2.2782705,0.64071465
-39.524696,2.3223164,0.7297516
-39.537025,2.359635,0.80635786
-39.540836,2.39987,0.8883066
-39.57063,2.4299667,0.9516039
-39.55486,2.4768112,1.0456328
-39.53816,2.5234587,1.1392336
-39.53649,2.5641217,1.2218175
-39.548477,2.5994952,1.2946949
-39.55821,2.6353884,1.3685036
-39.571335,2.6698065,1.4396029
-39.587097,2.703059,1.5085669
-39.608803,2.734054,1.57342
-39.648014,2.7589679,1.6272416
-39.67862,2.786723,1.686245
-39.731094,2.807175,1.7320561
-39.81319,2.8180618,1.7606549
-39.865273,2.8389235,1.8073549
-39.97816,2.84053,1.8194537
-40.064392,2.8510604,1.8477683
-39.987877,2.9124434,1.967444
-39.953262,2.9600947,2.0623398
-39.962757,2.9938288,2.1322508
-39.981903,3.0244517,2.196591
-40.001404,3.054825,2.2604866
-40.0204,3.0852036,2.3243947
-40.07168,3.1061404,2.3715525
-40.168564,3.1141934,2.3959637
-41.087997,2.8914824,2.0127525
-41.185226,2.9031928,2.0448003
-41.364655,2.8927798,2.0380836
-41.491096,2.897673,2.0585818
-41.699577,2.8812535,2.0419736
-41.829254,2.886766,2.064108
-41.923645,2.902071,2.1035585
-41.981506,2.9271245,2.1601295
-43.06542,2.6922405,1.7657995
-43.04262,2.7411423,1.8649745
-43.03421,2.7860599,1.9571738
-43.041225,2.826888,2.0422697
-43.04757,2.8676531,2.1272292
-43.046,2.9100678,2.214982
-43.23616,2.9074047,2.2257528
-43.45582,2.8989112,2.227016
-43.587452,2.911577,2.2646594
-43.819775,2.9022624,2.2654147
-44.009506,2.9035783,2.2846189
-44.175606,2.9109864,2.314485
-44.409187,2.904699,2.321804
-44.65619,2.8967807,2.3269572
-44.823044,2.9068542,2.3626027
-45.03553,2.9083397,2.3844247
-45.254837,2.9095056,2.4062395
-45.516464,2.9033322,2.4165478
-45.75517,2.9030054,2.4370837
-46.080524,2.887136,2.432928
-46.337948,2.8859057,2.4533663
-46.595745,2.8859081,2.4764767
-46.875603,2.883142,2.4958363
-47.21927,2.8702269,2.4997501
-47.459274,2.8775973,2.5368776
-47.756466,2.8761067,2.5606675
-48.114017,2.865705,2.571303
-48.491234,2.853815,2.5806713
-48.801216,2.855091,2.6116347
-49.119194,2.8566163,2.643921
-49.511345,2.8477938,2.6613102
-49.914616,2.8392277,2.6803322
-50.29245,2.8366838,2.7097669
-50.68516,2.8337884,2.7399092
-51.216393,2.812151,2.7434168
-51.597557,2.8153238,2.7854424
-52.118526,2.8002663,2.802041
-52.641144,2.7876642,2.8240604
-53.10415,2.7860084,2.8637438
-53.583115,2.7845328,2.905384
-54.07027,2.7843971,2.9507122
-54.769547,2.7590995,2.962731
-2.4743328,2.4791536,2.262014
-2.5107498,2.4078298,2.1075392
-2.5511284,2.3369799,1.9538407
