x,y,z
-44.156853,1.9917729,4.1600366
-44.620457,1.9055791,4.138655
-44.92509,1.8661637,4.1579285
-45.472847,1.7616408,4.1279054
-45.882984,1.6975992,4.133105
-46.385864,1.6109264,4.1239095
-46.969597,1.50561,4.1043186
-47.453888,1.4296565,4.110501
-48.080093,1.3195674,4.0955744
-48.700027,1.2145774,4.088844
-49.313576,1.1146345,4.090196
-50.047005,0.9880574,4.078126
-50.82602,0.85426474,4.066854
-51.801487,0.6767602,4.033369
-22.727451,2.3446078,2.8346224
-22.880505,2.3837223,2.867632
-22.971312,2.3929539,2.8629513
-23.051018,2.3971162,2.852079
-23.172112,2.422714,2.8691607
-23.268108,2.4362671,2.8711038
-23.338604,2.4371905,2.8569837
-23.399141,2.433226,2.8367262
-23.507927,2.455012,2.8503447
-23.577934,2.456825,2.8381534
-23.656773,2.4637415,2.8329105
-23.748741,2.4782567,2.8379698
-23.82705,2.4858367,2.834166
-23.906582,2.494547,2.8321261
-23.986586,2.5039866,2.831325
-24.06704,2.5141594,2.831771
-24.1472,2.5246563,2.83292
-24.22491,2.5342283,2.8330922
-24.303059,2.5445275,2.8344984
-24.383038,2.5563982,2.8382826
-24.449299,2.5605843,2.831922
-24.526604,2.5717926,2.8353
-24.591757,2.576085,2.8295126
-24.66297,2.5844638,2.8294988
-24.734615,2.5935483,2.8306718
-24.80121,2.5998998,2.8283205
-24.87031,2.6082327,2.8288937
-24.937807,2.6159644,2.8288493
-25.011097,2.627874,2.834775
-25.074078,2.6335123,2.8322506
-25.13422,2.637631,2.8278022
-25.196825,2.643732,2.82628
-25.263788,2.6531625,2.8295765
-25.329185,2.6619608,2.8321867
-25.392393,2.6696692,2.8334646
-25.450897,2.6744835,2.8308678
-25.509861,2.679959,2.8293614
-25.56675,2.684298,2.8264203
-25.620352,2.68658,2.8207345
-25.684978,2.697217,2.8269887
-25.749311,2.7080977,2.8337717
-25.799927,2.7091687,2.8268318
-25.858315,2.716372,2.8287292
-25.909275,2.718267,2.8232331
-25.967867,2.726336,2.826665
-26.025034,2.7336926,2.8292365
-26.080809,2.7403257,2.830926
-26.134048,2.7452927,2.8303752
-26.19057,2.7532508,2.8342519
-26.24001,2.7557836,2.830482
-26.294416,2.762717,2.8331661
-26.34693,2.768427,2.8342261
-26.397032,2.7724254,2.8329468
-26.447535,2.7770681,2.8327236
-26.492962,2.7775977,2.8266678
-26.55886,2.7964222,2.8472443
-26.600727,2.7944221,2.8377614
-26.643106,2.7930303,2.8292556
-26.701738,2.8067024,2.8427768
-26.746492,2.8080285,2.8384495
-26.792702,2.8109512,2.8365526
-26.837261,2.8125668,2.832852
-26.883238,2.8157852,2.8315983
-26.931585,2.8215942,2.8342452
-26.979256,2.8270752,2.8365235
-27.02626,2.8322227,2.8384228
-27.07068,2.835065,2.837038
-27.111637,2.834595,2.8308735
-27.160114,2.8421612,2.8366456
-27.206036,2.8474104,2.8391085
-27.24994,2.850821,2.8389564
-27.292347,2.8528762,2.8368955
-27.336914,2.8575592,2.8388157
-27.380436,2.861383,2.83956
-27.42118,2.8623343,2.8361344
-27.462725,2.8644142,2.8344688
-27.503313,2.8656125,2.8315792
-27.545525,2.8689532,2.8319616
-27.590961,2.876471,2.8386579
-27.63247,2.8795729,2.8388643
-27.67427,2.8833086,2.840104
-27.717953,2.8897192,2.845428
-27.757484,2.8911653,2.8434181
-27.79694,2.8927283,2.841661
-27.840555,2.9000416,2.848599
-27.88169,2.9044137,2.8512182
-27.92081,2.90634,2.8502488
-27.958744,2.9068358,2.8472075
-27.997349,2.9084723,2.8459535
-28.036592,2.9112554,2.8464985
-28.073273,2.9105282,2.8418355
-28.111658,2.9124973,2.8413024
-28.153023,2.9192548,2.8480644
-28.192863,2.924056,2.8519564
-28.22993,2.9248047,2.8498058
-28.266943,2.9256577,2.8478823
-28.304216,2.927138,2.8469763
-28.342669,2.9308195,2.8494692
-28.384369,2.9403837,2.8609443
-28.426723,2.9516516,2.8750849
-28.473207,2.9709444,2.9014788
-28.516062,2.9845939,2.9194102
-28.557451,2.9962673,2.9344292
-28.597168,3.0054264,2.9457135
-28.633944,3.0094144,2.9492135
-28.675371,3.0230434,2.967444
-28.710247,3.0240695,2.9665818
-28.74431,3.0235987,2.963502
-28.78009,3.0269403,2.966289
-28.813835,3.026124,2.9628034
-28.848751,3.028062,2.9635754
-28.883827,3.0306296,2.9653687
-28.920164,3.0364988,2.9722624
-28.953512,3.035519,2.9687662
-28.986647,3.0340917,2.964642
-29.019789,3.0327513,2.9607072
-29.054739,3.0363255,2.9643397
-29.089977,3.0410683,2.9698215
-29.12283,3.0394607,2.96565
-29.155514,3.037401,2.9608397
-29.189104,3.0381165,2.9603338
-29.222832,3.0394602,2.960847
-29.256672,3.0414329,2.9623785
-29.28982,3.0413375,2.9607997
-29.32234,3.0391688,2.9560976
-29.355331,3.0387042,2.954062
-29.388317,3.0383265,2.9522133
-29.42116,3.037493,2.9497204
-29.453878,3.0362036,2.946581
-29.486856,3.0360818,2.9452882
-29.519705,3.0355036,2.943348
-29.551453,3.0295866,2.9332638
-29.58384,3.0264626,2.9275193
-29.615597,3.019621,2.9161158
-29.647678,3.013945,2.9065533
-29.679705,3.0072627,2.895495
-29.710428,2.9908762,2.8695717
-29.74084,2.9696696,2.8362842
-29.769749,2.9327602,2.7788978
-29.781588,2.7386634,2.4798365
-29.815157,2.714359,2.4418907
-29.836275,2.5480456,2.185573
-29.84659,2.2009683,1.6512146
-29.84966,1.6370928,0.7833247
-40.989704,0.6006675,0.57957697
-40.947563,0.6746514,0.69882345
-40.99698,0.70322824,0.760097
-40.845963,0.82801676,0.94318914
-40.913464,0.8468783,0.9919734
-40.886585,0.9102948,1.0968838
-40.85622,0.9745672,1.2026205
-40.840847,1.0311255,1.2984929
-40.85605,1.073071,1.37606
-40.88032,1.110564,1.4480891
-40.862415,1.1666951,1.543035
-40.95984,1.1710343,1.5743971
-40.807346,1.2855458,1.7403517
-40.810513,1.3305817,1.8211894
-40.81046,1.3765919,1.9031091
-40.845444,1.4072349,1.9664617
-40.904198,1.4277222,2.0177422
-40.937515,1.4589171,2.0819478
-42.289043,1.2382164,2.030497
-40.95306,1.8008876,2.7029963
-40.944065,1.8462272,2.7831202
-40.82395,1.9331458,2.90983
-40.8559,1.9619267,2.9708605
-40.898796,1.986568,3.0273733
-40.88691,2.0312898,3.1061587
-40.93685,2.0531743,3.1597815
-40.957333,2.0856972,3.2251515
-41.066822,2.0864248,3.256229
-41.10793,2.1117072,3.3141336
-41.171852,2.1290452,3.363731
-41.263256,2.1370754,3.4037814
-41.36625,2.1415162,3.4405084
-41.499794,2.1360848,3.467494
-41.605534,2.1405945,3.5053997
-41.76822,2.126737,3.525093
-41.984673,2.0961382,3.5287275
-42.15986,2.080106,3.548164
-42.324417,2.0683959,3.5728564
-42.216877,2.143731,3.6840572
-42.29507,2.1598468,3.7368355
-42.35376,2.1822672,3.79608
-42.44159,2.1958725,3.8471894
-42.540314,2.2064912,3.8959389
-42.613,2.225317,3.9528794
-42.748466,2.2257185,3.993198
-42.867218,2.2316554,4.0393424
-44.071884,1.9226544,3.802618
-44.09764,1.9598114,3.881465
-44.097603,2.0041983,3.9667253
-44.12597,2.0403423,4.0447497
-44.12562,2.0843844,4.1296067
-44.383465,2.0572548,4.154484
-44.767113,1.9973161,4.1538467
-45.212067,1.9230424,4.144083
-45.616394,1.8620397,4.1479983
-46.105957,1.7808981,4.1387796
-46.623207,1.6953013,4.129507
-47.178703,1.6027777,4.1185927
-47.671513,1.5292151,4.1258063
-48.335247,1.4155626,4.1071568
-49.053978,1.2919996,4.08623
-49.61135,1.2118554,4.1011267
-50.396145,1.0798292,4.084489
-51.23441,0.93938446,4.0681214
-52.164787,0.7818594,4.046966
-53.14614,0.61760235,4.0287094
-22.75231,2.4077082,2.829373
-22.882685,2.4351013,2.848578
-22.992195,2.4531417,2.856069
-23.0819,2.4620552,2.8520074
-23.192131,2.4817617,2.8624516
-23.264315,2.482935,2.848854
-23.383667,2.508565,2.8678598
-23.494827,2.5307999,2.8827987
-23.5209,2.5094094,2.8400435
-23.604382,2.5181415,2.837566
-23.684605,2.5256233,2.8336926
-23.761612,2.5318294,2.828372
-23.842838,2.540751,2.8269625
-23.923056,2.549597,2.8257189
-24.00008,2.557145,2.8229785
-24.081219,2.567442,2.8242226
-24.161335,2.577658,2.8256192
-24.239717,2.587375,2.826593
-24.317097,2.5969925,2.827681
-24.392061,2.6056757,2.8277307
-24.460407,2.6109073,2.8232622
-24.539082,2.622674,2.8280215
-24.611847,2.6313963,2.8288155
-24.682962,2.6395602,2.8290577
-24.749691,2.6454601,2.8263674
-24.827843,2.658844,2.8343034
-24.885921,2.660157,2.8256202
-24.956718,2.6698265,2.8287983
-25.02656,2.679341,2.8319683
-25.08546,2.6822104,2.8260016
-25.154144,2.6918035,2.829671
-25.21466,2.6964333,2.8265333
-25.271736,2.6991,2.8207855
-25.339691,2.709434,2.8260627
-25.4022,2.7165039,2.8268971
-25.460014,2.720711,2.823831
-25.521461,2.7277906,2.8250155
-25.578907,2.732425,2.8228755
-25.64305,2.7421846,2.8282247
-25.702568,2.7490454,2.8295941
-25.756945,2.7525208,2.8262591
-25.81178,2.7566404,2.8239903
-25.866457,2.7609537,2.8221421
-25.922169,2.76637,2.8220282
-25.980076,2.7738113,2.8249855
-26.03243,2.77734,2.822424
-26.089329,2.7847269,2.825592
-26.142508,2.7895513,2.8251824
-26.19609,2.7950244,2.82585
-26.247772,2.7992928,2.8248925
-26.298727,2.8032742,2.8236427
-26.362442,2.8181705,2.838481
-26.411858,2.8215957,2.8366852
-26.463337,2.8270679,2.8380075
-26.513538,2.8317747,2.8383307
-26.560867,2.8342888,2.8355465
-26.608076,2.8369596,2.8331022
-26.65835,2.842638,2.8352017
-26.707384,2.847535,2.836266
-26.75625,2.8525963,2.8376865
-26.803398,2.8563833,2.8373337
-26.847338,2.8574414,2.8330402
-26.893215,2.8605673,2.831911
-26.941965,2.866742,2.8354158
-26.98854,2.8711412,2.83639
-27.032515,2.8732638,2.834075
-27.077353,2.8765,2.8335147
-27.120148,2.8779263,2.8303485
-27.16522,2.881934,2.831132
-27.21296,2.8890312,2.8366375
-27.254934,2.8903828,2.8336391
-27.297283,2.892357,2.8316607
-27.342697,2.897923,2.835163
-27.387043,2.9026444,2.8374944
-27.431673,2.9080036,2.840879
-27.472647,2.9095235,2.838574
-27.51397,2.9116666,2.8372912
-27.555191,2.913935,2.8362808
-27.597153,2.9173322,2.8370566
-27.638988,2.9208574,2.8381133
-27.679884,2.9235053,2.8379254
-27.721073,2.9267817,2.83877
-27.761747,2.9296782,2.8391194
-27.803486,2.9342158,2.8420405
-27.844692,2.9383748,2.844469
-27.885382,2.94215,2.8463974
-27.923319,2.9424844,2.8431692
-27.96305,2.945479,2.844061
-28.001219,2.9465463,2.8420935
-28.03789,2.9456763,2.8372426
-28.076298,2.9474733,2.8365264
-28.113241,2.9473257,2.832913
-28.150827,2.948312,2.831098
-28.19003,2.9519835,2.833458
-28.22746,2.953187,2.8321152
-28.266447,2.9570844,2.8349652
-28.303402,2.9579864,2.8332977
-28.34654,2.969372,2.8477716
-28.388779,2.979853,2.8609433
-28.434954,2.9977527,2.8855882
-28.47981,3.0142395,2.9081588
-28.5182,3.0199084,2.9141912
-28.55728,3.0272589,2.9228802
-28.596994,3.0362954,2.934238
-28.63159,3.036016,2.9313264
-28.666956,3.0374048,2.9310436
-28.701223,3.036789,2.9277325
-28.735983,3.0373178,2.9262433
-28.772188,3.041103,2.9298372
-28.809734,3.0481539,2.9385376
-28.844498,3.0495048,2.9385018
-28.879204,3.0509498,2.9386706
-28.91228,3.048785,2.9333177
-28.945814,3.0477657,2.92979
-28.980623,3.050017,2.931378
-29.015564,3.0528948,2.9339938
-29.049614,3.0537422,2.933525
-29.083235,3.053616,2.9316044
-29.117023,3.0541117,2.9307027
-29.150595,3.054164,2.9291687
-29.18397,3.0537713,2.926999
-29.217503,3.0540006,2.925849
-29.25101,3.0543175,2.924889
-29.285606,3.0584657,2.9299307
-29.319324,3.0600324,2.9310212
-29.35211,3.058475,2.9273152
-29.385195,3.0580745,2.9254584
-29.418541,3.0588322,2.9254541
-29.45147,3.058067,2.9231372
-29.484032,3.0557773,2.9185019
-29.51663,3.0535707,2.9140468
-29.548601,3.0482228,2.904757
-29.580994,3.0445683,2.8981514
-29.613554,3.0415344,2.892561
-29.645338,3.0337389,2.8796124
-29.677288,3.026022,2.8668337
-29.708595,3.0129979,2.8458424
-29.739443,2.9946601,2.8166246
-29.768166,2.95645,2.7565079
-29.777641,2.7441168,2.425262
-29.811205,2.7173142,2.3829603
-29.830336,2.5287225,2.0886965
-29.845427,2.2386804,1.6363997
-29.848251,1.6814294,0.76780605
-40.90541,0.6599045,0.5024142
-40.87876,0.72609043,0.61264515
-40.914425,0.7613075,0.6824136
-40.93615,0.8029828,0.76058483
-40.898663,0.8723829,0.8744917
-40.853603,0.9444425,0.99152946
-40.86475,0.9894414,1.0736117
-40.84709,1.0472784,1.1720009
-40.81717,1.110034,1.2764425
-40.83632,1.1499052,1.3516893
-40.8727,1.1817775,1.416841
-40.829453,1.2486825,1.5259981
-40.851418,1.2862194,1.5981607
-40.794636,1.3575974,1.7124023
-40.79692,1.4027152,1.793756
-40.80427,1.4452684,1.8718534
-40.803448,1.4908965,1.9536533
-40.86792,1.508939,2.0016675
-40.917057,1.5334258,2.0577226
-40.974545,1.5988722,2.1900702
-42.27751,1.315151,1.9978757
-40.958763,1.8630805,2.6670594
-40.95672,1.9055674,2.7443557
-40.92094,1.9602461,2.8355665
-40.90086,2.0085392,2.9191928
-40.87738,2.0575945,3.0034819
-40.875957,2.0981984,3.0780125
-40.931183,2.1182559,3.129406
-40.89508,2.17068,3.2170482
-41.05056,2.1555462,3.229694
-41.092533,2.1805236,3.2871432
-41.1395,2.2037978,3.3428764
-41.243397,2.2078252,3.3779602
-41.32127,2.221029,3.4233885
-41.436783,2.2220094,3.456149
-41.583023,2.213428,3.4793797
-41.733994,2.2040482,3.502524
-41.837997,2.210528,3.5429254
-41.97834,2.2058897,3.5723982
-42.080505,2.213944,3.6155562
-42.19814,2.2176063,3.6547904
-42.269924,2.2359061,3.709292
-42.33778,2.2556157,3.765531
-42.40905,2.2744863,3.821269
-42.49391,2.2895186,3.8736258
-42.609123,2.2959096,3.9181185
-42.72241,2.303359,3.9642458
-42.81422,2.31748,4.017263
-44.068085,2.0007758,3.7637677
-44.09199,2.0384247,3.8430915
-44.08445,2.0847244,3.9303012
-44.09499,2.1257396,4.0126405
-44.115265,2.1639168,4.0924516
-44.16041,2.1952772,4.166375
-44.635437,2.1122706,4.1425433
-45.006714,2.0592446,4.14715
-45.448845,1.98983,4.1405993
-45.937508,1.9109113,4.129254
-46.428215,1.8341916,4.123006
-46.997112,1.7405653,4.1067834
-47.474716,1.6727328,4.1145334
-48.065975,1.5796611,4.106432
-48.761833,1.4645419,4.0861025
-49.353672,1.3781309,4.091783
-50.07335,1.2647641,4.0825005
-50.83096,1.1465008,4.07512
-51.79805,0.9841602,4.0433245
-52.728493,0.83548355,4.0279784
-53.755318,0.67026687,4.0090523
-15.047376,0.5292461,1.0980201
-15.103105,0.49271917,1.0166168
-22.65447,2.4484906,2.808518
-22.727224,2.4471672,2.7905111
-22.889883,2.489232,2.8303094
-22.99553,2.5049105,2.8356037
-23.130985,2.5358152,2.8616128
-23.217136,2.543336,2.8567886
-23.313782,2.5565686,2.8599353
-23.434486,2.582522,2.8805685
-23.527227,2.5950844,2.883523
-23.552366,2.5734446,2.8403893
-23.628208,2.5780168,2.8329558
-23.706852,2.5844593,2.8283176
-23.791214,2.5943727,2.828682
-23.874538,2.6042342,2.829249
-23.95168,2.6112487,2.8261666
-24.034431,2.6217728,2.8281689
-24.105236,2.6262,2.8220005
-24.186703,2.636961,2.8248324
-24.259224,2.6431835,2.821608
-24.342247,2.6558025,2.8275232
-24.418518,2.665075,2.829022
-24.493095,2.673829,2.8300252
-24.56248,2.679986,2.8276067
-24.635838,2.6889005,2.8292737
-24.708916,2.6981037,2.8315673
-24.78309,2.7084308,2.8356667
-24.843267,2.710648,2.8284898
-24.927118,2.7278528,2.8427696
-24.988218,2.7314198,2.8378892
-25.047142,2.7339375,2.8316789
-25.110594,2.7396598,2.8302093
-25.172516,2.7447624,2.8280277
-25.23293,2.7492344,2.8251085
-25.30035,2.758683,2.8295112
-25.35646,2.7610152,2.8238444
-25.416302,2.7661605,2.8223863
-25.474672,2.7706516,2.8201394
-25.539213,2.7797427,2.8247128
-25.597809,2.7851143,2.8240595
-25.656836,2.7911403,2.8245106
-25.72124,2.8013756,2.8312492
-25.781033,2.8087378,2.8339658
-25.841814,2.8172126,2.8384647
-25.89991,2.82412,2.8408256
-25.957783,2.8312376,2.8436432
-26.01065,2.8349543,2.84161
-26.063957,2.8393092,2.840644
-26.118269,2.84476,2.8414235
-26.170643,2.8490336,2.8405995
-26.221123,2.852118,2.8381405
-26.273178,2.8567517,2.8380957
-26.328463,2.8643286,2.8425393
-26.377893,2.8674836,2.84055
-26.421614,2.8661733,2.8320317
-26.474678,2.8729017,2.8355808
-26.520964,2.8742216,2.8311896
-26.568777,2.8770952,2.8292208
-26.62022,2.88341,2.8325057
-26.66933,2.8880217,2.8333588
-26.718801,2.8932705,2.8352776
-26.76757,2.898214,2.8368497
-26.812038,2.8995264,2.8330727
-26.856922,2.9014566,2.8303194
-26.903727,2.9054384,2.8307528
-26.952381,2.9114876,2.8344069
-26.992424,2.9095473,2.8261013
-27.036858,2.912054,2.8245978
-27.085052,2.9185593,2.8292408
-27.130648,2.9228091,2.8305702
-27.176565,2.927691,2.8329554
-27.220442,2.930779,2.8327136
-27.264656,2.9344933,2.8335137
-27.30461,2.9339552,2.8279314
-27.347237,2.9364724,2.8270812
-27.391539,2.941084,2.8295107
-27.438335,2.948786,2.836749
-27.477928,2.9487584,2.832275
-27.518759,2.95033,2.8303208
-27.563757,2.9569747,2.8362122
-27.604359,2.9588041,2.834817
-27.64611,2.9622464,2.8359747
-27.687735,2.965818,2.8374104
-27.72923,2.969518,2.8391237
-27.770199,2.9728436,2.840343
-27.810652,2.9757936,2.8410616
-27.85138,2.9793673,2.8428187
-27.890837,2.9815543,2.842515
-27.929825,2.9833546,2.8416872
-27.968359,2.984764,2.8403282
-28.006817,2.986286,2.839213
-28.043762,2.9858913,2.8352036
-28.079266,2.9835691,2.8282762
-28.12206,2.9920292,2.8381042
-28.158827,2.9919574,2.834795
-28.195553,2.9919899,2.8317113
-28.230919,2.990079,2.8256755
-28.275036,3.0020957,2.8413224
-28.3198,3.0157917,2.859665
-28.363592,3.0286043,2.8767223
-28.401846,3.0328064,2.8804717
-28.44388,3.043821,2.8948927
-28.481499,3.0477393,2.8983417
-28.524782,3.0621064,2.918139
-28.56062,3.063667,2.9180532
-28.595835,3.0642908,2.9165668
-28.631273,3.0655305,2.916102
-28.667185,3.0679088,2.9174728
-28.701712,3.0677834,2.9149942
-28.736465,3.068273,2.9135337
-28.771921,3.0704231,2.9147258
-28.806332,3.070581,2.9128609
-28.842129,3.0739706,2.916109
-28.87759,3.0769355,2.918754
-28.91206,3.0779023,2.9183264
-28.946262,3.0784373,2.9172778
-28.980852,3.0801136,2.9180756
-29.015379,3.0818849,2.9190774
-29.049843,3.0837493,2.9202814
-29.083654,3.084126,2.9192057
-29.116867,3.0830104,2.9158406
-29.150084,3.0819807,2.912663
-29.183834,3.0826237,2.9121642
-29.218061,3.0849423,2.9143534
-29.251226,3.0841775,2.911748
-29.284706,3.0845585,2.910997
-29.318924,3.0876777,2.914607
-29.352612,3.0892978,2.9159112
-29.38526,3.0872905,2.9115596
-29.418205,3.0864296,2.9090624
-29.450766,3.084059,2.9042387
-29.483736,3.0833683,2.9021096
-29.516588,3.0822303,2.8993268
-29.548677,3.0774498,2.890854
-29.580967,3.073283,2.8833961
-29.613634,3.0707967,2.8786368
-29.645325,3.062528,2.8648086
-29.6765,3.05007,2.8444204
-29.707947,3.0376875,2.8241963
-29.738995,3.0205767,2.7965584
-29.76775,2.982711,2.736219
-29.778511,2.7835593,2.4214272
-29.8121,2.7580683,2.3806643
-29.828566,2.5444934,2.043116
-29.846169,2.2860029,1.6346736
-29.848564,1.7317758,0.75942326
-40.8787,0.6942711,0.38986158
-40.873108,0.75025177,0.48758554
-40.907127,0.7865205,0.558969
-40.86843,0.85722685,0.67600536
-40.805466,0.98913145,0.8967147
-40.827507,1.0290821,0.9726119
-40.87526,1.0569496,1.0327177
-40.84236,1.1213064,1.1404018
-40.867176,1.1589701,1.213233
-40.850105,1.2149758,1.3097482
-40.854027,1.2611208,1.3933988
-40.828606,1.3196037,1.4927626
-40.843178,1.3601749,1.5690589
-40.773945,1.4361701,1.6903081
-40.78356,1.4778388,1.7677231
-40.78171,1.5239534,1.850677
-40.797432,1.5623617,1.923862
-40.838478,1.5901203,1.9837327
-40.87156,1.6210461,2.0476308
-40.88984,1.6577859,2.118773
-40.916847,1.6908157,2.1853423
-41.01555,1.6954937,2.2172456
-40.988956,1.7493458,2.3094068
-42.125683,1.4483712,2.030241
-42.232956,1.4546566,2.0678387
-42.25086,1.4944203,2.1455383
-40.987595,2.0026565,2.775055
-40.882977,2.0814686,2.8951583
-40.85502,2.1317031,2.9813685
-40.911526,2.1514645,3.0320983
-40.918377,2.1887577,3.10318
-40.91315,2.229991,3.1787052
-41.037724,2.2262857,3.203154
-41.077,2.2521894,3.2615266
-41.121258,2.2764072,3.3181348
-41.179497,2.296,3.36976
-41.291348,2.2980635,3.4023008
-41.392433,2.3041403,3.4397616
-41.50794,2.3059983,3.4731183
-41.67781,2.2910402,3.4889383
-41.822582,2.2848964,3.5150394
-41.99848,2.2697563,3.5323567
-42.10441,2.277138,3.574223
-42.155373,2.301751,3.6345263
-42.208733,2.3257148,3.6943684
-42.273712,2.3463027,3.75099
-42.38082,2.3546188,3.7955122
-42.44533,2.3758287,3.8534827
-42.540115,2.3884628,3.903266
-42.652386,2.39647,3.9490118
-42.762703,2.4055057,3.9963555
-42.861725,2.4181614,4.047763
-44.069233,2.1252153,3.8106031
-44.08036,2.1661363,3.8930206
-44.10309,2.2037454,3.9723554
-44.115852,2.2439034,4.054064
-44.12897,2.2838044,4.1355295
-44.452232,2.2427754,4.1452837
-44.802605,2.196519,4.1525326
-45.37646,2.0953333,4.1148005
-45.676334,2.0662413,4.141918
-46.13648,1.9989324,4.13916
-46.71196,1.9058647,4.118397
-47.265816,1.8212354,4.108361
-47.775864,1.7501378,4.11284
-48.426735,1.6485326,4.0972185
-49.070305,1.5522156,4.0902243
-49.657448,1.4724205,4.100131
-50.450615,1.3489206,4.0824504
-51.38318,1.1984591,4.051412
-52.151535,1.0895319,4.056183
-53.307884,0.8998499,4.012012
-54.233177,0.7664232,4.013808
-15.070824,0.6315222,1.058927
-15.093349,0.58316207,0.96340275
-15.018416,0.44178677,0.71796083
-22.700079,2.5207918,2.8093061
-22.824583,2.5435944,2.8244438
-22.946953,2.566208,2.8397713
-23.05629,2.5834148,2.8481917
-23.17525,2.6059513,2.8642564
-23.256609,2.610982,2.8568072
-23.366936,2.6306896,2.8697472
-23.439323,2.6322784,2.8581462
-23.499418,2.6280475,2.8387423
-23.585201,2.6370742,2.837852
-23.662422,2.6422143,2.8318443
-23.736444,2.6461132,2.8243499
-23.816978,2.6538074,2.8223758
-23.899475,2.662999,2.8227468
-23.9883,2.6760638,2.8288064
-24.059923,2.6804135,2.8228903
-24.135721,2.687424,2.820938
-24.215616,2.697127,2.823019
-24.293772,2.706351,2.8246632
-24.363052,2.7110603,2.820129
-24.437826,2.719271,2.8207793
-24.508091,2.7253416,2.818595
-24.586563,2.7365787,2.8240013
-24.655624,2.7428055,2.8224573
-24.723074,2.7484767,2.8203106
-24.794447,2.7568858,2.8222938
-24.881306,2.7751174,2.8386526
-24.937054,2.7749553,2.8286724
-25.005566,2.7829432,2.830645
-25.065083,2.785733,2.8252592
-25.126451,2.790007,2.8221889
-25.191618,2.7970502,2.823317
-25.258518,2.8056166,2.8268447
-25.314692,2.8076074,2.82093
-25.383715,2.8183727,2.8280215
-25.454998,2.8311257,2.8382201
-25.509289,2.8329275,2.8324966
-25.575521,2.8431587,2.839334
-25.632624,2.8475502,2.8377218
-25.684544,2.8486533,2.8313866
-25.741947,2.8538823,2.8312898
-25.799154,2.8593194,2.8316436
-25.85555,2.8645217,2.8317895
-25.911148,2.869483,2.8317146
-25.965355,2.873754,2.8307447
-26.012825,2.8733084,2.8228564
-26.06733,2.878393,2.8233495
-26.122234,2.8841197,2.824934
-26.175192,2.8886895,2.8249116
-26.229128,2.894349,2.8266506
-26.280575,2.898384,2.8260703
-26.332994,2.9035068,2.8272476
-26.385227,2.9088123,2.8288217
-26.431698,2.9097178,2.823864
-26.482496,2.9144523,2.8248005
-26.532024,2.9184391,2.824718
-26.58085,2.9221315,2.8242989
-26.628454,2.9250605,2.822826
-26.683369,2.9346597,2.8316016
-26.733791,2.9407222,2.8351169
-26.779316,2.9427469,2.8325858
-26.824213,2.94445,2.8296585
-26.869518,2.9467678,2.827763
-26.916224,2.9506474,2.8283515
-26.961779,2.953735,2.8278236
-27.008688,2.9583933,2.8297992
-27.05494,2.9627302,2.8313794
-27.099579,2.9657881,2.8310895
-27.145046,2.9699457,2.8325806
-27.186567,2.9704156,2.8284845
-27.229895,2.9729354,2.8276277
-27.275887,2.9784822,2.83153
-27.319864,2.9822474,2.8327727
-27.362795,2.9851842,2.832821
-27.40426,2.9867995,2.8309069
-27.445635,2.988542,2.8292685
-27.486477,2.9899237,2.827149
-27.528957,2.9933841,2.8283324
-27.573435,2.9994256,2.8336077
-27.612263,2.9992282,2.8292685
-27.656015,3.0050483,2.834364
-27.697952,3.0090346,2.836688
-27.73773,3.0106807,2.835442
-27.77742,3.0124457,2.8344545
-27.816631,3.013832,2.8329477
-27.857307,3.0173233,2.8347988
-27.897856,3.0209372,2.8369174
-27.93565,3.0211809,2.8338351
-27.97487,3.023533,2.8341203
-28.01472,3.027003,2.836228
-28.054445,3.0305922,2.8385925
-28.092636,3.0322886,2.838058
-28.131092,3.0345995,2.8385549
-28.170134,3.038031,2.84088
-28.209393,3.042084,2.8442512
-28.246868,3.0437212,2.8438888
-28.287184,3.05003,2.8509474
-28.328907,3.059,2.8622713
-28.369137,3.0660641,2.8706665
-28.41101,3.076307,2.8841496
-28.454418,3.0897427,2.9027476
-28.488039,3.0869606,2.895813
-28.524292,3.0888739,2.89635
-28.561033,3.0919142,2.8987298
-28.596283,3.092493,2.8972764
-28.633116,3.0962527,2.9009137
-28.669298,3.099088,2.9031491
-28.704084,3.099448,2.9015222
-28.739086,3.1004183,2.9009185
-28.773785,3.1009681,2.8997035
-28.80917,3.1031644,2.9011555
-28.843056,3.10235,2.8978853
-28.878084,3.1042185,2.8989282
-28.913269,3.106702,2.901003
-28.94793,3.1082432,2.9016361
-28.982105,3.1088378,2.9008188
-29.016447,3.1100454,2.9010296
-29.050535,3.110823,2.90061
-29.084583,3.1116922,2.9003878
-29.11802,3.1110857,2.897869
-29.151262,3.1100445,2.8947077
-29.18504,3.1106596,2.8942356
-29.219296,3.1129346,2.8964615
-29.252157,3.1111088,2.892202
-29.285677,3.1114664,2.8914728
-29.31978,3.1140118,2.8942828
-29.353367,3.1150723,2.8947768
-29.386768,3.1156957,2.8946242
-29.419601,3.1143022,2.891302
-29.452448,3.1129937,2.8881645
-29.485186,3.1112432,2.884369
-29.518183,3.110631,2.8824396
-29.550406,3.1064126,2.8747978
-29.5825,3.1012208,2.8656473
-29.615095,3.098221,2.8600464
-29.647377,3.093192,2.8512492
-29.678465,3.0803194,2.829959
-29.709839,3.0675225,2.8088322
-29.740454,3.0473986,2.7760339
-29.769608,3.0125382,2.7197075
-29.79532,2.9417624,2.6059742
-29.811419,2.7651837,2.3230224
-29.831364,2.586486,2.0366802
-29.848673,2.3267865,1.6207514
-29.851765,1.7853284,0.754004
-40.847805,0.78915024,0.37880182
-40.83187,0.8494911,0.48315287
-40.853924,0.891088,0.56190777
-40.869797,0.9352441,0.644104
-40.837532,1.0518289,0.8463268
-40.82544,1.1072636,0.9433489
-40.84357,1.148454,1.0212226
-40.86424,1.188179,1.0971217
-40.85925,1.2389293,1.1875982
-40.876896,1.2792606,1.2642102
-40.841805,1.3420937,1.3703532
-40.85138,1.3850279,1.450202
-40.828243,1.4414597,1.5475798
-40.80414,1.4976559,1.6444478
-40.779892,1.5532699,1.7403545
-40.820328,1.5816665,1.8010206
-40.798622,1.6352735,1.8940792
-40.81871,1.6714604,1.9647155
-40.84243,1.7059672,2.0332127
-40.876587,1.7361605,2.09627
-40.91706,1.763778,2.156149
-40.97243,1.7855854,2.2088475
-42.093067,1.5401695,2.0131583
-42.21497,1.5413849,2.0437784
-40.94666,2.0479085,2.6882396
-40.977806,2.0775793,2.7507658
-40.79345,2.1837769,2.9051914
-40.84756,2.204385,2.9564939
-40.88732,2.2300825,3.0140157
-40.901108,2.2647128,3.0821795
-40.949783,2.2872546,3.1361694
-40.919094,2.3366146,3.2215247
-40.847523,2.399105,3.3218083
-41.101063,2.353498,3.2975507
-41.17,2.3696845,3.3449826
-41.269287,2.3762722,3.381834
-41.348717,2.389624,3.4267306
-41.493977,2.3824482,3.4490862
-41.648502,2.373105,3.4697528
-41.78964,2.3686912,3.4965916
-41.943684,2.361022,3.5205855
-42.108894,2.3507483,3.5425444
-42.15986,2.3754928,3.6028152
-42.209557,2.400691,3.6637683
-42.2681,2.4233735,3.7222762
-42.35125,2.4390736,3.7737694
-42.42957,2.4564466,3.827385
-42.506733,2.4744093,3.881978
-42.619904,2.482563,3.9270391
-42.7097,2.4976592,3.9796305
-42.83478,2.503455,4.0234914
-42.970104,2.5070431,4.065876
-44.09458,2.2473388,3.854854
-44.09382,2.2911396,3.9401927
-44.042503,2.347863,4.037601
-44.111095,2.3731554,4.1053786
-44.20579,2.3919945,4.16759
-44.753883,2.2972236,4.1276093
-45.063347,2.264812,4.146704
-45.513054,2.1996436,4.139012
-45.96277,2.1369474,4.1363783
-46.480186,2.0605137,4.125023
-46.996788,1.9871203,4.119656
-47.434006,1.9350731,4.135297
-48.14235,1.8229065,4.105444
-48.791718,1.7280707,4.0942116
-49.299984,1.6684632,4.1148233
-50.0489,1.558234,4.100605
-50.815643,1.4481936,4.0919127
-51.748028,1.3065686,4.065894
-52.73056,1.1593587,4.0428104
-53.79724,0.9998205,4.0185747
-54.932766,0.83181405,3.9967413
-11.454323,0.33889413,1.1050935
-11.568953,0.31054735,1.023356
-12.822844,0.51404834,1.1158557
-12.926338,0.4867332,1.039495
-13.0727215,0.41327882,0.86566734
-15.064691,0.7891743,1.118886
-15.081107,0.7392192,1.0211425
-15.10529,0.6916754,0.926342
-22.73937,2.596489,2.8122973
-22.85272,2.613681,2.8210115
-22.972656,2.6346407,2.8353248
-23.067871,2.6447835,2.8350387
-23.18139,2.6641576,2.8479137
-23.274319,2.674408,2.848432
-23.35386,2.678725,2.840941
-23.49972,2.7158902,2.8798232
-23.535158,2.6995955,2.8439221
-23.60337,2.6996403,2.8311677
-23.679754,2.7041256,2.8248982
-23.76567,2.713876,2.8263326
-23.853512,2.7251313,2.8301716
-23.926193,2.7290392,2.8237934
-24.000896,2.734395,2.819697
-24.081245,2.7431607,2.8207092
-24.154747,2.7487311,2.8173642
-24.240341,2.7612717,2.8242764
-24.325565,2.7741644,2.831953
-24.398243,2.780663,2.8306198
-24.466412,2.785056,2.826436
-24.53863,2.7921138,2.8263154
-24.609896,2.7990532,2.8262239
-24.68301,2.8074832,2.8285074
-24.748207,2.811737,2.8248787
-24.818045,2.8190925,2.825974
-24.880772,2.8226252,2.821639
-24.948097,2.8292704,2.822052
-25.015182,2.8361747,2.8230267
-25.075974,2.839605,2.8190398
-25.145948,2.8490887,2.8241792
-25.211643,2.8563359,2.8261838
-25.278408,2.8646727,2.8299794
-25.342281,2.8715806,2.8318186
-25.398771,2.8740761,2.8272324
-25.453825,2.8759248,2.8218164
-25.513233,2.8809547,2.8212972
-25.576258,2.8887706,2.8251061
-25.631453,2.8916678,2.8216772
-25.689629,2.8969183,2.8219218
-25.752575,2.9058433,2.8278499
-25.808456,2.9102259,2.8270702
-25.862934,2.9139369,2.8254056
-25.916033,2.916966,2.8228345
-25.96838,2.919742,2.8199997
-26.021183,2.9231412,2.8182302
-26.071457,2.9249563,2.814168
-26.123375,2.9282742,2.812508
-26.178055,2.9339983,2.8146372
-26.230795,2.9385765,2.8151383
-26.279346,2.9402015,2.8112364
-26.330624,2.9442375,2.811133
-26.383987,2.950255,2.8141842
-26.43156,2.9519346,2.8106856
-26.494505,2.9664838,2.8270931
-26.537876,2.96533,2.8194509
-26.58717,2.969338,2.8198586
-26.638988,2.9758039,2.8241668
-26.685268,2.977854,2.8217573
-26.73196,2.9805164,2.8203902
-26.78061,2.9851823,2.8222237
-26.825983,2.9872293,2.8200936
-26.870731,2.9889593,2.8175607
-26.916388,2.991765,2.8167887
-26.961412,2.994252,2.8156123
-27.004826,2.9954772,2.8125563
-27.050602,2.9991899,2.813466
-27.095743,3.0025802,2.8139625
-27.142185,3.007534,2.8169928
-27.187504,3.0116928,2.818869
-27.232197,3.0155232,2.8203197
-27.274422,3.0171163,2.8183465
-27.317924,3.0202725,2.8189063
-27.361298,3.0235662,2.819765
-27.401852,3.0241184,2.8163924
-27.44189,3.0243125,2.812529
-27.48449,3.0275185,2.8134818
-27.527391,3.0313401,2.8154855
-27.570576,3.0357807,2.8185444
-27.614447,3.0413277,2.823431
-27.655231,3.0436096,2.823238
-27.695093,3.0450408,2.8217707
-27.736887,3.0490332,2.8244286
-27.778936,3.0536442,2.8281431
-27.818476,3.0554426,2.8274727
-27.85715,3.056375,2.8254962
-27.896132,3.0579135,2.8245473
-27.933905,3.0580866,2.8214946
-27.972366,3.0593567,2.820251
-28.010386,3.0602436,2.818461
-28.049057,3.062233,2.81849
-28.086576,3.0628438,2.8163867
-28.126469,3.0670488,2.8200774
-28.165539,3.0703747,2.8224335
-28.205832,3.075816,2.8282332
-28.25058,3.0883887,2.8454976
-28.288183,3.0905728,2.8462334
-28.33207,3.1029131,2.8632793
-28.371565,3.1088514,2.8701577
-28.406277,3.1073477,2.8651829
-28.442793,3.1089673,2.8652663
-28.478643,3.109678,2.8639517
-28.512993,3.107957,2.8587918
-28.548763,3.1088626,2.8579006
-28.586147,3.1129148,2.8621163
-28.621769,3.1140234,2.8616643
-28.657597,3.1157398,2.8622437
-28.692831,3.1165357,2.8613982
-28.727251,3.1158962,2.8582988
-28.760162,3.1122823,2.8504634
-28.795795,3.1143827,2.8518758
-28.831823,3.1176069,2.8551526
-28.86567,3.1163137,2.8512068
-28.90109,3.1187057,2.853251
-28.93621,3.12068,2.8546758
-28.971256,3.1227508,2.856309
-29.00685,3.1264622,2.8606439
-29.04052,3.1256301,2.8576965
-29.074379,3.1254027,2.8557758
-29.10784,3.1242313,2.8523788
-29.143139,3.12832,2.857531
-29.176899,3.1283636,2.8561983
-29.210981,3.1295323,2.8567328
-29.245674,3.1328661,2.8608198
-29.279156,3.1326609,2.859232
-29.311394,3.1283875,2.851109
-29.345186,3.1293938,2.8515768
-29.378935,3.130489,2.8522382
-29.413046,3.133235,2.8556209
-29.445915,3.1313832,2.851606
-29.478933,3.1301374,2.848619
-29.511614,3.127412,2.8432813
-29.544231,3.1242478,2.8372793
-29.577013,3.1216893,2.8323026
-29.609344,3.1166027,2.8232732
-29.640856,3.1063716,2.8059454
-29.672592,3.0962172,2.7887845
-29.703827,3.0814342,2.7641578
-29.734497,3.0604465,2.729506
-29.763935,3.0264456,2.673779
-29.793652,2.9883208,2.6113968
-29.80819,2.800991,2.3069077
-29.83446,2.6906648,2.1273937
-29.846365,2.3796825,1.6222105
-29.84953,1.8490648,0.7604871
-40.91252,0.8372197,0.29340363
-40.83387,0.9269607,0.4397111
-40.84657,0.9727309,0.52466774
-40.871056,1.0126245,0.6014552
-40.835697,1.0795805,0.7154956
-40.82688,1.1336627,0.81161976
-40.82349,1.184715,0.9034605
-40.836823,1.2278175,0.98434734
-40.87033,1.2616913,1.0526514
-40.845993,1.3205104,1.1547604
-40.878998,1.3539829,1.2224803
-40.839817,1.4179964,1.331284
-40.881283,1.447248,1.3932776
-40.806515,1.524857,1.5198488
-40.826004,1.562505,1.5929074
-40.78279,1.6254916,1.6994853
-40.807472,1.6602616,1.768589
-40.78069,1.7154071,1.8644495
-40.790665,1.7553821,1.9402685
-40.84542,1.7775083,1.9928117
-40.87961,1.8076649,2.0559115
-40.898933,1.8434186,2.1262922
-40.923653,1.8769059,2.1937575
-42.169544,1.591706,1.9361138
-42.20346,1.6254551,2.0067172
-42.22905,1.6620579,2.0809383
-41.017635,2.134645,2.695459
-40.985504,2.1864257,2.78545
-40.8507,2.2730892,2.917944
-40.879936,2.3024368,2.9798613
-40.923748,2.3267722,3.0357666
-40.8786,2.3808599,3.1276188
-40.893898,2.41435,3.19452
-41.00853,2.4151773,3.2225885
-41.097317,2.424898,3.2616577
-41.140285,2.4496286,3.3187056
-41.21708,2.4636788,3.363449
-41.322582,2.4690063,3.3984199
-41.41813,2.4778755,3.4379268
-41.575287,2.4682705,3.456801
-41.739983,2.4571905,3.474761
-41.885803,2.4526114,3.5008192
-42.06288,2.4394994,3.5180874
-42.13302,2.4586143,3.5718126
-42.20015,2.4788084,3.6270223
-42.25872,2.5016415,3.685382
-42.33083,2.5207803,3.740016
-42.423977,2.5342584,3.7889452
-42.499336,2.5530133,3.8438902
-42.55863,2.5764003,3.9040217
-42.690315,2.5803852,3.9443636
-42.787422,2.5941987,3.9954476
-42.908707,2.6020198,4.040967
-43.057125,2.603302,4.0805902
-44.075336,2.381349,3.900385
-44.10498,2.416932,3.9778218
-44.121834,2.455677,4.0584
-44.111626,2.5010107,4.145267
-44.38793,2.4758081,4.1657386
-44.829895,2.4119473,4.1520863
-45.35277,2.33118,4.125769
-45.671974,2.3014183,4.1486363
-46.15013,2.2362747,4.1421995
-46.689518,2.15965,4.1288643
-47.22141,2.0876877,4.123065
-47.843582,1.9983729,4.106205
-48.399742,1.9270775,4.1084223
-49.09359,1.8287086,4.092496
-49.648018,1.7641745,4.1082287
-50.429245,1.6543696,4.0926394
-51.316353,1.5266006,4.0689473
-52.14701,1.415339,4.0639086
-53.175903,1.2681046,4.038853
-54.19303,1.1288192,4.0270343
-1.1273136,0.48885775,3.6650777
-1.0880394,0.39996028,3.4932728
-1.224081,0.34459996,3.3455033
-1.3493061,0.2875471,3.1973271
-1.416235,0.21920872,3.041273
-10.154789,0.32724047,1.1227608
-10.314178,0.30710697,1.0467463
-11.329786,0.47220373,1.1327562
-11.514307,0.46373367,1.0741439
-11.755161,0.47291613,1.0369425
-11.795362,0.4226966,0.9310498
-12.689568,0.6332209,1.1337748
-12.829802,0.6165366,1.0701337
-12.922541,0.585567,0.98993254
-13.078405,0.5747614,0.9344144
-13.108309,0.52439094,0.83145714
-13.136307,0.47318316,0.7275014
-13.18107,0.42720795,0.6299944
-15.065731,0.878942,1.0761404
-15.081257,0.82887816,0.9779277
-15.097567,0.77876925,0.8796177
-14.943059,0.6688266,0.7051506
-14.938086,0.6099396,0.59515
-14.994633,0.5724549,0.5125165
-22.73032,2.640918,2.7825537
-22.885529,2.6765018,2.8180966
-22.997532,2.6934106,2.8278356
-23.105164,2.709002,2.8360767
-23.2007,2.7196133,2.8376002
-23.302853,2.733912,2.8446708
-23.37537,2.7347052,2.8327928
-23.531149,2.7759905,2.8790674
-23.543602,2.7486413,2.8273835
-23.622404,2.7537022,2.8223124
-23.70475,2.7609541,2.82063
-23.785334,2.7677877,2.8185854
-23.86715,2.7757044,2.8183465
-23.93905,2.7790072,2.8116384
-24.0292,2.7921517,2.8194695
-24.10503,2.79837,2.817451
-24.185722,2.8075933,2.820044
-24.263933,2.8159792,2.8216367
-24.337536,2.8223403,2.8204718
-24.408745,2.8278165,2.8182044
-24.477594,2.832391,2.814797
-24.543411,2.8356502,2.8096251
-24.630863,2.8514729,2.8232641
-24.691998,2.8528943,2.8157406
-24.759253,2.8581498,2.8140812
-24.83458,2.8684945,2.8201938
-24.897915,2.8722653,2.8166752
-24.963116,2.8774927,2.8154988
-25.029457,2.8837836,2.8160853
-25.090181,2.8870513,2.812293
-25.154747,2.893012,2.812707
-25.213112,2.8955004,2.8080397
-25.274624,2.9002752,2.8069706
-25.341827,2.909026,2.8120751
-25.399643,2.9121823,2.808856
-25.459234,2.9168084,2.8080077
-25.514145,2.918703,2.803142
-25.575283,2.9250238,2.805153
-25.63619,2.931572,2.8076563
-25.696238,2.9379196,2.8099976
-25.752323,2.9419215,2.8088837
-25.804527,2.943548,2.8042517
-25.86641,2.9522529,2.8106165
-25.923758,2.9581609,2.812819
-25.977873,2.9621053,2.8121252
-26.029427,2.964499,2.8091574
-26.081434,2.9675078,2.807251
-26.13741,2.9737694,2.810492
-26.19083,2.9784703,2.811438
-26.240017,2.9802668,2.807991
-26.290228,2.9831166,2.806283
-26.340866,2.9865823,2.8056388
-26.392471,2.991114,2.8067627
-26.44334,2.995377,2.8075757
-26.490717,2.9971209,2.8045573
-26.539623,3.000373,2.8039942
-26.587837,3.0033383,2.803081
-26.637524,3.0078247,2.8046494
-26.6865,3.0120258,2.8058705
-26.7332,3.0145679,2.804584
-26.780293,3.0177207,2.80435
-26.827242,3.0210302,2.8044538
-26.872509,3.0231142,2.8027172
-26.91918,3.0267282,2.803483
-26.961687,3.0267951,2.7987342
-27.006111,3.0288503,2.7972064
-27.052383,3.032908,2.7989345
-27.0985,3.0371175,2.80099
-27.14253,3.039607,2.8004045
-27.18739,3.0431738,2.801612
-27.233984,3.048766,2.8061218
-27.278065,3.052155,2.8072152
-27.321087,3.0547397,2.807108
-27.362629,3.0560384,2.805029
-27.403185,3.0565152,2.8017106
-27.444557,3.0580661,2.8001785
-27.487143,3.0611756,2.8012094
-27.5296,3.0644174,2.8025274
-27.571074,3.0668325,2.8025975
-27.614536,3.0717776,2.8067918
-27.65534,3.073971,2.8066525
-27.697268,3.0777361,2.809105
-27.736631,3.078729,2.807179
-27.777908,3.0822618,2.8093996
-27.818268,3.0849495,2.8103323
-27.857737,3.0867865,2.8099632
-27.896732,3.088252,2.8090625
-27.93489,3.088856,2.8068361
-27.974838,3.092018,2.8087964
-28.012842,3.0928473,2.8070593
-28.049702,3.092312,2.8031788
-28.087585,3.0933576,2.8019104
-28.12644,3.0959916,2.8032708
-28.166899,3.1012106,2.8088756
-28.208874,3.1090267,2.8187513
-28.252274,3.119452,2.8329244
-28.291819,3.1245508,2.838542
-28.32897,3.126286,2.838768
-28.365726,3.1276286,2.8384147
-28.401798,3.128077,2.836668
-28.435408,3.1246266,2.8286433
-28.474676,3.130777,2.8362665
-28.510284,3.1310267,2.834361
-28.544998,3.129868,2.8302178
-28.583876,3.1363463,2.8385525
-28.61984,3.1379037,2.8389373
-28.65467,3.1375434,2.8362532
-28.689474,3.1372776,2.8337736
-28.723742,3.1360948,2.8298488
-28.757505,3.133991,2.824471
-28.792744,3.135017,2.8242483
-28.826979,3.134109,2.8209205
-28.864208,3.139897,2.8285751
-28.899696,3.1422312,2.8306446
-28.934223,3.1426258,2.8295956
-28.968502,3.1426027,2.8279138
-29.001923,3.1406293,2.823092
-29.036371,3.1412978,2.8226376
-29.071753,3.1446154,2.8265667
-29.10741,3.1490533,2.8323822
-29.142574,3.1525648,2.8367324
-29.176035,3.1515565,2.8337302
-29.210182,3.1526887,2.834282
-29.243124,3.150316,2.8291373
-29.276735,3.150085,2.827548
-29.31064,3.15097,2.8278356
-29.344797,3.1529748,2.8300066
-29.378183,3.1524937,2.8281474
-29.410616,3.1484902,2.8205547
-29.445189,3.1528246,2.8266888
-29.47903,3.15467,2.8287864
-29.51164,3.1514378,2.8225951
-29.544312,3.1482887,2.8165836
-29.576937,3.1447062,2.8099027
-29.609335,3.1396542,2.8008523
-29.641005,3.130024,2.7843242
-29.672712,3.1194358,2.7662625
-29.704416,3.1073713,2.7458153
-29.734377,3.0813887,2.7025337
-29.763979,3.0482152,2.647469
-29.793224,3.0057714,2.577199
-29.808868,2.8290095,2.286139
-29.820309,2.5660918,1.8534222
-29.847626,2.4173498,1.608429
-29.850561,1.888586,0.7385502
-40.82566,1.0038667,0.41339588
-40.837498,1.0497231,0.4989519
-40.853264,1.0933602,0.58132553
-40.84776,1.1461978,0.6765795
-40.81673,1.2098448,0.786839
-40.83716,1.2499847,0.86407804
-40.83931,1.2977967,0.9519701
-40.86557,1.3347158,1.0246744
-40.89527,1.3699179,1.095015
-40.87654,1.4254174,1.1933203
-40.90573,1.460213,1.263052
-40.863174,1.5245612,1.3731995
-40.826862,1.5855362,1.4784813
-40.82495,1.6317978,1.5635548
-40.833862,1.6732728,1.642057
-40.813805,1.7259293,1.7355585
-40.822903,1.7665367,1.8127246
-40.791084,1.8227563,1.9106865
-40.820587,1.8546968,1.9761314
-40.855515,1.8844266,2.0386882
-40.89847,1.9110305,2.0971847
-40.968704,1.9699516,2.2219448
-42.223328,1.6464624,1.8789911
-42.254814,1.6812248,1.9510999
-42.223164,1.7379727,2.0512948
-42.25164,1.773284,2.1240492
-41.03466,2.235415,2.7355103
-40.834892,2.3432622,2.8964605
-40.880802,2.3669224,2.951295
-40.895443,2.4009967,3.0191898
-40.929955,2.4283621,3.0787964
-40.96762,2.4546642,3.1371832
-41.02989,2.4730513,3.1860237
-40.989017,2.524357,3.2749639
-41.081924,2.533084,3.3123775
-41.202675,2.5335388,3.3402858
-41.31359,2.5375826,3.3729858
-41.409153,2.5467904,3.4122581
-41.560917,2.5395067,3.4326339
-41.712006,2.533193,3.4548426
-41.83227,2.5366874,3.4890695
-42.03492,2.5168166,3.4971123
-42.143528,2.5250235,3.538022
-42.19967,2.5485787,3.5967088
-42.26378,2.5700183,3.6532555
-42.352554,2.5847945,3.7026963
-42.438377,2.6007109,3.7537956
-42.522152,2.6174963,3.806234
-42.580585,2.6413598,3.8666759
-42.704918,2.647941,3.908957
-42.803032,2.6619267,3.9596763
-42.875683,2.6828728,4.0181446
-43.011898,2.6878428,4.060466
-44.085266,2.4574265,3.8632898
-44.113037,2.4935095,3.9412518
-44.081703,2.5440521,4.033704
-44.11303,2.578971,4.110502
-44.196964,2.6012533,4.175131
-44.733868,2.516662,4.1377573
-45.00556,2.4970257,4.165074
-45.56658,2.4120815,4.133191
-45.98944,2.3617036,4.13655
-46.492523,2.295584,4.1283493
-47.034004,2.223692,4.1182394
-47.586166,2.152412,4.112176
-48.208633,2.0689523,4.0992846
-48.818817,1.991493,4.0955954
-49.369316,1.9298663,4.109103
-50.093624,1.8351645,4.099575
-50.853092,1.7371945,4.0924797
-51.78732,1.608113,4.0666094
-52.582546,1.5117049,4.072145
-53.88424,1.3203948,4.013333
-54.93834,1.1839461,4.003577
-1.229145,0.7507527,3.772604
-1.1266289,0.5702257,3.426834
-1.2908859,0.5197437,3.2835994
-1.4034348,0.45996118,3.1341248
-1.4314747,0.38406157,2.9723988
-1.4509354,0.3062973,2.809207
-1.4754028,0.22930646,2.6466608
-10.073879,0.48867226,1.1721191
-10.135265,0.4404502,1.0642142
-10.360029,0.43786812,1.0096197
-10.398552,0.38370633,0.8955412
-11.437294,0.6154218,1.1194434
-11.553219,0.5866566,1.0382509
-11.774084,0.5889704,0.9947891
-11.82419,0.5418122,0.89254093
-12.711679,0.7453077,1.0952272
-12.819433,0.718312,1.0199356
-13.050726,0.72948456,0.9920702
-13.074459,0.6775508,0.8869462
-13.1115,0.62953234,0.78670216
-13.159071,0.5846822,0.6904917
-13.182423,0.53197575,0.58446693
-14.702121,0.9636195,1.0933161
-15.065655,0.97250056,1.0346956
-15.083779,0.9235172,0.9375181
-15.044945,0.85496855,0.8149352
-15.051722,0.8013034,0.7114744
-15.022002,0.7346244,0.59088516
-15.105094,0.706712,0.5210819
-22.697128,2.711503,2.801783
-22.787752,2.7172189,2.7958674
-22.929379,2.7461708,2.8235712
-23.025536,2.7556007,2.823645
-23.1284,2.7686381,2.8292198
-23.235527,2.784262,2.8388557
-23.300438,2.7809246,2.8213048
-23.382229,2.7857907,2.8158674
-23.510498,2.8131719,2.8435168
-23.574076,2.8104122,2.827477
-23.65351,2.815611,2.823276
-23.73196,2.8207612,2.8192282
-23.81918,2.830684,2.822435
-23.893393,2.8346202,2.8170433
-23.977047,2.843729,2.8195162
-24.053013,2.8494086,2.8171325
-24.123606,2.8527372,2.8114562
-24.205687,2.8624363,2.8154664
-24.285267,2.871322,2.8184862
-24.362381,2.8793747,2.8204737
-24.430605,2.8830981,2.8161697
-24.497927,2.8866966,2.811852
-24.571436,2.894066,2.8133888
-24.634115,2.8958454,2.806675
-24.700848,2.900223,2.8040466
-24.76529,2.9036694,2.8001728
-24.8337,2.9097443,2.8004503
-24.900497,2.9152849,2.800086
-24.965704,2.92028,2.7990541
-25.035442,2.9283414,2.802866
-25.09211,2.9289906,2.795506
-25.17608,2.946495,2.8141189
-25.236977,2.9504774,2.81218
-25.296368,2.9538667,2.809472
-25.358204,2.9591198,2.8097725
-25.419176,2.964191,2.8099375
-25.480585,2.9699025,2.8112345
-25.539206,2.974179,2.8104486
-25.591908,2.974909,2.8042955
-25.651451,2.9804378,2.8057103
-25.706387,2.9832382,2.8030148
-25.765524,2.9891934,2.8053546
-25.820732,2.9928203,2.8041925
-25.876993,2.997496,2.804789
-25.931236,3.0010912,2.8038177
-25.984707,3.0044508,2.8025918
-26.037415,3.007568,2.8010979
-26.087593,3.009141,2.797288
-26.14177,3.0139205,2.7986264
-26.195753,3.0188925,2.8003807
-26.24549,3.0209987,2.7977276
-26.296242,3.0241506,2.7968254
-26.348545,3.028796,2.7983866
-26.397844,3.031418,2.7968516
-26.445887,3.0333228,2.7942772
-26.494911,3.0362754,2.7934594
-26.545437,3.0407302,2.795124
-26.595783,3.0453582,2.797164
-26.644869,3.0492618,2.7981496
-26.691124,3.0510848,2.7959132
-26.738317,3.053961,2.7954445
-26.786417,3.0578978,2.79676
-26.830729,3.0588207,2.7933464
-26.87597,3.0607955,2.7916965
-26.922112,3.063829,2.7918272
-26.97012,3.0688426,2.7952194
-27.016947,3.0730999,2.7974877
-27.061642,3.075672,2.797133
-27.105724,3.0779257,2.7963467
-27.15257,3.0830958,2.800336
-27.197329,3.0865653,2.80167
-27.24147,3.0897143,2.802566
-27.28176,3.089275,2.7977457
-27.324749,3.0917609,2.7977204
-27.3658,3.092508,2.7949567
-27.408567,3.095259,2.795506
-27.45121,3.0981438,2.7963457
-27.493286,3.1006908,2.7967105
-27.533514,3.1014748,2.7942848
-27.577078,3.1061742,2.7982836
-27.616686,3.1067338,2.7956295
-27.660378,3.1121743,2.80098
-27.700607,3.1139352,2.8004136
-27.73993,3.1148598,2.7985501
-27.780373,3.1173398,2.7992854
-27.821098,3.120422,2.8010697
-27.859758,3.121221,2.799191
-27.897968,3.1216505,2.7967696
-27.938372,3.125091,2.7993307
-27.978275,3.1281698,2.8013644
-28.016232,3.1289413,2.7996845
-28.0534,3.1288497,2.79665
-28.092646,3.1317875,2.798635
-28.132471,3.1358173,2.802472
-28.173866,3.142411,2.8105798
-28.212368,3.1452127,2.8125296
-28.249107,3.145674,2.8106928
-28.286764,3.1477134,2.8115048
-28.32497,3.1508462,2.8141708
-28.360865,3.1506374,2.8113976
-28.395802,3.149046,2.8064003
-28.43194,3.1495285,2.8048682
-28.467436,3.1491206,2.8019204
-28.502321,3.1478171,2.7975469
-28.539474,3.1505842,2.7999358
-28.575409,3.1514657,2.7992687
-28.611832,3.1534436,2.8004627
-28.64817,3.1555233,2.8018775
-28.683123,3.1552055,2.7993832
-28.718811,3.1564834,2.7995763
-28.75568,3.160366,2.8041248
-28.790966,3.1613407,2.8039188
-28.826199,3.162413,2.8039222
-28.860678,3.1620717,2.8016343
-28.896263,3.1643405,2.8037176
-28.931545,3.1662023,2.8051758
-28.96654,3.1676567,2.806007
-29.00085,3.1676896,2.8045316
-29.035736,3.169331,2.80577
-29.07036,3.1705601,2.8063731
-29.10493,3.1718826,2.807177
-29.139261,3.1727905,2.8073401
-29.173544,3.1737895,2.807701
-29.207952,3.1753883,2.8091044
-29.2423,3.1770792,2.810707
-29.276426,3.1783519,2.8116617
-29.310041,3.1781871,2.8102732
-29.343344,3.1770906,2.8073807
-29.377218,3.178121,2.8080673
-29.41078,3.1782198,2.80725
-29.444578,3.1794283,2.8083224
-29.47759,3.1776576,2.804484
-29.510277,3.1744375,2.798276
-29.543245,3.1723242,2.7939515
-29.575829,3.1682472,2.7864008
-29.608397,3.16374,2.7781758
-29.640312,3.1552143,2.7633004
-29.672504,3.1472802,2.7494502
-29.703012,3.1276262,2.7161198
-29.733976,3.1080432,2.6829443
-29.762096,3.0638883,2.60887
-29.793633,3.0393095,2.5674405
-29.812973,2.8986936,2.3327007
-29.820162,2.6003242,1.8350892
-29.847536,2.4540582,1.5909362
-29.848864,1.9109259,0.68538046
-40.820446,1.0799046,0.38153172
-40.820503,1.1308072,0.47487688
-40.834602,1.1748743,0.5583019
-40.80974,1.285142,0.7566395
-40.83172,1.3243856,0.8329582
-40.85385,1.3632696,0.90875626
-40.85684,1.4100206,0.99567986
-40.88003,1.4478102,1.0698776
-40.833603,1.5143585,1.1845107
-40.896034,1.535147,1.2347422
-40.827187,1.6096082,1.3600855
-40.85811,1.6427503,1.4275584
-40.81833,1.7039812,1.5340157
-40.854557,1.7344036,1.5976562
-40.78211,1.8072405,1.7197351
-40.78271,1.8507957,1.8012772
-40.790974,1.8910296,1.8781972
-40.784252,1.9366257,1.962358
-40.824116,1.9643238,2.0221543
-40.845745,1.9987338,2.0910878
-40.898354,2.0215805,2.1444921
-42.239468,1.7159305,1.8355832
-42.272747,1.7500691,1.9070225
-42.200222,1.8205023,2.0259528
-40.966133,2.2854273,2.6575046
-41.00557,2.3120894,2.7163448
-40.878517,2.3941808,2.8466282
-40.864628,2.4377697,2.9269528
-40.89425,2.466789,2.9885826
-40.975784,2.4790053,3.0289946
-40.85785,2.5550814,3.1501026
-41.02961,2.538756,3.154934
-41.097935,2.5555959,3.2017617
-41.148098,2.5782378,3.2560096
-41.23758,2.5889807,3.295805
-41.347748,2.593843,3.3287835
-41.48239,2.591908,3.3539839
-41.579037,2.6018157,3.3940325
-41.73207,2.5957046,3.4153366
-41.867065,2.5955558,3.4444098
-42.00949,2.593938,3.472363
-42.17224,2.5872967,3.4950953
-42.199028,2.6192539,3.5633535
-42.25025,2.6444304,3.62387
-42.35845,2.6542346,3.6670465
-42.47585,2.6620336,3.7084527
-42.564392,2.6779912,3.7595549
-42.67324,2.688966,3.8055272
-42.775444,2.7021158,3.8544097
-42.8298,2.7279055,3.9175472
-42.90723,2.7479877,3.9747553
-43.027615,2.757625,4.0211787
-44.039528,2.5483437,3.8371496
-44.073814,2.5826983,3.9131837
-44.093422,2.6205583,3.9929504
-44.090683,2.663609,4.07804
-44.122417,2.698359,4.1546726
-44.504513,2.6521735,4.150977
-44.846436,2.6172218,4.160549
-45.3388,2.5502524,4.141188
-45.77393,2.4986937,4.1395087
-46.24726,2.441122,4.134849
-46.78674,2.3718176,4.1222844
