x,y,z
-27.430786,2.5354614,4.110324
-27.468018,2.5410128,4.1074142
-27.504665,2.5460587,4.1041546
-27.545055,2.556244,4.10606
-27.596647,2.58166,4.1230516
-27.629534,2.5826948,4.116328
-27.661465,2.5825665,4.108576
-27.696598,2.586959,4.105396
-27.733465,2.593997,4.1049604
-27.779627,2.6144855,4.1179957
-27.811703,2.615425,4.1118116
-27.843754,2.6164594,4.105834
-27.873178,2.613759,4.096242
-27.909483,2.6213694,4.0970488
-27.949455,2.63486,4.103879
-27.99546,2.658109,4.1206565
-28.02871,2.6622462,4.1184163
-28.05293,2.6523237,4.102134
-28.083729,2.6527717,4.0963793
-28.118475,2.659765,4.0973425
-28.140583,2.646172,4.077586
-28.192602,2.6824975,4.1085167
-28.223475,2.683989,4.1042767
-28.252813,2.682971,4.097585
-28.278093,2.6748772,4.0837736
-28.310417,2.679224,4.0827346
-28.341225,2.6810565,4.0792356
-28.371286,2.681671,4.0745883
-28.416643,2.7111592,4.099663
-28.446424,2.7119813,4.0954666
-28.47416,2.7089505,4.0874004
-28.501604,2.7053354,4.0788145
-28.53269,2.7090275,4.0778527
-28.56499,2.715444,4.079808
-28.595594,2.7186599,4.078558
-28.6376,2.7463913,4.1028137
-28.666355,2.7465055,4.0985775
-28.691513,2.7387567,4.0862603
-28.72031,2.7390184,4.082344
-28.747082,2.7347162,4.073763
-28.77674,2.737122,4.0722528
-28.810497,2.7495818,4.081332
-28.84783,2.7714624,4.1003737
-28.876827,2.7734795,4.098769
-28.905003,2.7735763,4.0952425
-28.929865,2.7650719,4.082782
-28.958094,2.7653112,4.079564
-28.987768,2.7696395,4.080727
-29.019024,2.7787366,4.0869994
-29.056606,2.806684,4.1132164
-29.083313,2.8039083,4.1071987
-29.109179,2.7985165,4.0984983
-29.135988,2.7958765,4.0927744
-29.16409,2.797339,4.09146
-29.19277,2.800895,4.0924444
-29.222569,2.8085685,4.0978723
-29.255493,2.8277812,4.115614
-29.282503,2.8268652,4.112134
-29.311144,2.8320925,4.115246
-29.334974,2.8191676,4.09918
-29.362906,2.8218367,4.0997367
-29.389317,2.8184962,4.0939884
-29.41704,2.8206353,4.0941415
-29.44199,2.8106632,4.081488
-29.477034,2.8468056,4.118
-29.5015,2.8349457,4.1034966
-29.527103,2.8278892,4.0941753
-29.552952,2.8215747,4.085715
-29.57989,2.8207536,4.083188
-29.607304,2.8227177,4.08371
-29.634235,2.8220367,4.0814857
-29.662018,2.8268614,4.0852213
-29.691612,2.844676,4.1029205
-29.71808,2.8421726,4.0989866
-29.743616,2.8322535,4.0871954
-29.769978,2.8278406,4.0813646
-29.796719,2.8262177,4.078594
-29.823696,2.8267062,4.0781584
-29.851183,2.832713,4.083708
-29.87874,2.840835,4.0916033
-29.905626,2.8422165,4.092356
-29.932436,2.842986,4.09253
-29.958233,2.827466,4.0753207
-29.985224,2.8297346,4.07725
-30.011845,2.824573,4.0712905
-30.038504,2.8181152,4.064016
-30.065659,2.8260465,4.072243
-30.092701,2.8354115,4.0820866
-30.119488,2.835299,4.0818424
-30.146275,2.833891,4.080284
-30.173164,2.82164,4.067174
-30.200123,2.818324,4.0637207
-30.227337,2.8068948,4.0516443
-30.25452,2.802355,4.0470324
-30.281416,2.8067493,4.0520763
-30.306873,2.8384814,4.0865
-30.333744,2.836874,4.0852575
-30.361649,2.8203425,4.068097
-30.389372,2.8100185,4.0576706
-30.416872,2.8045368,4.0525117
-30.443897,2.805257,4.0540733
-30.470911,2.8060474,4.0557866
-30.498138,2.8048644,4.055464
-30.522888,2.8248496,4.0778694
-30.550495,2.819719,4.0734715
-30.578562,2.8119416,4.0663233
-30.606174,2.8083181,4.063699
-30.633955,2.8040884,4.0605063
-30.662247,2.7972145,4.054571
-30.689621,2.7965286,4.0553255
-30.717253,2.7945561,4.0547857
-30.742508,2.8055463,4.0681524
-30.769968,2.8043914,4.068638
-30.80022,2.7897532,4.054836
-30.828707,2.7846854,4.0513206
-30.855482,2.7878184,4.056618
-30.883453,2.7856064,4.0563064
-30.909044,2.7936115,4.0669374
-30.936008,2.795597,4.0712423
-30.9645,2.7915735,4.0692444
-30.993599,2.7856026,4.0652666
-31.024464,2.773642,4.0550275
-31.054396,2.7658153,4.0492673
-31.081135,2.7695208,4.0558076
-31.109026,2.7692566,4.0582247
-31.140448,2.757635,4.048722
-31.163343,2.773653,4.0685034
-31.189034,2.7803202,4.078475
-31.226501,2.7514992,4.051111
-31.254576,2.75162,4.054363
-31.284067,2.7477975,4.0535483
-31.312422,2.7474022,4.0564275
-31.33931,2.7510924,4.063681
-31.365887,2.7555192,4.071785
-31.394463,2.7546763,4.0744405
-31.429913,2.7365856,4.0591316
-31.461096,2.7299242,4.0558996
-31.490473,2.7280087,4.057724
-31.520168,2.7255101,4.059034
-31.5502,2.7224307,4.0598297
-31.573875,2.7340174,4.0759845
-31.60301,2.7330768,4.079177
-31.64306,2.7084112,4.057832
-31.675518,2.701055,4.054587
-31.70936,2.6911573,4.048821
-31.741459,2.6853166,4.0473676
-31.764576,2.6979961,4.065143
-31.793758,2.6982367,4.070149
-31.828987,2.6867437,4.0631657
-31.872255,2.6602857,4.0409255
-31.904192,2.6562371,4.0418634
-31.940073,2.6450915,4.035634
-31.970074,2.6451576,4.0410085
-31.999357,2.646611,4.0478954
-32.027153,2.650748,4.057613
-32.068703,2.630908,4.0429955
-32.104908,2.620947,4.038587
-32.140514,2.6123977,4.035744
-32.176662,2.6033137,4.0324903
-32.203888,2.6092038,4.0445137
-32.234627,2.6093574,4.0508246
-32.268612,2.604446,4.0521345
-32.31952,2.5732794,4.027158
-32.350986,2.573114,4.033525
-32.383728,2.571116,4.038161
-32.41012,2.578811,4.0526032
-32.43898,2.5827389,4.063361
-32.483067,2.5644326,4.0520687
-32.528343,2.5450094,4.0398498
-32.56456,2.5390882,4.0412116
-32.598618,2.5364523,4.045958
-32.628613,2.539616,4.0565543
-32.667812,2.5302286,4.0548854
-32.715584,2.509623,4.0423436
-32.75944,2.4948554,4.035734
-32.80307,2.4808705,4.0300746
-32.83101,2.4877248,4.044935
-32.86762,2.483389,4.0489874
-32.91465,2.4660592,4.0405593
-32.96296,2.4476542,4.0312953
-33.00655,2.435644,4.0284214
-33.036636,2.4405391,4.042025
-33.077415,2.4325137,4.043308
-33.13539,2.404237,4.0253453
-33.176598,2.3965325,4.0273232
-33.21477,2.3926582,4.0331225
-33.2461,2.3968878,4.046777
-33.29347,2.382832,4.0432067
-33.348103,2.3610053,4.0325017
-33.4009,2.3418257,4.0245466
-33.446293,2.3313608,4.025024
-33.471855,2.3429022,4.0463114
-33.53142,2.317573,4.033245
-33.591957,2.291875,4.0201244
-33.64264,2.2772598,4.017583
-33.69183,2.264635,4.0171146
-33.73543,2.2581863,4.022563
-33.795483,2.235143,4.0129566
-33.838833,2.2296345,4.019697
-33.889977,2.2165403,4.0197053
-33.94969,2.1953268,4.0125723
-33.985058,2.1986175,4.027927
-34.023415,2.1990635,4.040852
-34.070927,2.1908004,4.0461044
-34.140102,2.1621547,4.033319
-34.209095,2.134377,4.02167
-34.281628,2.10396,4.008035
-34.34582,2.0819974,4.002266
-34.39326,2.0759737,4.0108767
-34.451626,2.0602717,4.01121
-34.51728,2.0384421,4.0064793
-34.566475,2.0318499,4.015353
-34.646965,1.9978716,4.000722
-34.69197,1.9957237,4.014001
-34.76072,1.9731808,4.0099635
-34.805275,1.971976,4.0245404
-34.859188,1.9629805,4.032688
-21.490814,0.8845086,4.1653104
-21.628494,0.9251499,4.158076
-21.769785,0.9688451,4.1537957
-21.89598,1.0044069,4.1450844
-22.071848,1.0709009,4.1579633
-22.230822,1.1283805,4.1659684
-22.308958,1.1372085,4.141833
-22.42853,1.1721475,4.1361723
-22.550867,1.2096128,4.1330543
-22.72026,1.2776287,4.1521664
-22.802057,1.291208,4.133934
-22.974016,1.3630986,4.157781
-23.046526,1.3720255,4.137529
-23.16722,1.4127488,4.140742
-23.270342,1.4427924,4.136934
-23.397015,1.489162,4.1457877
-23.472372,1.5021763,4.1307297
-23.59806,1.5495584,4.1417785
-23.65764,1.5529609,4.120551
-23.795263,1.610148,4.140389
-23.8431,1.6063802,4.1146173
-23.97735,1.663023,4.1354756
-24.034616,1.6666508,4.116204
-24.117872,1.6889651,4.1117744
-24.23783,1.7381094,4.128845
-24.293793,1.7420869,4.1110635
-24.425163,1.8012115,4.1373043
-24.45951,1.7902837,4.1084766
-24.57595,1.8401502,4.128579
-24.665005,1.8705964,4.1337147
-24.732111,1.8852016,4.126507
-24.805435,1.9049596,4.1238694
-24.88842,1.9326425,4.128148
-24.930073,1.9289919,4.1070294
-25.019508,1.9627512,4.1171474
-25.091711,1.9836979,4.1170883
-25.136547,1.9834249,4.0996265
-25.216576,2.0115352,4.106298
-25.303051,2.0455341,4.118402
-25.338575,2.0386848,4.0962167
-25.411474,2.0626755,4.1005573
-25.506924,2.1060224,4.1219273
-25.540806,2.0986247,4.10002
-25.6054,2.1172683,4.1008353
-25.676989,2.1423914,4.107631
-25.729147,2.1513567,4.1006637
-25.775948,2.1559641,4.090117
-25.8525,2.1869903,4.10311
-25.917635,2.2086058,4.1081676
-25.950445,2.2017832,4.088242
-25.996063,2.2065692,4.078815
-26.097776,2.2628922,4.1158495
-26.149113,2.2739327,4.1126494
-26.177868,2.2642674,4.09096
-26.232101,2.2785428,4.091106
-26.302673,2.308782,4.10606
-26.361202,2.328192,4.111471
-26.398266,2.327293,4.098519
-26.457539,2.3482804,4.105884
-26.520643,2.373629,4.1175694
-26.566214,2.3820791,4.1138873
-26.611645,2.3906922,4.110557
-26.658676,2.4012501,4.1092434
-26.714191,2.420916,4.116677
-26.772823,2.4443798,4.1279426
-26.802128,2.4375334,4.110897
-26.84673,2.446974,4.109362
-26.891731,2.4571733,4.10874
-26.952616,2.4850254,4.1251173
-26.988903,2.4865165,4.1166167
-27.026247,2.4893358,4.1095276
-27.067848,2.4971356,4.1073675
-27.120537,2.5178614,4.1178303
-27.164944,2.5296347,4.1198864
-27.204954,2.536674,4.117546
-27.237564,2.5352688,4.107165
-27.278425,2.5437872,4.1065636
-27.319138,2.5524445,4.1062636
-27.372328,2.5766597,4.12136
-27.407114,2.5788274,4.115058
-27.439379,2.5780067,4.105943
-27.479488,2.5872116,4.106831
-27.51119,2.5859804,4.097561
-27.574587,2.6259656,4.1292453
-27.607872,2.6274984,4.1230335
-27.636892,2.6235023,4.111435
-27.668291,2.6227198,4.103137
-27.703829,2.6276793,4.1006885
-27.737911,2.6308646,4.096592
-27.790361,2.659995,4.1186786
-27.81966,2.657123,4.1087837
-27.847239,2.6518023,4.096513
-27.8788,2.652256,4.090162
-27.913773,2.6578803,4.0891542
-27.954573,2.6725163,4.0974164
-27.998049,2.6917496,4.1105127
-28.032108,2.6971006,4.109646
-28.059135,2.6916928,4.09792
-28.097916,2.7049174,4.1053233
-28.119385,2.6907024,4.0847716
-28.156757,2.702215,4.090663
-28.192766,2.7119203,4.0948353
-28.226316,2.717875,4.095278
-28.254496,2.7149022,4.086631
-28.281973,2.710712,4.0768123
-28.315351,2.7169454,4.077858
-28.345737,2.7180972,4.073754
-28.382828,2.7316635,4.0826316
-28.423517,2.7524977,4.099198
-28.449423,2.7461438,4.0876217
-28.47813,2.745066,4.0816183
-28.50618,2.7427616,4.0744214
-28.535568,2.7431445,4.0701175
-28.56944,2.7527661,4.0755763
-28.598719,2.7533236,4.0716496
-28.637604,2.7742882,4.0892334
-28.665451,2.7724056,4.0829506
-28.692423,2.7686253,4.0747547
-28.720331,2.7668881,4.0687876
-28.7497,2.7685194,4.066457
-28.779036,2.7702315,4.0643015
-28.82053,2.8010752,4.0930357
-28.852259,2.8095899,4.0982943
-28.88064,2.8102593,4.095345
-28.9064,2.8043823,4.085537
-28.936583,2.8098395,4.0878334
-28.964174,2.8087468,4.0832634
-28.992018,2.8083906,4.0795574
-29.02557,2.8240657,4.093007
-29.06094,2.8458326,4.113064
-29.086866,2.8410702,4.1049376
-29.111544,2.8323727,4.092681
-29.138943,2.83174,4.089109
-29.168234,2.8371887,4.092121
-29.196812,2.840715,4.0931654
-29.226315,2.8476624,4.0979605
-29.256077,2.856032,4.10437
-29.285501,2.8638153,4.1102448
-29.311712,2.8602872,4.104063
-29.336927,2.8528018,4.0937
-29.363281,2.8494043,4.087801
-29.390669,2.850103,4.086382
-29.41725,2.8475146,4.081502
-29.449501,2.8698719,4.1035714
-29.47697,2.872142,4.1040945
-29.50313,2.8684273,4.09824
-29.528542,2.8607383,4.088169
-29.554464,2.8551316,4.080415
-29.581715,2.856333,4.080085
-29.60894,2.857604,4.0799084
-29.635803,2.8569229,4.0776973
-29.663733,2.8630614,4.082938
-29.693054,2.8794045,4.0993013
-29.719736,2.8789396,4.097562
-29.74527,2.8697586,4.086457
-29.771124,2.8619926,4.0769544
-29.797955,2.86173,4.07565
-29.824717,2.8608599,4.073764
-29.851751,2.8627646,4.0749593
-29.879522,2.8735366,4.085848
-29.906355,2.8749068,4.0866165
-29.932924,2.8729606,4.0838647
-29.958895,2.8609257,4.0702395
-29.985397,2.855051,4.06337
-30.01212,2.851953,4.0595875
-30.03892,2.8496022,4.0566893
-30.066053,2.8581572,4.0657043
-30.093027,2.8661058,4.0741367
-30.1198,2.8680267,4.0761
-30.14654,2.8700156,4.0782127
-30.17333,2.8598788,4.0672355
-30.200308,2.8491333,4.0556736
-30.227255,2.8472643,4.0538216
-30.254055,2.8508844,4.0580044
-30.281328,2.8417044,4.0483675
-30.307058,2.8664577,4.075632
-30.333958,2.8641868,4.0736427
-30.361353,2.8552153,4.064459
-30.388956,2.8456383,4.054698
-30.41638,2.8401961,4.0494986
-30.443394,2.8402386,4.0503244
-30.469719,2.847116,4.058634
-30.496824,2.8459425,4.0582914
-30.522177,2.8597147,4.074214
-30.54937,2.8573256,4.072703
-30.576883,2.852981,4.069151
-30.605747,2.8399293,4.0562553
-30.632969,2.83911,4.056679
-30.661524,2.8302627,4.0484977
-30.689194,2.8275647,4.047049
-30.7157,2.8316817,4.053042
-30.741377,2.8399096,4.063547
-30.768908,2.8380957,4.063282
-30.797443,2.8316417,4.05809
-30.827827,2.8171902,4.0443597
-30.853506,2.8250198,4.054734
-30.880926,2.8248458,4.0565577
-30.907707,2.8274305,4.061428
-30.93428,2.830755,4.067169
-30.962706,2.826767,4.0651236
-30.991562,2.8215156,4.0618057
-31.022543,2.8089743,4.0507503
-31.052982,2.799201,4.042763
-31.079868,2.802225,4.048587
-31.105698,2.8086605,4.058138
-31.133705,2.8078113,4.059964
-31.159388,2.8143783,4.069802
-31.18803,2.8116722,4.0698028
-31.218742,2.8030481,4.063573
-31.252142,2.7871902,4.049727
-31.28228,2.7814112,4.0467324
-31.31083,2.7803688,4.048874
-31.336437,2.78737,4.059652
-31.36168,2.7950962,4.07127
-31.38964,2.7955942,4.075283
-31.421825,2.7855773,4.0682344
-31.455265,2.7730122,4.0585938
-31.486723,2.7658334,4.054765
-31.515781,2.7646852,4.0574093
-31.546585,2.7596624,4.0560546
-31.573685,2.763286,4.0639114
-31.602814,2.7623768,4.067074
-31.637117,2.750383,4.058672
-31.675644,2.729968,4.0415483
-31.705412,2.7286825,4.044628
-31.73489,2.7281342,4.048573
-31.763084,2.730281,4.055429
-31.792904,2.72924,4.059039
-31.8251,2.7237194,4.0580716
-31.864914,2.7039733,4.042397
-31.899166,2.695414,4.038508
-31.934275,2.6856623,4.033501
-31.964546,2.6850965,4.038143
-31.994835,2.684616,4.0429688
-32.02625,2.6822813,4.0459757
-32.060326,2.6755204,4.044518
-32.09832,2.6624196,4.0366507
-32.135384,2.6513743,4.0310383
-32.16796,2.6481586,4.033603
-32.19783,2.6495311,4.040979
-32.230896,2.6458626,4.0432935
-32.262,2.6454906,4.049088
-32.307922,2.6222258,4.0316525
-32.342163,2.6176095,4.0333796
-32.37522,2.6150079,4.037272
-32.40705,2.6144104,4.0433116
-32.435875,2.6183434,4.05404
-32.474266,2.60843,4.050883
-32.522568,2.5847433,4.0339994
-32.56455,2.570695,4.027012
-32.59635,2.5712702,4.03486
-32.625866,2.575079,4.046051
-32.66042,2.5720701,4.05053
-32.713295,2.5447555,4.0309143
-32.75526,2.5326364,4.026642
-32.795044,2.5237794,4.025776
-32.828693,2.5231452,4.033202
-32.868225,2.51516,4.0334916
-32.90987,2.5048275,4.0316267
-32.956673,2.488453,4.023995
-32.998714,2.4784198,4.0227785
-33.032795,2.4783854,4.031506
-33.06637,2.479069,4.0410566
-33.110825,2.4669747,4.0383043
-33.16437,2.4446344,4.025808
-33.20984,2.432268,4.0231986
-33.245922,2.4310286,4.031514
-33.28311,2.4286873,4.0389075
-33.33607,2.4088786,4.0296974
-33.38607,2.392899,4.0243907
-33.446815,2.3656363,4.008555
-33.469593,2.3801675,4.0327253
-33.51741,2.367707,4.031381
-33.58354,2.3362412,4.0123005
-33.63591,2.3199906,4.0078716
-33.68508,2.3075151,4.007227
-33.728657,2.3011684,4.012537
-33.765324,2.3020935,4.0248117
-33.8338,2.2711709,4.007641
-33.873665,2.2694569,4.0178614
-33.936302,2.2454977,4.0077205
-33.985447,2.2352958,4.010539
-34.013496,2.2457743,4.0325265
-34.057297,2.2411351,4.040804
-34.11474,2.2238295,4.0377564
-34.200382,2.1806002,4.0115066
-34.26606,2.1568604,4.003308
-34.320766,2.1437843,4.00503
-34.387085,2.120545,3.9979167
-34.446735,2.1038918,3.9970164
-34.50279,2.0909085,3.9996734
-34.557743,2.0792818,4.0038033
-34.611572,2.0690022,4.0093865
-34.677353,2.0487027,4.0064473
-34.74476,2.027534,4.0030923
-34.79389,2.0224438,4.014059
-34.84644,2.0147173,4.022979
-21.416065,0.94553995,4.1726947
-21.550045,0.9826915,4.1632986
-21.641869,0.99604464,4.139002
-21.806137,1.0525675,4.1442623
-21.92099,1.0808883,4.131551
-22.101076,1.1489906,4.146806
-22.22873,1.1867745,4.1423793
-22.356735,1.2256241,4.139543
-22.474672,1.2591591,4.1338196
-22.618492,1.3094928,4.1407714
-22.74661,1.3510783,4.142427
-22.887642,1.4016948,4.1514325
-22.977665,1.4210095,4.1386223
-23.116041,1.4717832,4.1494064
-23.196804,1.4864547,4.1344447
-23.31002,1.5226831,4.1360006
-23.418901,1.55688,4.1367474
-23.508856,1.5793376,4.1293125
-23.62152,1.6175158,4.1343756
-23.681026,1.6207893,4.113409
-23.800507,1.6649842,4.124322
-23.86647,1.6735227,4.108295
-24.00155,1.7300704,4.1301594
-24.06023,1.734623,4.1119666
-24.170269,1.7754762,4.1228294
-24.25157,1.7968783,4.1188626
-24.348072,1.8296821,4.124505
-24.449253,1.8666056,4.134043
-24.505371,1.8716178,4.1182866
-24.607922,1.91091,4.1308007
-24.692566,1.937834,4.1337695
-24.757421,1.9506462,4.1255703
-24.83568,1.9739361,4.126416
-24.887291,1.9775859,4.1113024
-24.963606,2.0003788,4.11251
-25.050842,2.032182,4.1217403
-25.097752,2.033288,4.105428
-25.184282,2.0657341,4.1160526
-25.261345,2.0914176,4.1213694
-25.311224,2.0959554,4.1089005
-25.379482,2.1155858,4.1097283
-25.446087,2.134385,4.1101913
-25.519835,2.159566,4.1165752
-25.573748,2.1688857,4.1094394
-25.62218,2.1739368,4.098803
-25.712276,2.214498,4.1198263
-25.750406,2.2115684,4.1026816
-25.798386,2.217226,4.0933604
-25.872915,2.2462597,4.105221
-25.943771,2.2727652,4.115197
-25.981516,2.2705305,4.0995593
-26.03457,2.2821193,4.0966206
-26.100725,2.3059301,4.1050725
-26.16148,2.3254147,4.1099014
-26.204466,2.3290188,4.100445
-26.251722,2.3368127,4.0950365
-26.3093,2.3546188,4.099104
-26.372086,2.3778734,4.108507
-26.416328,2.3839164,4.1021814
-26.467682,2.3971176,4.1027412
-26.545673,2.4368434,4.1284285
-26.57803,2.4323096,4.1128426
-26.621613,2.4390473,4.1080213
-26.667992,2.4488854,4.1063266
-26.729242,2.4742622,4.1196117
-26.784918,2.4945476,4.1283355
-26.813524,2.4871235,4.110799
-26.866499,2.5053859,4.118015
-26.91022,2.5142975,4.116469
-26.956562,2.526355,4.118146
-26.995,2.5301814,4.112051
-27.036095,2.5371413,4.1091504
-27.077065,2.544242,4.1065564
-27.121122,2.5551062,4.107806
-27.178263,2.581262,4.124221
-27.209204,2.577908,4.1119113
-27.245918,2.5813322,4.106384
-27.286694,2.5897508,4.1059275
-27.324764,2.5952547,4.1027493
-27.383993,2.6265922,4.12536
-27.418644,2.6287193,4.1191797
-27.44928,2.626038,4.108329
-27.478966,2.6222124,4.0964365
-27.517939,2.6301966,4.0964775
-27.581787,2.6704695,4.129108
-27.613543,2.6701012,4.121114
-27.640114,2.6629963,4.1064296
-27.67797,2.6708896,4.106993
-27.707392,2.6676884,4.096453
-27.74642,2.677682,4.0994134
-27.79158,2.6965652,4.1115723
-27.821722,2.6949272,4.1029825
-27.848797,2.6889784,4.090085
-27.883352,2.6937935,4.088292
-27.920824,2.7031271,4.091259
-27.960676,2.7163706,4.098387
-27.997782,2.7259552,4.101898
-28.028091,2.7255263,4.0952115
-28.058395,2.725184,4.0887117
-28.089907,2.7268343,4.084375
-28.127747,2.7387614,4.090807
-28.156734,2.7367868,4.0829277
-28.194656,2.749579,4.090515
-28.230059,2.7586586,4.094372
-28.259647,2.7582433,4.088433
-28.286633,2.7534204,4.0779753
-28.315884,2.752521,4.0717077
-28.350546,2.761353,4.075747
-28.383984,2.7683601,4.077987
-28.423937,2.7877288,4.0933566
-28.45357,2.788496,4.089265
-28.481823,2.786759,4.0826197
-28.510763,2.7863934,4.0775094
-28.54232,2.791297,4.078068
-28.576042,2.80084,4.0836473
-28.614977,2.8215418,4.101188
-28.640165,2.8143754,4.0892487
-28.666994,2.8105297,4.0809107
-28.694479,2.808059,4.074115
-28.722586,2.806967,4.068868
-28.752148,2.8092217,4.0672803
-28.785063,2.8194182,4.074277
-28.822798,2.841516,4.0941267
-28.853065,2.8466733,4.095952
-28.880836,2.8460026,4.0916204
-28.908089,2.844091,4.0860367
-28.936386,2.844884,4.083439
-28.961666,2.8378456,4.072495
-28.991207,2.8420827,4.0737667
-29.025913,2.8609302,4.090885
-29.05796,2.8732772,4.1011057
-29.085018,2.871828,4.0965242
-29.111872,2.8697877,4.0913806
-29.137892,2.865166,4.083519
-29.164612,2.8625994,4.077954
-29.193209,2.866075,4.079013
-29.224718,2.8795924,4.091052
-29.253094,2.8832316,4.0924664
-29.282337,2.8902745,4.097663
-29.310726,2.8947358,4.1001396
-29.336222,2.8886163,4.0911884
-29.361307,2.88056,4.0801973
-29.387838,2.8779001,4.07515
-29.41647,2.8839855,4.079709
-29.44514,2.890817,4.085166
-29.475159,2.9044094,4.098087
-29.503666,2.91207,4.1046224
-29.52879,2.9037533,4.0937862
-29.55431,2.8968365,4.0845466
-29.58007,2.8906527,4.0761747
-29.607113,2.8912315,4.0752726
-29.6347,2.8952332,4.078191
-29.66094,2.8912609,4.0724573
-29.68925,2.9007711,4.081564
-29.71645,2.9036474,4.0834837
-29.742971,2.901896,4.080405
-29.769522,2.9002128,4.0774755
-29.795172,2.8905377,4.065851
-29.821486,2.8856287,4.0595255
-29.84906,2.8928833,4.066621
-29.876507,2.9002113,4.0738735
-29.9035,2.9035769,4.0768538
-29.930145,2.902978,4.0755544
-29.956799,2.9024472,4.0744042
-29.982988,2.8932395,4.063794
-30.009579,2.88948,4.0592422
-30.036331,2.888481,4.0577946
-30.063044,2.885532,4.0542784
-30.090038,2.8947642,4.0642223
-30.116898,2.9067588,4.077276
-30.143528,2.9067078,4.0771666
-30.170221,2.8979764,4.067589
-30.196947,2.8967164,4.0662966
-30.223713,2.8948526,4.064414
-30.250778,2.884983,4.053808
-30.277676,2.8832579,4.052227
-30.303825,2.8970757,4.067795
-30.330608,2.8961596,4.0672483
-30.357592,2.8926232,4.063897
-30.385359,2.8797421,4.050361
-30.412777,2.8736587,4.0443673
-30.440113,2.8696637,4.040742
-30.46683,2.87246,4.0446453
-30.49335,2.8766673,4.05017
-30.519152,2.8863149,4.0617332
-30.545567,2.8899834,4.0668087
-30.572752,2.8876781,4.065409
-30.600668,2.8807483,4.0590186
-30.629328,2.86987,4.0483847
-30.657522,2.863092,4.042324
-30.683872,2.867781,4.0488925
-30.710022,2.8732061,4.0563374
-30.735573,2.8813741,4.0668507
-30.765106,2.8688622,4.0548344
-30.79403,2.860446,4.04738
-30.821077,2.8614671,4.0503135
-30.850065,2.8538742,4.0439253
-30.879345,2.845693,4.0369816
-30.906828,2.8456006,4.038939
-30.93281,2.851581,4.0475874
-30.955744,2.8689535,4.068704
-30.985727,2.859072,4.060233
-31.016811,2.8459492,4.0483303
-31.04622,2.8395672,4.0438466
-31.074764,2.8365893,4.043147
-31.100939,2.8416564,4.051255
-31.127447,2.8454618,4.0580664
-31.154963,2.8460193,4.061434
-31.185106,2.8387017,4.056361
-31.216057,2.8294845,4.0493307
-31.245325,2.8256474,4.0482063
-31.27514,2.8205705,4.0458326
-31.303114,2.8208563,4.0493317
-31.328117,2.8291292,4.061512
-31.358303,2.8236284,4.05894
-31.385744,2.825452,4.0643325
-31.417658,2.816173,4.057886
-31.450275,2.8056755,4.0502367
-31.481703,2.7985566,4.0463142
-31.51129,2.7961164,4.0475
-31.540352,2.7950678,4.050264
-31.567392,2.7986755,4.0580864
-31.597658,2.7951698,4.058399
-31.626474,2.795011,4.062374
-31.665503,2.7734334,4.043653
-31.700499,2.7610967,4.0348945
-31.73027,2.7599177,4.0380945
-31.760073,2.7588215,4.0414753
-31.788576,2.760402,4.047779
-31.818409,2.7594695,4.051513
-31.854424,2.7469845,4.0431533
-31.890657,2.7346158,4.0350447
-31.92005,2.7352557,4.04075
-31.951233,2.7327585,4.043251
-31.981377,2.7322803,4.0479703
-32.012646,2.7299612,4.0508575
-32.04696,2.7226055,4.0485806
-32.088245,2.703838,4.034514
-32.124847,2.6935194,4.029412
-32.156944,2.6909742,4.0325284
-32.186714,2.6923451,4.0398183
-32.218483,2.6906195,4.043992
-32.252728,2.6851778,4.044426
-32.291603,2.6728692,4.0378876
-32.32944,2.662589,4.0335875
-32.369576,2.6492748,4.0263066
-32.39839,2.6531227,4.036808
-32.429752,2.65327,4.0436044
-32.464626,2.6484818,4.045455
-32.50801,2.6318846,4.0353756
-32.550785,2.616693,4.0269027
-32.584293,2.6147742,4.0320964
-32.617844,2.6129568,4.0375104
-32.656075,2.6050148,4.0368414
-32.693974,2.597821,4.037074
-32.73058,2.5926104,4.0394483
-32.7807,2.570188,4.024653
-32.81473,2.5689542,4.031333
-32.849285,2.5672076,4.0376196
-32.88981,2.558185,4.036767
-32.936478,2.5419335,4.0288734
-32.9809,2.5289135,4.0243907
-33.01587,2.5276656,4.031759
-33.061153,2.5143263,4.0273023
-33.0968,2.5127137,4.0346
-33.14663,2.494814,4.026012
-33.19887,2.474676,4.0154505
-33.233303,2.4752917,4.02542
-33.270424,2.472996,4.0326757
-33.311943,2.4660048,4.035507
-33.366188,2.4453454,4.0252523
-33.41524,2.4308834,4.021241
-33.45617,2.4255657,4.026262
-33.498318,2.4191942,4.030437
-33.540577,2.4129672,4.0349245
-33.612103,2.3766298,4.010826
-33.661728,2.3636677,4.009347
-33.705753,2.356791,4.013865
-33.75224,2.347713,4.016489
-33.808914,2.3288176,4.01006
-33.848637,2.327127,4.020067
-33.915974,2.2986944,4.005193
-33.96322,2.2903466,4.0094004
-34.002693,2.2897224,4.0209994
-34.042183,2.289228,4.0328794
-34.08354,2.2871299,4.043442
-34.159767,2.252894,4.02462
-34.231514,2.2235768,4.010705
-34.286686,2.21003,4.0115566
-34.349693,2.1898355,4.0066276
-34.41109,2.1716008,4.003791
-34.475994,2.1507673,3.9989147
-34.52631,2.1432245,4.0063076
-34.574787,2.137561,4.015614
-34.63583,2.1213713,4.015772
-34.721573,2.0846443,3.998026
-34.77328,2.077396,4.006776
-34.821087,2.073687,4.0188828
-34.88242,2.059022,4.0216246
-21.361977,1.0015495,4.189797
-21.470646,1.0232387,4.170192
-21.593071,1.0534413,4.1569967
-21.724176,1.0894163,4.1485176
-21.867931,1.1336148,4.146528
-22.01197,1.1789505,4.146295
-22.210577,1.2576599,4.17022
-22.26772,1.2532399,4.1372447
-22.375618,1.2796047,4.12636
-22.492012,1.3118052,4.1203303
-22.634342,1.360673,4.127046
-22.750626,1.3944678,4.1237645
-22.934542,1.4712167,4.152654
-22.994522,1.47154,4.1264195
-23.154179,1.5352743,4.147648
-23.214546,1.5368147,4.1233425
-23.379938,1.6062899,4.1506395
-23.432865,1.6040349,4.124485
-23.582232,1.6651597,4.147144
-23.637886,1.6655731,4.123939
-23.743221,1.6993082,4.1269083
-23.814632,1.7110081,4.1132884
-23.926018,1.7502046,4.1217194
-24.030083,1.7852597,4.1275496
-24.081177,1.7845688,4.105496
-24.225567,1.848956,4.1359367
-24.270294,1.8447101,4.1118455
-24.369024,1.8787944,4.1191144
-24.456247,1.9054376,4.120884
-24.53505,1.9266601,4.118696
-24.663754,1.9846853,4.1473937
-24.709112,1.9828238,4.127055
-24.77034,1.9928324,4.1168575
-24.867945,2.0303242,4.1300974
-24.903042,2.0216112,4.1048255
-24.976515,2.0420468,4.104478
-25.080677,2.08653,4.1250777
-25.121151,2.0827432,4.1048183
-25.194408,2.1046243,4.1068935
-25.277723,2.1349819,4.116717
-25.324793,2.137261,4.1025195
-25.395773,2.1589086,4.1055055
-25.469826,2.183598,4.111545
-25.5408,2.2063868,4.1162987
-25.585896,2.2084227,4.102991
-25.648315,2.2250607,4.102915
-25.731707,2.2597778,4.1193533
-25.775011,2.2613144,4.106382
-25.813046,2.2585168,4.089683
-25.897966,2.2963266,4.1099925
-25.948042,2.3046098,4.103851
-25.98835,2.3045936,4.0903487
-26.037579,2.3126545,4.0844336
-26.134811,2.3641307,4.1187797
-26.171486,2.361835,4.1038785
-26.213182,2.3642335,4.0934844
-26.277159,2.3874278,4.102661
-26.337685,2.4080017,4.1097007
-26.377098,2.4092014,4.0988336
-26.434683,2.427885,4.1046095
-26.488955,2.443893,4.108129
-26.5585,2.4752276,4.1264486
-26.58959,2.469532,4.109847
-26.640175,2.483217,4.1118727
-26.689949,2.4965038,4.1137457
-26.747028,2.5176141,4.123366
-26.78653,2.521275,4.1164174
-26.831087,2.5303826,4.114899
-26.872662,2.5366888,4.1108513
-26.931494,2.561535,4.125026
-26.972137,2.567576,4.121112
-27.006063,2.5665998,4.1104903
-27.045452,2.5717053,4.1059647
-27.086912,2.5793386,4.1040864
-27.144325,2.6051292,4.12031
-27.18749,2.6154964,4.1215215
-27.22205,2.616363,4.113477
-27.263885,2.6258016,4.114093
-27.302456,2.6317494,4.111395
-27.35371,2.6530056,4.1241674
-27.398018,2.666545,4.129422
-27.42854,2.663776,4.118457
-27.450645,2.6507058,4.0972075
-27.496565,2.6670744,4.1057615
-27.53636,2.6762457,4.107215
-27.5837,2.6953883,4.1189494
-27.61641,2.6962216,4.112249
-27.649565,2.6977706,4.106393
-27.684082,2.7012763,4.1026516
-27.723602,2.711707,4.1061296
-27.75655,2.7135777,4.100971
-27.80795,2.7410543,4.122267
-27.833462,2.7332003,4.1073647
-27.86438,2.732901,4.1003366
-27.897034,2.7351937,4.0960917
-27.928776,2.7363307,4.090761
-27.968563,2.7494888,4.0980234
-28.011475,2.7678118,4.110815
-28.043705,2.7705383,4.1075125
-28.071375,2.766422,4.0971694
-28.108393,2.7769141,4.1021976
-28.134857,2.771069,4.090234
-28.166521,2.7735333,4.08707
-28.213264,2.8008566,4.1101613
-28.241932,2.799094,4.102795
-28.267601,2.792314,4.0902214
-28.295605,2.789425,4.081831
-28.320713,2.7814994,4.0681915
-28.355692,2.7909095,4.072999
-28.391567,2.802352,4.0800877
-28.43564,2.8293095,4.1038027
-28.466146,2.832006,4.101852
-28.491505,2.8251395,4.0898
-28.513968,2.8125358,4.0716877
-28.544512,2.8154626,4.070237
-28.580482,2.829459,4.080735
-28.616522,2.8442178,4.0921774
-28.647934,2.8500252,4.094138
-28.676174,2.8494415,4.089328
-28.699606,2.8385477,4.073505
-28.727934,2.8381042,4.069
-28.760023,2.8461971,4.0737867
-28.792532,2.8556883,4.0801897
-28.826258,2.8685384,4.0903287
-28.861391,2.8854098,4.1049356
-28.888212,2.8827863,4.0985374
-28.914286,2.8782692,4.090162
-28.941196,2.8757825,4.0840616
-28.972143,2.8838549,4.089514
-28.999275,2.8821747,4.0844526
-29.034306,2.90224,4.1031485
-29.063854,2.9079537,4.106322
-29.090569,2.9058542,4.101062
-29.11731,2.9038246,4.095952
-29.143646,2.9005456,4.0895514
-29.16919,2.8946953,4.080411
-29.200148,2.906074,4.090196
-29.225136,2.8983808,4.0791874
-29.26029,2.9251337,4.1060023
-29.288605,2.9294987,4.1083794
-29.312294,2.9173856,4.0927477
-29.338474,2.9139419,4.0866985
-29.364878,2.9112272,4.081523
-29.392801,2.9145525,4.0830603
-29.419394,2.9126406,4.078915
-29.44861,2.9220915,4.0873566
-29.477804,2.9322886,4.0967064
-29.503426,2.9266043,4.0886354
-29.529818,2.9243116,4.0843725
-29.557281,2.9274123,4.086134
-29.58382,2.9259233,4.082906
-29.610027,2.922503,4.077616
-29.636961,2.92315,4.0768924
-29.664944,2.930537,4.0836935
-29.693193,2.9406688,4.093611
-29.71975,2.9401963,4.0918784
-29.745153,2.9311113,4.0806856
-29.771212,2.926097,4.0740666
-29.79743,2.9218166,4.068331
-29.824148,2.9216137,4.0671816
-29.851393,2.9268274,4.072106
-29.877647,2.922082,4.0660706
-29.905758,2.9394763,4.0846453
-29.932268,2.9388828,4.083359
-29.958153,2.92832,4.071089
-29.984585,2.924515,4.066384
-30.01096,2.9181004,4.0588555
-30.037985,2.9264796,4.067808
-30.064655,2.9275644,4.0687428
-30.091345,2.930727,4.0720553
-30.117992,2.935297,4.0770016
-30.144539,2.9285536,4.0694695
-30.171215,2.9205399,4.0606003
-30.197996,2.9146028,4.0541086
-30.224636,2.9187777,4.058906
-30.251402,2.9169955,4.057169
-30.27792,2.9219756,4.0630045
-30.304043,2.9330473,4.0756674
-30.33069,2.9321384,4.075116
-30.35827,2.9179175,4.0598764
-30.385841,2.9071152,4.048506
-30.412455,2.9097621,4.052119
-30.43997,2.9024477,4.0447645
-30.466442,2.9065695,4.0501575
-30.493067,2.9087539,4.053475
-30.51917,2.9150143,4.0613785
-30.54482,2.9240117,4.072381
-30.571611,2.9237256,4.0731783
-30.60008,2.9121625,4.061576
-30.628235,2.9040134,4.05383
-30.655983,2.8992753,4.0499363
-30.683237,2.897944,4.049885
-30.709425,2.9026794,4.056609
-30.735533,2.9074812,4.0634756
-30.762093,2.909686,4.067548
-30.790844,2.9013143,4.0600295
-30.819454,2.894352,4.0541477
-30.846533,2.894778,4.056489
-30.874392,2.8919532,4.055327
-30.901329,2.8931856,4.058707
-30.930435,2.8858647,4.052758
-30.956892,2.8892307,4.0586386
-30.984015,2.8900137,4.0617533
-31.013536,2.8822627,4.05558
-31.044344,2.8706257,4.0452356
-31.072016,2.870315,4.0473967
-31.100508,2.8674355,4.0468235
-31.128014,2.8679323,4.0500298
-31.15552,2.8685021,4.0533915
-31.181263,2.8744159,4.0626674
-31.214346,2.8586698,4.048374
-31.24355,2.8548627,4.047209
-31.273773,2.8485088,4.0433564
-31.299751,2.8540568,4.0525513
-31.325144,2.860981,4.0633106
-31.352455,2.8627255,4.068509
-31.382336,2.8579955,4.066761
-31.412834,2.8520434,4.06378
-31.446148,2.839648,4.053916
-31.4772,2.8332272,4.050627
-31.508085,2.827548,4.048238
-31.537928,2.8245635,4.048855
-31.563437,2.831416,4.0601683
-31.593016,2.8292372,4.061824
-31.629633,2.8122215,4.047614
-31.660358,2.8082838,4.047582
-31.69368,2.7992573,4.0421886
-31.72396,2.7967963,4.0439405
-31.751028,2.8008761,4.052786
-31.775383,2.810182,4.067292
-31.807007,2.8053813,4.0668077
-31.842148,2.7942443,4.0596733
-31.882011,2.7748737,4.0439005
-31.91762,2.7639732,4.037279
-31.953781,2.7525463,4.030224
-31.980307,2.7584949,4.041704
-32.00563,2.7664251,4.0553546
-32.037212,2.7635803,4.0576925
-32.079506,2.7430096,4.0414453
-32.118687,2.7283058,4.0315394
-32.153034,2.721981,4.030584
-32.181156,2.7258968,4.0404925
-32.206406,2.7343135,4.055197
-32.240486,2.7289004,4.0555115
-32.283745,2.7097273,4.041585
-32.321907,2.6988869,4.0365105
-32.363216,2.6837752,4.0271378
-32.39537,2.682601,4.0323896
-32.41975,2.6927874,4.049514
-32.454502,2.6880345,4.051257
-32.499554,2.6690454,4.0384393
-32.539093,2.6583107,4.034304
-32.574734,2.6533008,4.036201
-32.606335,2.653986,4.044066
-32.638863,2.6535244,4.050863
-32.680336,2.6414218,4.0458875
-32.73009,2.6189802,4.030546
-32.770626,2.609032,4.0281143
-32.80746,2.604134,4.030963
-32.838017,2.6073217,4.0421267
-32.874966,2.6026444,4.045455
-32.929005,2.5773358,4.0281496
-32.96882,2.5698967,4.0290327
-33.012848,2.5577288,4.0253334
-33.04679,2.557845,4.0340905
-33.090096,2.547173,4.0322165
-33.13831,2.5312185,4.02527
-33.183617,2.5190554,4.02229
-33.22592,2.51066,4.0232263
-33.252735,2.5197997,4.0416245
-33.30444,2.5014863,4.0331078
-33.355354,2.4845614,4.026182
-33.40544,2.469018,4.020835
-33.445736,2.4643526,4.026314
-33.482174,2.4639695,4.0361166
-33.532257,2.4495165,4.032424
-33.594036,2.4234562,4.017742
-33.63661,2.4176393,4.0228515
-33.69325,2.3978891,4.014763
-33.739067,2.3894758,4.017787
-33.799217,2.367219,4.0078077
-33.83768,2.3667374,4.018813
-33.892372,2.3507051,4.0152416
-33.94974,2.3325648,4.0099354
-33.986683,2.3342817,4.0235806
-34.026676,2.3332357,4.0347805
-34.073498,2.3260052,4.040369
-34.14037,2.3006158,4.029268
-34.21517,2.2686439,4.0124025
-34.272156,2.2535,4.0114655
-34.344006,2.2255151,3.99899
-34.39388,2.2176442,4.005317
-34.45613,2.1992292,4.0022492
-34.514774,2.1844385,4.002787
-34.566463,2.1760483,4.009406
-34.6242,2.1628146,4.011902
-34.698692,2.1358576,4.002363
-34.75961,2.120889,4.003933
-34.801983,2.1216836,4.0198326
-34.859867,2.1099083,4.024783
-21.402702,1.0790343,4.1803923
-21.482414,1.0840986,4.1502795
-21.643684,1.1358523,4.1524444
-21.782166,1.1756537,4.1475
-21.909538,1.2099445,4.1396627
-22.104961,1.2846763,4.161002
-22.212574,1.3093264,4.1482806
-22.311808,1.3296633,4.133172
-22.418056,1.3547592,4.122114
-22.587393,1.4184723,4.1397624
-22.72394,1.4635775,4.144924
-22.816128,1.4825201,4.131669
-22.977053,1.5444071,4.150929
-23.028221,1.5392716,4.12099
-23.181675,1.5984278,4.1399007
-23.280329,1.6241307,4.1343374
-23.40047,1.6641831,4.1403856
-23.478954,1.6783216,4.127161
-23.610556,1.7273657,4.141559
-23.67228,1.7317288,4.1217656
-23.808975,1.7858316,4.141562
-23.87482,1.7939119,4.1256485
-23.978483,1.8277049,4.1306624
-24.028086,1.8256785,4.107463
-24.12655,1.8571686,4.111662
-24.24775,1.9050474,4.129803
-24.299088,1.9054186,4.109713
-24.41408,1.9505808,4.126839
-24.456991,1.9457676,4.1031694
-24.586432,2.0027452,4.1312876
-24.672043,2.0293794,4.134709
-24.73334,2.039016,4.12426
-24.81541,2.0642056,4.1273355
-24.88707,2.0823255,4.124833
-24.944904,2.0906372,4.114297
-25.014677,2.1082423,4.112072
-25.089832,2.1304154,4.114178
-25.157639,2.147529,4.11228
-25.227976,2.1670737,4.1128664
-25.30218,2.1901507,4.116933
-25.347069,2.1907492,4.1015143
-25.411139,2.206746,4.099981
-25.50971,2.2508469,4.1238604
-25.552074,2.250462,4.1083994
-25.587036,2.2441778,4.087809
-25.695662,2.2986379,4.1223087
-25.732328,2.2944152,4.1041
-25.790186,2.3080587,4.102339
-25.853075,2.3263776,4.105144
-25.91502,2.3443894,4.107978
-25.958546,2.3469753,4.0968685
-26.011673,2.3581333,4.0938973
-26.082504,2.385256,4.10604
-26.149097,2.4092827,4.1156483
-26.183167,2.4046993,4.098746
-26.229187,2.4110098,4.09223
-26.298084,2.4385567,4.1059866
-26.360987,2.4612453,4.1154795
-26.395355,2.4578426,4.1004415
-26.454077,2.4775155,4.1075726
-26.513077,2.4979937,4.1157565
-26.574135,2.521013,4.126663
-26.606895,2.5170686,4.1118417
-26.65562,2.5288925,4.112405
-26.708239,2.544969,4.1173124
-26.765808,2.566496,4.127768
-26.794247,2.559004,4.1101313
-26.841057,2.5703511,4.111053
-26.888802,2.5830436,4.1134987
-26.93184,2.5911975,4.1116753
-26.990875,2.6166317,4.1271214
-27.018032,2.6085482,4.109595
-27.060076,2.6165602,4.108161
-27.104685,2.6276917,4.1100087
-27.158772,2.6497169,4.1229377
-27.199175,2.6570067,4.121331
-27.22784,2.6512556,4.1067724
-27.267038,2.65759,4.104488
-27.307154,2.6652598,4.1037045
-27.373795,2.7044244,4.1349907
-27.40372,2.700951,4.1232805
-27.434698,2.6987739,4.1129866
-27.471172,2.7033625,4.109703
-27.50953,2.7105024,4.109164
-27.560436,2.7336166,4.125152
-27.593569,2.7349355,4.1189575
-27.625233,2.7345207,4.111092
-27.654999,2.7317457,4.100898
-27.690407,2.7364283,4.0985126
-27.731272,2.7486098,4.10403
-27.779234,2.7708,4.1201043
-27.812346,2.7733936,4.1159754
-27.842276,2.7717538,4.107546
-27.87001,2.7670984,4.096059
-27.902174,2.7687306,4.091239
-27.93947,2.7779284,4.0944653
-27.980858,2.7934837,4.1045117
-28.023232,2.8110566,4.1168427
-28.048681,2.8037481,4.1030865
-28.074242,2.7965026,4.089466
-28.114079,2.811294,4.099248
-28.13248,2.7928896,4.073971
-28.174042,2.8110461,4.0875673
-28.217613,2.8331323,4.105504
-28.246996,2.832624,4.0995264
-28.272972,2.8265014,4.0876465
-28.300903,2.8236141,4.079295
-28.332176,2.8265142,4.0772257
-28.364473,2.8314133,4.0774
-28.399881,2.8421392,4.08394
-28.438602,2.8593535,4.0975823
-28.467,2.858182,4.0915604
-28.493706,2.8538914,4.0822573
-28.521145,2.8509493,4.074486
-28.556517,2.8634655,4.083514
-28.586487,2.8658237,4.081663
-28.625624,2.886907,4.10021
-28.658451,2.895894,4.105767
-28.683752,2.8895178,4.0947275
-28.707043,2.8786879,4.0789075
-28.73672,2.8814726,4.077981
-28.769527,2.8914542,4.084996
-28.798456,2.8931198,4.0830355
-28.833479,2.9091234,4.09684
-28.865482,2.9187503,4.1037827
-28.892494,2.9167821,4.0981216
-28.918219,2.9116344,4.0890503
-28.945051,2.909154,4.082976
-28.973671,2.9113033,4.0820646
-29.003714,2.9174442,4.0856276
-29.039385,2.9393373,4.1066284
-29.066723,2.9391308,4.103395
-29.094511,2.9403048,4.101761
-29.120272,2.9356623,4.093786
-29.14697,2.9337053,4.0888453
-29.174118,2.9331284,4.0855055
-29.20291,2.937873,4.088131
-29.232605,2.94598,4.094565
-29.264088,2.960744,4.108467
-29.290796,2.9598167,4.105062
-29.31606,2.9536932,4.0959654
-29.34107,2.9463148,4.08554
-29.36825,2.9469066,4.0840364
-29.395906,2.9495482,4.084889
-29.42224,2.9469845,4.0800266
-29.453512,2.9656181,4.0988364
-29.480473,2.966505,4.097973
-29.50727,2.966802,4.096527
-29.532837,2.9612153,4.0885935
-29.558886,2.9576776,4.083013
-29.585613,2.957517,4.0812716
-29.612337,2.9574254,4.0796804
-29.638496,2.9540892,4.074537
-29.668121,2.972036,4.0932493
-29.694906,2.9734845,4.093604
-29.721663,2.975003,4.0941105
-29.747585,2.9706173,4.0880837
-29.772583,2.9583297,4.073283
-29.79911,2.9573936,4.071254
-29.825935,2.9591837,4.0723486
-29.852793,2.961708,4.074339
-29.880322,2.9722779,4.0854163
-29.907175,2.9769378,4.0899477
-29.933077,2.969698,4.081215
-29.958723,2.9565377,4.065914
-29.98511,2.952754,4.061194
-30.011776,2.953695,4.0618415
-30.03862,2.960028,4.0686064
-30.0652,2.9611063,4.0695524
-30.091944,2.97157,4.0810947
-30.11838,2.970789,4.0800986
-30.14483,2.9714077,4.080743
-30.171438,2.948136,4.0546637
-30.198076,2.9488907,4.0556035
-30.22475,2.9477174,4.0544524
-30.251467,2.9459481,4.0527053
-30.277851,2.9528964,4.0608053
-30.303772,2.9665637,4.0765095
-30.329931,2.972314,4.0834045
-30.35672,2.96749,4.0785174
-30.38473,2.9481082,4.057389
-30.411648,2.9454217,4.055047
-30.438232,2.946793,4.0573235
-30.46452,2.95089,4.0627246
-30.492836,2.9364543,4.0474443
-30.516315,2.9639325,4.0791616
-30.542608,2.9662356,4.0827627
-30.570898,2.9540062,4.070177
-30.599602,2.9405274,4.056276
-30.626879,2.937739,4.054408
-30.654758,2.9317074,4.048992
-30.68124,2.9343638,4.053359
-30.708652,2.93179,4.051958
-30.734327,2.9385552,4.061054
-30.760689,2.9414144,4.065859
-30.789646,2.9317765,4.0568037
-30.817764,2.926846,4.0530787
-30.84552,2.9239736,4.0517254
-30.872547,2.9244752,4.054206
-30.899733,2.924387,4.0561056
-30.924742,2.9329405,4.067686
-30.951517,2.934307,4.071345
-30.98025,2.9285002,4.067113
-31.011312,2.9148784,4.0542936
-31.039564,2.9118671,4.0533366
-31.068855,2.9056475,4.048907
-31.097858,2.900823,4.0461073
-31.124868,2.9026372,4.0507374
-31.148426,2.915007,4.0671096
-31.176392,2.9136786,4.068408
-31.206642,2.9058833,4.0626507
-31.238422,2.8942537,4.052758
-31.266148,2.894473,4.05602
-31.29509,2.891504,4.055851
-31.32161,2.8951328,4.0630226
-31.349342,2.8955736,4.066765
-31.376036,2.8986897,4.073521
-31.405071,2.896027,4.0740156
-31.442287,2.873972,4.05336
-31.474363,2.865008,4.047158
-31.503782,2.862617,4.0482416
-31.528934,2.8700123,4.0600967
-31.559248,2.8658361,4.0593996
-31.586655,2.868201,4.0659204
-31.613419,2.8719275,4.0739994
-31.64943,2.8564062,4.061243
-31.682877,2.8467898,4.0550184
-31.718103,2.8340652,4.0455384
-31.74866,2.831074,4.0467143
-31.773632,2.8390603,4.059851
-31.801851,2.8407087,4.0662117
-31.835201,2.83285,4.062406
-31.870089,2.8225422,4.0560765
-31.906578,2.8097978,4.047249
-31.939703,2.8035321,4.0455046
-31.968931,2.8043551,4.051467
-31.994823,2.810967,4.0637136
-32.031883,2.7986436,4.0558
-32.072216,2.7813833,4.042754
-32.107826,2.7724686,4.0387483
-32.142815,2.7649279,4.0363283
-32.175957,2.7606444,4.037489
-32.203953,2.7646294,4.047521
-32.23597,2.7624154,4.0510793
-32.277122,2.7465205,4.0402966
-32.31228,2.7401443,4.0397053
-32.349678,2.7307587,4.036072
-32.38338,2.7271025,4.038592
-32.412384,2.7303896,4.048505
-32.444416,2.7294104,4.054044
-32.48448,2.7173743,4.048144
-32.53016,2.6980524,4.034808
-32.569347,2.6881552,4.031458
-32.597668,2.6931753,4.0437365
-32.62499,2.6995008,4.0574512
-32.663975,2.6905537,4.0554633
-32.712154,2.6700997,4.041762
-32.76021,2.650435,4.029074
-32.800343,2.6413178,4.0274158
-32.8269,2.6493819,4.0435066
-32.857304,2.6526513,4.0547748
-32.914204,2.623877,4.0334806
-32.953888,2.6164982,4.034197
-33.00188,2.599594,4.025407
-33.03675,2.5985265,4.0328426
-33.069054,2.6005716,4.0435452
-33.12918,2.5709324,4.022465
-33.167534,2.566659,4.027128
-33.20971,2.558333,4.027882
-33.246094,2.556703,4.035492
-33.284153,2.5534072,4.041579
-33.33382,2.5377884,4.035574
-33.385418,2.5205803,4.028214
-33.43171,2.5094652,4.027098
-33.462963,2.5144038,4.041985
-33.51235,2.500649,4.038629
-33.574585,2.4741955,4.023064
-33.62627,2.4590874,4.0188627
-33.68287,2.4395132,4.0105505
-33.729805,2.4300356,4.012289
-33.77098,2.4265223,4.0199943
-33.82953,2.4063873,4.011859
-33.869766,2.4043503,4.021373
-33.94458,2.3696797,3.9998302
-33.979664,2.3731608,4.01504
-34.011013,2.3801801,4.033741
-34.05465,2.3758845,4.0418406
-34.11084,2.3603692,4.0395427
-34.188644,2.3257947,4.0196023
-34.254974,2.3022895,4.0104284
-34.315304,2.28469,4.0070934
-34.370144,2.2723863,4.008974
-34.434223,2.2524457,4.0040464
-34.50057,2.231085,3.9981303
-34.540417,2.2328324,4.0137577
-34.621082,2.2002769,3.9981952
-34.66513,2.199069,4.0115957
-34.75857,2.1571674,3.9883056
-34.781494,2.1740005,4.0185337
-34.83592,2.165096,4.0256934
-21.336994,1.1430428,4.18441
-21.455854,1.1690903,4.16858
-21.576908,1.1970532,4.1548557
-21.719107,1.2376039,4.1506886
-21.836962,1.2653093,4.138453
-21.983171,1.3099039,4.1389623
-22.190876,1.3908608,4.1664677
-22.251148,1.3878987,4.134807
-22.408709,1.4420235,4.145065
-22.500206,1.4583344,4.1285877
-22.594723,1.4769495,4.114378
-22.762672,1.5401323,4.1340423
-22.94175,1.61133,4.160854
-22.972965,1.5938122,4.1215086
-23.15153,1.6667998,4.1515174
-23.206263,1.664474,4.124646
-23.341022,1.712352,4.137048
-23.411112,1.7204859,4.1192126
-23.5565,1.7768404,4.1397624
-23.605928,1.7728348,4.113342
-23.748634,1.8292865,4.1354656
-23.815403,1.8373808,4.1195908
-23.89428,1.8537766,4.1108017
-24.026869,1.9062912,4.1318927
-24.072515,1.9017255,4.1069865
-24.222076,1.9674175,4.1402774
-24.250881,1.9522207,4.1073284
-24.36113,1.9928849,4.1211424
-24.448545,2.0186284,4.1230717
-24.526737,2.03856,4.120583
-24.641335,2.084694,4.1408005
-24.680779,2.078365,4.116846
-24.759535,2.1003132,4.1173673
-24.850248,2.1314857,4.126291
-24.906004,2.1378517,4.1141734
-24.969522,2.150226,4.1075783
-25.057728,2.1813557,4.1177735
-25.100937,2.1794455,4.099307
-25.170874,2.1979115,4.0990987
-25.252407,2.2257423,4.1075993
-25.306416,2.2330196,4.0981383
-25.374123,2.2512543,4.098794
-25.466263,2.2891834,4.117593
-25.513454,2.2923362,4.1053286
-25.565336,2.2994597,4.096899
-25.627213,2.3149471,4.0963717
-25.712963,2.35035,4.1144686
-25.747557,2.344464,4.094886
-25.807371,2.359578,4.094913
-25.87614,2.3826475,4.1026397
-25.934748,2.3977003,4.1032157
-25.97689,2.3991103,4.091267
-26.029312,2.40957,4.0880246
-26.116753,2.4509268,4.1142545
-26.161585,2.455713,4.106214
-26.195599,2.451113,4.0894194
-26.254118,2.4685767,4.0938597
-26.316702,2.490222,4.1025906
-26.358541,2.4934301,4.093858
-26.41381,2.5092745,4.097516
-26.469421,2.5259018,4.102188
-26.530796,2.5484529,4.112883
-26.576204,2.5563629,4.1095695
-26.622662,2.5655832,4.1077332
-26.67132,2.577274,4.1085243
-26.720947,2.5902994,4.1108437
-26.779648,2.6127653,4.12272
-26.807995,2.6052995,4.1051683
-26.850172,2.6118665,4.1016703
-26.901299,2.6279078,4.1078014
-26.958332,2.6505704,4.1207848
-26.989899,2.6470902,4.107783
-27.027586,2.6501632,4.101485
-27.071234,2.6598368,4.101994
-27.117424,2.6726146,4.1058245
-27.167694,2.690292,4.1148205
-27.200058,2.6885917,4.1043124
-27.236666,2.6917427,4.098866
-27.271633,2.6932244,4.091848
-27.32886,2.7204866,4.111392
-27.369184,2.7288265,4.1117396
-27.41444,2.7433007,4.1185646
-27.44232,2.7375069,4.104639
-27.483244,2.7474446,4.107086
-27.520533,2.7532992,4.1054554
-27.5665,2.7701604,4.1154103
-27.598152,2.7696152,4.1074076
-27.631233,2.7709858,4.101511
-27.660963,2.768198,4.0913734
-27.695875,2.7722,4.0884547
-27.737188,2.7848642,4.0947666
-27.78102,2.801343,4.105257
-27.817766,2.8087797,4.1063747
-27.843187,2.8009775,4.091504
-27.874475,2.8012385,4.085248
-27.90662,2.802825,4.080503
-27.94995,2.8205686,4.093053
-27.994242,2.8403215,4.1079135
-28.025967,2.8422556,4.10392
-28.055151,2.840557,4.0961456
-28.076136,2.826499,4.0752153
-28.114372,2.8386514,4.0824637
-28.139185,2.8303337,4.0678406
-28.193335,2.868338,4.1031733
-28.224627,2.8708577,4.1004515
-28.25164,2.8665714,4.0904756
-28.277578,2.8604708,4.078612
-28.305847,2.85821,4.070983
-28.337084,2.8610663,4.068989
-28.367895,2.863383,4.0665083
-28.414354,2.8935935,4.094494
-28.44271,2.8923318,4.088347
-28.470041,2.889246,4.0802927
-28.498093,2.8875017,4.073781
-28.5275,2.888375,4.070218
-28.560175,2.8956938,4.0738077
-28.591093,2.8999257,4.074116
-28.630518,2.921474,4.093552
-28.661427,2.9265468,4.0950003
-28.6864,2.9195576,4.0832577
-28.71118,2.9119883,4.070937
-28.7423,2.917942,4.073615
-28.77214,2.92142,4.0736523
-28.802197,2.9256253,4.074585
-28.837194,2.9414968,4.0885334
-28.867527,2.947175,4.0912933
-28.89507,2.9464922,4.0870852
-28.921566,2.9433012,4.0801663
-28.94965,2.944055,4.077709
-28.97821,2.9461792,4.0768566
-29.013838,2.9671564,4.0971007
-29.042858,2.9713988,4.098796
-29.071093,2.973777,4.0984945
-29.098366,2.9736352,4.095458
-29.12541,2.972916,4.091853
-29.154408,2.9781218,4.0949535
-29.17993,2.972993,4.0865636
-29.208408,2.9770489,4.088536
-29.24,2.9916148,4.1023827
-29.268227,2.9958353,4.1047106
-29.293926,2.991644,4.0976696
-29.319147,2.9855566,4.0885653
-29.345,2.981494,4.0818014
-29.371767,2.9807677,4.078864
-29.398378,2.9794567,4.0753393
-29.426119,2.9828012,4.0771327
-29.457317,3.0012991,4.096093
-29.484055,3.001521,4.094528
-29.510782,3.0018125,4.093114
-29.535463,2.9923224,4.080724
-29.561605,2.9894633,4.075888
-29.588661,2.991272,4.0764
-29.616037,2.9951253,4.0792966
-29.642551,2.9944448,4.07714
-29.672058,3.0122652,4.095996
-29.698322,3.0110707,4.0934057
-29.724792,3.011262,4.092455
-29.750898,3.0088844,4.088666
-29.77538,2.993389,4.0700755
-29.80129,2.987844,4.062827
-29.828014,2.9889607,4.0632024
-29.854845,2.991467,4.0652246
-29.882467,3.0032818,4.0778823
-29.909065,3.0052693,4.079462
-29.935003,2.9987411,4.0714483
-29.961138,2.9936001,4.065076
-29.987434,2.9898462,4.0603476
-30.0141,2.9927654,4.063266
-30.040638,2.9937716,4.064083
-30.067083,2.9922032,4.062047
-30.093796,3.003257,4.074417
-30.120243,3.0077717,4.079431
-30.146591,3.0004601,4.071082
-30.173092,2.9899135,4.0591288
-30.199663,2.9867024,4.055578
-30.226324,2.9822392,4.0506754
-30.25302,2.9791665,4.0474234
-30.279314,2.986732,4.0563235
-30.305237,2.9989882,4.0706186
-30.331343,3.0047045,4.0775557
-30.35813,2.9992614,4.071893
-30.385897,2.982665,4.053645
-30.413094,2.9760447,4.0467944
-30.43952,2.9787345,4.05058
-30.46597,2.980832,4.0537643
-30.49291,2.9783807,4.0518594
-30.517624,2.9944613,4.0710354
-30.544405,2.992803,4.0701694
