x,y,z
-28.137053,2.7659707,2.8707223
-28.176138,2.7694871,2.871962
-28.213804,2.7709527,2.8703513
-28.252693,2.774693,2.8720775
-28.293684,2.7823472,2.8794947
-28.330757,2.7836003,2.8778224
-28.368992,2.7871354,2.8795028
-28.40652,2.7896898,2.8798547
-28.44133,2.7874365,2.8733726
-28.478455,2.7896502,2.8733835
-28.514938,2.7908723,2.872044
-28.55275,2.794937,2.8748717
-28.588554,2.7952664,2.8723936
-28.624327,2.795694,2.8701282
-28.661613,2.7995203,2.8728375
-28.699043,2.8040023,2.8765707
-28.733643,2.802523,2.871767
-28.76993,2.8050003,2.8727498
-28.805908,2.8070247,2.873149
-28.84136,2.808041,2.87216
-28.877214,2.8102612,2.872983
-28.912346,2.8109148,2.8716078
-28.947231,2.8111086,2.8696332
-28.9786,2.8019485,2.8541622
-29.008745,2.7889712,2.8332071
-29.0376,2.7716088,2.8059378
-29.056675,2.7242231,2.7351174
-29.071474,2.6606781,2.6408334
-29.007322,2.3420842,2.1759067
-29.043135,2.3297029,2.1558452
-29.100315,2.3895097,2.2408276
-29.130795,2.359453,2.1952105
-29.165997,2.3445685,2.1717172
-29.177143,2.236224,2.0122204
-29.152687,1.9759436,1.631432
-29.184645,1.9285669,1.5606327
-29.160442,1.6303937,1.1244206
-29.158197,1.4038668,0.7924762
-39.78164,0.6251092,0.96059036
-39.853283,0.6378591,0.99980545
-39.66211,0.7937126,1.2116342
-39.688534,0.8297589,1.2786164
-39.69977,0.87360907,1.354939
-39.63611,0.9565811,1.4777775
-39.68749,0.9781742,1.527389
-39.676445,1.0797112,1.6956663
-39.670456,1.1298604,1.778861
-39.663643,1.179863,1.8617392
-39.690186,1.2126846,1.9245234
-39.686676,1.2601116,2.0042105
-39.728912,1.2846732,2.057465
-39.860825,1.3108501,2.1381607
-40.714622,1.1395907,2.0812612
-40.74428,1.1724229,2.146461
-39.817917,1.633601,2.6823268
-39.809452,1.6788964,2.7585893
-39.682007,1.7760506,2.8910294
-39.709553,1.8042588,2.9481997
-39.74428,1.8292351,3.001954
-39.750656,1.8662541,3.0686517
-39.782845,1.8920515,3.1233864
-39.743748,1.9476309,3.209578
-39.881226,1.9292874,3.2180862
-39.924435,1.95045,3.2683592
-39.96389,1.9731524,3.3203754
-40.026398,1.986547,3.3629832
-40.12088,1.987344,3.3930411
-40.18837,1.9992254,3.4347625
-40.324802,1.984323,3.449934
-40.403606,1.9924862,3.488781
-40.53689,1.9800248,3.507648
-40.690712,1.9604478,3.5202646
-40.782005,1.9652443,3.5573983
-41.02691,1.9131594,3.5402322
-41.229908,1.8780324,3.5406814
-41.409363,1.8526819,3.5515528
-41.107254,2.002569,3.727703
-41.190956,2.0117774,3.7712107
-41.2412,2.0331602,3.8263497
-41.34082,2.0372753,3.8659964
-41.398727,2.0563107,3.9196362
-41.519928,2.0536864,3.954248
-41.616592,2.059986,3.9974322
-41.7442,2.0562387,4.0324016
-42.954323,1.6916194,3.7569666
-42.953518,1.7351763,3.8374395
-42.9392,1.7828593,3.9212728
-42.9417,1.8247182,4.0000596
-42.953747,1.8632545,4.0760317
-42.97264,1.8994265,4.15007
-43.310204,1.8354023,4.1441255
-43.663513,1.7684177,4.138145
-44.027966,1.7000244,4.133501
-44.39052,1.6342835,4.13341
-44.77825,1.5630066,4.13169
-45.180954,1.4894581,4.13103
-45.65035,1.3985193,4.120597
-46.09546,1.3173301,4.120528
-46.66794,1.2018929,4.0996714
-47.190796,1.103884,4.095055
-47.755516,0.99699426,4.088342
-48.338554,0.8881631,4.0846014
-48.981728,0.7659831,4.076657
-49.779472,0.6051831,4.049217
-22.047182,2.0351722,2.8277287
-22.196339,2.0698633,2.848095
-22.294006,2.0800972,2.8401556
-22.447481,2.1187644,2.8664389
-22.571861,2.143846,2.8771706
-22.676922,2.1599045,2.8776102
-22.833786,2.2032616,2.9113588
-22.842505,2.1708117,2.8541346
-22.924255,2.1763618,2.8429928
-23.024244,2.1920018,2.8444562
-23.09637,2.1933517,2.8288422
-23.165354,2.193338,2.8118172
-23.442898,2.3074594,2.9356456
-23.509142,2.307677,2.9198952
-23.587273,2.3148093,2.9129543
-23.683054,2.332295,2.9191918
-23.730318,2.3228645,2.8921795
-23.818172,2.3368075,2.894599
-23.855904,2.3222768,2.861548
-23.920048,2.323184,2.848065
-24.009438,2.339304,2.8540454
-24.085484,2.348058,2.851009
-24.159138,2.355819,2.8469772
-24.224743,2.359101,2.8374844
-24.317085,2.3791666,2.849701
-24.37803,2.3803895,2.8380604
-24.451458,2.3897328,2.8370752
-24.530182,2.4028883,2.8412628
-24.589254,2.4039724,2.8300943
-24.667433,2.4177053,2.8355346
-24.739819,2.428183,2.837007
-24.803127,2.4331238,2.8314958
-24.883753,2.4499826,2.841783
-24.94727,2.4558895,2.8379803
-25.019892,2.4683716,2.843027
-25.081648,2.4738662,2.8391023
-25.27089,2.5685387,2.9532104
-25.309944,2.5597064,2.9309697
-25.378159,2.5716653,2.9364262
-25.467861,2.5995662,2.963315
-25.50603,2.590817,2.9416413
-25.572105,2.6026115,2.9475145
-25.631607,2.609998,2.9476924
-25.722635,2.6414535,2.9803562
-25.759848,2.6329343,2.9595675
-25.808815,2.6334658,2.951064
-25.862574,2.6379423,2.948022
-25.920403,2.645925,2.9498801
-25.964838,2.6436572,2.9380102
-26.014603,2.6458254,2.9322815
-26.061905,2.6462476,2.9243135
-26.103882,2.6425061,2.9107933
-26.163828,2.6538215,2.9179444
-26.201662,2.6470017,2.900455
-26.26007,2.6577322,2.9071107
-26.306349,2.6584704,2.9002128
-26.351994,2.6588717,2.892971
-26.399237,2.6608865,2.8880696
-26.446379,2.6630573,2.8835053
-26.495052,2.6668577,2.8813157
-26.537119,2.6649044,2.8712878
-26.579704,2.6635745,2.8622231
-26.618559,2.6589048,2.8486228
-26.661121,2.6578283,2.840108
-26.707802,2.6608698,2.837432
-26.754364,2.6640632,2.8350854
-26.80233,2.6689112,2.8351674
-26.852156,2.6759272,2.8384051
-26.896803,2.6780741,2.834948
-26.945295,2.684402,2.8374662
-26.994091,2.6913977,2.8410463
-27.039797,2.695511,2.8406935
-27.086319,2.700789,2.8420944
-27.131739,2.705198,2.8423839
-27.175617,2.708219,2.8408232
-27.219845,2.7118907,2.8402853
-27.263493,2.7151883,2.839323
-27.309723,2.7217102,2.8430352
-27.353546,2.7258034,2.843411
-27.395918,2.7284827,2.8418818
-27.439922,2.7333648,2.843583
-27.483353,2.7378664,2.8448453
-27.527065,2.7430239,2.8471427
-27.570208,2.7477968,2.8489938
-27.612793,2.7521818,2.8503895
-27.652803,2.7535572,2.847578
-27.695549,2.7587233,2.8502803
-27.736958,2.7624447,2.8510098
-27.774736,2.761552,2.845213
-27.817492,2.7676258,2.8494968
-27.86273,2.7775311,2.859386
-27.902119,2.7796392,2.8581614
-27.943264,2.7845147,2.8610077
-27.981733,2.785795,2.8587627
-28.024057,2.793042,2.8652043
-28.063383,2.7961535,2.8657699
-28.10192,2.7983122,2.8650427
-28.139013,2.7984426,2.861462
-28.177073,2.800284,2.860434
-28.215385,2.802771,2.8604188
-28.259733,2.815582,2.8754478
-28.30061,2.8231497,2.8829718
-28.359318,2.8621132,2.9361634
-28.415943,2.899131,2.986682
-28.461273,2.9174278,3.0101295
-28.502365,2.9288335,3.0236568
-28.538868,2.9322326,3.0256186
-28.575268,2.9357357,3.0278068
-28.609081,2.934449,3.0230856
-28.643166,2.9337974,3.0193548
-28.676441,2.9316018,3.0134358
-28.710514,2.931131,3.0100985
-28.741032,2.9231026,2.995781
-28.773178,2.9184299,2.9864216
-28.806124,2.915481,2.979642
-28.838167,2.9104245,2.9698377
-28.869606,2.9038022,2.957797
-28.903175,2.9022024,2.9531693
-28.932842,2.89079,2.9342198
-28.958498,2.8684337,2.8992672
-28.981323,2.8373072,2.8514786
-29.013186,2.829382,2.8377724
-29.03764,2.800001,2.7926092
-29.054438,2.7463422,2.7118049
-29.070917,2.6882591,2.624498
-29.000992,2.35449,2.1318173
-29.043644,2.363776,2.1434526
-29.096735,2.4092202,2.2083783
-29.12749,2.379929,2.1634107
-29.159313,2.3523643,2.121027
-29.163074,2.215956,1.9183617
-29.15561,2.0233138,1.6327834
-29.179909,1.9451463,1.5158362
-29.157707,1.657675,1.0903182
-29.160006,1.4535401,0.7875476
-39.743053,0.7092571,0.9564376
-39.794056,0.73315,1.0090141
-39.69993,0.8349879,1.157198
-39.69743,0.8864908,1.243371
-39.66328,0.95407987,1.3489718
-39.67051,0.99917126,1.4270377
-39.676216,1.0445805,1.5054078
-39.691326,1.0847046,1.5773392
-39.670486,1.1426814,1.6705952
-39.65576,1.1968732,1.7591228
-39.65914,1.2414289,1.8360271
-39.664177,1.2847142,1.9113364
-39.70367,1.3107765,1.9662995
-39.73475,1.340806,2.0260005
-39.779877,1.36395,2.0777254
-39.815765,1.3914335,2.1346102
-39.875626,1.4075589,2.1784563
-39.893646,1.4432187,2.2449589
-40.79728,1.1654356,2.0088592
-40.809837,1.2061944,2.0833254
-39.822968,1.6887224,2.6524878
-39.849613,1.718391,2.7117925
-39.629013,1.8551712,2.8897705
-39.70186,1.8636475,2.9251451
-39.733177,1.890039,2.9804354
-39.771748,1.9132807,3.032373
-39.785275,1.946939,3.095693
-39.76152,1.9957688,3.1752987
-39.873413,1.9885621,3.1948233
-39.909718,2.012547,3.247985
-39.948265,2.0355904,3.3002663
-40.009884,2.0494459,3.3430533
-40.10611,2.0498445,3.3721142
-40.166603,2.0645926,3.416452
-40.294304,2.0535622,3.4346395
-40.38535,2.0571952,3.4683962
-40.516018,2.0462186,3.4878588
-40.653095,2.0335155,3.5062828
-40.811687,2.0135458,3.5182214
-40.981308,1.9903941,3.527895
-41.162033,1.9641428,3.5354857
-41.04011,2.0478358,3.6505075
-41.096226,2.0669153,3.7026901
-41.169155,2.0801759,3.7495956
-41.237396,2.0953069,3.7986255
-41.31266,2.1082094,3.8459153
-41.398624,2.1176987,3.890438
-41.473553,2.131248,3.9391284
-41.591118,2.130744,3.9755044
-41.66851,2.144112,4.0249596
-42.955463,1.7603371,3.7236013
-42.919754,1.8150778,3.8140912
-42.92925,1.8547451,3.8912134
-42.947388,1.891444,3.9657602
-42.952045,1.9322376,4.0437794
-42.970005,1.9686426,4.1180763
-43.149025,1.9551859,4.1514754
-43.549732,1.8749195,4.1319504
-43.836823,1.8313116,4.1443977
-44.257214,1.7494204,4.1286883
-44.596283,1.6939995,4.1363826
-45.00552,1.6199234,4.1322103
-45.51069,1.5203784,4.1118317
-45.91915,1.4514191,4.117596
-46.406815,1.3622894,4.1116867
-46.971237,1.2543921,4.0959883
-47.551186,1.1453822,4.0836716
-48.161877,1.031213,4.072142
-48.73778,0.92989635,4.0738015
-49.415794,0.80440784,4.0639973
-50.20112,0.65426683,4.043617
-22.145159,2.1364064,2.8571072
-22.266874,2.1575203,2.8626785
-22.367464,2.1690898,2.8572378
-22.512817,2.2032945,2.879652
-22.608662,2.2138705,2.8739166
-22.68856,2.216975,2.8594294
-22.839254,2.2564065,2.8898263
-22.878187,2.2396526,2.8516378
-22.967537,2.248987,2.8458176
-23.052786,2.256682,2.838303
-23.14392,2.2679527,2.8355637
-23.245407,2.2852788,2.8407412
-23.338158,2.2985518,2.841227
-23.444876,2.319991,2.8523436
-23.52489,2.3274884,2.8462625
-23.618834,2.34316,2.850831
-23.686464,2.3446903,2.8377695
-23.776827,2.3594093,2.841762
-23.855099,2.3677979,2.837985
-23.934586,2.3773398,2.8359652
-24.029749,2.396501,2.84661
-24.113651,2.4096916,2.849894
-24.182892,2.4146934,2.8428693
-24.261213,2.4255295,2.843656
-24.332872,2.432807,2.8400755
-24.401499,2.438635,2.8348436
-24.486015,2.4547024,2.843248
-24.55902,2.4641457,2.843247
-24.621397,2.4673145,2.835226
-24.694618,2.47774,2.8369818
-24.773697,2.4924195,2.8446116
-24.83479,2.495908,2.8376565
-24.901794,2.5036206,2.8365092
-24.974594,2.515602,2.8412676
-25.037113,2.521152,2.837666
-25.09879,2.5264852,2.8339648
-25.160284,2.5320458,2.8307576
-25.300333,2.5926244,2.9017935
-25.350565,2.5915682,2.8901954
-25.436674,2.6162252,2.9135022
-25.480816,2.6114814,2.8972602
-25.542055,2.6192806,2.8981628
-25.60495,2.6286905,2.9014397
-25.67257,2.642037,2.910274
-25.729342,2.6477509,2.9088888
-25.774273,2.6448188,2.8958306
-25.82346,2.6453025,2.8875718
-25.872568,2.6459513,2.8796716
-25.919205,2.644883,2.8695374
-25.958069,2.63783,2.8512678
-26.011162,2.6422553,2.8489494
-26.060593,2.6440146,2.8430843
-26.113981,2.6492758,2.8422065
-26.167196,2.654723,2.8417315
-26.219097,2.659397,2.840324
-26.271404,2.6647298,2.8399744
-26.322418,2.6692786,2.8386688
-26.373833,2.6744854,2.8384175
-26.427279,2.6818094,2.8412666
-26.477787,2.6868863,2.841107
-26.52813,2.6921353,2.841319
-26.578304,2.697555,2.8419008
-26.625132,2.7001994,2.8386998
-26.67342,2.7044735,2.837915
-26.723118,2.7103877,2.8395705
-26.771606,2.7154803,2.8401885
-26.820442,2.721231,2.8418603
-26.866081,2.7241595,2.8396473
-26.912102,2.7277339,2.8384614
-26.961445,2.7349567,2.8425822
-27.00668,2.7383354,2.8413463
-27.055168,2.745377,2.8454447
-27.099161,2.7480462,2.8434143
-27.14399,2.751864,2.8431292
-27.188686,2.755825,2.8431544
-27.231863,2.7584057,2.8413048
-27.27676,2.7631555,2.8426685
-27.321508,2.768049,2.8443432
-27.364323,2.771041,2.8433847
-27.406147,2.7731419,2.8412385
-27.44918,2.7769096,2.84159
-27.489943,2.7782404,2.838519
-27.531054,2.780208,2.8364573
-27.572496,2.7828174,2.835413
-27.615486,2.7876215,2.8376393
-27.65874,2.7930777,2.8409066
-27.703434,2.800748,2.8474855
-27.743967,2.803354,2.8468075
-27.78479,2.8066034,2.8471513
-27.822039,2.805272,2.8409142
-27.872925,2.8228946,2.8623695
-27.910318,2.8223314,2.8574266
-27.94842,2.8229249,2.8542461
-27.990454,2.8294187,2.8597631
-28.030527,2.833405,2.8617048
-28.07153,2.839095,2.8662248
-28.145182,2.8951807,2.944643
-28.211817,2.9425464,3.0104837
-28.255356,2.9551277,3.0254774
-28.291697,2.9566813,3.0243788
-28.326035,2.9551427,3.0188098
-28.36259,2.9574316,3.0189333
-28.399376,2.960359,3.0200682
-28.434845,2.9612525,3.0182815
-28.468765,2.9595654,3.012763
-28.503572,2.9595792,3.0098143
-28.538635,2.9602256,3.007865
-28.575068,2.963659,3.0100975
-28.61029,2.9650412,3.0093713
-28.644373,2.9643629,3.0056667
-28.6795,2.9659371,3.0053573
-28.714048,2.966526,3.0036564
-28.746788,2.9634192,2.9965482
-28.778826,2.9587705,2.9872136
-28.813833,2.9607167,2.98771
-28.847597,2.9600413,2.984385
-28.879974,2.9561923,2.9764118
-28.911741,2.9507926,2.9661927
-28.943165,2.9443817,2.9545264
-28.974283,2.9369574,2.9414077
-29.003275,2.9236,2.9195204
-29.027939,2.8977332,2.8790727
-29.040148,2.8352454,2.7841659
-29.049934,2.7617815,2.6729078
-29.071856,2.7200773,2.6089177
-28.995874,2.3706033,2.0864792
-29.053371,2.4269907,2.1685295
-29.106007,2.471481,2.2329764
-29.130447,2.4215522,2.1567383
-29.162348,2.3947666,2.1150432
-29.137356,2.1516125,1.7505283
-29.159422,2.0724618,1.6306629
-29.17675,1.9668503,1.4712954
-29.155981,1.6874111,1.0523076
-29.160221,1.4933369,0.76070166
-39.80387,0.6416745,0.70741653
-39.827877,0.681319,0.7799716
-39.69722,0.80425644,0.95717525
-39.747974,0.82804227,1.0094905
-39.748806,0.8782501,1.0948968
-39.6821,0.9633517,1.2235699
-39.675514,1.0159428,1.3115373
-39.665718,1.0695744,1.4006424
-39.666687,1.1170864,1.4820642
-39.66608,1.1648774,1.5637193
-39.685097,1.2023425,1.6326647
-39.636444,1.2729807,1.7418914
-39.645233,1.3145075,1.8155484
-39.65573,1.3548069,1.8876605
-39.67038,1.3927426,1.956883
-39.705303,1.4207032,2.014155
-39.716408,1.4597611,2.084693
-39.80306,1.4632223,2.1130447
-39.888165,1.5115507,2.2193189
-39.877674,1.5596838,2.3005977
-40.977726,1.2031159,1.9675322
-39.759956,1.8210354,2.7280207
-39.661427,1.9035878,2.8470712
-39.698997,1.9273629,2.8993645
-39.717598,1.9590425,2.9606066
-39.749306,1.985085,3.0155816
-39.789154,2.0076964,3.0668402
-39.808994,2.0384302,3.1271482
-39.796593,2.0819778,3.2014637
-39.89812,2.079655,3.2258382
-39.930573,2.1050901,3.280613
-39.971325,2.127214,3.331931
-40.052677,2.1336188,3.3666663
-40.151443,2.1336617,3.395052
-40.2231,2.1444395,3.435172
-40.34034,2.1383252,3.4580264
-40.45773,2.1327314,3.48201
-40.631866,2.1068084,3.4857416
-40.754135,2.1007874,3.5106583
-40.915703,2.0811784,3.5224957
-41.06514,2.0667844,3.540429
-41.119087,2.0869591,3.5934782
-41.07133,2.1428514,3.6819
-41.13972,2.1578507,3.7300577
-41.207005,2.173433,3.7791057
-41.274982,2.1889758,3.8284411
-41.348186,2.20296,3.8766308
-41.431206,2.2139137,3.9223452
-41.548744,2.2138045,3.958219
-41.64161,2.222271,4.002636
-41.764618,2.221383,4.039055
-42.913162,1.8936932,3.7823749
-42.934586,1.9294417,3.8561602
-42.949944,1.9669526,3.9315343
-42.95735,2.0067534,4.0088954
-42.96046,2.0476518,4.0871453
-42.9825,2.0825796,4.160269
-43.372013,2.0073152,4.141528
-43.665497,1.9627562,4.1506433
-44.131744,1.8691688,4.1219554
-44.410843,1.8325496,4.1419587
-44.851067,1.7512162,4.1286716
-45.253784,1.6830213,4.1286087
-45.79791,1.5773959,4.1028576
-46.14688,1.5290275,4.1238174
-46.736893,1.4164007,4.100012
-47.26004,1.325259,4.0959854
-47.943913,1.1939101,4.0673265
-48.42955,1.1190121,4.0828853
-49.076202,1.0045345,4.0751686
-49.827312,0.8665681,4.056733
-50.617325,0.7228267,4.0402937
-51.413757,0.5818527,4.031717
-22.075272,2.198696,2.856094
-22.21576,2.2275147,2.8717513
-22.340443,2.2497416,2.879908
-22.430433,2.256086,2.869
-22.554245,2.2793221,2.879344
-22.63657,2.2830203,2.8659163
-22.70776,2.2816155,2.846428
-22.813223,2.297658,2.849039
-22.916739,2.313367,2.8516421
-22.988182,2.3133523,2.8348112
-23.078762,2.3235207,2.8311214
-23.176714,2.3380454,2.833302
-23.272774,2.3521826,2.8353577
-23.360142,2.3623,2.8326287
-23.467573,2.383684,2.8446789
-23.548267,2.3913207,2.8394313
-23.625744,2.3976502,2.83278
-23.713394,2.4100254,2.8342323
-23.807354,2.4264657,2.8412824
-23.881104,2.4321315,2.8346214
-23.967785,2.4455657,2.8383698
-24.046867,2.4551816,2.8374133
-24.12279,2.4634368,2.834938
-24.19775,2.4715722,2.8325586
-24.274605,2.4812708,2.8324976
-24.356144,2.494248,2.8370423
-24.424665,2.4998772,2.8320894
-24.494392,2.5066252,2.8288484
-24.567385,2.5157936,2.8290668
-24.635271,2.522224,2.8258505
-24.709133,2.5328164,2.8284426
-24.775877,2.5393448,2.825797
-24.839695,2.544378,2.8213391
-24.911423,2.5549178,2.824531
-24.983528,2.5661767,2.8289251
-25.048677,2.573293,2.8279119
-25.112286,2.5797677,2.8262215
-25.16978,2.5824676,2.8195653
-25.257113,2.605957,2.8415408
-25.321896,2.6145358,2.8433414
-25.389,2.6251624,2.8481503
-25.442421,2.6265438,2.8404222
-25.500805,2.6317441,2.8381143
-25.565922,2.6421688,2.8432012
-25.626385,2.6496382,2.8443832
-25.703337,2.6697197,2.8632593
-25.749706,2.6675456,2.851396
-25.800318,2.6687562,2.84437
-25.849022,2.6687489,2.835775
-25.909054,2.6777408,2.8399005
-25.96288,2.6822863,2.8379607
-26.015366,2.6860845,2.835114
-26.069458,2.6914735,2.8346443
-26.120472,2.6946962,2.8312654
-26.171352,2.6980925,2.8282642
-26.224949,2.704034,2.8289924
-26.27779,2.7096868,2.8294525
-26.328766,2.7140918,2.82828
-26.381811,2.7205846,2.830204
-26.435205,2.7277427,2.8332124
-26.485659,2.7326798,2.8331943
-26.532705,2.7348924,2.8294125
-26.582855,2.7401638,2.8301182
-26.630714,2.7436628,2.828411
-26.68159,2.7502415,2.8312364
-26.731226,2.7560172,2.8330355
-26.780682,2.7619605,2.8351984
-26.829443,2.7675798,2.8370147
-26.87349,2.7689328,2.8327994
-26.920444,2.7733853,2.8331594
-26.965769,2.7765071,2.831707
-27.0139,2.7827506,2.8348775
-27.05943,2.786668,2.8347921
-27.104343,2.7902331,2.834301
-27.1496,2.7944417,2.834847
-27.194244,2.798295,2.8349795
-27.23922,2.8027918,2.8361511
-27.2845,2.8079367,2.8383694
-27.326914,2.8101995,2.8364844
-27.370567,2.814111,2.837101
-27.419369,2.8242395,2.8469076
-27.462252,2.82793,2.847403
-27.508873,2.836334,2.8549008
-27.54848,2.8367305,2.8507566
-27.590961,2.8408217,2.8521204
-27.632483,2.8440204,2.8522635
-27.668184,2.8401601,2.8421068
-27.710354,2.8446255,2.8442812
-27.752384,2.8492205,2.8467379
-27.793098,2.8523962,2.847189
-27.834858,2.8572462,2.8501983
-27.876469,2.862224,2.8534846
-27.919052,2.868887,2.859352
-28.011557,2.9464319,2.9702902
-28.054813,2.9560924,2.9808693
-28.098894,2.9674563,2.9940705
-28.13777,2.9716413,2.9967093
-28.178244,2.9785612,3.0034924
-28.21343,2.977734,2.998839
-28.251944,2.9822605,3.0022187
-28.289663,2.9858484,3.0042791
-28.324041,2.9842734,2.9987192
-28.360006,2.9854324,2.9972997
-28.397158,2.9888082,2.9992576
-28.432978,2.9901729,2.9982843
-28.467838,2.9900463,2.99515
-28.502373,2.9894838,2.9914293
-28.538044,2.9911444,2.9910965
-28.574778,2.995035,2.9941711
-28.610565,2.9974306,2.9950757
-28.644918,2.9972556,2.9921937
-28.67951,2.9977088,2.9903169
-28.713026,2.9961133,2.9854279
-28.746552,2.9946077,2.9807324
-28.780823,2.9948008,2.9786496
-28.814098,2.9929364,2.973535
-28.846918,2.9900835,2.966992
-28.880005,2.987854,2.961444
-28.911995,2.983014,2.9520226
-28.943195,2.976096,2.9395247
-28.974525,2.969254,2.9271922
-29.005157,2.960325,2.9117646
-29.035362,2.9498448,2.8940458
-29.062666,2.930764,2.8633986
-29.058355,2.81952,2.693694
-29.073244,2.7581213,2.599176
-29.007437,2.4440315,2.1229954
-29.095247,2.5977726,2.353386
-29.114866,2.5374162,2.2604136
-29.138802,2.4874167,2.183104
-29.16031,2.4249072,2.0868926
-29.137917,2.19386,1.7357154
-29.160622,2.1181693,1.619504
-29.17368,1.9966102,1.4338675
-29.153301,1.7214372,1.015614
-29.16247,1.5510507,0.7559252
-39.753014,0.6371541,0.5273876
-39.75896,0.68724346,0.6138282
-39.79097,0.7225816,0.68115425
-39.820908,0.7587619,0.74958944
-39.675705,0.8880582,0.9373455
-39.714966,0.91781425,0.99721575
-39.696507,0.9775777,1.0953383
-39.68775,1.0315611,1.1859312
-39.642605,1.1035521,1.2991242
-39.657402,1.1441259,1.3724418
-39.710457,1.1650968,1.4211268
-39.665436,1.2348685,1.5309391
-39.693077,1.2678969,1.594686
-39.62386,1.3479366,1.7167535
-39.640495,1.3853648,1.7857504
-39.653343,1.4242892,1.8565617
-39.65675,1.4673371,1.9323816
-39.668297,1.506146,2.002942
-39.73817,1.5175393,2.040156
-39.753586,1.5541615,2.1081214
-39.79937,1.5766697,2.159068
-39.814568,1.6129465,2.2266407
-39.747112,1.8922496,2.703177
-39.786346,1.915899,2.755526
-39.636986,2.0180426,2.8983512
-39.64348,2.0543456,2.9649086
-39.71829,2.062471,2.9993258
-39.73499,2.0943487,3.060936
-39.74692,2.1279364,3.124466
-39.764347,2.1591134,3.1852713
-39.857204,2.1605172,3.2129788
-39.91462,2.176094,3.256761
-39.95707,2.197557,3.3072286
-39.997467,2.219816,3.3587074
-40.07951,2.226387,3.3933291
-40.18781,2.223481,3.418127
-40.2927,2.2223494,3.4453416
-40.368546,2.2323225,3.484838
-40.430115,2.24773,3.5303965
-40.54653,2.24365,3.5558662
-40.808235,2.1886103,3.5291114
-41.000343,2.1596053,3.5305648
-41.1446,2.148315,3.5511246
-41.042953,2.2223299,3.658699
-41.114906,2.2362583,3.7053404
-41.174934,2.2544336,3.7565436
-41.242867,2.270122,3.805571
-41.324203,2.2815874,3.8508058
-41.39902,2.2954755,3.8987904
-41.50195,2.3005295,3.9387016
-41.588356,2.3113048,3.9845843
-41.6893,2.317806,4.0269194
-42.94171,1.9643106,3.73625
-42.927246,2.0112135,3.820428
-42.927795,2.0531487,3.8999119
-42.943474,2.0902352,3.9749603
-42.940964,2.1326156,4.054694
-42.968536,2.165799,4.126284
-43.150417,2.1536303,4.158881
-43.544605,2.0807595,4.1410065
-43.84526,2.0369945,4.1501346
-44.291042,1.9536775,4.128556
-44.6308,1.9026754,4.136291
-45.022133,1.8392221,4.1363335
-45.49267,1.7561989,4.123612
-46.00782,1.6637127,4.1068172
-46.46261,1.5903292,4.108206
-47.04364,1.4859657,4.0896077
-47.567047,1.3999777,4.088688
-48.159157,1.2990699,4.0808005
-48.67331,1.2214239,4.093679
-49.456932,1.0783265,4.065092
-50.22027,0.9446902,4.048798
-51.034065,0.8028064,4.032851
-51.94744,0.6410904,4.010365
-22.141165,2.285268,2.868215
-22.254145,2.3008988,2.8688307
-22.378723,2.322642,2.8775558
-22.467785,2.3283496,2.8666048
-22.574066,2.3427622,2.8669815
-22.682343,2.358774,2.8697958
-22.828667,2.394021,2.8975086
-22.861763,2.3744807,2.8558269
-22.93634,2.3755362,2.840622
-23.028591,2.3858333,2.8375645
-23.122858,2.3976874,2.836853
-23.215271,2.4091492,2.835977
-23.302795,2.4186263,2.8328562
-23.399899,2.4336226,2.8372436
-23.488321,2.4446409,2.8367782
-23.578686,2.4572258,2.8386793
-23.66274,2.4669628,2.837152
-23.74132,2.47421,2.8326263
-23.83443,2.4899023,2.83955
-23.913189,2.4982226,2.837009
-23.992426,2.5072687,2.8356977
-24.075748,2.5191052,2.838379
-24.145756,2.5238285,2.831811
-24.220606,2.531733,2.82974
-24.308052,2.547452,2.8384366
-24.380201,2.5547202,2.8360162
-24.44648,2.558899,2.829639
-24.520998,2.5684078,2.8307042
-24.59106,2.5756598,2.8289337
-24.669197,2.588305,2.8347397
-24.736677,2.5948339,2.8324304
-24.806677,2.6033418,2.8330402
-24.875061,2.6112573,2.8330507
-24.941854,2.6185668,2.8324342
-25.007076,2.6252608,2.8311677
-25.072083,2.632201,2.8304367
-25.142153,2.6428976,2.8351064
-25.202076,2.6472564,2.8311791
-25.267048,2.6553738,2.832656
-25.324654,2.6588526,2.8278499
-25.386608,2.6656585,2.8278556
-25.445156,2.6704578,2.8252268
-25.51366,2.6826525,2.8331432
-25.573036,2.6888034,2.8327584
-25.632832,2.6956232,2.8334804
-25.692411,2.7026618,2.8346777
-25.745625,2.705366,2.829907
-25.810295,2.7169356,2.8378415
-25.86497,2.7214148,2.8358898
-25.916477,2.723787,2.8310852
-25.97382,2.7309515,2.8332415
-26.027988,2.7360082,2.8325415
-26.08725,2.7454357,2.8382325
-26.137535,2.7480896,2.8343801
-26.187693,2.7509131,2.8308983
-26.24001,2.7557836,2.830482
-26.291021,2.7598937,2.8291035
-26.34132,2.7637072,2.827423
-26.394808,2.7705317,2.830214
-26.44588,2.775644,2.8306646
-26.491325,2.776169,2.8245993
-26.549128,2.7878253,2.8347788
-26.595373,2.789632,2.8308067
-26.642576,2.79255,2.828557
-26.691757,2.79755,2.8294501
-26.743893,2.805613,2.834928
-26.792702,2.8109512,2.8365526
-26.841848,2.816938,2.839243
-26.890806,2.8230903,2.8422914
-26.93558,2.8255007,2.839971
-26.981726,2.829523,2.840116
-27.028215,2.834186,2.841308
-27.074066,2.8385093,2.8421059
-27.119766,2.8429813,2.843226
-27.167208,2.8495796,2.8475842
-27.209309,2.8508804,2.8442316
-27.252714,2.8538032,2.8433633
-27.297373,2.8583555,2.8450022
-27.341429,2.8625522,2.8462105
-27.383114,2.8643858,2.8440127
-27.426908,2.8688555,2.8458133
-27.46577,2.8679333,2.8396974
-27.507181,2.8701468,2.8383236
-27.548918,2.8729928,2.837975
-27.591381,2.8769772,2.8394113
-27.634949,2.882615,2.8434024
-27.678347,2.8883903,2.847692
-27.720768,2.8932831,2.8507543
-27.764624,2.9003491,2.8571553
-27.825092,2.9295352,2.8967671
-27.883337,2.956897,2.933795
-27.931065,2.9711287,2.951274
-27.9732,2.9783223,2.9582949
-28.019926,2.9923446,2.9756632
-28.05687,2.9931052,2.973196
-28.092327,2.991904,2.9678473
-28.13164,2.9964979,2.97129
-28.16735,2.9960217,2.9671707
-28.20576,2.9998035,2.9695377
-28.244045,3.0036974,2.9721508
-28.280893,3.0056195,2.971858
-28.31734,3.007125,2.9710054
-28.354353,3.00978,2.9719596
-28.391273,3.012541,2.9731436
-28.426567,3.012785,2.9705853
-28.460625,3.0110252,2.9650545
-28.49557,3.010935,2.9621153
-28.529905,3.0098867,2.9577847
-28.565365,3.0110419,2.9568586
-28.60132,3.0133524,2.9577527
-28.636381,3.0141766,2.956451
-28.67166,3.0156267,2.9561644
-28.704544,3.0123997,2.9488254
-28.73975,3.0140386,2.9489484
-28.773655,3.013115,2.945231
-28.807554,3.012282,2.9417095
-28.840971,3.0104733,2.936759
-28.873486,3.0066175,2.9287424
-28.905386,3.0012426,2.9184608
-28.936508,2.9938083,2.9050856
-28.96756,2.9859145,2.8910575
-28.998144,2.9764884,2.8747363
-29.028114,2.9649887,2.8552923
-29.055597,2.9460428,2.8245044
-29.086304,2.9352129,2.8061686
-29.075842,2.8023658,2.6011453
-29.012762,2.499818,2.1362352
-28.975122,2.2561269,1.7612033
-29.1158,2.5793605,2.2544994
-29.152496,2.5735135,2.2438807
-29.156082,2.4500413,2.0530095
-29.138237,2.2373323,1.7252574
-29.161743,2.1655712,1.6135726
-29.175001,2.0462093,1.4288697
-29.153929,1.7708783,1.0047898
-29.164898,1.6101868,0.756546
-39.735268,0.71975684,0.50710773
-39.72245,0.7795584,0.6069226
-39.740017,0.82229424,0.6841464
-39.789978,0.847404,0.73824453
-39.844105,0.87025356,0.7895026
-39.693367,0.99970627,0.979619
-39.72058,1.0353193,1.0472298
-39.69729,1.0964148,1.1477947
-39.72928,1.1288073,1.2111659
-39.702576,1.190331,1.3119721
-39.715332,1.2315309,1.3865495
-39.674927,1.2983937,1.4937873
-39.682922,1.3408749,1.5697713
-39.63646,1.4091063,1.6782618
-39.65392,1.4460073,1.7469487
-39.6636,1.4862669,1.8198309
-39.667816,1.5287056,1.895381
-39.68099,1.5665963,1.9651866
-39.68142,1.6099889,2.0417743
-39.68682,1.6507034,2.1149573
-39.72417,1.6767249,2.170004
-39.742302,1.7111888,2.2354655
-39.76838,1.947474,2.663046
-39.847267,1.9548237,2.6961327
-39.798508,2.014752,2.791421
-39.723293,2.084653,2.8980422
-39.707348,2.1298075,2.9753633
-39.74877,2.1516957,3.0255651
-39.727283,2.1983373,3.1043959
-39.772163,2.2186356,3.1528654
-39.815025,2.2397432,3.2024035
-39.90438,2.2431245,3.2320323
-39.945934,2.2649488,3.2827806
-39.98369,2.2882068,3.335266
-40.066612,2.2947254,3.3692951
-40.143345,2.30384,3.4065504
-40.236717,2.307195,3.437838
-40.335403,2.3090458,3.4679193
-40.45273,2.3047073,3.4917874
-40.62441,2.2818172,3.4963546
-40.73413,2.2814586,3.5257635
-40.905617,2.2603233,3.533794
-41.053307,2.2482471,3.5522037
-41.03489,2.2929997,3.6303692
-41.078907,2.3164935,3.6864524
-41.14881,2.3314674,3.7340117
-41.20764,2.3502812,3.78578
-41.31439,2.3537273,3.8224087
-41.382843,2.3699045,3.8722343
-41.473927,2.3791203,3.9155412
-41.55482,2.391889,3.962778
-41.64565,2.4018657,4.0077353
-41.764893,2.4034805,4.0451956
-42.920544,2.0910933,3.7870636
-42.93307,2.1292276,3.863227
-42.95709,2.1637676,3.9360585
-42.96201,2.203814,4.0139666
-42.957962,2.2462454,4.0939584
-42.988754,2.2783906,4.1646852
-43.35395,2.2154796,4.152116
-43.633846,2.1786044,4.1644382
-44.10402,2.0903864,4.1347303
-44.43335,2.0435529,4.1429553
-44.818977,1.9832305,4.1421723
-45.267815,1.9080752,4.1318693
-45.732834,1.8311359,4.123186
-46.17614,1.7624853,4.1242423
-46.744823,1.6637652,4.1050386
-47.241524,1.5866783,4.106325
-47.854576,1.4828498,4.09114
-48.316147,1.4203434,4.110662
-49.025284,1.2990971,4.0913267
-49.730164,1.1828249,4.0807185
-50.543938,1.0441546,4.059967
-51.3584,0.9098196,4.0482707
-52.3496,0.73833084,4.0184493
-53.268562,0.58912444,4.0105276
-22.023907,2.3225842,2.8444319
-22.156721,2.345996,2.8553338
-22.269701,2.3611732,2.856288
-22.353485,2.3635263,2.8412962
-22.505615,2.3982022,2.8680563
-22.599102,2.406272,2.8611765
-22.691542,2.4143574,2.8546596
-22.844206,2.4519315,2.8867154
-22.875648,2.4316812,2.8441272
-22.958742,2.4367158,2.8346195
-23.051704,2.44708,2.832384
-23.139744,2.4555151,2.8279448
-23.232119,2.4666407,2.827361
-23.325703,2.4789312,2.8286443
-23.417427,2.490829,2.8297348
-23.504292,2.5007455,2.8285055
-23.599123,2.5153716,2.8338652
-23.680122,2.5232375,2.8304958
-23.77127,2.5370243,2.8353534
-23.848011,2.5435615,2.83075
-23.934078,2.5556479,2.833897
-24.00885,2.562008,2.8295693
-24.093573,2.5743637,2.8336291
-24.16856,2.5817482,2.831193
-24.249056,2.5927157,2.8338904
-24.322096,2.5998816,2.8316388
-24.394192,2.606919,2.8294382
-24.463936,2.6129892,2.826129
-24.539082,2.622674,2.8280215
-24.60418,2.6267767,2.822423
-24.680191,2.6378732,2.8267174
-24.747627,2.6441896,2.8246007
-24.810741,2.6482122,2.8194876
-24.881165,2.6571674,2.8214455
-24.94659,2.663395,2.8197942
-25.015827,2.672453,2.8223042
-25.078798,2.6778886,2.8199248
-25.14488,2.6857285,2.8211117
-25.219261,2.699483,2.8308392
-25.284136,2.7074087,2.8325415
-25.348116,2.715141,2.8341532
-25.411854,2.7231133,2.8362865
-25.47279,2.7295566,2.836421
-25.531609,2.734893,2.8351445
-25.587719,2.7386622,2.8317876
-25.63805,2.7386076,2.8231044
-25.697609,2.7454553,2.8244452
-25.759405,2.754322,2.8288465
-25.816666,2.7602556,2.8291936
-25.87009,2.7636745,2.8260655
-25.92397,2.7677352,2.8239994
-25.975903,2.7706153,2.820362
-26.040115,2.783295,2.8310537
-26.089914,2.785186,2.8262591
-26.141926,2.7890902,2.8245125
-26.190903,2.7908611,2.819787
-26.24663,2.7983649,2.8235393
-26.303259,2.8069985,2.8290815
-26.360758,2.8167696,2.836432
-26.4113,2.821128,2.835999
-26.463337,2.8270679,2.8380075
-26.51299,2.8313034,2.8376384
-26.56249,2.8357067,2.8376331
-26.610222,2.8388557,2.835896
-26.65888,2.8431137,2.8359036
-26.708437,2.8484883,2.8376746
-26.753647,2.8502054,2.8341508
-26.802881,2.8559043,2.8366246
-26.8504,2.8603263,2.837318
-26.899279,2.8663523,2.8405008
-26.944965,2.8696418,2.8397274
-26.99052,2.8730798,2.839275
-27.033983,2.8747213,2.836247
-27.080742,2.87991,2.838602
-27.124935,2.88281,2.8376436
-27.172325,2.889278,2.842114
-27.218111,2.8944302,2.84472
-27.261414,2.8972714,2.8439622
-27.30506,2.9007418,2.8442392
-27.348122,2.9038553,2.8440728
-27.390615,2.9066086,2.8434534
-27.43035,2.9065135,2.8386369
-27.472212,2.9090257,2.8378248
-27.511816,2.9091716,2.83353
-27.555191,2.913935,2.8362808
-27.596313,2.9163296,2.8355432
-27.634024,2.9148316,2.8290014
-27.68519,2.9300473,2.8478265
-27.743225,2.954516,2.8807845
-27.79114,2.9670687,2.8958125
-27.838339,2.979276,2.9104218
-27.882908,2.9885962,2.9207468
-27.934072,3.0072098,2.945293
-27.97129,3.0076683,2.9423347
-28.008825,3.0087438,2.9403844
-28.048475,3.0129952,2.9433427
-28.086914,3.01583,2.9442186
-28.123842,3.0167263,2.9422083
-28.162096,3.0197835,2.9435658
-28.198538,3.0203793,2.9412346
-28.235264,3.0215936,2.9399152
-28.272911,3.0244622,2.941194
-28.308193,3.0238194,2.9371638
-28.344088,3.0243096,2.9349337
-28.38181,3.0280142,2.937695
-28.418491,3.0302691,2.9383006
-28.451485,3.026382,2.929544
-28.486296,3.0257084,2.9257774
-28.522245,3.0272176,2.925426
-28.558695,3.0298724,2.9269009
-28.592558,3.0279193,2.9213476
-28.628332,3.0297253,2.92164
-28.6643,3.032156,2.922957
-28.699924,3.0341613,2.9236813
-28.733444,3.0320556,2.918128
-28.767725,3.031619,2.915204
-28.80102,3.0291636,2.9092221
-28.835049,3.0283794,2.9058757
-28.86884,3.0271578,2.901908
-28.900387,3.0207317,2.8899527
-28.932487,3.015443,2.8798037
-28.964046,3.0086439,2.8673673
-28.994492,2.9987364,2.8501678
-29.024534,2.9873056,2.830655
-29.052473,2.96956,2.8014035
-29.077578,2.9428203,2.7582512
-29.072557,2.8265858,2.5763974
-29.01797,2.5528784,2.1502938
-29.10614,2.705911,2.3859076
-29.119822,2.6290066,2.2649531
-29.143942,2.5814898,2.1896
-29.157341,2.4927986,2.050336
-29.139826,2.2841256,1.7247205
-29.160204,2.2017367,1.5951695
-29.158962,2.0260437,1.3206358
-29.147999,1.7933636,0.9574623
-29.164577,1.6582353,0.7458463
-39.704926,0.74936795,0.40255117
-39.712196,0.79842186,0.48881435
-39.7499,0.8306353,0.5524006
-39.71145,0.90297604,0.66971827
-39.785374,0.91537523,0.7068124
-39.653313,1.0348728,0.8865166
-39.68181,1.0699115,0.9535923
-39.697502,1.1111932,1.0289335
-39.76784,1.1245682,1.0674863
-39.718323,1.1978524,1.1848731
-39.74898,1.2305441,1.248837
-39.704254,1.2998469,1.3605552
-39.678658,1.3589449,1.458714
-39.680374,1.4042222,1.5387659
-39.655224,1.4617643,1.6345387
-39.655296,1.5067561,1.7139711
-39.62587,1.5649855,1.810246
-39.632317,1.6059868,1.8843198
-39.647755,1.6425107,1.95264
-39.694954,1.6644192,2.0024471
-39.670353,1.7183685,2.0927362
-39.695415,1.7497356,2.1544867
-39.749477,1.7682254,2.2001753
-39.84032,1.7708573,2.2263064
-41.102524,1.4570522,1.964932
-41.080414,1.5113521,2.0576277
-39.817753,2.0657043,2.751608
-39.74341,2.134674,2.858324
-39.679817,2.198453,2.958395
-39.73826,2.2136154,3.0004935
-39.775066,2.2373028,3.0528398
-39.752975,2.283549,3.1316996
-39.865784,2.2780879,3.1501637
-39.89901,2.303099,3.2043915
-39.937096,2.3262532,3.2565699
-39.970474,2.3511243,3.3108249
-40.041145,2.3623614,3.3496828
-40.13629,2.365006,3.3791342
-40.236755,2.3661704,3.4073534
-40.330196,2.3702683,3.4392962
-40.440487,2.368874,3.4655905
-40.60424,2.3494983,3.4726639
-40.713974,2.3495207,3.5017004
-40.860462,2.3375955,3.5183377
-41.00094,2.3284495,3.5386963
-41.016552,2.3614507,3.6046476
-41.062355,2.3843782,3.6599588
-41.12683,2.4012902,3.709144
-41.18564,2.4202054,3.760697
-41.24964,2.4376101,3.8109508
-41.338043,2.4475198,3.8538485
-41.394318,2.4677706,3.9076376
-41.532825,2.4628334,3.9364629
-41.60712,2.478128,3.986094
-41.7457,2.4743042,4.017332
-41.88161,2.4719458,4.05076
-42.94238,2.1977098,3.823792
-42.953445,2.2360299,3.900288
-42.925816,2.285319,3.9870615
-42.96176,2.3160622,4.0563536
-42.96176,2.3569193,4.135056
-43.18769,2.3345857,4.1564684
-43.608147,2.259853,4.132458
-43.91693,2.2179317,4.140059
-44.254597,2.16992,4.1443367
-44.664696,2.1044853,4.135874
-45.098434,2.0351183,4.126793
-45.592842,1.9523935,4.1095004
-46.05425,1.880917,4.1047378
-46.489067,1.8187411,4.1105886
-47.07617,1.7207308,4.09112
-47.59112,1.6438773,4.0921583
-48.11663,1.567256,4.0969934
-48.68907,1.4821444,4.0992327
-49.41121,1.3643823,4.0817375
-50.235657,1.2264555,4.055112
-50.99159,1.1090581,4.0489497
-51.91172,0.9579954,4.0254645
-52.855827,0.80654144,4.0087094
-53.848057,0.64945626,3.9955554
-22.0406,2.3846436,2.8293505
-22.190392,2.4150414,2.8504753
-22.2864,2.4221878,2.842001
-22.427803,2.450522,2.8614898
-22.540642,2.4666584,2.86557
-22.644333,2.479228,2.8653865
-22.741354,2.4892755,2.8622565
-22.816061,2.4892936,2.846212
-22.913357,2.5004764,2.8452287
-22.993973,2.5041566,2.8346004
-23.07674,2.509298,2.8261948
-23.181667,2.5258183,2.8333158
-23.272348,2.5358984,2.8321486
-23.35891,2.5444317,2.8292046
-23.44596,2.553707,2.8275542
-23.540276,2.5672266,2.8319526
-23.626705,2.5772357,2.8318934
-23.708345,2.5852442,2.8293896
-23.792702,2.5951617,2.829762
-23.878235,2.6062162,2.8319693
-23.95977,2.6156294,2.8321953
-24.042477,2.6261737,2.8342428
-24.118328,2.6334364,2.8320122
-24.195381,2.6418073,2.8315563
-24.272886,2.6508915,2.8323298
-24.35011,2.6602855,2.8337746
-24.42065,2.6663034,2.830739
-24.48462,2.6688943,2.8231106
-24.561779,2.679573,2.8270264
-24.636536,2.6893156,2.8298583
-24.708916,2.6981037,2.8315673
-24.774822,2.7034104,2.8285656
-24.854221,2.71737,2.838018
-24.924397,2.7261653,2.8403726
-24.990246,2.7326908,2.8396983
-25.056541,2.7398925,2.840176
-25.118597,2.7447848,2.8375368
-25.178478,2.7486215,2.8335567
-25.24806,2.7591355,2.8393226
-25.299044,2.757819,2.8282685
-25.362297,2.7649193,2.8294716
-25.423386,2.7709513,2.8293037
-25.482346,2.7758977,2.8277287
-25.539848,2.7801812,2.8253489
-25.60852,2.7926013,2.8349314
-25.674347,2.8035176,2.8425155
-25.734272,2.8106925,2.8448257
-25.788425,2.8140802,2.841765
-25.846092,2.8203404,2.843038
-25.901123,2.8250165,2.8421388
-25.958984,2.8321373,2.8449636
-26.01423,2.837663,2.8455906
-26.066917,2.841574,2.843978
-26.115334,2.842487,2.8380733
-26.167734,2.846754,2.8372335
-26.220545,2.8516607,2.8374639
-26.274893,2.8581288,2.840135
-26.325628,2.8620265,2.8391242
-26.373959,2.864251,2.8357477
-26.42217,2.8666368,2.8327208
-26.473574,2.871972,2.8341966
-26.523699,2.876552,2.8346663
-26.573112,2.8808353,2.8348079
-26.622904,2.885755,2.8360128
-26.67199,2.8903735,2.8368802
-26.719328,2.8937426,2.8359847
-26.766527,2.8972673,2.8354287
-26.8172,2.9042697,2.8402038
-26.864588,2.9085917,2.8410587
-26.907772,2.9092543,2.8365035
-26.95038,2.909574,2.8315206
-26.998367,2.9153023,2.834794
-27.045677,2.9207091,2.837686
-27.089415,2.9228978,2.8358097
-27.134003,2.926192,2.8356986
-27.177986,2.9291441,2.8351612
-27.222786,2.9332078,2.836403
-27.267899,2.9379017,2.838696
-27.310564,2.940301,2.8375907
-27.35176,2.9413652,2.834536
-27.393774,2.943536,2.833251
-27.436127,2.946328,2.8329968
-27.47662,2.9472802,2.8300161
-27.51833,2.9498363,2.8295655
-27.559078,2.9515305,2.827877
-27.59806,2.9513636,2.8234153
-27.664751,2.984616,2.8702831
-27.710215,2.9932165,2.8794694
-27.760277,3.0079558,2.8981805
-27.80161,3.0123615,2.9011106
-27.853384,3.0304286,2.9251447
-27.892342,3.0326045,2.924817
-27.931206,3.0348966,2.9247403
-27.969597,3.0367997,2.9241362
-28.007534,3.0383108,2.9229975
-28.046484,3.0414505,2.9244442
-28.084963,3.0441992,2.9253573
-28.12228,3.0455377,2.9241595
-28.158833,3.0459664,2.9216194
-28.196358,3.048027,2.9216728
-28.233126,3.0491762,2.9203796
-28.269829,3.0504293,2.919313
-28.30614,3.051275,2.9176764
-28.34144,3.0506833,2.9138703
-28.378592,3.053273,2.91507
-28.413807,3.0528803,2.911696
-28.449598,3.0536156,2.9101362
-28.484745,3.0534184,2.907185
-28.520443,3.054351,2.906055
-28.556934,3.0569363,2.9075599
-28.593613,3.0601428,2.9100966
-28.629099,3.0613773,2.9096193
-28.664526,3.0627096,2.9093547
-28.69963,3.0636191,2.9084883
-28.73367,3.06254,2.9045715
-28.767948,3.0620737,2.901668
-28.801483,3.060132,2.8965116
-28.83527,3.058801,2.8923645
-28.868597,3.0565112,2.8867707
-28.900826,3.0516882,2.8772583
-28.93248,3.0453713,2.8654547
-28.964039,3.0386066,2.8529959
-28.994276,3.0282385,2.8349304
-29.025127,3.0189934,2.8186698
-29.053043,3.00139,2.7893343
-29.076797,2.9711862,2.7402449
-29.098103,2.932043,2.677136
-29.054052,2.6952968,2.3035402
-29.099512,2.7184417,2.3382697
-29.119663,2.6623313,2.248464
-29.141699,2.6083498,2.162014
-29.162338,2.5453746,2.0614262
-29.14159,2.328036,1.7179236
-29.163126,2.251176,1.5954304
-29.151552,2.0372682,1.2571597
-29.145586,1.8263884,0.9235606
-29.165041,1.7047255,0.7304187
-39.680363,0.83242226,0.38727093
-39.671158,0.88980293,0.48550797
-39.694473,0.9292929,0.55914354
-39.71413,0.97033405,0.634882
-39.663017,1.0475855,0.75980234
-39.652138,1.1031163,0.85497236
-39.687473,1.1345427,0.9174328
-39.67946,1.1875186,1.0089579
-39.694355,1.2284894,1.0842276
-39.680737,1.2830887,1.1776943
-39.74227,1.3004618,1.221354
-39.66077,1.3868175,1.3568683
-39.703934,1.4124389,1.4114728
-39.67738,1.4708884,1.5095019
-39.664833,1.5220573,1.5977392
-39.631523,1.5822413,1.6976366
-39.636295,1.6242185,1.7735124
-39.606663,1.6813831,1.8690729
-39.634865,1.7118866,1.9298472
-39.687687,1.7312808,1.9763136
-39.671143,1.7812238,2.0622067
-39.704365,1.8089421,2.1194663
-39.76176,1.8261285,2.163352
-39.82882,1.839292,2.2023
-39.81803,1.8855076,2.283265
-41.052963,1.5475054,1.9563022
-41.074463,1.5836973,2.027203
-39.837914,2.1193857,2.7124567
-39.644657,2.2344959,2.8768854
-39.690605,2.2546277,2.924635
-39.714886,2.2831447,2.9826794
-39.775658,2.2976203,3.0238423
-39.78541,2.3315048,3.088479
-39.8396,2.348559,3.1330237
-39.687943,2.4418147,3.2680445
-39.798447,2.4377034,3.2875133
-39.957146,2.4166844,3.2876701
-40.005024,2.4362772,3.3358264
-40.098347,2.4398222,3.3655891
-40.172283,2.4505737,3.4040375
-40.31246,2.4385834,3.416832
-40.392593,2.447968,3.454525
-40.544727,2.4331708,3.4653325
-40.65703,2.4325914,3.4927745
-40.78822,2.4262502,3.5143476
-40.934856,2.4154763,3.5316715
-41.00791,2.4294395,3.576768
-41.050995,2.4533064,3.6329298
-41.10913,2.4724061,3.6841178
-41.167915,2.4914403,3.7354803
-41.228268,2.510132,3.7867293
-41.29475,2.5270853,3.8364172
-41.379314,2.5387168,3.8808727
-41.48117,2.545444,3.920689
-41.547096,2.563336,3.9724116
-41.663494,2.5665135,4.0095787
-41.776188,2.571299,4.0489664
-42.89586,2.2857006,3.8015647
-42.92817,2.317698,3.8718858
-42.936737,2.356356,3.9487638
-42.9494,2.3936796,4.024327
-42.96058,2.4312532,4.100116
-43.00305,2.4601192,4.1677485
-43.393383,2.3951855,4.14901
-43.69442,2.3562675,4.156403
-44.20249,2.2644296,4.118121
-44.48812,2.2334287,4.137002
-44.840454,2.186777,4.1440263
-45.324318,2.1085942,4.126206
-45.80646,2.033544,4.1142316
-46.258278,1.968696,4.11397
-46.81968,1.879448,4.096758
-47.36226,1.7978721,4.089557
-47.95473,1.7073395,4.0790205
-48.401825,1.6544192,4.101782
-49.039597,1.5593817,4.09567
-49.797775,1.4400852,4.0760655
-50.64795,1.3040247,4.0497603
-51.496933,1.1729088,4.033229
-52.40737,1.032809,4.0167713
-53.39973,0.8797512,3.998396
-54.453907,0.7187531,3.982355
-14.06418,0.51146674,1.0748596
-22.056202,2.445457,2.8093605
-22.261799,2.4996648,2.863402
-22.351116,2.5037377,2.85177
-22.450657,2.5128527,2.8471594
-22.571444,2.5321493,2.8564997
-22.661562,2.5381637,2.8484764
-22.84155,2.5862243,2.8973136
-22.86077,2.560503,2.8472624
-22.949303,2.5673165,2.8412728
-23.034472,2.5730102,2.8340578
-23.10779,2.5734484,2.8199635
-23.20337,2.5850668,2.8213816
-23.305515,2.6004846,2.8283305
-23.395782,2.6106453,2.8283944
-23.48346,2.6200361,2.827691
-23.57008,2.6294057,2.8272433
-23.653399,2.63759,2.825429
-23.735695,2.645726,2.8238106
-23.818466,2.6545858,2.823461
-23.900955,2.6637812,2.823841
-23.986094,2.674885,2.8271527
-24.065046,2.683178,2.8267775
-24.140087,2.6898046,2.8242946
-24.228642,2.7043025,2.8331609
-24.307442,2.7139604,2.835444
-24.375212,2.7179005,2.8298445
-24.44707,2.7245252,2.8282595
-24.51516,2.7294016,2.824389
-24.597801,2.7431035,2.833334
-24.666796,2.7493594,2.831853
-24.737644,2.7571166,2.8327231
-24.80341,2.762257,2.830028
-24.87788,2.7730427,2.835659
-24.935694,2.7741218,2.8274674
-25.001507,2.7804325,2.8270068
-25.068441,2.7878342,2.8283095
-25.133125,2.794226,2.8283272
-25.20156,2.803404,2.8325796
-25.267075,2.8111455,2.8349204
-25.322536,2.8127313,2.8284287
-25.38826,2.8213732,2.8324213
-25.457577,2.8328474,2.8407493
-25.516966,2.838111,2.840125
-25.573616,2.8418581,2.8374166
-25.628841,2.844939,2.8338656
-25.683918,2.8482165,2.830741
-25.742567,2.8543208,2.8319397
-25.799154,2.8593194,2.8316436
-25.85555,2.8645217,2.8317895
-25.911755,2.8699267,2.832375
-25.968365,2.875978,2.8340611
-26.01939,2.8782175,2.8301897
-26.071474,2.8815274,2.8280396
-26.121061,2.8832214,2.8235874
-26.174026,2.8877878,2.8235583
-26.22855,2.8938968,2.8259711
-26.282291,2.8997455,2.8281198
-26.33413,2.9044173,2.82862
-26.385227,2.9088123,2.8288217
-26.433928,2.9115505,2.8266335
-26.484154,2.9158313,2.8268871
-26.532572,2.9189003,2.825417
-26.585188,2.9258304,2.8299108
-26.634361,2.9301622,2.8305764
-26.68603,2.9369855,2.8351398
-26.731157,2.9383898,2.831565
-26.779316,2.9427469,2.8325858
-26.82731,2.9472651,2.8339567
-26.875652,2.9524138,2.8363938
-26.91926,2.9534779,2.8326836
-26.966785,2.9584663,2.8350725
-27.006706,2.9564958,2.8268886
-27.051998,2.9598763,2.8269973
-27.100063,2.9662657,2.8318224
-27.145046,2.9699457,2.8325806
-27.192259,2.9761682,2.837346
-27.236458,2.9796634,2.8380032
-27.27913,2.9818547,2.8367357
-27.321697,2.9841793,2.8357577
-27.36053,2.9827635,2.8290772
-27.403366,2.9858286,2.8294039
-27.443867,2.9865963,2.826254
-27.48953,2.9933367,2.8324423
-27.531113,2.9958277,2.8321257
-27.576838,3.0033438,2.839696
-27.62738,3.0168996,2.8567495
-27.67425,3.0266933,2.868054
-27.718803,3.034177,2.875855
-27.76959,3.0497096,2.8962913
-27.813217,3.057001,2.9039774
-27.851925,3.0584793,2.9026675
-27.890938,3.0605693,2.9023843
-27.930998,3.064269,2.9046893
-27.969803,3.0665934,2.9049144
-28.00703,3.067033,2.9022565
-28.045298,3.0690818,2.902185
-28.083471,3.0712433,2.902358
-28.120144,3.0715053,2.8996162
-28.156767,3.0718715,2.8971
-28.195728,3.0758736,2.9003606
-28.231537,3.0754426,2.896718
-28.267975,3.0761235,2.8948846
-28.305655,3.078936,2.8964686
-28.341957,3.079826,2.8950887
-28.377888,3.0803094,2.893128
-28.414078,3.0814028,2.892188
-28.450205,3.0825977,2.8914685
-28.486267,3.083894,2.8909693
-28.521976,3.084779,2.8898787
-28.55763,3.0857632,2.8890042
-28.595171,3.0904398,2.8940282
-28.631485,3.0931685,2.8960323
-28.66664,3.0939407,2.8949986
-28.700964,3.0932627,2.8917236
-28.735273,3.0926776,2.888649
-28.769564,3.0921843,2.8857737
-28.803837,3.091783,2.8830986
-28.83596,3.086812,2.8732228
-28.870245,3.0865886,2.8709335
-28.90226,3.0812654,2.8605957
-28.933712,3.0744636,2.8479543
-28.964869,3.0666983,2.833826
-28.99535,3.056925,2.8165479
-29.026228,3.0477448,2.8002543
-29.053394,3.0282013,2.76751
-29.077961,3.0003555,2.721579
-29.101679,2.9683678,2.6690755
-29.07956,2.7987998,2.3974123
-29.101482,2.7521048,2.321446
-29.126764,2.7127678,2.2572207
-29.146088,2.6509123,2.1571102
-29.161299,2.5701642,2.0268683
-29.147625,2.379603,1.721425
-29.167898,2.2992756,1.5917959
-29.148304,2.0563965,1.2027073
-29.147404,1.8670084,0.8989043
-29.169006,1.7554615,0.71933794
-39.665955,0.91464114,0.3689375
-39.667717,0.9656899,0.45915794
-39.690212,1.0053546,0.53342247
-39.70903,1.0465469,0.6097951
-39.678127,1.112685,0.72069645
-39.65056,1.1762385,0.82779884
-39.707947,1.1965318,0.8751073
-39.66548,1.2661953,0.99034214
-39.67101,1.3114176,1.0718417
-39.677307,1.3557956,1.1521125
-39.692944,1.3952398,1.2255993
-39.66105,1.4568753,1.329144
-39.69319,1.4876404,1.3907332
-39.658607,1.5492377,1.4938955
-39.656193,1.5952334,1.5758681
-39.64662,1.6440012,1.6614437
-39.639404,1.6911645,1.7447443
-39.630573,1.7385371,1.8281984
-39.637062,1.7786291,1.901885
-39.66557,1.8087292,1.9623318
-39.691162,1.8399248,2.024253
-39.69911,1.8784957,2.0958447
-39.75237,1.897521,2.1419086
-39.811974,1.9139507,2.1847534
-39.82835,1.948453,2.2511344
-40.963577,1.6131217,1.8902836
-41.067715,1.6161702,1.9191608
-41.05632,1.6652532,2.0066237
-39.826958,2.189424,2.6917543
-39.81281,2.233723,2.7700481
-39.669933,2.3268087,2.9089842
-39.71466,2.3474278,2.9573011
-39.743633,2.3739831,3.013072
-39.74633,2.4101913,3.0807457
-39.651524,2.481889,3.1916637
-39.845524,2.4477031,3.1735115
-39.856403,2.4804876,3.237072
-39.94545,2.4852695,3.2669992
-40.000298,2.5024607,3.3120956
-40.061962,2.5174007,3.3547196
-40.14463,2.525279,3.389254
-40.24584,2.5271637,3.4171119
-40.35687,2.526194,3.4420905
-40.496513,2.5162048,3.4571419
-40.63195,2.5083284,3.4752712
-40.76313,2.502532,3.496406
-40.914272,2.4909444,3.5116038
-40.975567,2.508854,3.560666
-41.038433,2.526429,3.6096034
-41.109226,2.5416985,3.656252
-41.16529,2.5617504,3.7084546
-41.23019,2.579227,3.7580814
-41.30583,2.593646,3.8046913
-41.378536,2.6092,3.8528595
-41.44462,2.626956,3.9036927
-41.539005,2.63663,3.9463348
-41.646206,2.6429815,3.9859824
-41.756134,2.6490178,4.0258512
-41.840057,2.6628885,4.0742803
-42.9173,2.3994412,3.8431082
-42.92301,2.4387226,3.9207535
-42.950542,2.4718397,3.9922552
-42.955135,2.5110846,4.0698233
-42.95633,2.5510316,4.1480103
-43.23786,2.5168371,4.155416
-43.58116,2.4680743,4.150796
-43.92713,2.4205227,4.149402
-44.34002,2.3578463,4.136279
-44.72358,2.3048413,4.1344967
-45.100357,2.2556229,4.1385164
