x,y,z
-14.906773,2.9866598,1.169085
-15.081263,2.97366,1.1393294
-15.149709,2.9400997,1.0662603
-15.232106,2.9095526,0.9995632
-15.269861,2.8699627,0.9138012
-15.482197,2.867197,0.9057789
-16.648956,3.070138,1.3321924
-16.622976,3.0207534,1.2259407
-16.208752,2.8851593,0.9375186
-17.404594,3.1075125,1.4055333
-17.432594,3.0717995,1.3282638
-17.507793,3.046889,1.2738419
-17.747246,3.060659,1.3012595
-18.0881,3.0998392,1.382503
-18.21658,3.0898793,1.3598251
-18.44299,3.1044378,1.3890834
-18.721306,3.1331255,1.4483142
-18.98888,3.1607537,1.5053668
-19.139315,3.1601217,1.5026097
-19.33556,3.1720884,1.5265837
-19.52679,3.183843,1.5501523
-19.6553,3.1800277,1.5407534
-19.780148,3.1758592,1.530632
-19.949387,3.1844013,1.547493
-20.14066,3.1999676,1.5792937
-20.173954,3.1724248,1.5196629
-20.361702,3.1886334,1.5528889
-20.524569,3.1987927,1.5733123
-20.581093,3.178916,1.5299993
-20.789127,3.2038474,1.5818448
-20.908485,3.2035697,1.5801921
-21.001425,3.195908,1.5628762
-21.190016,3.21798,1.608748
-21.227345,3.1942527,1.5573354
-21.411423,3.2166529,1.6039634
-21.491238,3.2069976,1.5824871
-21.606077,3.2089615,1.5857277
-21.730856,3.2147815,1.5971861
-21.825148,3.2112157,1.5887074
-21.962452,3.2225058,1.6118436
-22.02953,3.2107978,1.5860791
-22.194687,3.232998,1.6324682
-22.248184,3.2174501,1.5985622
-22.40892,3.2397678,1.6452513
-22.454521,3.2221105,1.6068792
-22.59261,3.2378738,1.6396599
-22.656382,3.2273695,1.616538
-22.76545,3.2338314,1.6295509
-22.8643,3.2370996,1.6357803
-22.923225,3.225781,1.6109595
-23.063118,3.2457051,1.6526952
-23.115067,3.232417,1.6237006
-23.242006,3.2487288,1.6577773
-23.295235,3.236545,1.631156
-23.4291,3.256982,1.674058
-23.492151,3.2494686,1.6574097
-23.58744,3.2554996,1.6696405
-23.702982,3.270557,1.701128
-23.734245,3.2507427,1.6582866
-23.859493,3.271089,1.7010794
-23.904842,3.2577035,1.6719589
-24.024754,3.2770965,1.7127504
-24.104486,3.2795117,1.7173476
-24.124886,3.2556925,1.6659946
-24.261013,3.2843375,1.7265644
-24.321564,3.2792425,1.7151709
-24.412327,3.2884846,1.7343745
-24.50261,3.298092,1.7543702
-24.535307,3.2807722,1.716917
-24.59533,3.2766027,1.7075295
-24.689306,3.2893186,1.734189
-24.737211,3.2798486,1.7135053
-24.785835,3.2708492,1.693831
-24.888971,3.289686,1.7335877
-24.951939,3.2886546,1.7309403
-24.988865,3.2743595,1.6999784
-25.081135,3.289247,1.7313356
-25.145432,3.2898908,1.7322874
-25.19904,3.2850904,1.7216196
-25.310123,3.3119905,1.7786655
-25.372284,3.3127427,1.7798734
-25.385471,3.2862978,1.7229915
-25.4966,3.3152473,1.7844481
-25.574137,3.3258808,1.8067884
-25.581295,3.2959878,1.7425494
-25.679424,3.3194437,1.7922997
-25.733976,3.3176942,1.7882037
-25.786695,3.3150835,1.7822719
-25.829117,3.3063629,1.763289
-25.918299,3.32685,1.8067331
-25.981653,3.3318596,1.8171072
-26.00606,3.3123639,1.7751079
-26.083387,3.3269498,1.8059645
-26.139006,3.3279452,1.807775
-26.196056,3.3301997,1.8122845
-26.227385,3.315422,1.7803841
-26.298462,3.3277266,1.8063908
-26.365911,3.3381279,1.8283353
-26.416931,3.3375256,1.8267589
-26.445873,3.3214242,1.7920442
-26.515564,3.3346188,1.8199801
-26.578236,3.3433032,1.8382792
-26.623209,3.3393269,1.8295059
-26.650555,3.3221862,1.7925801
-26.704882,3.3254735,1.7993498
-26.775251,3.3415847,1.8335562
-26.82705,3.343781,1.8380036
-26.842178,3.3169498,1.7803593
-26.902342,3.326147,1.7997913
-26.975819,3.3468547,1.8438549
-27.018785,3.3429027,1.8351674
-27.04258,3.3227768,1.7918773
-27.096344,3.3281453,1.8031378
-27.174625,3.3554232,1.8612843
-27.219376,3.3539438,1.8579035
-27.243292,3.3338065,1.8146005
-27.295288,3.339076,1.8256679
-27.349497,3.3468282,1.8420534
-27.412739,3.363654,1.8778625
-27.45331,3.3593822,1.8685246
-27.478865,3.3404498,1.8278112
-27.529839,3.3464959,1.8405638
-27.589382,3.361693,1.8729062
-27.627552,3.3555532,1.8595834
-27.671774,3.355795,1.8599234
-27.707447,3.3471134,1.8411651
-27.754856,3.3511438,1.8496222
-27.810598,3.3648124,1.878717
-27.857101,3.3687592,1.887003
-27.885834,3.3525858,1.8522172
-27.926807,3.3503993,1.8473797
-27.982077,3.365485,1.8795242
-28.031918,3.3747582,1.899229
-28.07145,3.3717675,1.8926802
-28.102468,3.358042,1.8631482
-28.136599,3.3480008,1.8415074
-28.19981,3.3763356,1.9020424
-28.242157,3.3778346,1.905119
-28.27884,3.3717659,1.8919935
-28.312191,3.3609245,1.8686504
-28.3542,3.3623424,1.8715615
-28.40406,3.3756773,1.8999977
-28.44729,3.3797975,1.9087033
-28.483242,3.3730202,1.894074
-28.514452,3.3585634,1.8629994
-28.551285,3.3527703,1.8504834
-28.59802,3.363477,1.8733072
-28.648928,3.382132,1.9131579
-28.689217,3.3832593,1.915473
-28.72329,3.3733737,1.8942008
-28.76047,3.36893,1.8845887
-28.802025,3.3728442,1.89288
-28.84697,3.3839073,1.9164877
-28.886467,3.3847494,1.9182043
-28.921558,3.3765733,1.9006081
-28.955122,3.3647454,1.8751893
-28.991386,3.3583972,1.8615136
-29.040674,3.3821034,1.9122195
-29.080933,3.3859673,1.9204221
-29.115868,3.3770118,1.9011683
-29.149895,3.3652182,1.8758364
-29.189178,3.3668752,1.8793206
-29.232986,3.3816042,1.910811
-29.273335,3.3876693,1.9237442
-29.314295,3.396358,1.9423022
-29.352621,3.3976135,1.9449372
-29.389885,3.3956122,1.940598
-29.422447,3.376907,1.9004755
-29.458443,3.3692014,1.8839192
-29.498026,3.375043,1.8963909
-29.539215,3.3885655,1.9253197
-29.579987,3.4022036,1.9544983
-29.617094,3.400365,1.9505239
-29.652193,3.3880837,1.9241776
-29.689291,3.3851655,1.9178929
-29.727285,3.3874052,1.9226627
-29.767097,3.4024062,1.9547763
-29.804115,3.4002035,1.9500322
-29.840622,3.393449,1.9355397
-29.877178,3.385519,1.91853
-29.914843,3.3874018,1.9225473
-29.953358,3.4012177,1.9521337
-29.991196,3.4109068,1.9728823
-30.028217,3.4097009,1.9702888
-30.065483,3.414933,1.981492
-30.102648,3.4232218,1.9992471
-30.139526,3.422725,1.9981799
-40.365913,2.6445174,0.38503313
-40.39444,2.676983,0.4551649
-40.440845,2.703625,0.5129175
-40.42482,2.7498024,0.6121931
-40.51629,2.7622597,0.6398096
-40.55737,2.7904463,0.7008581
-40.616795,2.8130698,0.75009346
-40.739086,2.8171043,0.75986004
-40.8674,2.8199606,0.7671466
-41.019997,2.816411,0.760859
-41.128242,2.8263547,0.7832432
-41.175728,2.853919,0.84304
-41.216118,2.8834765,0.90707016
-41.275394,2.9078128,0.96003103
-41.48288,2.8920584,0.9279742
-41.800484,2.8480139,0.8359785
-41.93779,2.8535385,0.84913826
-42.31435,2.7974021,0.73163843
-42.301414,2.8436897,0.83126163
-42.151737,2.9242263,1.0034299
-42.889923,2.7814755,0.7026434
-43.004723,2.797194,0.7375908
-43.03001,2.8351455,0.81962776
-43.1445,2.851581,0.8561287
-43.106716,2.904469,0.96978045
-43.297062,2.903666,0.9698491
-43.641182,2.8685348,0.8973737
-43.68626,2.9030623,0.9722452
-43.848766,2.9114094,0.99179506
-44.138725,2.8925314,0.953866
-44.22804,2.918686,1.0111256
-44.339485,2.9404151,1.0590615
-44.568424,2.9379053,1.055862
-45.221172,2.848928,0.87028027
-45.322433,2.8761287,0.9299383
-45.432514,2.9019196,0.98664856
-45.56238,2.9242187,1.0360255
-45.74681,2.936457,1.0642405
-47.608,2.7364635,0.65107536
-47.576492,2.7954583,0.7780757
-47.66854,2.8318768,0.8575902
-48.00912,2.824867,0.84585905
-48.329178,2.8231835,0.84542704
-48.671303,2.8193972,0.8406844
-49.057053,2.810098,0.8244877
-49.438114,2.8035874,0.8142724
-49.785362,2.8045015,0.8197527
-50.236526,2.790763,0.79465723
-50.579628,2.7961636,0.8098011
-51.108086,2.7750738,0.76963425
-51.22397,2.8184059,0.864398
-51.686882,2.8113124,0.853806
-52.291164,2.7863169,0.8060036
-52.58123,2.8087463,0.85743093
-53.262035,2.7786856,0.79949045
-53.802235,2.7712216,0.7889304
-54.27745,2.7751474,0.80231905
-13.718634,2.907536,0.7337222
-14.1189995,2.9325027,0.78964186
-14.448125,2.945974,0.82028437
-15.134445,3.0310333,1.007957
-15.225943,3.001995,0.94524
-15.333909,2.976581,0.8904638
-15.572951,2.9784358,0.89548016
-15.611142,2.93973,0.81152725
-16.022388,2.9798326,0.9003601
-16.228464,2.9782774,0.89782286
-16.384453,2.9668646,0.87365437
-16.63556,2.9772177,0.8971753
-16.9474,3.0025666,0.9535289
-17.456104,3.0745342,1.1119967
-17.606537,3.0668073,1.0958076
-17.766289,3.061989,1.0859752
-17.890984,3.049624,1.0595956
-17.984444,3.0302775,1.0179152
-18.038368,3.0016003,0.9557929
-18.0798,2.9698927,0.88703156
-18.47322,3.0267646,1.0122104
-18.859375,3.0842366,1.1386628
-18.996357,3.0796583,1.1292448
-19.101753,3.067466,1.1031489
-19.213818,3.0574973,1.0819106
-19.314005,3.0448272,1.0547523
-19.413313,3.0323334,1.0279703
-19.477615,3.0105596,0.98087454
-19.453468,2.9641168,0.87980366
-19.62425,2.972597,0.89889145
-20.263664,3.1170728,1.2154589
-20.398365,3.1187215,1.2195506
-20.51552,3.115892,1.2138367
-20.65591,3.1206055,1.2246113
-20.773178,3.1190662,1.2217002
-20.884495,3.116289,1.2160735
-21.013142,3.1194613,1.2234468
-21.126999,3.118661,1.2221241
-21.27066,3.1279674,1.2428889
-21.402649,3.1343265,1.2571993
-21.534107,3.1412554,1.2727442
-21.701761,3.1609485,1.3161807
-21.866943,3.1808715,1.3601055
-21.96698,3.1796646,1.3578367
-22.117554,3.196388,1.3947468
-22.258888,3.210836,1.4266729
-22.360622,3.2121632,1.4299183
-22.477932,3.2196074,1.4465213
-22.588692,3.2253628,1.4594259
-22.692236,3.229105,1.4679241
-22.786427,3.2299485,1.4700828
-22.879564,3.2308924,1.4724555
-22.985672,3.2372687,1.4866881
-23.075172,3.2378623,1.4882822
-23.135202,3.2274213,1.4657688
-23.28012,3.2507207,1.5169473
-23.313051,3.2302332,1.4724793
-23.458847,3.2553947,1.5277076
-23.496773,3.2373745,1.4886231
-23.611452,3.2511983,1.5190763
-23.698723,3.2542658,1.5260348
-23.744392,3.2401195,1.4954
-23.87154,3.2611349,1.5415382
-23.90115,3.240534,1.4968033
-24.045017,3.2702734,1.561975
-24.109379,3.2656057,1.5520196
-24.13302,3.242778,1.5024157
-24.269424,3.2714388,1.5652118
-24.316574,3.2597864,1.539999
-24.40564,3.2679076,1.5579453
-24.514664,3.2860954,1.5978613
-24.53854,3.2641041,1.5500698
-24.64664,3.2829869,1.5914927
-24.719791,3.2854495,1.5970697
-24.736324,3.2600253,1.541781
-24.834103,3.275433,1.5756059
-24.919865,3.285422,1.5975971
-24.936901,3.2603362,1.5430422
-25.04206,3.2812715,1.5889153
-25.112507,3.2845998,1.5963602
-25.14597,3.2684083,1.5612087
-25.255543,3.2936902,1.6165509
-25.33289,3.3021271,1.6351328
-25.353699,3.2794352,1.5857902
-25.429447,3.287646,1.6038728
-25.50301,3.2951324,1.6203699
-25.56977,3.299167,1.6293335
-25.588346,3.2751944,1.5771923
-25.712688,3.314112,1.6622505
-25.769384,3.3134007,1.66085
-25.782673,3.286336,1.6019578
-25.850594,3.292818,1.6162457
-25.930843,3.3075418,1.6485085
-25.997925,3.314549,1.6639347
-26.007801,3.2850072,1.5996361
-26.10793,3.314165,1.6633735
-26.167746,3.3176007,1.6710014
-26.208378,3.3084807,1.6512418
-26.2611,3.307654,1.6495686
-26.331734,3.3194993,1.67553
-26.393707,3.3258703,1.6895499
-26.428091,3.3130288,1.6616659
-26.475698,3.3096528,1.6544247
-26.552412,3.327802,1.6941228
-26.605968,3.329516,1.6979766
-26.629368,3.3087816,1.6528745
-26.683834,3.3115005,1.658916
-26.750849,3.3243165,1.6869745
-26.812214,3.3333223,1.7067199
-26.83855,3.314811,1.6664615
-26.88584,3.3130286,1.6626778
-26.953344,3.3281322,1.695715
-27.007362,3.3326576,1.7056823
-27.05013,3.3280008,1.6956267
-27.082058,3.3140767,1.6653633
-27.15201,3.3333588,1.7075009
-27.200962,3.3347695,1.710669
-27.250175,3.3367102,1.714992
-27.2951,3.3350058,1.7113647
-27.347279,3.340289,1.722971
-27.391176,3.3381014,1.7182875
-27.454796,3.3551886,1.7556248
-27.473778,3.329113,1.6988583
-27.52952,3.3392243,1.720983
-27.590157,3.354925,1.7552905
-27.627502,3.3472354,1.738605
-27.66938,3.344293,1.7322664
-27.703665,3.3333023,1.7083812
-27.755596,3.341485,1.7262931
-27.809639,3.3525693,1.7505264
-27.855354,3.3548262,1.755517
-27.887386,3.3415232,1.7265873
-27.931026,3.341657,1.7269454
-27.98372,3.3529508,1.7516298
-28.02926,3.356122,1.758606
-28.076199,3.3614068,1.7701879
-28.106516,3.3458161,1.7362657
-28.147223,3.3433952,1.7310495
-28.19417,3.349446,1.7442961
-28.247278,3.3644125,1.7769756
-28.284441,3.3579738,1.7629972
-28.320044,3.3492255,1.7439833
-28.361586,3.3489838,1.7435098
-28.4036,3.3496604,1.7450361
-28.453915,3.3633308,1.7748828
-28.493769,3.36144,1.7708106
-28.525856,3.3471396,1.7396898
-28.564165,3.3426108,1.7298665
-28.611364,3.3531654,1.7529149
-28.657265,3.3622403,1.7727375
-28.697178,3.3612967,1.7707243
-28.73155,3.3502908,1.7467785
-28.773054,3.3523974,1.75141
-28.819447,3.3644075,1.7776246
-28.863811,3.3732893,1.7970195
-28.898436,3.3626728,1.7739182
-28.930847,3.346814,1.7393918
-28.970135,3.3453703,1.7362795
-29.01209,3.3501842,1.7468047
-29.057653,3.3641527,1.7772784
-29.096775,3.363451,1.7757797
-29.129948,3.3476202,1.7413096
-29.168787,3.3458726,1.7375293
-29.211046,3.353712,1.754641
-29.257582,3.3748796,1.8007979
-29.296118,3.373875,1.7986321
-29.335167,3.374624,1.8002892
-29.375402,3.3796146,1.8111877
-29.409575,3.3640056,1.7771926
-29.44451,3.349718,1.7460775
-29.482687,3.3467102,1.739543
-29.524803,3.359985,1.7684898
-29.566502,3.3733766,1.7976899
-29.605953,3.3781583,1.8081264
-29.642565,3.3693266,1.7888951
-29.680092,3.3643286,1.7780175
-29.718641,3.364834,1.7791324
-29.758976,3.3775117,1.8067698
-29.79762,3.3807197,1.8137712
-29.834692,3.3719487,1.7946668
-29.871521,3.3586872,1.7657771
-29.909988,3.3592713,1.7670574
-29.950287,3.3841321,1.821239
-29.98881,3.3924236,1.8393121
-30.026623,3.3912237,1.8367019
-30.06463,3.3951259,1.8452077
-30.10249,3.3974571,1.8502908
-30.140257,3.3944643,1.8437691
-40.566086,2.6588054,0.21692371
-40.454124,2.735939,0.38508415
-40.49275,2.7652104,0.44859934
-40.518,2.7984955,0.52089167
-40.552387,2.8288608,0.58679724
-40.625305,2.8476672,0.6274214
-40.705418,2.8645701,0.66387796
-40.76328,2.8881881,0.71501637
-40.934532,2.879463,0.6953969
-41.0171,2.8967264,0.7326207
-41.168518,2.8950891,0.72848463
-41.410477,2.8693526,0.6716018
-41.62681,2.8520136,0.6330724
-41.73141,2.8658178,0.66268206
-41.863895,2.8726895,0.67710876
-42.095764,2.8543105,0.6362505
-42.356686,2.829799,0.58194494
-42.378,2.8674989,0.6638179
-42.369526,2.9124672,0.7616067
-42.54943,2.910665,0.75697994
-42.799778,2.8926919,0.7169194
-42.978348,2.8933144,0.7175636
-43.045223,2.9212093,0.77793026
-43.43631,2.8738325,0.67338896
-43.63406,2.873111,0.67102766
-43.853413,2.8685267,0.6601801
-43.928005,2.897327,0.7224722
-43.980164,2.9312403,0.79596615
-44.27223,2.9133682,0.7559371
-44.705933,2.866964,0.65332127
-44.997826,2.8527958,0.6213374
-45.102665,2.8788157,0.67745066
-45.051933,2.936825,0.8037152
-45.23786,2.946892,0.8248215
-45.53879,2.9352148,0.7982011
-45.872345,2.9188268,0.7612071
-46.012527,2.9411035,0.8090248
-46.28385,2.939383,0.80415344
-47.579292,2.8567448,0.6191721
-47.804573,2.8701143,0.64726543
-48.125237,2.8681414,0.6416216
-48.43274,2.8700504,0.6444621
-48.82717,2.8590732,0.6189394
-49.26169,2.8436275,0.5835347
-49.585472,2.848241,0.5921707
-49.931343,2.8510187,0.59672165
-50.301292,2.8518393,0.5969138
-50.92173,2.8165884,0.5176792
-51.73783,2.7555935,0.38168192
-51.946312,2.787623,0.4503441
-52.19626,2.8146613,0.5079818
-53.148064,2.7445936,0.35168028
-53.38051,2.7783709,0.42402172
-53.68035,2.804152,0.47870064
-54.652107,2.7430215,0.34170723
-54.867542,2.7844281,0.4306779
-14.126036,2.98542,0.64686537
-14.0587845,2.922917,0.5089507
-14.5061,2.9586093,0.59485006
-14.896789,2.9857614,0.6610613
-15.312002,3.0199623,0.7431135
-15.36882,2.9842336,0.66589546
-15.9145355,3.0487494,0.8165307
-16.213339,3.0651033,0.8574724
-16.485373,3.077449,0.8891654
-16.74233,3.0880463,0.9167614
-16.990486,3.098124,0.9430599
-17.048367,3.0674658,0.876894
-17.09179,3.0336576,0.8035722
-17.581646,3.1015704,0.9606147
-17.847572,3.1207056,1.0070105
-17.977478,3.109438,0.98449755
-18.054657,3.0862129,0.93488884
-18.10801,3.0574672,0.8727741
-18.626278,3.1426697,1.0681281
-18.87554,3.1643536,1.119781
-19.00735,3.157898,1.1077967
-19.127907,3.1492004,1.0907016
-19.21373,3.1320627,1.054522
-19.295433,3.114154,1.0165749
-19.3647,3.0932155,0.9717703
-19.396702,3.0624087,0.90470743
-19.453247,3.0382338,0.85258055
-19.562931,3.028893,0.8338423
-19.613274,3.0033605,0.77861834
-19.631218,2.9686446,0.7027154
-19.68647,2.944495,0.6505852
-19.67711,2.9015203,0.55610466
-20.428074,3.0835047,0.9673939
-19.570154,2.7877824,0.3047285
-19.577477,2.748231,0.21799612
-21.029541,3.0426552,0.88697195
-21.081587,3.021812,0.8419714
-21.034311,2.9683805,0.72386074
-22.152431,3.1638212,1.1700568
-22.228697,3.155366,1.1525865
-22.292892,3.1428807,1.1260724
-22.441477,3.161293,1.168716
-22.566929,3.1721566,1.194417
-22.663696,3.1730947,1.1978683
-22.769676,3.1780248,1.2102256
-22.848938,3.1733444,1.201056
-22.934576,3.1714916,1.1981888
-23.017815,3.1691217,1.1941438
-23.375305,3.1738489,1.2094917
-23.575075,3.188001,1.2433581
-23.674238,3.195684,1.2616072
-23.791441,3.2117949,1.298646
-23.879261,3.2158408,1.308722
-24.003967,3.2367728,1.3564649
-24.079342,3.2364593,1.3567619
-24.171192,3.2440324,1.3746376
-24.25328,3.247688,1.3837528
-24.342934,3.2553515,1.4017882
-24.44456,3.2692478,1.4337006
-24.522789,3.272676,1.442244
-24.602625,3.2773395,1.4535251
-24.664804,3.273822,1.4465508
-24.754845,3.2844224,1.4710293
-24.80838,3.277279,1.4559431
-24.895107,3.287224,1.4789252
-24.947767,3.2801876,1.4640527
-24.994879,3.270417,1.443078
-25.109993,3.2967453,1.5025015
-25.151276,3.2844958,1.4759812
-25.196941,3.274646,1.4547963
-25.297646,3.2951612,1.5012131
-25.353119,3.2913268,1.4933982
-25.389137,3.2767296,1.4616141
-25.485382,3.2965317,1.5063896
-25.553133,3.30066,1.5162606
-25.57594,3.2788136,1.4683185
-25.680332,3.3052614,1.5278268
-25.734844,3.3026414,1.5226464
-25.774775,3.2913465,1.4981565
-25.813765,3.2794707,1.4723687
-25.912,3.3047724,1.5292597
-25.970303,3.3056538,1.5318222
-25.990316,3.2821574,1.4801688
-26.091106,3.3111336,1.5451794
-26.153505,3.3157542,1.5560231
-26.196333,3.3076365,1.5385361
-26.245434,3.3038545,1.5306821
-26.319504,3.3175125,1.5615792
-26.38796,3.3279068,1.5852075
-26.41147,3.306915,1.5390811
-26.473537,3.3134115,1.5540285
-26.546513,3.3283575,1.587738
-26.596642,3.327051,1.5853267
-26.61844,3.304633,1.5360103
-26.67814,3.3107994,1.5501866
-26.746403,3.324066,1.5801191
-26.806736,3.3317542,1.597652
-26.827427,3.3082368,1.5458755
-26.896072,3.3232017,1.5795498
-26.960573,3.335476,1.6072359
-27.007408,3.3335986,1.6034913
-27.03461,3.315217,1.5631008
-27.092714,3.323214,1.5812631
-27.163168,3.3425689,1.6246266
-27.200308,3.3330777,1.6039534
-27.23803,3.324051,1.5843053
-27.285671,3.3241239,1.5848465
-27.35005,3.3401453,1.6207709
-27.398012,3.3413012,1.6237001
-27.441149,3.338063,1.6168704
-27.481966,3.332669,1.6052527
-27.530415,3.3349912,1.6107469
-27.592865,3.351949,1.6487031
-27.64295,3.3568952,1.6600013
-27.671814,3.3397737,1.6223426
-27.718885,3.3419054,1.6273866
-27.778051,3.3576534,1.6626234
-27.823565,3.3589396,1.6657767
-27.8659,3.3568788,1.6615009
-27.893892,3.3382676,1.6205149
-27.933472,3.3329086,1.6089149
-28.007175,3.3689196,1.689044
-28.044071,3.361122,1.6720219
-28.078331,3.349896,1.6473947
-28.11436,3.3407052,1.627276
-28.158333,3.341804,1.6299653
-28.219421,3.3662298,1.6843629
-28.263105,3.368017,1.6885629
-28.299091,3.35927,1.6694069
-28.332247,3.3462589,1.6407943
-28.37995,3.3543146,1.6588736
-28.42944,3.3656893,1.6843014
-28.468513,3.3617146,1.6757035
-28.504879,3.353462,1.657619
-28.540447,3.3437016,1.6361885
-28.58675,3.3515975,1.653883
-28.637413,3.3676302,1.6896038
-28.678686,3.3681996,1.6910481
-28.71458,3.3592532,1.6714025
-28.750042,3.3491867,1.6492691
-28.79682,3.3605232,1.6745586
-28.839146,3.3639436,1.6822996
-28.882301,3.3694973,1.6947632
-28.91627,3.3561945,1.6654406
-28.953726,3.3498392,1.6515083
-28.993292,3.3480294,1.6476417
-29.040297,3.363747,1.6826019
-29.08095,3.3654072,1.6864119
-29.117973,3.358243,1.6706681
-29.15146,3.3414142,1.6335101
-29.190756,3.3393054,1.6289563
-29.245323,3.3808722,1.7211514
-29.2862,3.3855264,1.7315679
-29.326248,3.3882513,1.7377057
-29.362331,3.3784266,1.7160397
-29.398321,3.367463,1.6918478
-29.433262,3.3516798,1.6569748
-29.472883,3.3523428,1.6585274
-29.516253,3.3686671,1.6947651
-29.558357,3.3818364,1.7240076
-29.597239,3.3820055,1.7244511
-29.635849,3.3810441,1.7223868
-29.672129,3.3674629,1.6923642
-29.71205,3.3732631,1.705267
-29.752728,3.385329,1.7320409
-29.791601,3.3872335,1.7363043
-29.829435,3.38143,1.7234912
-29.866623,3.3683228,1.6944976
-29.905,3.3639438,1.6848297
-29.945515,3.3851626,1.7318525
-29.984568,3.3937366,1.750864
-30.023376,3.4028234,1.7710066
-30.061287,3.393906,1.7512703
-30.099827,3.404015,1.7736673
-30.13799,3.3985858,1.7616467
-40.579903,2.8074725,0.35029078
-40.6338,2.8324108,0.40420818
-40.861374,2.8061886,0.3430786
-40.985283,2.8115368,0.3528719
-41.080875,2.8256073,0.3822484
-41.11662,2.8570118,0.45060778
-41.193024,2.876964,0.4931779
-41.42804,2.8533816,0.4376769
-41.541306,2.8643425,0.45990753
-41.583817,2.8947957,0.52603054
-41.691166,2.908051,0.5533719
-41.845634,2.9094415,0.5539131
-42.241013,2.8495421,0.41610575
-42.381145,2.8569968,0.43015957
-42.379524,2.900634,0.52586603
-42.51535,2.9099784,0.54411316
-43.00693,2.833298,0.36788845
-43.02322,2.8738322,0.45646334
-43.051743,2.911264,0.53802586
-43.336884,2.8887146,0.48384237
-43.61452,2.8695116,0.437109
-43.82437,2.8672266,0.42856932
-43.80554,2.9170775,0.5380926
-43.912193,2.9389064,0.5840988
-44.306828,2.8987682,0.4894805
-44.378834,2.9297404,0.55607796
-44.58969,2.9317179,0.5567999
-45.129314,2.866768,0.40533876
-45.147667,2.911137,0.50215197
-45.13037,2.962476,0.6148248
-45.97314,2.843764,0.34041357
-46.05017,2.8787193,0.41556978
-46.086136,2.92171,0.5090122
-46.28086,2.9348187,0.5342889
0.04774666,3.3024821,0.6242552
-4.05142,3.237211,0.61633205
-14.5036745,3.0046515,0.44011974
-14.661802,2.9858894,0.40362644
-14.895823,2.9826746,0.40371037
-15.336025,3.0216196,0.50303507
-15.377224,2.9825335,0.418087
-15.810426,3.023821,0.5223222
-16.181664,3.0547056,0.60170746
-16.47652,3.0715537,0.64778805
-16.807072,3.0977106,0.71547127
-16.953564,3.0855975,0.69312334
-16.982292,3.0480776,0.6111326
-17.326664,3.081429,0.69505453
-17.377121,3.0497172,0.62650156
-17.424572,3.0173512,0.55639315
-18.120718,3.1374738,0.84239197
-18.168427,3.1074333,0.7773938
-18.312862,3.1008258,0.76701593
-18.602173,3.1304786,0.8410306
-18.636326,3.0983326,0.7709274
-18.606968,3.0500813,0.6633396
-19.290207,3.183796,0.97890806
-19.36368,3.1637573,0.93667555
-19.405685,3.1356559,0.8756795
-19.479614,3.1160693,0.83442783
-19.560297,3.0985365,0.79789925
-19.604906,3.07138,0.7390189
-19.627811,3.0381913,0.66614914
-19.596697,2.989611,0.55764437
-19.677004,2.9722877,0.5215039
-19.550596,2.8953695,0.34750843
-19.574112,2.8611114,0.27221823
-20.976826,3.127032,0.9004235
-21.060833,3.116073,0.8783827
-21.13697,3.1029494,0.8513136
-21.265259,3.1068714,0.8634615
-21.386084,3.1090684,0.8715663
-21.471039,3.100077,0.8538604
-21.587324,3.101913,0.86101484
-21.685658,3.098295,0.85556555
-22.73213,3.1133523,0.91582346
-22.765947,3.0904388,0.8656707
-23.101606,3.186415,1.0875683
-23.326662,3.2067513,1.1383443
-23.313755,3.166648,1.048727
-23.476295,3.1986976,1.124022
-23.499414,3.1734836,1.0684085
-23.5045,3.1404035,0.9948292
-23.428503,3.0720258,0.8406668
-23.335363,2.994882,0.666554
-24.072727,3.2144156,1.1730533
-24.12343,3.202779,1.1482625
-24.197147,3.201927,1.148035
-24.29014,3.2105079,1.1692729
-24.376818,3.2166934,1.1850133
-24.448977,3.2164228,1.1860127
-24.516457,3.2142417,1.1826348
-24.59008,3.21542,1.1868768
-24.658426,3.2143588,1.1859932
-24.728443,3.2144866,1.187789
-24.795147,3.2132814,1.1865263
-24.859833,3.2113557,1.1836
-24.927391,3.211254,1.1847973
-24.992931,3.2104263,1.184319
-25.06366,3.2127352,1.1909451
-25.13588,3.2162726,1.2003365
-25.21777,3.225617,1.2228923
-25.291018,3.2306874,1.2357078
-25.384113,3.247545,1.2752614
-25.453606,3.2515488,1.2855983
-25.519382,3.2538116,1.291954
-25.590519,3.25964,1.3063812
-25.664074,3.2674024,1.3251696
-25.741623,3.2781277,1.3506498
-25.806084,3.2813756,1.3591442
-25.875687,3.288241,1.3758183
-25.940609,3.2926345,1.3868628
-26.0031,3.2958887,1.3953023
-26.077946,3.3075976,1.4228835
-26.12883,3.3040779,1.4159269
-26.205952,3.3183599,1.4492898
-26.255426,3.3145275,1.4415879
-26.32607,3.3254857,1.4673734
-26.376734,3.3230584,1.4628181
-26.419897,3.3155203,1.4466767
-26.46852,3.3119776,1.439569
-26.546604,3.3301547,1.4816136
-26.595764,3.3276892,1.4769096
-26.63114,3.315046,1.4491591
-26.680313,3.312844,1.4450264
-26.766842,3.3398328,1.5069184
-26.81679,3.339104,1.5060792
-26.840454,3.3175976,1.4582353
-26.883358,3.311316,1.4448185
-26.967257,3.3389273,1.5080266
-27.007153,3.3307998,1.4904041
-27.043303,3.3194861,1.4655695
-27.079247,3.3078885,1.4400868
-27.17227,3.346365,1.5277624
-27.216156,3.34245,1.5196128
-27.252716,3.332004,1.4966941
-27.296299,3.3279462,1.4882002
-27.365206,3.347803,1.5337176
-27.414286,3.3496444,1.5385189
-27.447441,3.336311,1.5090365
-27.500582,3.3425333,1.5237083
-27.555286,3.3508046,1.5429921
-27.606697,3.3562405,1.5558591
-27.6488,3.352399,1.5477657
-27.689493,3.3471577,1.5365028
-27.735846,3.3480945,1.539176
-27.797565,3.3662827,1.5807705
-27.835278,3.3583817,1.5634718
-27.872133,3.3494272,1.5437875
-27.91669,3.3493686,1.5441656
-27.965332,3.3544254,1.5560741
-28.01657,3.3630905,1.5761108
-28.059406,3.3618977,1.5738959
-28.097641,3.355031,1.5588732
-28.140762,3.354451,1.5580206
-28.187325,3.3586428,1.5679188
-28.231962,3.3606415,1.5728602
-28.276741,3.363157,1.5789561
-28.309568,3.3490367,1.5475307
-28.356976,3.3556845,1.5629234
-28.404371,3.362865,1.5795035
-28.45122,3.369795,1.5955086
-28.489016,3.3631248,1.5808434
-28.52401,3.351829,1.5557451
-28.569305,3.3571534,1.5680985
-28.623222,3.3775966,1.6145163
-28.664661,3.3776739,1.6150203
-28.702503,3.371533,1.6015048
-28.73639,3.3579597,1.5712309
-28.778564,3.359535,1.5750852
-28.83017,3.379895,1.6212544
-28.869293,3.3765535,1.6140099
-28.906555,3.3693302,1.5980115
-28.943802,3.3617992,1.5813112
-28.983908,3.3603473,1.5782976
-29.027807,3.3677917,1.5953164
-29.07077,3.3737597,1.6089988
-29.110294,3.371838,1.6048994
-29.144114,3.3551846,1.5676107
-29.183594,3.3526506,1.5621166
-29.22895,3.366686,1.5939322
-29.270298,3.3704,1.6024909
-29.313711,3.3810658,1.6266956
-29.35366,3.3817856,1.6284933
-29.391548,3.3757596,1.6150889
-29.42589,3.3565185,1.5719209
-29.465548,3.3555155,1.5698133
-29.5097,3.372788,1.6088495
-29.551334,3.3816996,1.6290483
-29.59136,3.384659,1.6358361
-29.629805,3.3804412,1.6264558
-29.668053,3.374703,1.6136422
-29.707216,3.3735147,1.6110659
-29.749426,3.391872,1.6524887
-29.788898,3.3949451,1.6594887
-29.827497,3.3920403,1.6530213
-29.863888,3.368552,1.600205
-29.9036,3.3727348,1.6096797
-29.94451,3.3936548,1.6568265
-29.983616,3.3968291,1.6640124
-30.022636,3.4005098,1.6723309
-30.061766,3.4107857,1.6954875
-30.100397,3.4118266,1.6978459
-30.138983,3.4105306,1.6949344
-40.8032,2.8969839,0.34958553
-40.924397,2.903399,0.36042356
-41.086662,2.8988707,0.34584618
-41.388092,2.8567238,0.24400091
-41.529053,2.8602736,0.24788332
-41.626026,2.9185636,0.3741989
-41.784767,2.918861,0.37032032
-41.992535,2.9073164,0.3388095
-42.410576,2.8870752,0.28196144
-42.525936,2.9018703,0.3113389
-42.603943,2.9262652,0.3630166
-42.76877,2.9299982,0.36645222
-43.001682,2.9184117,0.3340068
-43.128006,2.9330168,0.36256695
-43.879124,2.9427717,0.36181068
-44.443207,2.913074,0.27932882
-44.538284,2.9398634,0.3355894
-45.164013,2.9056358,0.24112701
-45.30425,2.925725,0.2811737
-45.548897,2.9258063,0.27388954
-45.91413,2.9037294,0.21404076
-46.010475,2.9350395,0.28010273
-46.285713,2.9330482,0.26724672
-46.404545,2.96139,0.32602882
10.613695,3.6735053,0.5104866
-1.9446068,3.4766605,0.66789246
-2.553196,3.4555018,0.6497102
-3.0229244,3.424425,0.6032324
-15.024992,2.9996777,0.20788622
-15.698356,3.0388594,0.3238592
-15.872505,3.0278363,0.3067994
-16.123507,3.0337067,0.33054876
-16.343086,3.0342536,0.3410921
-16.665634,3.0581398,0.40789318
-16.99633,3.08565,0.48307323
-17.05315,3.0542123,0.4154811
-17.362837,3.0798955,0.4856553
-17.354334,3.0345135,0.3842187
-17.386057,2.9981134,0.30444288
-18.186983,3.1430264,0.66063213
-18.236513,3.1133578,0.59654236
-18.297451,3.0864966,0.53915787
-18.579412,3.1141958,0.6125159
-18.619999,3.0832624,0.5451608
-18.666073,3.0536911,0.48104572
-18.71674,3.0253084,0.41974497
-19.464886,3.1787972,0.7927222
-19.504368,3.150086,0.73018694
-19.55251,3.1236672,0.6730962
-19.612478,3.1004956,0.6237111
-19.59286,3.0555115,0.5223775
-19.592869,3.0155225,0.43296766
-19.600952,2.9774747,0.34819317
-19.55912,2.9248095,0.22873306
-21.011293,3.1234138,0.7296462
-21.123085,3.1210573,0.72862196
-21.250809,3.1243463,0.74083614
-21.353394,3.1202083,0.7354274
-21.510887,3.134551,0.7735081
-21.64544,3.1422527,0.79581165
-21.750566,3.1408446,0.79655886
-21.849335,3.1378078,0.79339457
-21.96884,3.1424084,0.8081207
-22.054268,3.1357787,0.79635906
-22.129164,3.1257973,0.77666473
-22.246084,3.1311622,0.79295206
-22.34488,3.1306198,0.7952914
-22.429493,3.1253731,0.7865286
-22.553827,3.1353042,0.8132863
-22.673193,3.1441271,0.8373561
-22.783352,3.1501627,0.8548126
-22.859514,3.1436934,0.8429241
-22.945478,3.1413877,0.8407264
-23.022757,3.1360574,0.83140326
-23.127874,3.1422555,0.8489742
-23.20747,3.138695,0.84367657
-23.31105,3.1453936,0.8622861
-23.375696,3.1364691,0.8443608
-23.434193,3.1251693,0.82085896
-24.333824,3.242541,1.1149597
-24.405022,3.2413068,1.1144214
-24.481096,3.242771,1.1201129
-24.578335,3.2549462,1.1506438
-24.62862,3.2446911,1.1290269
-24.70322,3.246676,1.1358008
-24.764582,3.2423925,1.1279855
-24.825233,3.2380018,1.1198907
-24.876085,3.2287786,1.1005583
-24.920378,3.2162292,1.0734911
-24.964241,3.2034802,1.0459447
-25.073408,3.225976,1.1000395
-25.068932,3.1873152,1.0124164
-25.100952,3.1681883,0.9700427
-25.117193,3.140047,0.906796
-25.19188,3.1447377,0.91953135
-25.363178,3.2055824,1.0621405
-25.471123,3.2314126,1.1236553
-25.58141,3.2596643,1.1907058
-25.626614,3.2499647,1.16996
-25.693247,3.2533576,1.1794543
-25.753628,3.2533119,1.1809697
-25.818653,3.256486,1.1898947
-25.877022,3.2558458,1.1899796
-25.929441,3.2516797,1.1818967
-25.9865,3.2507296,1.1812139
-26.046503,3.2520082,1.1856494
-26.1017,3.2504096,1.1834192
-26.158293,3.2500172,1.1839442
-26.216724,3.2511854,1.188046
-26.271,3.2497787,1.1861835
-26.329557,3.2516682,1.1918945
-26.377737,3.246433,1.1811619
-26.425919,3.241339,1.1707344
-26.495378,3.252173,1.19698
-26.550327,3.2526932,1.1994386
-26.609264,3.2565682,1.2095962
-26.670218,3.2624094,1.2242575
-26.734451,3.2713017,1.2459126
-26.796036,3.2786329,1.2639446
-26.858135,3.286889,1.2840781
-26.936789,3.3093598,1.3368835
-26.982862,3.3054767,1.3290348
-27.02977,3.3024476,1.3231325
-27.081236,3.3035395,1.3266883
-27.1379,3.3095152,1.3414483
-27.19181,3.3134892,1.3515859
-27.24708,3.3190968,1.3654542
-27.30245,3.32525,1.3805523
-27.35868,3.332685,1.3985729
-27.4161,3.3417783,1.4203792
-27.465553,3.3436725,1.4256248
-27.508121,3.339048,1.4158845
-27.56945,3.3534813,1.4498849
-27.618656,3.3562095,1.4569893
-27.663048,3.3542352,1.4532781
-27.706345,3.351263,1.4472618
-27.75135,3.350286,1.4458084
-27.814566,3.3697374,1.4912124
-27.854792,3.3641639,1.4791756
-27.888882,3.3515193,1.4509048
-27.928722,3.3453815,1.4375496
-27.994831,3.3708274,1.4966159
-28.039948,3.371802,1.4995375
-28.076141,3.3618603,1.4774108
-28.110767,3.3497124,1.4502163
-28.152685,3.3468175,1.4442258
-28.21692,3.3739223,1.5069838
-28.258389,3.3713088,1.5016026
-28.28971,3.3545763,1.4638505
-28.32898,3.3486917,1.4509492
-28.37308,3.3498528,1.4541802
-28.426302,3.3650577,1.4895687
-28.474724,3.3738472,1.5102415
-28.506416,3.356791,1.4716935
-28.547392,3.3541732,1.4662066
-28.596294,3.3648946,1.4912581
-28.643896,3.3742049,1.5130596
-28.690264,3.3820953,1.5315919
-28.724943,3.369404,1.5029836
-28.761831,3.3603134,1.4826074
-28.805428,3.3638525,1.4911366
-28.854568,3.3788948,1.5259833
-28.89594,3.3791535,1.5269718
-28.930048,3.3641782,1.4930768
-28.967243,3.3551855,1.472867
-29.011917,3.3628454,1.490758
-29.055973,3.3698423,1.5071163
-29.097198,3.3706393,1.5092707
-29.134956,3.362841,1.491746
-29.174393,3.3590958,1.4834828
-29.213762,3.3550546,1.4745312
-29.265347,3.386424,1.5465837
-29.307335,3.3917468,1.5590262
-29.346766,3.3896317,1.5544405
-29.385399,3.3848348,1.5437064
-29.418997,3.3618245,1.4912992
-29.459093,3.3607936,1.4891586
-29.49839,3.3566778,1.47995
-29.545372,3.384967,1.5448489
-29.586557,3.3910463,1.5589318
-29.625904,3.3892496,1.5549893
-29.661516,3.3675797,1.5055823
-29.701715,3.3687732,1.5084558
-29.745895,3.3956606,1.5700779
-29.785702,3.397873,1.575254
-29.823694,3.3865838,1.549542
-29.861841,3.3737888,1.5203748
-29.901253,3.3702965,1.5124707
-29.943712,3.4033465,1.5881186
-29.983412,3.4100761,1.6035647
-30.022575,3.4104993,1.6045775
-30.061563,3.4066164,1.5957317
-30.100754,3.4072406,1.5971799
-30.139938,3.412373,1.6089258
-3.243473,3.615715,0.57603455
-4.608082,3.5958443,0.61735725
-5.4739456,3.6086972,0.6997328
-5.6158504,3.5549493,0.5897002
-17.330345,3.0773606,0.2297163
-17.501736,3.0727282,0.22891665
-18.193129,3.1481974,0.43742704
-18.273327,3.1255841,0.39094877
-18.287445,3.0871859,0.30520773
-18.577126,3.116406,0.38705063
-18.686396,3.102312,0.3612728
-18.793106,3.088029,0.33489466
-18.937706,3.0839286,0.33352757
-19.481255,3.1845443,0.5901861
-19.529255,3.1578348,0.5324669
-19.55727,3.1257958,0.46159792
-19.561504,3.0871687,0.37453222
-19.556015,3.0455518,0.28015566
-19.589981,3.0145693,0.21189594
-21.00543,3.118936,0.5222068
-21.117699,3.116379,0.5221453
-21.255676,3.122604,0.54329157
-21.374756,3.1234956,0.5513458
-21.488098,3.12314,0.5562482
-21.607086,3.1252542,0.56701565
-21.74286,3.1336708,0.5929146
-21.867538,3.1391034,0.61145115
-21.959764,3.1340327,0.6044731
-22.093828,3.1440437,0.6338291
-22.219866,3.1520233,0.65814304
-22.311008,3.1482148,0.6539011
-22.409895,3.1476617,0.65742016
-22.514935,3.1498933,0.66754913
-22.60809,3.1482644,0.6682892
-22.735859,3.1602044,0.7015724
-22.825386,3.1583028,0.70146656
-22.915348,3.1570191,0.70276356
-23.008522,3.157457,0.7081113
-23.123592,3.1671133,0.7354865
-23.25668,3.1847656,0.781919
-23.353905,3.18869,0.7953377
-23.412537,3.1772053,0.7717757
-23.513884,3.1837869,0.7914009
-23.605307,3.1867774,0.8023472
-23.747105,3.211954,0.8662429
-23.783,3.1920888,0.8224058
-23.909496,3.2121162,0.8737974
-24.218304,3.2455308,0.9637141
-24.088697,3.1500614,0.7395077
-24.314493,3.2197506,0.9087744
-24.359974,3.205712,0.8785281
-24.396257,3.1872628,0.8377614
-24.403683,3.1546073,0.7631979
-24.51357,3.1722713,0.80825377
-24.581072,3.1695085,0.80468655
-24.718164,3.202463,0.88589096
-24.890068,3.2546122,1.0125384
-24.935963,3.2427084,0.9870477
-25.030533,3.2566109,1.0227361
-25.052254,3.2321806,0.96747255
-25.072193,3.206488,0.9092169
-25.114647,3.19286,0.8795414
-25.14816,3.1742313,0.83800364
-25.178076,3.1534185,0.79128456
-25.194387,3.124595,0.7256031
-25.211948,3.096066,0.6606231
-25.226887,3.0655627,0.590981
-25.590103,3.242572,1.0118074
-25.68879,3.264666,1.0662766
-25.745298,3.2618132,1.061748
-25.805952,3.2617853,1.0638556
-25.900063,3.2831976,1.116529
-25.954273,3.2799938,1.1110482
-26.004795,3.274618,1.1004124
-26.060404,3.2727518,1.0980239
-26.122452,3.275445,1.1063504
-26.185738,3.2793639,1.1175241
-26.258116,3.289953,1.1443715
-26.265965,3.256137,1.0665908
-26.314344,3.2503173,1.0547376
-26.367043,3.2477276,1.0504618
-26.40737,3.2363374,1.0254469
-26.468914,3.2406101,1.03726
-26.550941,3.2607071,1.0862532
-26.602522,3.258478,1.082695
-26.657173,3.2588508,1.0852246
-26.712996,3.2604463,1.0905976
-26.712317,3.2171998,0.9905834
-26.74325,3.1985419,0.9483447
-26.850521,3.242581,1.0533276
-26.91563,3.252974,1.0792403
-27.016613,3.2945738,1.1783614
-27.061754,3.289433,1.1677251
-27.11058,3.2876403,1.1649222
-27.160133,3.2867095,1.1641154
-27.210377,3.2866464,1.1653175
-27.260492,3.2867334,1.1668453
-27.307407,3.284072,1.1619029
-27.357311,3.2844498,1.1640601
-27.40857,3.286433,1.1699553
-27.457079,3.2860155,1.170197
-27.502956,3.2831767,1.1647425
-27.547386,3.2789972,1.1561275
-27.59358,3.2767785,1.152082
-27.64283,3.278009,1.1560884
-27.69227,3.2797537,1.1612744
-27.739887,3.2797918,1.1624398
-27.785765,3.2781093,1.1595573
-27.832554,3.2776716,1.159565
-27.877682,3.275501,1.1554956
-27.928654,3.2805579,1.1683092
-27.976034,3.2816477,1.1718192
-28.02507,3.285126,1.1808901
-28.074781,3.2898762,1.1929111
-28.125397,3.296282,1.208777
-28.172365,3.2983084,1.2143822
-28.220827,3.3027396,1.2255831
-28.27148,3.310724,1.2450624
-28.32128,3.3181021,1.2630992
-28.37128,3.32639,1.2832365
-28.419693,3.3329237,1.2992506
-28.467339,3.3388362,1.3137918
-28.509716,3.3368585,1.309886
-28.550924,3.333079,1.3017559
-28.597843,3.3389943,1.3162384
-28.644289,3.3446608,1.3301182
-28.685772,3.3419976,1.3245354
-28.7279,3.3405986,1.3218846
-28.767984,3.3354537,1.3104739
-28.811115,3.3362033,1.3128009
-28.856453,3.3417108,1.3262072
-28.902115,3.348507,1.3426008
-28.944118,3.3480663,1.3420916
-28.985395,3.346184,1.338202
-29.027843,3.3471296,1.3408895
-29.070532,3.3489664,1.3456373
-29.113426,3.351696,1.352448
-29.155005,3.3514237,1.3522396
-29.198963,3.3578925,1.367732
-29.248938,3.382447,1.4253693
-29.287968,3.376665,1.4122591
-29.329247,3.3776317,1.4148641
-29.37093,3.3802717,1.4213543
-29.414284,3.3892918,1.4426961
-29.451408,3.3764744,1.4131207
-29.49348,3.3817933,1.4258003
-29.535172,3.3864393,1.4368939
-29.574417,3.3809824,1.4244251
-29.614458,3.378769,1.4194975
-29.656946,3.3892415,1.4441166
-29.695017,3.3766167,1.4148955
-29.736162,3.3810096,1.4253125
-29.77755,3.388266,1.4423847
-29.817883,3.3893301,1.4450107
-29.857811,3.3873463,1.4405174
-29.897827,3.3858583,1.4371643
-29.936974,3.373436,1.4083171
-29.978296,3.3883173,1.443069
-30.018688,3.3942368,1.4569244
-30.058792,3.3975005,1.4645734
-30.098736,3.398106,1.4660139
-30.138668,3.401575,1.4741096
-3.1616516,3.6849482,0.3329034
-5.519268,3.682799,0.5074172
-18.789993,3.1195586,0.21037102
-19.016973,3.1359477,0.26280022
-19.193756,3.1407244,0.28540134
-19.511593,3.183352,0.40355396
-19.536282,3.1502647,0.32972336
-19.55672,3.115882,0.2526188
-22.110062,3.1349769,0.45637608
-22.2478,3.146959,0.49212074
-22.342958,3.1444223,0.49188948
-22.436401,3.1417308,0.49116898
-22.548803,3.1465325,0.50878716
-22.662815,3.1525908,0.52936316
-22.766426,3.1553676,0.5417371
-22.854916,3.1528962,0.5411062
-22.94384,3.1510334,0.5418725
-23.044918,3.154426,0.555429
-23.124971,3.1499722,0.5496464
-23.251194,3.1646264,0.5905638
-23.341406,3.165332,0.59720945
-23.414467,3.1593804,0.58748245
-23.542187,3.1768017,0.6347871
-23.623917,3.1754766,0.63617563
-23.686283,3.1661818,0.6180377
-23.79314,3.1766055,0.647923
-24.067505,3.2269073,0.77907276
-23.979279,3.1508946,0.59822226
-24.278032,3.2165473,0.7660651
-24.319923,3.2003267,0.7305865
-24.334116,3.1707773,0.6627202
-24.482138,3.205997,0.7520256
-24.437347,3.1474514,0.61377335
-24.537365,3.1601164,0.64820814
-24.548256,3.1283808,0.57498217
-24.72286,3.1802008,0.70407677
-24.852333,3.2103286,0.7804804
-24.993505,3.2478096,0.87453365
-25.075031,3.254818,0.8947668
-25.099552,3.2315257,0.8417072
-25.13432,3.2135825,0.80156374
-25.172272,3.197282,0.76536846
-25.2049,3.1778963,0.72170925
-25.20285,3.1385217,0.62982893
-25.202393,3.099342,0.53844833
-25.54678,3.2619421,0.9333067
-25.637207,3.2782147,0.9753308
-25.366524,3.077272,0.49431562
-25.7274,3.2194355,0.8420744
-25.78331,3.2156663,0.83568573
-25.848938,3.218326,0.8447075
-25.92602,3.2288117,0.8724785
-25.99702,3.2359297,0.89209604
-26.04063,3.2253127,0.8690772
-26.106142,3.2295203,0.8816099
-26.224628,3.2705345,0.98239326
-26.295204,3.279704,1.0066915
-26.35288,3.2803342,1.0104599
-26.41084,3.2814898,1.0154457
-26.449429,3.2688708,0.98738813
-26.475784,3.2471135,0.93742514
-26.511343,3.2318976,0.9031167
-26.581955,3.2432477,0.93237543
-26.631546,3.2389674,0.92418003
-26.583866,3.1582832,0.7332001
-26.615513,3.1387513,0.6885276
-26.624458,3.1004434,0.5989599
-26.88092,3.2655907,0.99562025
-26.946426,3.276187,1.0227804
-27.006504,3.2827866,1.0403438
-27.075993,3.2980542,1.0785618
-27.13523,3.305074,1.0970368
-27.191341,3.3098044,1.1100054
-27.240541,3.3086627,1.1089253
-27.292336,3.3101642,1.1141176
-27.34055,3.3086019,1.11197
-27.393162,3.3114853,1.1203923
-27.43528,3.3044546,1.1051483
-27.486534,3.3065526,1.1116352
-27.529423,3.3004858,1.0986352
-27.580086,3.3025084,1.1048803
-27.612326,3.2854168,1.0655756
-27.653458,3.2774923,1.0480838
-27.694395,3.269305,1.0299444
-27.73908,3.2652457,1.0216088
-27.76998,3.2455285,0.9759908
-27.802658,3.2273316,0.93398
-27.829622,3.201822,0.87456274
-27.855165,3.1737542,0.8090582
-27.886856,3.1523688,0.75943613
-27.924377,3.1377094,0.725791
-27.943672,3.0989735,0.6349082
-27.911985,2.9909678,0.37942076
-28.199028,3.3117003,1.1426344
-28.385405,3.3195639,1.1652641
-28.426498,3.3139539,1.1528673
-28.471033,3.3137257,1.1532259
-28.515503,3.3136187,1.1538458
-28.558994,3.3121192,1.1511383
-28.60224,3.310357,1.1477823
-28.646332,3.310227,1.1482754
-28.689526,3.3086958,1.145421
-28.734732,3.3110833,1.1518369
-28.777042,3.3082623,1.145875
-28.823008,3.312798,1.1573362
-28.866365,3.3124964,1.1573033
-28.91039,3.3138406,1.1611466
-28.953455,3.3133886,1.1607094
-28.995647,3.3111336,1.1559758
-29.039303,3.3124413,1.1596632
-29.082712,3.313482,1.1626945
-29.126488,3.3157911,1.1687088
-29.16772,3.3116753,1.1594748
-29.22445,3.351193,1.2536025
-29.278715,3.3874228,1.3399048
-29.318756,3.3833067,1.3305931
-29.357592,3.3750434,1.3114367
-29.396317,3.3657162,1.2897415
-29.420048,3.3007889,1.1363363
-29.464561,3.308643,1.155303
-29.4491,3.06992,0.59028196
-29.486168,3.0302007,0.49656916
-29.890125,3.3543513,1.2659531
-29.93212,3.3638482,1.288559
-29.97354,3.369564,1.3021922
-30.016006,3.3991194,1.3722405
-30.056614,3.403496,1.3826594
-30.09672,3.3904674,1.3518534
-30.137325,3.3973866,1.3682504
-23.440556,3.1534371,0.4196663
-23.553598,3.1644988,0.45294952
-23.64764,3.168144,0.46757364
-23.720463,3.1630971,0.46040583
-23.809916,3.1657062,0.47223234
-23.969397,3.2001522,0.5632138
-24.25265,3.2208817,0.6296129
-24.289097,3.2016857,0.58670235
-24.320353,3.1799114,0.5373745
-24.393631,3.1783075,0.53804064
-24.500055,3.1933272,0.57981396
-24.51726,3.1648092,0.51365376
-24.57393,3.1558042,0.49578667
-24.7946,3.2306712,0.6852732
-24.766613,3.1793103,0.5624976
-24.901855,3.2125318,0.64870644
-25.032297,3.2444901,0.7316232
-25.093958,3.2406392,0.7260375
-25.16401,3.2416358,0.7323413
-25.178167,3.2120824,0.6632929
-25.187492,3.1793637,0.5864601
-25.20207,3.1490903,0.5156646
-25.38466,3.2152662,0.6821642
-25.43113,3.204028,0.6580739
-25.264305,3.0663042,0.32309628
-25.66554,3.2284875,0.7284169
-25.722584,3.224753,0.7225294
-25.809437,3.2399611,0.7630539
-25.85886,3.232112,0.7469554
-25.834627,3.176786,0.61447763
-25.958872,3.217489,0.7172766
-26.037607,3.2294564,0.74957705
-26.12554,3.2483127,0.79865503
-26.189945,3.2519388,0.8103838
-26.23827,3.2448103,0.7957568
-26.296099,3.2444913,0.7977357
-26.40751,3.282868,0.89420176
-26.456524,3.277339,0.8833184
-26.512392,3.2770092,0.88509035
-26.54104,3.2565491,0.8376899
-26.57375,3.2388415,0.7969947
-26.590588,3.2085834,0.7256813
-26.619972,3.1875288,0.6768098
-26.630142,3.150736,0.58957815
-26.87892,3.3068917,0.97234535
-26.934837,3.3092394,0.9802904
-26.973215,3.297224,0.9532256
-26.953259,3.2352924,0.8046756
-27.019403,3.2462897,0.83358383
-27.076344,3.2498279,0.84429455
-27.13303,3.253546,0.85539436
-27.192532,3.260253,0.87371016
-27.25433,3.2696185,0.89843655
-27.305624,3.2696517,0.9004421
-27.362293,3.2751493,0.9156771
-27.404562,3.266976,0.8976784
-27.47507,3.2870374,0.94817305
-27.559162,3.3219845,1.0347171
-27.590364,3.303572,0.99175644
-27.65691,3.322161,1.0385065
-27.710432,3.327676,1.0535021
-27.732603,3.299113,0.98586416
-27.769392,3.2860913,0.9558811
-27.803339,3.269528,0.9172993
-27.835545,3.2504885,0.8727031
-27.86097,3.222775,0.80709124
-27.885395,3.1928942,0.736228
-27.917685,3.1717925,0.6866088
-27.923658,3.1163414,0.55385923
-27.913939,3.038073,0.36592913
-29.166288,3.3462517,1.1331844
-29.213533,3.358581,1.1635079
-29.262165,3.376363,1.2069421
-29.302105,3.369572,1.191113
-29.346361,3.376199,1.2075996
-29.386219,3.368855,1.1903872
-29.41981,3.3383615,1.1173668
-29.461536,3.3353946,1.1106577
-29.451912,3.1233957,0.6002741
-29.476671,3.0315375,0.37938118
-30.01363,3.3917096,1.2496076
-30.054928,3.3956304,1.2591214
-30.095957,3.3931372,1.2531638
-30.137102,3.3984203,1.2659073
-24.286455,3.2116277,0.46994781
-24.351458,3.2056305,0.46022606
-24.457,3.2194333,0.50052166
-24.465576,3.1866436,0.42286825
-24.544764,3.1883414,0.43236923
-24.677458,3.217345,0.51070213
-24.640547,3.1612625,0.37418604
-24.74252,3.1756573,0.4154482
-24.89392,3.2166774,0.5236454
-24.980242,3.2247343,0.5486264
-25.10514,3.2541163,0.62714577
-25.172098,3.2531357,0.6291475
-25.187094,3.2238102,0.5598507
-25.198967,3.1922867,0.48504686
-25.203453,3.1560574,0.39845324
-25.460533,3.2645664,0.67488194
-25.624231,3.246288,0.64107084
-25.686392,3.245174,0.6421466
-25.732407,3.2343976,0.61899424
-25.718912,3.1863525,0.502655
-25.754732,3.1686065,0.46206236
-25.882797,3.210206,0.5696111
-25.893696,3.176657,0.48946428
-26.004686,3.208964,0.5735841
-26.00423,3.167404,0.47342253
-26.1292,3.2107954,0.58496237
-26.236479,3.2435422,0.6698251
-26.301388,3.2477164,0.68342495
-26.356281,3.2451615,0.6802125
-26.440275,3.2640207,0.7302027
-26.509947,3.2732012,0.75603294
-26.5551,3.2645721,0.73753595
-26.588491,3.247005,0.69680166
-26.62099,3.2284858,0.65368605
-26.634209,3.1944864,0.5721402
-26.82866,3.3047566,0.84847116
-26.681879,3.141306,0.4458313
-26.93074,3.2550347,0.7330475
-27.008442,3.2752886,0.7857418
-27.068727,3.2813766,0.80328083
-27.122044,3.2817955,0.8067293
-27.172134,3.2796078,0.80367756
-27.19416,3.2518847,0.7374325
-27.234842,3.2408657,0.7124839
-27.3073,3.2599497,0.76190376
-27.365637,3.2663465,0.77989864
-27.43927,3.288362,0.8364153
-27.485126,3.2835627,0.82664394
-27.526886,3.274655,0.8066964
-27.568476,3.2654963,0.78609705
-27.64648,3.2950594,0.8609872
-27.714907,3.315674,0.91372633
-27.769709,3.3222876,0.9318752
-27.80528,3.3076627,0.8976259
-27.835653,3.2866728,0.84767246
-27.867815,3.267162,0.80134916
-27.897236,3.2437546,0.7454119
-27.916227,3.2067077,0.65588284
-27.920319,3.149449,0.5166044
-27.927855,3.0942662,0.3824625
-29.195894,3.3395452,1.0124645
-29.221199,3.2873266,0.8851719
-29.259073,3.2681231,0.8387747
-29.303661,3.268517,0.8403683
-29.355354,3.2930613,0.9010973
-29.417746,3.3587203,1.0625052
-29.460024,3.3568933,1.0585432
-29.455914,3.1685183,0.59762955
-30.015015,3.4099662,1.1923432
-30.056107,3.400976,1.1704168
-30.097878,3.410998,1.1950035
-30.139214,3.3984377,1.164279
-24.393036,3.2116487,0.3091278
-24.468609,3.2107918,0.31312895
-24.536827,3.2067149,0.30868292
-24.601383,3.2011142,0.30020237
-24.715857,3.2209795,0.35742998
-24.8092,3.2309809,0.38900042
-24.872221,3.2259173,0.38156128
-24.92835,3.217481,0.365345
-25.189678,3.2057796,0.35645056
-25.199581,3.1723392,0.27564764
-25.64709,3.2372274,0.46600962
-25.686962,3.2219558,0.4314332
-25.735703,3.2121184,0.41071367
-25.775072,3.1964118,0.3749509
-25.760937,3.146218,0.25111055
-25.893826,3.1907234,0.3689642
-25.935638,3.1766489,0.33722782
-25.990135,3.1710136,0.32696247
-26.134354,3.2267408,0.47293043
-26.15464,3.198697,0.40541363
-26.226898,3.2066631,0.42951965
-26.36208,3.2601528,0.569294
-26.395252,3.2416506,0.5258832
-26.498297,3.2743747,0.61257887
-26.568851,3.2841394,0.6408286
-26.615028,3.2759848,0.62351465
-26.622736,3.2381277,0.5308156
-26.727139,3.2753365,0.6284561
-26.647701,3.167197,0.35762024
-26.862816,3.2498047,0.5732193
-26.934195,3.263301,0.61041594
-26.994692,3.2682672,0.62594223
-27.026052,3.24836,0.57850885
-27.034132,3.2074354,0.47793913
-27.025654,3.1504245,0.33675385
-27.18615,3.246668,0.5826516
-27.271042,3.276114,0.65967655
-27.234947,3.1918144,0.4495616
-27.37456,3.2749825,0.66198254
-27.356401,3.2057369,0.4898777
-27.470383,3.2671807,0.647264
-27.473663,3.2176516,0.5248642
-27.596434,3.2915733,0.71345425
-27.640537,3.284719,0.69847155
-27.68058,3.2734315,0.67228985
-27.76528,3.3116586,0.7706728
-27.81892,3.3164775,0.7849045
-27.863491,3.3112476,0.77380943
-27.892958,3.2881377,0.71772194
-27.92804,3.2710779,0.67682886
-27.921867,3.2023468,0.506083
-27.925146,3.142704,0.3582163
-29.190393,3.3738778,0.97001505
-29.22015,3.3346374,0.87273073
-29.255371,3.3079748,0.8068657
-29.352581,3.3349857,0.8758049
-29.399136,3.3440778,0.89917946
-29.447443,3.361062,0.9422283
-29.45448,3.2172253,0.5834999
-25.648346,3.2460325,0.3493824
