x,y,z
-28.212765,3.3487048,2.3621397
-28.255413,3.3541958,2.3716955
-28.304344,3.3689544,2.3992891
-28.343721,3.3707955,2.401812
-28.371685,3.3561535,2.3723178
-28.399986,3.3415666,2.3429432
-28.446054,3.3537667,2.365675
-28.49006,3.3634794,2.3836002
-28.529917,3.3671722,2.3898444
-28.563725,3.3612921,2.3774872
-28.594753,3.350645,2.3558712
-28.63422,3.3542027,2.3619199
-28.673042,3.3569875,2.3664894
-28.718584,3.3722856,2.3954482
-28.756516,3.374419,2.3988008
-28.790392,3.3691053,2.3876724
-28.820744,3.3567603,2.3628635
-28.855352,3.352498,2.3538194
-28.901192,3.3715134,2.390152
-28.944187,3.3857617,2.4172263
-28.977238,3.379131,2.4036336
-29.011213,3.3743722,2.3937068
-29.042042,3.3620818,2.3691158
-29.080547,3.3678012,2.3796558
-29.119041,3.3740776,2.3913054
-29.158884,3.3845055,2.4110765
-29.19259,3.3793042,2.4003859
-29.225122,3.3705845,2.3828516
-29.255388,3.3547323,2.3514175
-29.299397,3.3795426,2.3993363
-29.33375,3.3760471,2.3920503
-29.369532,3.3771563,2.3937716
-29.406559,3.382882,2.404521
-29.440556,3.378301,2.3951764
-29.472883,3.367015,2.3727608
-29.508846,3.3693972,2.3770452
-29.54631,3.3786747,2.3948116
-29.583105,3.3862402,2.4092565
-29.6179,3.3852818,2.4070811
-29.651218,3.376694,2.390027
-29.68402,3.3640993,2.3651662
-29.72278,3.3856723,2.4070458
-29.758875,3.3937128,2.4225206
-29.793293,3.3913872,2.4177732
-29.828669,3.3964307,2.4274344
-29.86187,3.3833597,2.4017386
-29.896883,3.385396,2.4055653
-29.931488,3.3834233,2.4015832
-29.967558,3.4015815,2.4369388
-30.002007,3.4002464,2.434239
-30.036285,3.3944428,2.422831
-30.070297,3.375057,2.384912
-30.105108,3.372163,2.3792243
-30.139996,3.369814,2.3746204
-30.17476,3.3862383,2.4067068
-30.209097,3.4022949,2.4380941
-30.243736,3.3983903,2.4305096
-30.279325,3.3777187,2.390193
-30.314375,3.3744514,2.383892
-30.34871,3.38175,2.3982487
-30.381615,3.4027963,2.4394746
-30.416374,3.400704,2.435526
-30.451038,3.4000678,2.4344397
-30.487991,3.3822327,2.3997836
-30.52353,3.3776886,2.3911066
-30.557259,3.3855124,2.4066014
-30.588997,3.4038715,2.442687
-30.623785,3.4032273,2.4416814
-30.659506,3.3981333,2.4320068
-30.696726,3.3867815,2.4101367
-30.73314,3.3805218,2.3982282
-30.767572,3.3834248,2.4042292
-30.796103,3.4095154,2.4555106
-30.832636,3.4030719,2.443303
-30.862392,3.4216065,2.479867
-30.899641,3.4130855,2.4636436
-30.933945,3.415056,2.467916
-30.975758,3.3936486,2.4265924
-31.015,3.3818371,2.404018
-31.047989,3.38906,2.418601
-31.079504,3.3999643,2.440383
-31.110416,3.4118402,2.4640756
-31.144545,3.4148016,2.470399
-31.184422,3.4034896,2.4489079
-31.225008,3.3913987,2.4259238
-31.262472,3.387489,2.4189153
-31.292303,3.401127,2.446135
-31.323034,3.4121492,2.4682698
-31.35752,3.414761,2.474032
-31.399792,3.4014177,2.4487238
-31.439337,3.3944361,2.4358382
-31.47544,3.3946822,2.437056
-31.504284,3.4087875,2.465289
-31.535204,3.4185185,2.4850168
-31.569859,3.4212368,2.4911065
-31.602713,3.4271395,2.503416
-31.637264,3.4300337,2.5098863
-31.67152,3.4334586,2.5174108
-42.85574,2.0223742,0.3705902
-42.873734,2.064692,0.45871925
-42.886765,2.108262,0.5490751
-42.90501,2.1499863,0.63611364
-42.87204,2.206605,0.74967
-42.839714,2.2624297,0.86170053
-42.89344,2.292862,0.9285641
-42.91559,2.3323202,1.0114737
-42.889313,2.3852,1.1180978
-42.8917,2.4296057,1.2096763
-42.89244,2.4741476,1.3014541
-42.89241,2.5185802,1.3929949
-42.908344,2.5584347,1.4764686
-42.92274,2.5984936,1.5602884
-42.93116,2.6399019,1.6464467
-42.95311,2.6775937,1.7261128
-42.98784,2.7119038,1.7999148
-43.051567,2.7389052,1.8611026
-43.131107,2.7621474,1.9159012
-43.2095,2.7859159,1.9717422
-43.304783,2.8058681,2.0211716
-43.47322,2.8088398,2.0417123
-43.296974,2.8931913,2.2014961
-43.309265,2.932689,2.28449
-43.33918,2.9680054,2.3603764
-43.37131,3.0027664,2.4353514
-43.430454,3.0315163,2.5002327
-43.45426,3.0680945,2.5783658
-44.64718,2.8536081,2.23629
-44.889236,2.8474765,2.244729
-45.10488,2.8480997,2.2649755
-45.281815,2.8577545,2.300692
-45.352654,2.8897133,2.3736062
-46.42318,2.72263,2.1198187
-46.410343,2.7744179,2.2268167
-46.417297,2.8220534,2.3269653
-46.426327,2.8690915,2.4261136
-46.434624,2.9160821,2.525158
-46.70658,2.914294,2.545854
-46.95999,2.9172459,2.5748706
-47.270576,2.9112616,2.590386
-47.55124,2.9121206,2.6176047
-47.885536,2.905133,2.6332936
-48.26613,2.8920083,2.6403756
-48.55562,2.8960528,2.6752844
-48.901855,2.8922386,2.6989312
-49.30417,2.8811579,2.7125015
-49.72917,2.868563,2.72504
-50.119194,2.8635976,2.7504988
-50.59453,2.847611,2.760676
-50.96337,2.8500285,2.79989
-51.494057,2.8305268,2.80793
-52.014866,2.8152034,2.8239512
-52.433506,2.817005,2.8667245
-53.060417,2.7920659,2.8724718
-53.651234,2.7752848,2.8921862
-54.22132,2.764308,2.9223304
-54.896404,2.7425761,2.9396324
-6.7613373,2.8258743,2.6543303
-7.2407265,2.8266754,2.617712
-7.4368687,2.79032,2.5249853
-7.5221806,2.7390277,2.4095044
-7.5647545,2.6817672,2.284851
-7.578285,2.6202044,2.1534662
-7.3478966,2.4569588,1.8264031
-7.3809853,2.3972116,1.6975307
-7.574749,2.3630302,1.610105
-7.5902042,2.3007252,1.4773622
-7.5938625,2.1053674,1.0650973
-7.606596,2.0416877,0.9299612
-7.6241016,1.978627,0.7958298
-7.6274776,1.9128206,0.6570859
-7.652603,1.8506982,0.524488
-15.439632,3.1430068,2.642655
-15.392755,3.0894268,2.5337706
-15.339367,3.0340447,2.4216495
-15.168502,2.8622878,2.074625
-15.354138,2.854839,2.0450754
-16.067192,2.9608226,2.2133975
-16.32344,2.9721181,2.217873
-16.724419,3.0165677,2.2809167
-16.883211,3.0093398,2.2540236
-17.328259,3.0675745,2.3426852
-17.296375,3.0190818,2.2438245
-17.002262,2.9091687,2.0361662
-18.244013,3.159126,2.4663162
-18.456264,3.1708944,2.4753337
-18.570223,3.1599953,2.4443326
-18.712729,3.1566136,2.4269514
-18.98593,3.1864653,2.469316
-19.029888,3.1600606,2.4112282
-19.252098,3.1792746,2.435217
-19.402061,3.1810257,2.4281268
-19.618504,3.200998,2.4541793
-19.833263,3.2217586,2.4820232
-19.956375,3.219058,2.46771
-20.026178,3.2024097,2.4282637
-20.233158,3.223917,2.4583144
-20.414242,3.239378,2.4776835
-20.47667,3.222219,2.437799
-20.66711,3.242011,2.4655547
-20.781544,3.2408106,2.4551635
-20.865925,3.2313287,2.429747
-21.033436,3.2469866,2.450632
-21.070965,3.224369,2.401342
-21.267094,3.2502396,2.4414382
-21.291222,3.224083,2.3858156
-21.481983,3.2500343,2.426506
-21.551197,3.2386208,2.3983254
-21.697506,3.252206,2.4165583
-21.825062,3.2605543,2.4252796
-21.903683,3.2535253,2.405601
-22.037872,3.265327,2.4210563
-22.121017,3.2607143,2.406114
-22.175661,3.246762,2.3738532
-22.33377,3.2686563,2.408595
-22.372932,3.2500181,2.3677654
-22.532358,3.2738955,2.4065547
-22.596962,3.2648997,2.383953
-22.721022,3.2776554,2.4022288
-22.787725,3.270162,2.3826323
-22.952541,3.2992764,2.4319396
-22.949183,3.266475,2.3649235
-23.09885,3.2913597,2.406567
-23.177254,3.289908,2.3987303
-23.161583,3.2523112,2.322741
-23.362635,3.2993715,2.4066877
-23.38855,3.2783413,2.3620944
-23.470894,3.2799037,2.36029
-23.577114,3.2916105,2.3778014
-23.594353,3.2673585,2.327228
-23.748497,3.2999294,2.384532
-23.794792,3.2882104,2.3578672
-23.909788,3.3058715,2.3871145
-23.958126,3.295572,2.363276
-24.002174,3.2835228,2.3361459
-24.051426,3.2738485,2.313579
-24.143269,3.2833242,2.3275924
-24.188107,3.272141,2.302257
-24.257982,3.27249,2.2989936
-24.370844,3.2930737,2.334494
-24.413336,3.2815592,2.3086905
-24.499302,3.2906904,2.3224597
-24.600132,3.307492,2.3510165
-24.614056,3.282905,2.300304
-24.678532,3.2828484,2.2966638
-24.798029,3.3104126,2.3461266
-24.815092,3.28753,2.2987747
-24.932781,3.3155315,2.3492699
-25.007488,3.3224206,2.3592653
-25.038738,3.3071804,2.3267255
-25.043892,3.2781453,2.2676234
-25.14711,3.300948,2.3084383
-25.249561,3.3241885,2.350202
-25.267426,3.3021455,2.3046699
-25.336288,3.3080168,2.313045
-25.414371,3.3194745,2.3322768
-25.462362,3.3144817,2.3197765
-25.500954,3.304272,2.2972212
-25.586245,3.3211546,2.327127
-25.649374,3.3257353,2.3332896
-25.68106,3.3120368,2.304091
-25.768768,3.3319483,2.3400607
-25.848583,3.3478253,2.3682876
-25.872345,3.3298316,2.3308654
-25.925451,3.329959,2.3286285
-26.019493,3.356215,2.377182
-26.069061,3.3549495,2.372345
-26.101809,3.3430126,2.3467984
-26.123886,3.3240268,2.3075595
-26.182615,3.3291662,2.31527
-26.27815,3.3594675,2.3720074
-26.31041,3.347665,2.3468366
-26.320803,3.320702,2.2921448
-26.391356,3.3353758,2.3186002
-26.460308,3.3495529,2.3441463
-26.493382,3.3385763,2.3206816
-26.519203,3.322268,2.28683
-26.583195,3.3339262,2.3075848
-26.656647,3.3532157,2.3432937
-26.698038,3.348969,2.3330827
-26.716488,3.3272138,2.2886763
-26.788403,3.346741,2.324985
-26.840706,3.3515575,2.3325806
-26.899689,3.362092,2.3514018
-26.925053,3.345845,2.317851
-26.970083,3.3455672,2.3155727
-27.026014,3.3546166,2.3315926
-27.074982,3.358253,2.3370485
-27.121883,3.3604426,2.3397026
-27.134,3.332553,2.28342
-27.181908,3.3357627,2.288118
-27.258482,3.3650732,2.344047
-27.288748,3.3532152,2.3192587
-27.3254,3.347131,2.3058152
-27.356043,3.3354206,2.2813463
-27.397205,3.3336153,2.2763438
-27.458218,3.3512483,2.3095503
-27.504463,3.3550913,2.3157048
-27.53857,3.347098,2.298626
-27.578094,3.3445752,2.2923183
-27.615196,3.339672,2.281353
-27.669344,3.3527696,2.3058138
-27.716824,3.359376,2.317542
-27.750605,3.3514955,2.3007903
-27.794735,3.355018,2.3065023
-27.834969,3.3544738,2.3042326
-27.889816,3.3708925,2.335393
-27.936922,3.3790593,2.3503366
-27.957071,3.35565,2.3030982
-28.004366,3.3644736,2.3193817
-28.044127,3.364528,2.3184114
-28.09058,3.37321,2.3344722
-28.128088,3.370949,2.3289828
-28.162325,3.3645158,2.3152866
-28.194744,3.3555987,2.2967062
-28.231125,3.3519065,2.2884507
-28.280529,3.3663654,2.3160305
-28.32523,3.374957,2.3320627
-28.357738,3.3664303,2.3143282
-28.388084,3.3545222,2.2899337
-28.422413,3.348308,2.2767959
-28.46161,3.3495517,2.2784038
-28.512777,3.3700173,2.3180027
-28.553947,3.3754268,2.327889
-28.587578,3.3687558,2.3139277
-28.61621,3.3534393,2.2828965
-28.657228,3.359159,2.2934551
-28.699995,3.3684995,2.3111944
-28.742222,3.3775299,2.3283448
-28.781134,3.3809795,2.3344855
-28.811523,3.3682773,2.308703
-28.84464,3.3604822,2.2926393
-28.88372,3.364664,2.300283
-28.925774,3.3755739,2.321257
-28.965057,3.3813076,2.3320127
-28.999428,3.3765383,2.3220086
-29.033508,3.3709707,2.3104382
-29.066782,3.3632712,2.2946668
-29.109152,3.3778367,2.3229804
-29.149368,3.3880868,2.3427758
-29.184776,3.3864493,2.3390589
-29.21731,3.3768945,2.3196816
-29.24992,3.366971,2.2995896
-29.286623,3.3687153,2.302618
-29.32837,3.386619,2.3376675
-29.36538,3.3908038,2.3455691
-29.399649,3.3861516,2.3359833
-29.433647,3.3802438,2.3239288
-29.468607,3.3775532,2.318262
-29.503506,3.3745036,2.3119025
-29.542904,3.3903618,2.3430195
-29.580156,3.3987107,2.3592782
-29.615105,3.397291,2.3562007
-29.647015,3.3802528,2.3221903
-29.680998,3.3722703,2.3061385
-29.719465,3.3899775,2.3410134
-29.756193,3.3997025,2.3600883
-29.792074,3.4054787,2.3713574
-29.825743,3.3951595,2.3507414
-29.859982,3.3876233,2.3356571
-29.89366,3.3725228,2.3055978
-29.93016,3.3858626,2.3319244
-29.96616,3.3974981,2.3548908
-30.000895,3.393018,2.345931
-30.036024,3.3949316,2.3496609
-30.07072,3.3847756,2.3294835
-30.105606,3.3697543,2.2996774
-30.14101,3.3859,2.3316703
-30.176031,3.396281,2.352253
-30.210909,3.4008968,2.3614225
-30.245827,3.4010985,2.3618598
-30.281475,3.3869803,2.333928
-30.316902,3.38241,2.3249412
-30.351332,3.3923378,2.3447065
-30.385042,3.4073014,2.3744717
-30.41949,3.4115505,2.3830128
-30.455008,3.40599,2.3721294
-30.492533,3.3865836,2.3338227
-30.527704,3.3870597,2.334938
-30.561146,3.3984098,2.3576217
-30.595852,3.4008589,2.3626795
-30.630169,3.4051917,2.3714876
-30.666548,3.3988428,2.359146
-30.70427,3.3872097,2.3363519
-30.739866,3.3864381,2.3350973
-30.775393,3.3862073,2.3349319
-30.80556,3.4071085,2.3766484
-30.839039,3.4137583,2.3901458
-30.875147,3.4106567,2.3843417
-30.910168,3.4116714,2.3867092
-30.94685,3.4074209,2.378665
-30.990778,3.3814163,2.3275595
-31.02577,3.3840678,2.3332248
-31.06166,3.3841376,2.3337946
-31.087622,3.411434,2.388288
-31.12387,3.4098887,2.3856916
-31.157564,3.4150996,2.3964872
-31.197672,3.4044294,2.3758645
-31.238667,3.3925478,2.3528666
-31.271507,3.4002583,2.3686633
-31.302181,3.4124668,2.393375
-31.336462,3.4163554,2.401638
-31.37342,3.4145985,2.3987498
-31.417639,3.3984098,2.3673353
-31.45653,3.3937955,2.358838
-31.479992,3.4191601,2.4096456
-31.514807,3.4221838,2.4162846
-31.549583,3.4252973,2.4231195
-31.586788,3.4241269,2.421503
-31.623314,3.4243696,2.422699
-31.659616,3.4251473,2.424972
-31.68694,3.440828,2.4567084
-42.8341,2.1108701,0.34684896
-42.85961,2.1506472,0.430748
-42.882763,2.190931,0.5155778
-42.87538,2.2399526,0.6164217
-42.88851,2.2826207,0.7055836
-42.8863,2.329405,0.80224705
-42.902233,2.3707075,0.88886595
-42.926987,2.4093206,0.9705763
-42.92071,2.4563,1.0674949
-42.893543,2.50857,1.1739578
-42.90302,2.5505114,1.2616286
-42.91266,2.592157,1.3487401
-42.92336,2.6332812,1.4348893
-42.94397,2.6716201,1.5160055
-42.96928,2.7086058,1.5946894
-43.02068,2.7389264,1.6614356
-43.07523,2.7685235,1.7269454
-43.19738,2.7817018,1.7632227
-43.284542,2.8038316,1.8156428
-43.4291,2.8126273,1.8445115
-43.488922,2.84194,1.9099927
-43.283104,2.9327269,2.0842233
-43.333233,2.9636304,2.152399
-43.36382,2.9989874,2.2284741
-43.3957,3.0340023,2.3039742
-43.43438,3.0674887,2.3768287
-44.562122,2.8667789,2.0413113
-44.767426,2.8683686,2.06
-44.989655,2.8674498,2.0747566
-45.15862,2.878613,2.1108518
-45.32211,2.8916755,2.1505637
-46.441277,2.7147682,1.8644762
-46.420784,2.7684042,1.97541
-46.405,2.8207493,2.084046
-46.42018,2.8668504,2.181991
-46.428078,2.9141636,2.2819777
-46.67128,2.9178715,2.3084397
-46.96283,2.9140103,2.3227644
-47.217083,2.9183025,2.3514152
-47.515152,2.9161623,2.3699718
-47.882893,2.9035053,2.37184
-48.176243,2.9053943,2.3986306
-48.524216,2.8996413,2.4136257
-48.842194,2.9005933,2.4404774
-49.266647,2.8859932,2.4429064
-49.693756,2.8731818,2.4493804
-50.10717,2.8647113,2.4640107
-50.59423,2.847133,2.4652572
-50.939613,2.8533013,2.505598
-51.459824,2.8355122,2.5091515
-51.958633,2.8235087,2.5233235
-52.433945,2.8173974,2.5481772
-53.049355,2.7943122,2.5482874
-53.58515,2.7852347,2.5718179
-54.122543,2.7786925,2.6009288
-54.83182,2.7525184,2.6022143
-7.3538036,2.8467686,2.3138409
-7.5491753,2.8103356,2.223504
-7.5607815,2.7485976,2.0915127
-7.609894,2.6921334,1.9683275
-7.569523,2.6224573,1.822999
-7.3231907,2.5212276,1.6241975
-7.443386,2.474684,1.5176105
-7.6025143,2.3699043,1.2851048
-7.6182175,2.2421615,1.0134621
-7.5958138,2.1728435,0.86814785
-7.6142616,2.1100893,0.7341614
-7.625181,2.045832,0.59753895
-7.6540585,1.98451,0.4660344
-15.47284,3.2369425,2.6145592
-15.409058,3.1807587,2.5000067
-15.388187,3.1322012,2.3988752
-15.404363,3.0905092,2.3099322
-15.344291,3.0335832,2.1937003
-15.331463,2.985548,2.093286
-15.326821,2.9388578,1.9952359
-15.660383,2.9619849,2.0231776
-16.070892,3.0031257,2.0842953
-16.264114,3.00019,2.0661721
-16.531807,3.0143554,2.0794554
-16.76055,3.0214005,2.080204
-16.893496,3.008282,2.044498
-17.3167,3.0614343,2.1302772
-17.046532,2.9579334,1.9294553
-17.016014,2.9081964,1.8269424
-18.22878,3.1514382,2.2637925
-18.459034,3.1672587,2.2830844
-18.63953,3.1722796,2.2827654
-18.731644,3.1565075,2.2442122
-18.975208,3.1788611,2.276493
-19.09874,3.1722665,2.2553487
-19.280163,3.1810815,2.2630472
-19.411945,3.1779938,2.2488127
-19.634342,3.1993852,2.2804608
-19.819302,3.2120817,2.2961612
-20.020102,3.2300851,2.3220544
-20.072296,3.208592,2.274139
-20.266026,3.2264192,2.3001342
-20.43667,3.2388854,2.3163042
-20.573345,3.242655,2.3163152
-20.672998,3.236487,2.2977543
-20.852306,3.2540016,2.32404
-20.886295,3.2296548,2.27139
-21.056236,3.2459335,2.295689
-21.089573,3.2218485,2.2436748
-21.290373,3.249069,2.2890673
-21.36037,3.2369363,2.2599258
-21.49257,3.244602,2.2685227
-21.675467,3.2691305,2.309394
-21.689808,3.2405176,2.249154
-21.901033,3.2759085,2.3110852
-21.931824,3.2531428,2.2621403
-22.09356,3.2740655,2.2967849
-22.123665,3.2514963,2.248335
-22.267477,3.2677794,2.2743697
-22.29937,3.2461827,2.2278905
-22.494896,3.2818956,2.2914896
-22.548098,3.268457,2.26083
-22.687435,3.286077,2.2899733
-22.753033,3.2777872,2.26937
-22.838156,3.276925,2.263144
-22.958847,3.289717,2.2833395
-22.971409,3.2625432,2.2264977
-23.12075,3.287257,2.2699137
-23.178818,3.2778022,2.247407
-23.264353,3.279254,2.2460585
-23.38147,3.2936177,2.2698016
-23.398453,3.2687418,2.2175956
-23.54189,3.294776,2.264151
-23.600872,3.2872946,2.2457862
-23.630919,3.2680557,2.204626
-23.764553,3.2921112,2.2476516
-23.796106,3.2738833,2.2085462
-23.911097,3.291359,2.2389655
-23.990608,3.2942386,2.2410593
-24.014334,3.273079,2.1963577
-24.090752,3.275174,2.1970272
-24.210373,3.297087,2.236445
-24.222294,3.270928,2.1820798
-24.321995,3.284867,2.206077
-24.410639,3.2943425,2.2214346
-24.433517,3.273423,2.1773915
-24.538952,3.291679,2.2100563
-24.61901,3.298474,2.2203636
-24.647587,3.2806492,2.1824765
-24.757046,3.3026564,2.2227216
-24.801163,3.2928758,2.200685
-24.873432,3.2974138,2.206789
-24.946733,3.3029082,2.21483
-25.034212,3.3161912,2.238234
-25.04527,3.2900639,2.1842136
-25.123783,3.2993839,2.1999254
-25.216711,3.316976,2.2319818
-25.240498,3.297736,2.1915798
-25.316122,3.3068316,2.2070127
-25.39008,3.3155205,2.2217011
-25.46177,3.323438,2.2349253
-25.49582,3.310373,2.2068052
-25.568903,3.3198118,2.2231207
-25.655645,3.3377547,2.2562833
-25.665312,3.3108127,2.200842
-25.724913,3.3133967,2.2037477
-25.832644,3.3455257,2.2651086
-25.860037,3.3293855,2.231082
-25.915907,3.3308225,2.2318468
-26.008263,3.3555543,2.278759
-26.06692,3.3596826,2.284944
-26.095013,3.3444302,2.2527728
-26.137564,3.3385084,2.2391038
-26.17846,3.3315961,2.223494
-26.252262,3.3468666,2.2519002
-26.293524,3.3406503,2.2377295
-26.311323,3.3183508,2.1916633
-26.366964,3.3221478,2.1974063
-26.456163,3.350053,2.251061
-26.493492,3.3417492,2.2328496
-26.514626,3.321693,2.1913018
-26.580442,3.334267,2.214621
-26.656622,3.3551705,2.2545485
-26.69691,3.3497155,2.2420993
-26.713003,3.3257704,2.1928792
-26.768604,3.3321517,2.2040186
-26.854065,3.362528,2.2629623
-26.897516,3.3603673,2.2571702
-26.913359,3.335954,2.2070732
-26.975187,3.3489552,2.2315273
-27.028044,3.3550684,2.242292
-27.070347,3.3526404,2.2360597
-27.128782,3.364253,2.2578487
-27.152107,3.345769,2.2196388
-27.191624,3.3413095,2.2094183
-27.269924,3.3718545,2.2690735
-27.311207,3.3697276,2.2635632
-27.338116,3.3544118,2.2317386
-27.368784,3.3423786,2.2064776
-27.41959,3.349471,2.2194352
-27.48014,3.3664904,2.2522554
-27.52529,3.3690517,2.256218
-27.54832,3.3496816,2.2163644
-27.583027,3.3418128,2.1995106
-27.631704,3.3484077,2.211596
-27.694538,3.3703964,2.2544994
-27.735172,3.3694983,2.2516532
-27.76364,3.3554769,2.2225661
-27.805834,3.3564408,2.2234807
-27.859669,3.3708317,2.2512937
-27.90761,3.3791573,2.266993
-27.945644,3.3763633,2.26045
-27.978783,3.367815,2.2424002
-28.016903,3.3652165,2.2362823
-28.061111,3.370286,2.2455454
-28.110767,3.3826497,2.2694464
-28.149227,3.3812523,2.2657938
-28.17899,3.3685465,2.2394905
-28.20998,3.3571734,2.21587
-28.249573,3.3573265,2.2153716
-28.29851,3.3707712,2.241548
-28.34463,3.3809674,2.2612338
-28.37815,3.3733864,2.2452812
-28.409819,3.3628948,2.2235017
-28.445356,3.3580408,2.213046
-28.493586,3.3730059,2.242381
-28.533834,3.376098,2.247909
-28.572105,3.3762937,2.247641
-28.601852,3.3623729,2.21905
-28.63945,3.3614614,2.2165895
-28.682888,3.3710244,2.23518
-28.726254,3.3811507,2.2549229
-28.766266,3.3857737,2.2636304
-28.795902,3.3709779,2.2333503
-28.828989,3.3623288,2.2154274
-28.87086,3.3711648,2.2326484
-28.916828,3.3892736,2.2685223
-28.958199,3.3988013,2.2871737
-28.992184,3.3927271,2.2744875
-29.023434,3.3801773,2.2487998
-29.059795,3.3790793,2.246142
-29.100616,3.3890307,2.2657132
-29.141472,3.3999784,2.2873044
-29.178493,3.4018228,2.2906132
-29.211737,3.393658,2.273809
-29.24363,3.381174,2.248333
-29.278059,3.375368,2.236298
-29.318314,3.3872752,2.2599006
-29.358757,3.4010608,2.2873006
-29.393583,3.3973076,2.279439
-29.427246,3.3892252,2.2628837
-29.459927,3.3768048,2.2376146
-29.498411,3.3861353,2.2561154
-29.53799,3.4013255,2.2864213
-29.574038,3.4028978,2.2893467
-29.608053,3.3952596,2.2737532
-29.64235,3.3881488,2.2592359
-29.677555,3.3851156,2.2529364
-29.714033,3.3892725,2.261118
-29.752596,3.4077313,2.2980976
-29.787416,3.4036467,2.2897248
-29.822908,3.4040928,2.2904859
-29.856747,3.3904102,2.2628236
-29.891758,3.384812,2.2514472
-29.9278,3.3895302,2.260847
-29.964287,3.4023466,2.2865605
-29.99986,3.4059176,2.2936811
-30.035028,3.4029078,2.2875695
-30.069809,3.3853068,2.2521052
-30.105389,3.3855915,2.2526531
-30.140974,3.3904166,2.262354
-30.176338,3.4042323,2.290165
-30.211521,3.4096847,2.301156
-30.246687,3.4116676,2.305179
-30.282688,3.396392,2.2744794
-30.318478,3.3909965,2.26368
-30.353334,3.3994792,2.280827
-30.38788,3.408939,2.2999544
-30.422882,3.4118183,2.305852
-30.458773,3.4067883,2.295844
-30.495943,3.393412,2.2690568
-30.531652,3.3925707,2.2675085
-30.565676,3.4024744,2.2875981
-30.599827,3.4102426,2.3034043
-30.635206,3.4105575,2.3042245
-30.674467,3.3919039,2.266893
-30.710697,3.389753,2.262783
-30.746082,3.3916821,2.2668972
-30.78035,3.3981266,2.2801085
-30.810106,3.4214597,2.3273091
-30.846357,3.4187822,2.3221955
-30.88017,3.4250324,2.3350554
-30.917685,3.4185703,2.3223586
-30.957762,3.404716,2.2948103
-30.995926,3.398027,2.2816901
-31.031736,3.3989258,2.2838473
-31.066448,3.4029958,2.292395
-31.098307,3.4146228,2.3161507
-31.13241,3.4197385,2.3268275
-31.167458,3.4223082,2.332399
-31.212614,3.400439,2.288857
-31.246796,3.4058402,2.3001528
-31.279318,3.414823,2.3186603
-31.310633,3.426065,2.3417206
-31.34681,3.426476,2.3430266
-31.38935,3.413919,2.3182907
-31.430103,3.4058404,2.3025742
-31.466877,3.4061346,2.3036962
-31.496809,3.4195416,2.3311734
-31.52665,3.4325778,2.3579168
-31.562206,3.4348626,2.363078
-31.599968,3.433353,2.3606348
-31.636301,3.4345362,2.363615
-31.670835,3.4388313,2.372858
-42.85468,2.234714,0.39389515
-42.87782,2.2748222,0.47878122
-42.89346,2.3168783,0.56733704
-42.89553,2.362523,0.66263723
-42.935467,2.3972569,0.7373929
-42.857544,2.4644084,0.87302876
-42.925434,2.4909997,0.93248224
-42.94261,2.5313542,1.0177641
-42.91639,2.583002,1.1241436
-42.923325,2.625476,1.2133284
-42.94357,2.6642482,1.2955947
-42.975513,2.6998715,1.3720026
-43.01309,2.7339952,1.445643
-43.066994,2.7640278,1.5117269
-43.15428,2.785966,1.5628896
-43.241375,2.8082476,1.6147962
-43.338104,2.8285294,1.6631279
-43.509174,2.8317256,1.6801567
-43.63732,2.845696,1.7172251
-43.772705,2.8585744,1.7524796
-43.94164,2.864512,1.7752447
-43.362564,3.0371003,2.1023426
-43.41874,3.0669239,2.1684575
-43.526566,3.085732,2.214632
-44.686283,2.8817668,1.8572679
-44.923367,2.8777158,1.8634248
-45.11308,2.884642,1.8897848
-45.286404,2.8958137,1.9241052
-45.44042,2.911658,1.9671044
-46.419876,2.7658212,1.7211099
-46.38159,2.822808,1.8388572
-46.39917,2.868657,1.9366746
-46.39641,2.918176,2.0409975
-46.64192,2.9215994,2.0637746
-46.963768,2.9123816,2.0647464
-47.21855,2.9168212,2.0903502
-47.553772,2.908397,2.0939407
-47.89151,2.9012737,2.100491
-48.13141,2.9125104,2.139657
-48.529892,2.898444,2.13551
-48.845505,2.900049,2.159257
-49.250107,2.8889115,2.161807
-49.66401,2.8784,2.166338
-50.079575,2.8697739,2.1750236
-50.600212,2.847266,2.161152
-50.918427,2.8577876,2.2042308
-51.479103,2.8342795,2.1909575
-51.961845,2.8249319,2.2027144
-52.45301,2.8168817,2.2178373
-53.033737,2.7989593,2.2179198
-53.60376,2.785504,2.2268567
-54.13389,2.7802916,2.2507615
-54.81704,2.7578878,2.2482524
-7.433256,2.8692167,1.9989214
-7.5393543,2.820261,1.8890147
-7.5692196,2.7608418,1.7607212
-7.58654,2.6995325,1.6290822
-7.6105404,2.6390574,1.49893
-7.5934143,2.5722759,1.3574691
-7.557333,2.5022295,1.2100573
-7.594742,2.4431853,1.0824165
-7.634268,2.3191996,0.8164964
-7.629919,2.2529755,0.67581415
-7.627577,2.186768,0.53511333
-7.473713,2.0943751,0.34634733
-15.493107,3.2453926,2.3939157
-15.437488,3.1905985,2.2803793
-15.215147,3.1032772,2.10605
-15.259007,3.0662055,2.0252953
-15.768986,2.9874353,1.8336525
-16.068153,3.0051944,1.8568368
-16.230879,2.9954603,1.8284221
-16.5676,3.0241876,1.8730755
-16.743046,3.019353,1.8544769
-16.90107,3.0114992,1.8303523
-17.367321,3.0741384,1.9406333
-17.313328,3.0201457,1.829104
-17.036036,2.913556,1.6170287
-18.213531,3.1483114,2.057428
-18.428661,3.160211,2.0724788
-18.586441,3.1593654,2.063334
-18.719173,3.1531525,2.0440588
-18.965181,3.175835,2.0804977
-19.05418,3.1602197,2.0434704
-19.251589,3.1727371,2.060773
-19.401299,3.1739576,2.0564847
-19.640875,3.199607,2.0995727
-19.823227,3.211398,2.1161065
-19.993732,3.2210026,2.1285992
-20.088974,3.210935,2.1031175
-20.261993,3.222856,2.1204166
-20.433523,3.2353306,2.1389704
-20.56451,3.237233,2.1371279
-20.633413,3.2219126,2.1018682
-20.824554,3.242524,2.1367207
-20.865505,3.219847,2.087284
-21.063028,3.2440965,2.129541
-21.099815,3.2207916,2.079012
-21.295242,3.2462106,2.123858
-21.368366,3.2347982,2.0967484
-21.496584,3.2410097,2.10425
-21.685726,3.267356,2.1513743
-21.706024,3.24039,2.0939832
-21.881731,3.264076,2.136147
-21.918415,3.2428749,2.0901794
-22.081638,3.264047,2.1276436
-22.101559,3.2376614,2.0715647
-22.305172,3.2741666,2.1394796
-22.321978,3.2471678,2.0822845
-22.463171,3.2637258,2.1110902
-22.533758,3.2560372,2.0921092
-22.69419,3.2809916,2.1377206
-22.740139,3.265281,2.1030116
-22.89462,3.2896833,2.1477509
-22.966576,3.2843096,2.133627
-23.00473,3.2664757,2.094852
-23.119354,3.2778869,2.114111
-23.16444,3.2630942,2.0814457
-23.278328,3.2753134,2.102456
-23.3714,3.279996,2.1085782
-23.402199,3.2602296,2.066152
-23.531994,3.2805734,2.1035414
-23.582066,3.2690675,2.0776262
-23.706333,3.2885182,2.1134024
-23.782436,3.2885716,2.1106153
-23.791603,3.260527,2.0518527
-23.912367,3.280252,2.0883842
-24.002993,3.2876952,2.1004915
-23.982777,3.2468119,2.016149
-24.134853,3.2822034,2.084176
-24.21326,3.285544,2.0882478
-24.243116,3.267139,2.0488791
-24.354603,3.286398,2.0848851
-24.421164,3.28545,2.0805173
-24.471777,3.277274,2.0617166
-24.557192,3.2859268,2.0766606
-24.612385,3.2804704,2.0633779
-24.66956,3.2761931,2.0524917
-24.780787,3.2990005,2.0959754
-24.83679,3.294925,2.0855803
-24.876915,3.2829945,2.059445
-24.976734,3.3018456,2.0951562
-25.046623,3.3058722,2.1011453
-25.076239,3.28906,2.0652852
-25.169538,3.3061662,2.0976434
-25.239952,3.3116279,2.1066365
-25.265259,3.2928417,2.066873
-25.35603,3.310169,2.0998192
-25.415096,3.3104424,2.0984764
-25.454885,3.300072,2.0757232
-25.509481,3.2982519,2.0702176
-25.600374,3.3178115,2.107842
-25.663488,3.321777,2.1140752
-25.683956,3.300674,2.0697703
-25.759916,3.3128622,2.09265
-25.855936,3.3379242,2.1415582
-25.880682,3.3197181,2.1031604
-25.94503,3.3261871,2.114606
-25.99933,3.326707,2.1140666
-26.063114,3.3336217,2.1264791
-26.092289,3.3183985,2.0941706
-26.131771,3.3098583,2.075386
-26.23315,3.342824,2.140572
-26.272804,3.3350313,2.1233535
-26.291424,3.3128247,2.0769787
-26.348608,3.3171606,2.0843377
-26.410854,3.3254476,2.0997243
-26.484312,3.3422432,2.1323776
-26.497818,3.3162425,2.07837
-26.546455,3.3156261,2.0757966
-26.613358,3.328864,2.101328
-26.658562,3.3263142,2.0948844
-26.716707,3.3338628,2.1089401
-26.761179,3.331237,2.1023874
-26.820766,3.3407018,2.1203818
-26.875622,3.3468957,2.1317692
-26.907719,3.3350344,2.106536
-26.950909,3.3322005,2.099638
-27.005285,3.3388684,2.1120524
-27.063065,3.3488557,2.1312346
-27.104937,3.3456848,2.123715
-27.136871,3.3339655,2.0988417
-27.173927,3.3266644,2.0829582
-27.245852,3.3507762,2.130937
-27.289192,3.3497205,2.127788
-27.3256,3.3424153,2.111949
-27.360844,3.3340049,2.093875
-27.397896,3.327285,2.0792513
-27.456482,3.34156,2.1073527
-27.507664,3.3491907,2.121963
-27.543701,3.342043,2.1065192
-27.582615,3.3378227,2.0970454
-27.624676,3.336956,2.0944138
-27.679737,3.3500497,2.120223
-27.72072,3.3486438,2.1165304
-27.75793,3.3432658,2.104762
-27.803286,3.347003,2.1115751
-27.848816,3.3512905,2.1195264
-27.896637,3.3585997,2.1336546
-27.945225,3.3672988,2.1506343
-27.978352,3.3579574,2.130865
-28.015045,3.3528376,2.1197104
-28.058462,3.356119,2.1256962
-28.105637,3.3645236,2.1421452
-28.1448,3.3630698,2.1385088
-28.17826,3.354203,2.1197677
-28.213137,3.3470898,2.1046143
-28.253914,3.3480308,2.1059017
-28.301743,3.359171,2.1280131
-28.341608,3.3595192,2.1281223
-28.373678,3.3485935,2.1052399
-28.408794,3.3419633,2.0911345
-28.447325,3.3404977,2.0875797
-28.498178,3.3586304,2.124045
-28.537971,3.3599503,2.1262088
-28.575108,3.35713,2.1199322
-28.606005,3.3437617,2.0921307
-28.642357,3.3394148,2.0827584
-28.693811,3.3620646,2.1285353
-28.73225,3.3622181,2.128384
-28.770863,3.3629036,2.129333
-28.803448,3.352116,2.1068583
-28.83779,3.3444092,2.0906844
-28.882113,3.3569913,2.1159759
-28.926445,3.370567,2.1433148
-28.964254,3.3709173,2.1436439
-28.997818,3.3618762,2.1247935
-29.035286,3.361554,2.1237721
-29.071117,3.3574386,2.1150112
-29.112549,3.367266,2.1347594
-29.151503,3.3715796,2.1432524
-29.191105,3.378168,2.1564078
-29.223845,3.3661995,2.131641
-29.25748,3.3560448,2.1105914
-29.296066,3.360321,2.1190572
-29.338861,3.3786302,2.156227
-29.377472,3.3848686,2.1687326
-29.413025,3.3811855,2.160962
-29.444643,3.3627615,2.1230578
-29.481785,3.364051,2.1254783
-29.520245,3.3711169,2.1397219
-29.55908,3.3809087,2.159556
-29.595562,3.3811862,2.1599417
-29.63053,3.3741193,2.1453185
-29.664616,3.361449,2.1192446
-29.701372,3.362438,2.12112
-29.74016,3.3766677,2.1500907
-29.77803,3.3874953,2.1721158
-29.813477,3.3822012,2.1611748
-29.848349,3.3708558,2.137866
-29.884062,3.364862,2.125516
-29.920818,3.3690531,2.1340113
-29.95855,3.3882625,2.173242
-29.994555,3.3878167,2.1722755
-30.030243,3.3804388,2.1571383
-30.066105,3.3722732,2.1404023
-30.102135,3.3611257,2.1175756
-30.138544,3.3676367,2.1308866
-30.174665,3.384342,2.1650634
-30.210545,3.3919168,2.180573
-30.24671,3.3864098,2.1693325
-30.283306,3.3757281,2.1475172
-30.319714,3.372606,2.1411772
-30.355719,3.3757224,2.1476111
-30.390656,3.3894613,2.175787
-30.42692,3.3874938,2.171844
-30.463459,3.3838658,2.164515
-30.50178,3.3680584,2.1322846
-30.536871,3.3768973,2.1504822
-30.572088,3.3836331,2.1643867
-30.607285,3.3895805,2.1766906
-30.644264,3.38555,2.1685967
-30.683805,3.3698058,2.1365576
-30.72178,3.3633547,2.123538
-30.758522,3.3631234,2.1232505
-30.786394,3.3987947,2.1963997
-30.822227,3.4004762,2.2000456
-30.859121,3.398325,2.1958647
-30.894197,3.4028075,2.2052622
-30.932758,3.395622,2.1908112
-30.972101,3.3868024,2.1730318
-31.012152,3.376789,2.1528263
-31.049488,3.3755763,2.1506267
-31.078718,3.3970282,2.1947732
-31.11554,3.3968594,2.1947303
-31.151888,3.3980873,2.197554
-31.189287,3.3968139,2.1952772
-31.233644,3.379217,2.1596494
-31.269163,3.3833435,2.1684356
-31.29629,3.4061031,2.2153091
-31.334381,3.4039261,2.211234
-31.373598,3.3997018,2.2029886
-31.418049,3.385275,2.1739135
-31.455334,3.3860052,2.175819
-31.486835,3.3979769,2.2007008
-31.521257,3.4040263,2.2134943
-31.557674,3.4063144,2.218616
-31.594074,3.408697,2.2239437
-31.631937,3.4086187,2.224258
-31.659727,3.4256635,2.2595482
-31.694605,3.4304383,2.269793
-42.84651,2.3240361,0.35598946
-42.880684,2.3608184,0.4348259
-42.903168,2.400752,0.51979685
-42.92241,2.4413855,0.606123
-43.00029,2.4658403,0.66108036
-42.92949,2.5304625,0.7938819
-42.92578,2.5764549,0.8905368
-42.96556,2.6107094,0.9644842
-42.965584,2.6551864,1.0581765
-42.987564,2.6937513,1.1404486
-43.004524,2.7334194,1.2248425
-43.0543,2.7647605,1.2932248
-43.153122,2.7841403,1.338685
-43.2137,2.8131177,1.4026418
-43.374413,2.8183835,1.4212618
-43.481842,2.8369303,1.4654517
-43.61424,2.8501246,1.4995418
-43.761948,2.8604128,1.5282459
-43.946705,2.8630557,1.5425773
-44.06226,2.8819537,1.5880117
-44.173203,2.9023297,1.6363826
-44.50744,2.8750875,1.5947337
-44.70983,2.877659,1.6098766
-44.88974,2.885937,1.6360493
-45.13213,2.8822236,1.6398773
-45.23915,2.907193,1.6979389
-45.435253,2.9147894,1.7235465
-46.397675,2.7727745,1.469388
-46.397232,2.8226352,1.5750756
-46.410812,2.8695614,1.6752601
-46.438526,2.9136648,1.7701855
-46.65852,2.9222429,1.799212
-46.96004,2.917112,1.8031936
-47.229378,2.9192774,1.8211102
-47.56295,2.9115348,1.8212018
-47.867096,2.9105973,1.8343272
-48.213226,2.904094,1.8377504
-48.571342,2.8973827,1.8413687
-48.863853,2.903257,1.8685107
-49.303764,2.8869026,1.8557887
-49.729378,2.8751113,1.8521008
-50.133896,2.8688037,1.859066
-50.62021,2.8521402,1.8481469
-51.04819,2.846724,1.8582811
-51.533356,2.8351355,1.8582044
-52.05678,2.8205695,1.8537683
-52.56574,2.8107605,1.8587847
-53.054306,2.8063896,1.8744116
-53.646774,2.7904844,1.870781
-54.21895,2.7803402,1.8784575
-54.908092,2.7579923,1.8661256
-7.5295353,2.8849342,1.6887813
-7.535433,2.8220558,1.5538597
-7.5451717,2.7595122,1.4195466
-7.554928,2.6967752,1.2848549
-7.5303726,2.6287758,1.1402016
-7.577694,2.5063403,0.87646294
-7.6056004,2.445579,0.74546766
-7.6202393,2.3825884,0.61022377
-7.613203,2.3158844,0.4678707
-15.450221,3.2355623,2.1480932
-15.36039,3.173927,2.019824
-15.216815,2.9161935,1.4755058
-15.748552,2.9795477,1.5917559
-16.091206,3.0061848,1.6364665
-16.266228,2.9989097,1.6148567
-16.524876,3.0106237,1.6307745
-16.835814,3.0352407,1.6723576
-16.89011,3.0042806,1.6046033
-17.347948,3.0648456,1.717627
-17.181717,2.9846795,1.5528612
-17.004826,2.9006588,1.3802872
-18.217325,3.1437664,1.8556023
-18.444824,3.15845,1.879056
-18.631065,3.164361,1.8852916
-18.753632,3.1555634,1.8624568
-18.973927,3.1717637,1.8894339
-19.158573,3.1801677,1.9010749
-19.26712,3.1700277,1.875916
-19.42401,3.172955,1.8768978
-19.640768,3.1925056,1.9111776
-19.81543,3.202051,1.9256449
-20.013428,3.2188842,1.9548173
-20.156084,3.2216618,1.9560227
-20.24739,3.2109063,1.9302349
-20.440987,3.2293606,1.9630394
-20.591625,3.2366867,1.9736738
-20.650284,3.2182379,1.9326954
-20.85287,3.2421033,1.9767232
-20.92381,3.228138,1.9448762
-21.06445,3.235365,1.955688
-21.228518,3.2505019,1.9825149
-21.254597,3.224076,1.9257684
-21.460346,3.2536318,1.9818201
-21.503628,3.2331522,1.9371419
-21.674564,3.2535605,1.9749675
-21.736408,3.2396805,1.9436975
-21.906906,3.2616315,1.9848285
-21.974855,3.2505991,1.9594188
-22.108166,3.2617867,1.9789748
-22.14969,3.242518,1.9370017
-22.305925,3.2628036,1.9751091
-22.335646,3.2399542,1.9259591
-22.509567,3.2679474,1.9798374
-22.550209,3.2494729,1.9396243
-22.716492,3.276473,1.9916635
-22.760862,3.2599561,1.9554992
-22.875927,3.269696,1.9726615
-22.959219,3.2682073,1.9670835
-23.077183,3.2802927,1.9891334
-23.163643,3.2810035,1.9881296
-23.18983,3.2587214,1.9404049
-23.34249,3.2861109,1.9937582
-23.372463,3.2657082,1.949914
-23.480247,3.276602,1.9698119
-23.572823,3.2819648,1.9785008
-23.590607,3.256976,1.9253788
-23.754656,3.2929142,1.9964838
-23.778307,3.2707324,1.9491329
-23.88551,3.2841704,1.9744692
-23.951504,3.2804673,1.9648738
-23.989769,3.2648969,1.9310751
-24.07964,3.2722263,1.944068
-24.171888,3.2811766,1.9604182
-24.202513,3.2627027,1.9207559
-24.325998,3.2868617,1.9682798
-24.38753,3.2831244,1.9588056
-24.42783,3.269649,1.9294324
-24.540777,3.2908418,1.971034
-24.609879,3.2917366,1.9711328
-24.630655,3.269387,1.9236536
-24.764013,3.3025036,1.9898152
-24.830353,3.3032231,1.9896526
-24.838905,3.2750134,1.9302125
-24.969559,3.309061,1.9984322
-25.013931,3.29948,1.9772277
-25.044947,3.2829635,1.9418097
-25.14108,3.3010035,1.9773188
-25.219498,3.3102648,1.994853
-25.247395,3.2925212,1.9569693
-25.339613,3.3101547,1.991755
-25.418839,3.3212729,2.013198
-25.449265,3.3053548,1.979115
-25.49939,3.3006248,1.9680376
-25.589813,3.319459,2.005426
-25.64552,3.3186638,2.0024872
-25.667934,3.298327,1.9593725
-25.764153,3.322244,2.0073118
-25.847898,3.3394508,2.0414858
-25.868105,3.3180933,1.996315
-25.931097,3.3232627,2.0057607
-26.019878,3.3452108,2.0497828
-26.059566,3.3364506,2.0305939
-26.083206,3.3172815,1.9899726
-26.123798,3.3090634,1.9719186
-26.206573,3.3291035,2.0121183
-26.264818,3.3333273,2.0197487
-26.291162,3.3160245,1.9830165
-26.339106,3.3135495,1.9768667
-26.402763,3.322356,1.9940019
-26.46031,3.3272974,2.0031877
-26.493877,3.315247,1.977335
-26.546534,3.3171504,1.9802876
-26.61466,3.3308947,2.007698
-26.672783,3.3377175,2.020846
-26.697966,3.3197358,1.9827986
-26.756294,3.32726,1.997427
-26.836052,3.3521514,2.0479493
-26.876253,3.3463612,2.0351205
-26.912722,3.337612,2.0161886
-26.960539,3.3381972,2.0165577
-27.015158,3.3447266,2.0292268
-27.069479,3.3514419,2.0422978
-27.103657,3.341241,2.0204153
-27.142916,3.335409,2.0075746
-27.190594,3.3371108,2.010325
-27.252895,3.3522918,2.040968
-27.296215,3.3507912,2.0371265
-27.325926,3.336803,2.007463
-27.368887,3.3351278,2.003283
-27.42829,3.3494334,2.0321856
-27.475397,3.352423,2.0376873
-27.517912,3.3511755,2.0344348
-27.545734,3.3352704,2.0008497
-27.599646,3.3458476,2.0221
-27.642408,3.345364,2.020463
-27.69456,3.3550673,2.0399342
-27.731062,3.3484006,2.0255203
-27.765831,3.3398058,2.0071187
-27.822807,3.3560205,2.040121
-27.870703,3.3626819,2.0533495
-27.91308,3.3633864,2.0542498
-27.948818,3.3564608,2.039352
-27.986364,3.351669,2.0288854
-28.025967,3.3494349,2.0237265
-28.07863,3.3637352,2.0528526
-28.124073,3.369569,2.064444
-28.161081,3.3648226,2.054113
-28.190418,3.3498442,2.0225773
-28.23043,3.348995,2.0203443
-28.282604,3.365257,2.053606
-28.32316,3.365906,2.0545034
-28.355341,3.3546,2.0306168
-28.388615,3.3446162,2.009479
-28.437191,3.3576763,2.0361505
-28.472994,3.3516488,2.0232387
-28.519403,3.3624701,2.045291
-28.559547,3.3637824,2.047627
-28.589327,3.347974,2.0144491
-28.628057,3.3469577,2.011971
-28.677263,3.3645935,2.048211
-28.719633,3.3709881,2.0611348
-28.753384,3.3618636,2.04186
-28.7933,3.3642483,2.046483
-28.828379,3.3574176,2.0319867
-28.865898,3.3553424,2.0273695
-28.915998,3.379712,2.077662
-28.949429,3.3697805,2.0567546
-28.988247,3.371428,2.0598965
-29.019035,3.3548434,2.0251904
-29.055254,3.350277,2.0154462
-29.10192,3.3714435,2.059146
-29.14145,3.3760703,2.0685115
-29.183704,3.3885133,2.094119
-29.217846,3.3796477,2.0754848
-29.252651,3.372151,2.0597005
-29.289059,3.369033,2.0530186
-29.32961,3.3789008,2.073317
-29.369072,3.3863018,2.0885015
-29.404573,3.3808985,2.0770993
-29.43961,3.3734305,2.061417
-29.474943,3.3664794,2.0468154
-29.514256,3.3751438,2.064661
-29.554695,3.3899565,2.0952892
-29.59273,3.3958142,2.1073241
-29.628038,3.3892446,2.0935497
-29.660587,3.3672006,2.047636
-29.69818,3.3707478,2.054895
-29.739386,3.3977568,2.110909
-29.773388,3.3807333,2.0754485
-29.81195,3.3949668,2.1049385
-29.847256,3.385049,2.084258
-29.883142,3.3782527,2.0700703
-29.920095,3.3815143,2.076789
-29.957886,3.3974407,2.1098328
-29.993616,3.3870237,2.0881467
-30.03032,3.3914375,2.0972862
-30.06632,3.3781683,2.0696917
-30.102589,3.3593535,2.030582
-30.139544,3.380528,2.074573
-30.175995,3.3922572,2.0989456
-30.21242,3.391503,2.0973902
-30.248835,3.3917103,2.0978394
-30.286366,3.3707676,2.05435
-30.322172,3.3846028,2.0831332
-30.35819,3.39116,2.0968018
-30.393864,3.3995414,2.1142688
-30.430872,3.3937166,2.1022277
-30.469442,3.3767295,2.0670033
-30.506477,3.3745675,2.0625892
-30.54332,3.374232,2.0619793
-30.57494,3.4055707,2.1271853
-30.61325,3.3950346,2.1053991
-30.65095,3.389357,2.0937161
-30.688103,3.3872359,2.0894294
-30.728996,3.3688066,2.0512743
-30.76469,3.3746564,2.0635653
-30.795574,3.3991358,2.114565
-30.829685,3.4090285,2.13527
-30.867764,3.403932,2.124847
-30.904741,3.4032416,2.1235843
-30.941896,3.4022179,2.1216397
-30.98564,3.3811016,2.077971
-31.024931,3.3751407,2.0657907
-31.05913,3.3842974,2.0850172
-31.089329,3.403819,2.1257768
-31.125374,3.4067075,2.1320004
-31.165264,3.3998532,2.118
-31.205732,3.3922565,2.10247
-31.243547,3.3916025,2.1013656
-31.279734,3.394886,2.1084452
-31.314703,3.400816,2.121028
-31.348747,3.4085336,2.13733
-31.385286,3.410811,2.1423464
-31.433218,3.3902776,2.1000195
-31.46699,3.3987052,2.1178222
-31.49878,3.410598,2.1428242
-31.532116,3.4191806,2.1609626
-31.570904,3.417716,2.158257
-31.603748,3.4268904,2.1776395
-31.645039,3.4214175,2.166636
-31.68147,3.424466,2.1733236
-42.917454,2.3879755,0.27942848
-42.87365,2.4464827,0.4020133
-42.908043,2.4829702,0.48049784
-42.899017,2.531049,0.5821557
-42.956165,2.5611293,0.64784527
-43.121643,2.56286,0.65700245
-42.948853,2.6529644,0.8424549
-42.993916,2.6859128,0.91389275
-43.074257,2.7099702,0.967659
-43.094845,2.7491112,1.051465
-43.189426,2.7699528,1.0989251
-43.2539,2.798408,1.1615615
-43.35338,2.8186557,1.2079697
-43.47223,2.8347206,1.2461686
-43.597298,2.849844,1.2826018
-43.74112,2.8612223,1.3117366
-44.099884,2.824868,1.2467813
-44.334366,2.8181407,1.2405782
-44.48032,2.8320045,1.2751412
-44.539642,2.8651884,1.3478336
-44.66646,2.8841486,1.3926253
-44.88314,2.884852,1.4017096
-45.085686,2.8895643,1.41886
-45.234673,2.9061408,1.4594231
-45.39925,2.9202688,1.4953423
-46.188377,2.8123736,1.2933316
-46.190872,2.8613048,1.3977389
-46.370712,2.8762107,1.4359322
-46.408127,2.918642,1.5277734
-46.62119,2.9286604,1.5567808
-46.991653,2.9111664,1.5327578
-47.24096,2.9172556,1.5547333
-47.569107,2.910757,1.5527086
-47.93354,2.8997078,1.5423036
-48.25748,2.8974261,1.5491872
-48.58672,2.895924,1.5579543
-48.97783,2.8859866,1.5509801
-49.34707,2.8815994,1.555099
-49.819252,2.862876,1.5323658
-50.1995,2.860876,1.5420523
-50.662148,2.8483007,1.5321794
-51.14666,2.8348765,1.5213261
-51.62258,2.825235,1.5182819
-52.10892,2.8165646,1.5177379
-52.63347,2.805038,1.5125275
-53.119583,2.8015249,1.5230851
-53.669895,2.7918437,1.5228539
-54.34536,2.7684696,1.4979897
-54.941032,2.7589474,1.499866
-7.368931,2.9315915,1.4519072
-7.4411907,2.877267,1.3333354
-7.537697,2.697874,0.94524145
-7.557089,2.6360426,0.8118434
-7.584074,2.5751922,0.6804018
-7.6422596,2.519,0.5582714
-7.5114727,2.4333801,0.3772807
-15.136876,2.8976207,1.2011299
-15.795949,2.9869325,1.3780303
-15.922478,2.9679627,1.3345885
-16.330566,3.009744,1.4151707
-16.561232,3.0153575,1.4221544
-16.825237,3.0295343,1.4467702
-16.842396,2.989965,1.3616405
-17.36572,3.0650582,1.5111303
-17.206337,2.9861922,1.3456922
-16.950748,2.8835278,1.1313834
-18.224102,3.1409557,1.655159
-18.466412,3.1590123,1.6886292
-18.630898,3.1594782,1.6861234
-18.846344,3.17338,1.7112975
-18.994173,3.1715503,1.7042575
-19.171066,3.1778443,1.713994
-19.349976,3.1856103,1.7268505
-19.489647,3.184115,1.7207308
-19.648655,3.1884384,1.7266631
-19.822515,3.197589,1.7426186
-20.010181,3.2114515,1.7683725
-20.175106,3.2201254,1.783515
-20.266975,3.2093418,1.7585859
-20.449432,3.2245374,1.7873273
-20.63111,3.2405686,1.8178825
-20.67298,3.2171216,1.7669468
-20.86689,3.238356,1.8083892
-20.990519,3.2398515,1.8090987
-21.078426,3.2312288,1.7889276
-21.25221,3.249195,1.8238254
-21.287426,3.225371,1.7722688
-21.487728,3.2532036,1.8277225
-21.576254,3.2468736,1.8124728
-21.693607,3.250195,1.817265
-21.83458,3.2618287,1.8393412
-21.91755,3.255199,1.8235903
-22.028969,3.2584145,1.8283005
-22.112375,3.2527795,1.8146806
-22.22158,3.2563322,1.8201709
-22.320238,3.256831,1.8193593
-22.420158,3.258283,1.8205647
-22.525951,3.2623444,1.8272319
-22.592077,3.2527523,1.8055496
-22.72947,3.269293,1.8382416
-22.831057,3.2735431,1.8454151
-22.939844,3.2810397,1.8593822
-22.960655,3.2560215,1.8057046
-23.104973,3.2779498,1.849781
-23.149162,3.2621992,1.8154349
-23.227688,3.2599192,1.8091636
-23.356953,3.2780874,1.8455315
-23.38345,3.2559779,1.7979875
-23.521973,3.2791502,1.844861
-23.577621,3.2693083,1.8229318
-23.648458,3.265942,1.814527
-23.763609,3.2815213,1.8456736
-23.792566,3.2612176,1.8019719
-23.93521,3.2897563,1.8602352
-23.997261,3.284264,1.8474908
-24.010273,3.2573934,1.7901158
-24.139938,3.2823212,1.8409429
-24.203047,3.2781627,1.8310413
-24.260567,3.2717185,1.8163805
-24.369884,3.289462,1.8522949
-24.411425,3.2762442,1.8235135
-24.486105,3.2787797,1.8276839
-24.588577,3.2950778,1.8606591
-24.626001,3.2805119,1.829103
-24.71176,3.2897134,1.8472829
-24.802294,3.3018649,1.8716626
-24.82665,3.2812903,1.82757
-24.92173,3.2966387,1.8586841
-24.987999,3.2978141,1.8601508
-25.032433,3.2879236,1.83846
-25.107252,3.2942064,1.8506565
-25.184214,3.3021188,1.8662877
-25.231564,3.2944682,1.8493309
-25.282036,3.288658,1.8362422
-25.384499,3.3119621,1.8841877
-25.455778,3.3185844,1.8971934
-25.465288,3.2904139,1.8372707
-25.554256,3.3077726,1.872818
-25.65026,3.329998,1.9185963
-25.656204,3.2996733,1.8541751
-25.733307,3.3116121,1.8784132
-25.810486,3.3241997,1.9040337
-25.86998,3.3265026,1.908092
-25.89862,3.309884,1.8724532
-26.00235,3.3406253,1.9362288
-26.037086,3.3282287,1.9094739
-26.076447,3.3187833,1.8889213
-26.1378,3.3238425,1.8988338
-26.196154,3.327313,1.9054227
-26.245682,3.3251812,1.9002609
-26.29194,3.3210225,1.8908501
-26.335022,3.3148112,1.8771377
-26.41148,3.3322024,1.9130254
-26.452755,3.3252208,1.8977151
-26.493586,3.3179848,1.8818789
-26.546106,3.31939,1.884213
-26.609451,3.3291538,1.904129
-26.682772,3.3469858,1.941021
-26.698229,3.3212657,1.8863611
-26.749126,3.3225923,1.8885736
-26.841002,3.3565152,1.9593468
-26.877394,3.347303,1.9394217
-26.913462,3.3378024,1.9188967
-26.964935,3.3409555,1.9249959
-27.035381,3.3603168,1.9652042
-27.074478,3.3538933,1.9511776
-27.121222,3.3541062,1.9511247
-27.152884,3.3413606,1.9238095
-27.200449,3.3425965,1.9259233
-27.258602,3.3536708,1.9487529
-27.302776,3.352507,1.945838
-27.332247,3.3378327,1.9144878
-27.381008,3.341193,1.9211097
-27.428352,3.3435311,1.9255891
-27.48195,3.3523028,1.9436245
-27.532827,3.3588896,1.9570699
-27.553387,3.3352277,1.9068241
-27.598362,3.3361266,1.9083056
-27.662907,3.357802,1.9535556
-27.706596,3.3582232,1.954051
-27.741371,3.3491998,1.9346585
-27.775955,3.3398597,1.9146047
-27.823887,3.3454282,1.9259653
-27.884527,3.3660073,1.9689608
-27.926586,3.365868,1.9683156
-27.957058,3.352134,1.9390297
-28.00648,3.3611002,1.9575849
-28.044773,3.3568552,1.9483066
-28.09821,3.3717906,1.9794602
-28.136002,3.3673794,1.9698462
-28.166418,3.3532846,1.9398279
-28.206884,3.352319,1.9374881
-28.252668,3.3588293,1.9509153
-28.299364,3.3671181,1.9681001
-28.33717,3.3632312,1.9596229
-28.37362,3.3573864,1.9470248
-28.413736,3.35699,1.94592
-28.44897,3.3492744,1.9293866
-28.500378,3.3668644,1.9662218
-28.542236,3.3701272,1.9728532
-28.580685,3.368117,1.9683723
-28.612526,3.3549926,1.9404578
-28.648027,3.3477619,1.9249759
-28.69998,3.3697815,1.9711947
-28.739902,3.3711097,1.9737787
-28.77576,3.365027,1.9607382
-28.80723,3.3502476,1.9293575
-28.849936,3.357318,1.9440727
-28.89949,3.3791904,1.9900217
-28.938332,3.3798044,1.9911308
-28.973103,3.371693,1.9738388
-29.00954,3.3670323,1.9638324
-29.048573,3.3683631,1.9664721
-29.086142,3.366424,1.9622197
-29.130398,3.3814745,1.9938178
-29.16904,3.383129,1.9971585
-29.208529,3.3874254,2.0060806
-29.238352,3.3647254,1.9580431
-29.276058,3.3637018,1.955751
-29.319624,3.381019,1.9921665
-29.3581,3.3836029,1.997498
-29.396227,3.3854396,2.0012593
-29.431673,3.3780222,1.985496
-29.467415,3.371117,1.9708209
-29.507355,3.3804817,1.9904857
-29.547302,3.3912337,2.0130835
-29.582607,3.3824852,1.9945331
-29.619541,3.3806481,1.9905748
-29.655367,3.372931,1.9742122
-29.691622,3.3665845,1.9607458
-29.731989,3.3846753,1.9988637
-29.770683,3.395186,2.02099
-29.806894,3.3895566,2.0090542
-29.842186,3.3750389,1.9783645
-29.879269,3.3738682,1.9758501
-29.916527,3.3745031,1.9771543
-29.954798,3.3889287,2.0075698
-29.992384,3.3991742,2.0291696
-30.028475,3.3842623,1.997674
-30.065256,3.3775759,1.9835458
-30.102224,3.3709843,1.9696221
-30.139421,3.3747628,1.977593
-30.176374,3.3919086,2.013785
-30.21315,3.3963048,2.0230713
-30.2501,3.3930902,2.0162973
-30.288347,3.3672843,1.9618459
-30.325203,3.3732514,1.9744639
-30.360668,3.394288,2.0188947
-30.397633,3.393593,2.0174623
-30.433634,3.4019747,2.0351925
-30.471804,3.3912077,2.0125108
-30.509878,3.3835337,1.9963641
-30.547329,3.3815155,1.9921608
-30.58227,3.3949687,2.0206165
-30.619017,3.3965542,2.0240297
-30.657331,3.390127,2.0105362
-30.6981,3.3731406,1.9747648
-30.735428,3.3737445,1.9761233
-30.770098,3.3855197,2.0010633
-30.804562,3.3969512,2.0252833
-30.840778,3.4008074,2.0335221
-30.876186,3.4073064,2.0473413
-30.914728,3.402848,2.0380435
-30.955149,3.3929756,2.0173283
-30.995602,3.384066,1.9986491
-31.032135,3.3875575,2.0061464
-31.066185,3.3979156,2.0281363
-31.100124,3.4079304,2.0494075
-31.139847,3.4023905,2.0378642
-31.17807,3.401183,2.0354667
-31.22162,3.3874266,2.0066004
-31.260344,3.386016,2.003787
