x,y,z
-26.713417,1.998738,1.548224
-26.728607,1.9572127,1.4804873
-26.74591,1.9171717,1.4149384
-26.722988,1.8275185,1.2754393
-26.72427,1.7650194,1.1762915
-35.578033,1.0879545,0.35558558
-35.58634,1.1407008,0.44216347
-35.584373,1.2014599,0.5402832
-35.61688,1.2311769,0.59339523
-35.565216,1.3324962,0.74995565
-35.589737,1.3672657,0.8102493
-35.58542,1.4255877,0.9044571
-35.612953,1.4565239,0.95918226
-35.565327,1.5483363,1.101305
-35.62292,1.5534458,1.1189017
-35.55326,1.6601391,1.2819691
-35.629173,1.649972,1.2777619
-35.546345,1.7639346,1.4507585
-35.610786,1.7621975,1.4586563
-35.54508,1.8598385,1.6079283
-35.580765,1.8792484,1.6458955
-35.588554,1.9192488,1.7130704
-35.562874,1.9832592,1.8141236
-35.5795,2.0153337,1.8699455
-35.63002,2.022572,1.8907852
-35.61605,2.0758183,1.9763885
-35.66151,2.0863335,2.0019321
-35.733112,2.0786812,2.0021486
-35.74299,2.1139781,2.0625563
-35.788628,2.1244159,2.0882735
-35.814495,2.148224,2.132691
-35.93884,2.1061237,2.0856595
-35.61547,2.4736786,2.6390343
-36.57868,1.9012015,1.8646622
-35.640614,2.530711,2.7397075
-35.689365,2.5363164,2.7587214
-35.65195,2.5948668,2.8499947
-35.685417,2.6094742,2.8813224
-35.713745,2.6271198,2.9168363
-35.711372,2.6628947,2.9769087
-35.743942,2.6776483,3.0085535
-35.76985,2.6962328,3.0454178
-35.798347,2.713205,3.0801592
-35.83237,2.7269363,3.1106167
-35.87057,2.7382925,3.1379833
-35.918873,2.7440329,3.1579762
-35.963455,2.7519755,3.1810284
-36.002773,2.7629025,3.20815
-36.062054,2.763055,3.2211728
-36.118416,2.7650378,3.2367911
-36.175568,2.7668285,3.252337
-36.231247,2.7696278,3.2693825
-36.280865,2.7757976,3.2909932
-36.339607,2.7774177,3.3068533
-36.40608,2.7753403,3.3181295
-36.461086,2.7793725,3.3375049
-36.539364,2.771972,3.3423839
-36.589798,2.7787852,3.3657327
-36.64566,2.783091,3.3860455
-36.70388,2.78646,3.4053545
-36.77159,2.785491,3.419376
-36.84258,2.7832808,3.4320788
-36.908096,2.7839875,3.4487033
-36.97047,2.786447,3.4677577
-37.038506,2.7865484,3.4840994
-37.103382,2.7884002,3.5028644
-37.173172,2.7883031,3.519462
-37.237328,2.791045,3.5398145
-37.32525,2.7835054,3.547823
-37.392006,2.7857325,3.5680866
-37.467052,2.7846344,3.5845723
-37.53888,2.7852743,3.603454
-37.6066,2.7879813,3.625102
-37.663486,2.7955449,3.6528206
-37.728687,2.7998204,3.6768417
-37.77957,2.810278,3.7084332
-37.829487,2.8212678,3.7408376
-37.887753,2.8290007,3.76961
-37.957016,2.8325164,3.7936974
-39.108818,2.4060507,3.320125
-39.13564,2.431139,3.3724623
-39.15692,2.4582937,3.4272208
-39.151894,2.495465,3.4934082
-39.13588,2.5364985,3.5638533
-39.1166,2.5783546,3.6350517
-39.137646,2.6046987,3.6887398
-39.153046,2.6330183,3.7446527
-39.15924,2.6645584,3.8041182
-39.16847,2.6947765,3.86209
-39.17105,2.727189,3.9224195
-39.136806,2.7724566,3.9965549
-39.155174,2.7987132,4.050053
-39.195435,2.8172336,4.0953546
-39.276566,2.8217175,4.126001
-39.51459,2.7730322,4.1013966
-39.648262,2.7610142,4.116159
-39.857025,2.7246156,4.1065326
-40.020317,2.7044652,4.1146398
-40.25833,2.660769,4.099822
-40.458916,2.630585,4.0998964
-40.68282,2.5940664,4.0948124
-40.90369,2.5597882,4.093213
-41.14255,2.52112,4.088611
-41.38757,2.4819007,4.084875
-41.652573,2.4379406,4.078063
-41.954285,2.3843489,4.063744
-42.20967,2.3464012,4.065852
-42.507393,2.297306,4.0592246
-42.819824,2.2455757,4.05203
-43.197323,2.1767108,4.0313544
-43.547867,2.1177607,4.0218835
-43.82914,2.080472,4.033653
-44.246887,2.0063694,4.015341
-44.635666,1.9426916,4.0086555
-45.058304,1.8718896,3.9985285
-45.471573,1.8060038,3.9952888
-45.955685,1.7233949,3.9811726
-46.449463,1.6409383,3.9704757
-47.012646,1.5430293,3.9509726
-47.48973,1.4706059,3.9551668
-48.148598,1.3542099,3.9291973
-48.757504,1.2541635,3.9201531
-49.371494,1.1562123,3.9170237
-50.162727,1.017808,3.8893008
-50.982506,0.8768356,3.8656154
-11.886173,1.4672165,3.987815
-11.717144,1.3703907,3.8470564
-13.442358,1.7503996,4.084959
-14.078308,1.8623161,4.1174498
-14.466127,1.9136976,4.1043367
-14.914731,1.9830855,4.1088524
-15.278249,2.032456,4.099285
-15.622176,2.0785713,4.0892477
-15.952234,2.1228118,4.079757
-16.240295,2.1573553,4.063737
-16.626207,2.2205663,4.075283
-17.53763,2.3527849,4.0704265
-17.756382,2.3755999,4.0523634
-17.986786,2.4029963,4.039953
-18.39516,2.484383,4.0810256
-18.604792,2.5086532,4.0687532
-18.823185,2.536716,4.061411
-19.06586,2.5734184,4.0639052
-19.274923,2.6010914,4.058681
-19.465212,2.6240506,4.0498266
-19.6997,2.6620352,4.057407
-19.90624,2.6924386,4.0584326
-20.093187,2.717683,4.055191
-20.263386,2.7385044,4.048289
-20.470114,2.7723255,4.056066
-20.598927,2.7813582,4.038426
-20.759777,2.8018568,4.033789
-20.938076,2.8291984,4.0374002
-21.150574,2.869346,4.055929
-21.278826,2.881473,4.0446706
-21.377583,2.8839195,4.023292
-21.58744,2.9263048,4.047002
-21.680336,2.9280171,4.0260086
-21.79506,2.938088,4.014903
-21.96286,2.9682145,4.0271883
-22.046398,2.968173,4.0056868
-22.198475,2.9941466,4.014566
-22.380299,3.032275,4.0382714
-22.429394,3.0209022,4.005047
-22.605831,3.0587602,4.029814
-22.666737,3.052752,4.0036097
-22.831793,3.0879567,4.0265756
-22.92215,3.0945346,4.0161314
-23.05128,3.117156,4.0253196
-23.13012,3.120173,4.0114384
-23.248348,3.1397197,4.017913
-23.33682,3.1476717,4.0107775
-23.450932,3.1668231,4.017713
-23.520565,3.1678917,4.0029006
-23.637283,3.1893764,4.013577
-23.687569,3.1829748,3.990145
-23.796192,3.2021346,3.9987454
-23.882301,3.2120793,3.9962595
-23.99257,3.233244,4.008219
-24.05453,3.2334533,3.9941792
-24.134974,3.2423246,3.991343
-24.213566,3.250806,3.9883204
-24.28792,3.257774,3.9836633
-24.371622,3.2695184,3.9854105
-24.445507,3.277138,3.982166
-24.51128,3.28131,3.9747412
-24.602816,3.298225,3.9840755
-24.653297,3.2957835,3.9685693
-24.680414,3.2820737,3.9385147
-24.745667,3.2872512,3.9332702
-24.80535,3.2899942,3.925052
-24.871038,3.2960787,3.9214444
-24.884668,3.2759185,3.8833332
-24.990446,3.3031762,3.9081745
-25.047293,3.3057036,3.9004784
-25.091251,3.301727,3.88428
-25.091145,3.2744455,3.8369865
-25.216335,3.3142252,3.8797545
-25.251978,3.3063989,3.8588326
-25.30755,3.3095784,3.8528795
-25.297947,3.276905,3.7985086
-25.416103,3.315364,3.8407183
-25.47127,3.3191845,3.8361542
-25.504736,3.310893,3.8152132
-25.561869,3.3163238,3.8131523
-25.621662,3.3236365,3.8138542
-25.662886,3.3203607,3.8001637
-25.712526,3.3222458,3.7937098
-25.71884,3.2982786,3.751627
-25.800396,3.3198218,3.7726421
-25.860788,3.3290079,3.7767477
-25.907925,3.330353,3.770111
-25.956326,3.3327248,3.7650418
-25.98638,3.323698,3.7441516
-26.0018,3.3052845,3.7101583
-26.054848,3.3110843,3.710215
-26.114323,3.321424,3.7168217
-26.18009,3.3363538,3.7300873
-26.210888,3.328374,3.7111378
-26.24114,3.3200426,3.6917562
-26.313972,3.3408775,3.713871
-26.351166,3.337689,3.7020168
-26.395973,3.3399477,3.6980195
-26.43815,3.340583,3.691822
-26.444016,3.31543,3.6488142
-26.532818,3.3499193,3.6913118
-26.582678,3.3568716,3.6945252
-26.617678,3.3531628,3.6825309
-26.650877,3.3482018,3.6688108
-26.691334,3.3488014,3.6631927
-26.727545,3.3463404,3.6532454
-26.747196,3.3311682,3.624961
-26.726068,3.283853,3.5500445
-26.711126,3.240508,3.480771
-26.694168,3.1947012,3.4078064
-26.692991,3.160799,3.352089
-26.677183,3.114246,3.2778358
-26.657822,3.0637999,3.1977777
-26.671204,3.0398762,3.1564484
-26.694416,3.023929,3.126814
-26.692225,2.9858723,3.064724
-26.70866,2.9633212,3.0253816
-26.704067,2.9218109,2.9581099
-26.701902,2.8816214,2.8927126
-26.697916,2.838953,2.8235884
-26.699999,2.8009605,2.7613087
-26.69253,2.7533047,2.6846647
-26.685518,2.7050421,2.6070352
-26.717894,2.6932926,2.5835361
-26.710957,2.6434333,2.5034328
-26.696138,2.584725,2.4100723
-26.701132,2.5443134,2.3438644
-26.69387,2.4906802,2.257885
-26.716448,2.4662194,2.2153902
-26.693562,2.3942857,2.1019192
-26.70074,2.3520777,2.032805
-26.675453,2.2743826,1.9104657
-26.715847,2.2655056,1.8912191
-26.709356,2.2053185,1.794981
-26.707691,2.1489594,1.7044096
-26.707197,2.0924876,1.6135921
-26.699163,2.0259514,1.5075426
-26.716621,1.987205,1.4432979
-26.725945,1.937938,1.3631606
-26.745512,1.899632,1.2995415
-35.67027,1.0573742,0.20631933
-35.57062,1.20558,0.43443108
-35.589725,1.2474201,0.50571346
-35.608025,1.2892256,0.5769191
-35.583412,1.3666475,0.7003131
-35.60588,1.4031224,0.76358414
-35.576324,1.4820137,0.8888469
-35.615173,1.5034568,0.93006706
-35.533684,1.6218085,1.1125588
-35.604927,1.615845,1.113792
-35.540928,1.716927,1.2706976
-35.594395,1.7244155,1.2915444
-35.541527,1.8139219,1.4312572
-35.587402,1.8264661,1.459444
-35.548027,1.9031808,1.5803161
-35.57341,1.9302366,1.6294236
-35.58789,1.9649794,1.6896
-35.55231,2.035649,1.8013186
-35.57695,2.0616798,1.8488636
-35.618694,2.0752325,1.8785777
-35.62296,2.1151326,1.945981
-35.646847,2.1407692,1.9930019
-35.697853,2.1474428,2.013071
-35.772705,2.1380024,2.0103908
-35.79256,2.1660852,2.0610666
-35.832874,2.1801999,2.0919995
-35.61318,2.4795818,2.5569706
-36.46085,1.9810603,1.8707247
-36.50476,1.9956267,1.9036245
-36.640427,1.9534452,1.8576269
-35.66377,2.5931084,2.7589746
-35.677597,2.6199474,2.8072839
-35.64061,2.6769383,2.8972511
-35.716515,2.666058,2.893425
-35.731144,2.6916225,2.939959
-35.755302,2.7113853,2.9785252
-35.78487,2.7278907,3.0126657
-35.81562,2.743644,3.0458322
-35.86063,2.7513087,3.0680509
-35.904106,2.759933,3.091692
-35.95555,2.7642498,3.1096153
-36.002567,2.7711623,3.1311903
-36.062866,2.7710235,3.1434078
-36.10462,2.7810776,3.1694894
-36.16573,2.78095,3.1820593
-36.21638,2.7865815,3.2025037
-36.273815,2.788855,3.2186346
-36.331284,2.7913432,3.2352285
-36.390312,2.793268,3.2512608
-36.459377,2.7903843,3.261149
-36.514675,2.7947044,3.2807279
-36.569973,2.7992282,3.3007483
-36.63306,2.8001466,3.3162456
-36.698563,2.800172,3.3307948
-36.770443,2.7974393,3.341998
-36.83534,2.7983704,3.358183
-36.895527,2.8017933,3.3777924
-36.95733,2.8047051,3.3969517
-37.023163,2.806012,3.414279
-37.10436,2.8006108,3.4233212
-37.163086,2.8057585,3.446013
-37.233166,2.8060544,3.4627953
-37.30332,2.8066328,3.4801903
-37.394028,2.798535,3.4870095
-37.44548,2.8079271,3.5159373
-37.520786,2.807236,3.532556
-37.58955,2.8096719,3.5533195
-37.649185,2.8162327,3.5794039
-37.71045,2.822328,3.6051378
-37.771675,2.8286633,3.6313896
-37.821907,2.8397014,3.663559
-37.87962,2.8478518,3.6924305
-37.931316,2.8585978,3.7246227
-37.97522,2.8725677,3.760841
-39.109013,2.4599516,3.2921462
-39.138424,2.4840138,3.343329
-39.134758,2.5206947,3.4093537
-39.110634,2.5648203,3.483944
-39.12394,2.5944045,3.5414991
-39.140274,2.622683,3.5975409
-39.15181,2.6525733,3.6554317
-39.159378,2.6837225,3.7147331
-39.164715,2.7154684,3.7746692
-39.13695,2.7588072,3.8475528
-39.133247,2.7931828,3.9102254
-39.143196,2.822505,3.967214
-39.130463,2.8595016,4.0326047
-39.159973,2.8816981,4.0817184
-39.198997,2.9006414,4.1274033
-39.42529,2.8568292,4.1058683
-39.617287,2.8257587,4.0991144
-39.76745,2.8095322,4.109062
-39.947796,2.7843099,4.110375
-40.15765,2.750615,4.1038594
-40.3481,2.7242956,4.1060886
-40.55909,2.6925738,4.1038513
-40.794426,2.654469,4.0963387
-41.057014,2.6093206,4.083108
-41.333237,2.561535,4.0687704
-41.552227,2.5325842,4.0745173
-41.871452,2.4749722,4.0536995
-42.13331,2.4361181,4.0527964
-42.399517,2.397457,4.053631
-42.714714,2.346157,4.044193
-43.042847,2.292954,4.034909
-43.37182,2.2413661,4.0291286
-43.749336,2.1780965,4.0148187
-44.101555,2.1239305,4.0110245
-44.537315,2.0489757,3.9911442
-44.84986,2.0096593,4.0050526
-45.32248,1.929431,3.9859257
-45.790585,1.853051,3.973167
-46.28631,1.7721062,3.9597354
-46.773674,1.6960733,3.953658
-47.285862,1.6164348,3.947999
-47.845802,1.527643,3.9386358
-48.469902,1.4260426,3.9232416
-49.112545,1.3233593,3.911429
-49.77183,1.2201958,3.9038463
-50.67598,1.062139,3.8609157
-51.255592,0.98572206,3.8829947
-7.1278744,1.1612858,4.4997
-11.920671,1.5801697,3.9480572
-13.309504,1.8641586,4.1150203
-13.756102,1.9238112,4.1062245
-14.102959,1.960997,4.0815153
-14.657111,2.0524058,4.105304
-15.056448,2.1073432,4.101108
-15.506952,2.1777143,4.1130285
-15.744068,2.1947289,4.080222
-16.014803,2.2218707,4.05802
-16.556698,2.3231394,4.1053953
-17.396526,2.427812,4.0778384
-17.665024,2.462555,4.071801
-17.886436,2.4854078,4.0557528
-18.186277,2.5319643,4.064291
-18.455698,2.5713894,4.0674605
-18.726267,2.6126697,4.0740194
-18.992418,2.6541743,4.0823274
-19.22475,2.687045,4.083268
-19.416155,2.7087984,4.0739822
-19.651922,2.745211,4.081026
-19.75299,2.7411804,4.0467424
-19.958635,2.7704005,4.0482836
-20.1093,2.7833524,4.033475
-20.294044,2.808024,4.032092
-20.529697,2.8502293,4.05075
-20.732174,2.8829718,4.0602436
-20.892756,2.9030309,4.0567455
-21.02251,2.9136753,4.043556
-21.152897,2.9252186,4.032
-21.355892,2.9622655,4.049882
-21.483715,2.9745831,4.0406356
-21.594461,2.9816318,4.025957
-21.777212,3.0146432,4.0417113
-21.895214,3.0256903,4.0328655
-22.003311,3.0338101,4.0211406
-22.178335,3.0668473,4.039158
-22.248377,3.0623717,4.0136843
-22.41284,3.0932584,4.0305085
-22.502415,3.0970595,4.0157275
-22.638294,3.118866,4.022957
-22.747118,3.1311226,4.019254
-22.847944,3.140894,4.013003
-22.970636,3.1597672,4.0182877
-23.05389,3.163795,4.005889
-23.17078,3.1816673,4.010895
-23.261162,3.1895533,4.004025
-23.366405,3.2039816,4.005664
-23.463778,3.2157907,4.004461
-23.548368,3.222845,3.9976802
-23.639372,3.2330494,3.995206
-23.737526,3.2468035,3.9975903
-23.810684,3.25043,3.9874763
-23.902514,3.2625124,3.988443
-24.002176,3.2785618,3.9948575
-24.056011,3.274983,3.9763758
-24.111456,3.2723346,3.95928
-24.177326,3.274617,3.948776
-24.25749,3.2837334,3.9474115
-24.277607,3.265691,3.9108152
-24.372597,3.2823462,3.9198046
-24.481392,3.3060937,3.9384952
-24.479572,3.2781396,3.889239
-24.54396,3.2815933,3.881589
-24.632338,3.29699,3.8900578
-24.68081,3.2934518,3.8735554
-24.71231,3.2817159,3.8462183
-24.813793,3.3049068,3.8659086
-24.87045,3.3062334,3.856485
-24.88599,3.2868996,3.8192973
-24.947937,3.2912846,3.8142982
-25.026253,3.3045115,3.8215299
-25.093008,3.3121822,3.8214474
-25.110449,3.2940936,3.7863283
-25.168863,3.2978244,3.7811704
-25.229332,3.3029792,3.7781558
-25.30571,3.3171766,3.787809
-25.318441,3.2967234,3.7497692
-25.403843,3.3166504,3.7677455
-25.457836,3.3195,3.7622552
-25.500975,3.3164432,3.7486887
-25.525627,3.3028936,3.7205725
-25.597107,3.3165398,3.730607
-25.655592,3.323048,3.7308412
-25.715263,3.3306146,3.73274
-25.728245,3.3105052,3.6957622
-25.794634,3.3226066,3.704339
-25.86549,3.337918,3.717669
-25.908062,3.336225,3.7070594
-25.949923,3.3342555,3.696167
-25.998468,3.3366842,3.691656
-26.014883,3.318791,3.6582212
-26.05744,3.3176336,3.6487737
-26.101265,3.3174844,3.640881
-26.157438,3.325699,3.6451325
-26.230883,3.3458445,3.6667342
-26.24844,3.3288403,3.6349125
-26.275244,3.317976,3.611987
-26.3549,3.3435974,3.6419935
-26.392355,3.3404872,3.6305194
-26.441692,3.3458953,3.6315227
-26.464783,3.332853,3.6057673
-26.525042,3.3465703,3.61911
-26.580051,3.3569503,3.627739
-26.625072,3.3603663,3.6263156
-26.66274,3.3585422,3.6173148
-26.69561,3.3532286,3.6032705
-26.741552,3.3579774,3.604105
-26.73451,3.3219843,3.5449886
-26.728184,3.2858834,3.4856381
-26.709305,3.2391553,3.4104996
-26.689089,3.1904213,3.332273
-26.668732,3.1405873,3.2522926
-26.662888,3.1016579,3.1883864
-26.697376,3.095517,3.1731787
-26.705437,3.067165,3.1249528
-26.696548,3.023858,3.0543928
-26.71401,3.0024002,3.0163836
-26.706646,2.9589102,2.9454274
-26.710802,2.9247067,2.8882985
-26.703005,2.8791203,2.8140588
-26.696663,2.8338828,2.7402596
-26.688667,2.7861552,2.6626387
-26.677053,2.734019,2.5782962
-26.684727,2.6989055,2.5195103
-26.735651,2.7043943,2.5219493
-26.704174,2.630447,2.40451
-26.7017,2.5831733,2.327242
-26.687115,2.5227778,2.2300382
-26.70927,2.4979784,2.186677
-26.704409,2.4450922,2.1007104
-26.677685,2.368283,1.9783268
-26.672052,2.31169,1.8865294
-26.700577,2.2901127,1.8479462
-26.723629,2.2622178,1.7997642
-26.716827,2.200987,1.7007499
-26.70469,2.1322432,1.5901761
-26.71539,2.0874748,1.5161333
-26.711506,2.0248752,1.4147816
-26.720003,1.9750152,1.3328528
-26.738777,1.9360003,1.267499
-35.573517,1.2572021,0.4047289
-35.574673,1.3141613,0.49921227
-35.55656,1.3863544,0.6163182
-35.60295,1.4030969,0.6507263
-35.574116,1.4819458,0.7775316
-35.539154,1.5642061,0.90921164
-35.588493,1.5767369,0.9373274
-35.594574,1.6237707,1.0165968
-35.567875,1.6958356,1.1327949
-35.55783,1.7535276,1.2276049
-35.571976,1.7915344,1.2932954
-35.57589,1.8367331,1.3695331
-35.565754,1.8917515,1.4601231
-35.625774,1.8935966,1.47264
-35.561096,1.9874046,1.6198959
-35.568104,2.0272372,1.6879668
-35.547775,2.0861084,1.7837582
-35.56926,2.1142058,1.8345852
-35.572037,2.1551034,1.9040213
-35.607548,2.1726074,1.9394484
-35.66061,2.1779232,1.9572825
-35.64693,2.2287934,2.0410867
-35.731133,2.2129736,2.0285468
-35.772156,2.226501,2.0585074
-35.809055,2.2427251,2.092423
-36.255844,2.1182888,1.9588637
-35.53017,2.611828,2.6725726
-35.601444,2.6033819,2.6709747
-35.633156,2.619533,2.7044158
-35.65079,2.6441073,2.7498136
-35.686085,2.6578724,2.779973
-35.6561,2.7102294,2.864478
-35.71946,2.7071116,2.8709636
-35.74401,2.7268023,2.9095564
-35.78249,2.7383611,2.9368262
-35.8072,2.7577589,2.975099
-35.854668,2.7642431,2.9954648
-35.89846,2.7729003,3.0189662
-35.947998,2.778489,3.0383372
-35.99677,2.7846475,3.058628
-36.0514,2.7877939,3.0749116
-36.106056,2.7911377,3.0916224
-36.170418,2.7895632,3.1017694
-36.215416,2.7984185,3.1263309
-36.279152,2.7976801,3.1379752
-36.338448,2.7995136,3.1533036
-36.3917,2.8046553,3.1732821
-36.450294,2.8073025,3.1900597
-36.51354,2.8078773,3.2042365
-36.569126,2.8124952,3.2240243
-36.6317,2.813916,3.2397208
-36.687305,2.8189611,3.260435
-36.749172,2.8212197,3.2776322
-36.820534,2.8192532,3.2894526
-36.888855,2.8190536,3.3038425
-36.953293,2.820964,3.3212295
-37.00819,2.8275151,3.344895
-37.07749,2.827722,3.3604813
-37.152515,2.8256752,3.3733888
-37.21957,2.8275301,3.3916025
-37.287487,2.829294,3.409934
-37.3824,2.8196018,3.4138336
-37.44889,2.8226833,3.4343915
-37.520344,2.8239217,3.4528446
-37.586075,2.8278928,3.475016
-37.64932,2.833165,3.499061
-37.715054,2.8376505,3.5223475
-37.770744,2.846508,3.5513296
-37.82131,2.8576188,3.5833035
-37.875965,2.8672216,3.6135845
-37.922905,2.8800545,3.6480327
-37.960342,2.8967276,3.6873355
-38.00096,2.912191,3.7252789
-39.111702,2.5154939,3.2641153
-39.10506,2.5532966,3.3318868
-39.115902,2.5841537,3.391222
-39.12367,2.6159546,3.4516559
-39.137012,2.6454694,3.5093417
-39.15077,2.674654,3.566628
-39.149227,2.709208,3.6301923
-39.146263,2.7439904,3.6939373
-39.12253,2.785851,3.7657762
-39.11135,2.8228722,3.8318534
-39.11728,2.8536172,3.8906293
-39.12983,2.881881,3.946549
-39.156197,2.9052958,3.9970002
-39.215244,2.9176621,4.0351667
-39.326077,2.9129753,4.05465
-39.413704,2.9164796,4.083692
-39.54276,2.9068675,4.098804
-39.71358,2.88446,4.1006794
-39.909294,2.8550646,4.095921
-40.10556,2.8266091,4.0931983
-40.30328,2.7988105,4.0922165
-40.512474,2.768579,4.0897436
-40.7387,2.7343256,4.0842266
-40.92885,2.7122498,4.0924993
-41.177353,2.6737757,4.085085
-41.441288,2.6321523,4.075889
-41.72628,2.585878,4.063547
-42.0065,2.5426056,4.0558205
-42.26332,2.507599,4.0578184
-42.547718,2.466221,4.055146
-42.876648,2.4139938,4.0437737
-43.20362,2.364162,4.0366483
-43.557632,2.3087819,4.0263233
-43.920967,2.2528718,4.0176873
-44.335976,2.1852136,4.0006113
-44.686047,2.1370041,4.003627
-45.072742,2.0811746,4.002104
-45.576668,1.9973044,3.9785757
-46.03253,1.9284894,3.9712896
-46.564434,1.8430889,3.9529586
-47.020477,1.7794816,3.9563336
-47.58132,1.692662,3.9437551
-48.198746,1.595233,3.9264655
-48.823242,1.4995282,3.9148073
-49.42698,1.412164,3.9139776
-50.295753,1.2662406,3.8729105
-51.025143,1.1572618,3.8655853
-11.932632,1.7411404,4.003998
-11.707632,1.634373,3.85285
-13.462606,1.9970064,4.0959625
-14.064636,2.0921445,4.121392
-14.391223,2.1234722,4.0951324
-14.834142,2.185246,4.097872
-15.2998,2.2551432,4.110702
-15.652721,2.2991157,4.10283
-15.9907675,2.3412006,4.09538
-17.047546,2.4898777,4.1065984
-17.249525,2.5030122,4.079106
-17.45031,2.516858,4.0534596
-17.763645,2.5626717,4.0607123
-18.006397,2.5906239,4.051808
-18.361874,2.6515975,4.0777884
-18.607002,2.6832423,4.0756865
-18.831215,2.7102275,4.070102
-19.063204,2.740708,4.069388
-19.286335,2.769875,4.068533
-19.468554,2.7881107,4.057217
-19.682402,2.816846,4.058135
-19.887474,2.844111,4.058574
-20.065609,2.8642418,4.05227
-20.25512,2.8888874,4.0518427
-20.426022,2.9087443,4.0470524
-20.548664,2.9142036,4.026993
-20.736828,2.941338,4.0319614
-20.953146,2.9786985,4.049474
-21.123081,3.0021143,4.052098
-21.248806,3.011823,4.0397468
-21.376938,3.0230036,4.029686
-21.556217,3.0522158,4.041266
-21.686264,3.0656154,4.0351124
-21.794832,3.072288,4.021596
-21.954144,3.097287,4.0303593
-22.040237,3.097323,4.009977
-22.21264,3.128624,4.027591
-22.314796,3.1356006,4.0165386
-22.412403,3.1414518,4.00455
-22.571148,3.1703649,4.0211997
-22.661259,3.1746714,4.0082693
-22.79152,3.1945605,4.0149817
-22.872597,3.1965055,3.9999423
-22.997837,3.2158313,4.006939
-23.11244,3.2317758,4.0102143
-23.197067,3.2366247,3.999965
-23.297516,3.248188,3.9985561
-23.40353,3.2625532,4.0011153
-23.472412,3.2625065,3.9856682
-23.545372,3.2644491,3.9730284
-23.635622,3.2738938,3.9703372
-23.647991,3.2513258,3.9265208
-23.76021,3.2707276,3.9372935
-23.83839,3.276328,3.9304793
-23.860115,3.2580361,3.892624
-23.960056,3.2736936,3.8994908
-24.043438,3.28269,3.8979332
-24.062168,3.2634585,3.8592446
-24.162924,3.2809143,3.869408
-24.225758,3.2818289,3.8578503
-24.269432,3.274273,3.8351483
-24.35032,3.2840528,3.835891
-24.423847,3.2908702,3.8329191
-24.481495,3.2906036,3.8206058
-24.51179,3.2775578,3.7911162
-24.616707,3.3004632,3.8106885
-24.679407,3.3035555,3.8035507
-24.691292,3.2819805,3.7627907
-24.782213,3.2994888,3.775776
-24.846094,3.304041,3.771202
-24.891653,3.2996478,3.7544565
-24.908642,3.2807755,3.7177496
-25.014965,3.3080077,3.7451987
-25.07897,3.3139186,3.7432709
-25.10059,3.2977931,3.7107148
-25.16147,3.3025384,3.7074628
-25.225834,3.3095,3.7075105
-25.295065,3.3194978,3.7120361
-25.314075,3.3022733,3.6783013
-25.372221,3.3067026,3.6752663
-25.459518,3.327855,3.6961536
-25.512161,3.329983,3.6902356
-25.521572,3.3075442,3.6494079
-25.561586,3.3026185,3.6336126
-25.638628,3.3195362,3.649229
-25.704826,3.3306055,3.6566792
-25.735554,3.3208709,3.6343694
-25.780796,3.3199358,3.6248193
-25.869545,3.3458295,3.6541815
-25.91777,3.3474188,3.6485996
-25.957827,3.3441417,3.6360784
-26.005888,3.3460612,3.6312127
-26.025337,3.3299406,3.6001725
-26.049665,3.3168254,3.5735416
-26.10231,3.322123,3.5738945
-26.170994,3.3383346,3.5903873
-26.203169,3.3307273,3.5720878
-26.236715,3.3240771,3.555262
-26.274147,3.3201277,3.5424862
-26.310963,3.3158624,3.5293264
-26.402864,3.350155,3.573287
-26.449862,3.3537157,3.5719795
-26.462208,3.3328023,3.534459
-26.530579,3.3520672,3.5566702
-26.590578,3.3658478,3.5709014
-26.63336,3.3674107,3.567068
-26.673655,3.3673353,3.5608864
-26.715662,3.3687382,3.5570068
-26.752289,3.3662393,3.5473766
-26.740578,3.3264375,3.481842
-26.71986,3.278814,3.4044647
-26.712143,3.2405407,3.341041
-26.679102,3.1812115,3.2458048
-26.673168,3.1426451,3.181746
-26.698673,3.1291687,3.1555357
-26.686852,3.084493,3.0821419
-26.705502,3.0645702,3.0461688
-26.717476,3.0386515,3.0011053
-26.707401,2.9932346,2.926405
-26.719007,2.9658244,2.8790112
-26.706398,2.916464,2.7981691
-26.702639,2.873973,2.7277055
-26.68323,2.8163624,2.6340914
-26.677301,2.7698581,2.557334
-26.687517,2.7373886,2.5019803
-26.715412,2.720967,2.471191
-26.740633,2.7017505,2.4361458
-26.726997,2.6445196,2.342752
-26.701479,2.5742502,2.2292128
-26.701439,2.5276632,2.1519756
-26.708061,2.4867327,2.0833921
-26.678957,2.4082527,1.9568658
-26.67796,2.3569877,1.8721938
-26.695906,2.3244514,1.8163948
-26.725376,2.303524,1.778543
-26.727962,2.2530408,1.6949654
-26.716146,2.185442,1.5848088
-26.707088,2.1191401,1.476562
-26.729614,2.0868914,1.4210849
-26.71238,2.0081196,1.293324
-26.73548,1.974309,1.235363
-35.570595,1.3186843,0.38738537
-35.57327,1.373766,0.48003006
-35.57978,1.4245863,0.5661454
-35.584167,1.4762259,0.6534343
-35.561764,1.5487978,0.77226686
-35.544647,1.6156552,0.8823199
-35.587734,1.6332159,0.9179864
-35.628815,1.6522341,0.95591116
-35.552998,1.7620955,1.1303167
-35.605907,1.7706385,1.152452
-35.56318,1.8519943,1.2837086
-35.58776,1.8811605,1.3367152
-35.556053,1.9517646,1.451581
-35.6045,1.962162,1.4765315
-35.53463,2.0585113,1.6294651
-35.568996,2.078133,1.6680965
-35.562813,2.1263702,1.7492118
-35.5694,2.1648388,1.8157673
-35.576508,2.202362,1.8808751
-35.63354,2.2050657,1.8945613
-35.639603,2.242577,1.9596429
-35.64174,2.2821703,2.0277338
-35.709755,2.2774389,2.030716
-35.76233,2.2832224,2.0492735
-35.785355,2.308348,2.0962267
-35.82247,2.3241532,2.1295924
-35.949146,2.2829857,2.0800548
-35.57388,2.5585208,2.4911995
-35.475983,2.6559355,2.6425314
-35.556618,2.6416948,2.6318154
-35.59393,2.654387,2.6602368
-35.639313,2.6622121,2.6817174
-36.599174,2.1252193,1.9197397
-35.703396,2.6938882,2.7479887
-35.700752,2.7298622,2.810038
-35.72986,2.7470183,2.84513
-35.765785,2.7601862,2.8745823
-35.803665,2.7722418,2.9025264
-35.874393,2.765943,2.9045177
-35.9208,2.7735057,2.9263306
-35.972225,2.7784371,2.9445457
-35.994434,2.799379,2.985437
-36.040527,2.8073502,3.0081372
-36.09614,2.8103778,3.0240293
-36.15624,2.8112664,3.0370903
-36.21417,2.813545,3.0522614
-36.273643,2.8152652,3.0668235
-36.333176,2.8172076,3.0818677
-36.386696,2.8224318,3.1016197
-36.443245,2.8263264,3.1196928
-36.49981,2.830429,3.138218
-36.559464,2.8332343,3.1551318
-36.620697,2.8355148,3.1715112
-36.691307,2.8335578,3.182314
-36.756577,2.8344762,3.1972442
-36.81957,2.8367548,3.2142196
-36.88103,2.8400083,3.2327085
-36.948067,2.840946,3.2482824
-37.012787,2.8432345,3.265883
-37.09994,2.8356855,3.2705789
-37.171276,2.8356702,3.2855911
-37.242702,2.835942,3.3012257
-37.299633,2.8428755,3.3258882
-37.410225,2.8267856,3.3204918
-37.466476,2.8346336,3.3468351
-37.535793,2.8371253,3.3663807
-37.592793,2.8450809,3.393259
-37.655525,2.850845,3.417492
-37.731525,2.851389,3.4352212
-37.783417,2.8620875,3.466241
-37.841057,2.8706145,3.4946594
-37.880966,2.886397,3.5324888
-37.938385,2.8953166,3.561758
-37.978783,2.9110699,3.5998254
-38.026615,2.9239979,3.6344757
-38.093067,2.9299169,3.6605496
-39.09208,2.5830927,3.2495031
-39.11109,2.6109428,3.3053737
-39.133125,2.637529,3.3597064
-39.13572,2.6711328,3.4226356
-39.143852,2.7024617,3.4827385
-39.141914,2.7371967,3.5469165
-39.11844,2.7793028,3.619854
-39.11795,2.812879,3.6824222
-39.11518,2.8469896,3.7455468
-39.121574,2.8776667,3.8045378
-39.119522,2.9110186,3.866619
-39.192444,2.9188302,3.8989024
-39.359737,2.8954415,3.895434
-39.41136,2.9111814,3.937686
-39.600792,2.8820534,3.928996
-39.679363,2.8898277,3.9630046
-39.749756,2.900528,4.000647
-39.9059,2.8843813,4.0086675
-39.95001,2.9041028,4.057145
-40.027466,2.9135847,4.094555
-40.226017,2.8863318,4.0923367
-40.434235,2.8572688,4.0892043
-40.632935,2.8322227,4.091471
-40.866096,2.7980807,4.085149
-41.103573,2.763992,4.080147
-41.341675,2.7310567,4.077645
-41.58408,2.6982183,4.076558
-41.856747,2.65817,4.069467
-42.156147,2.6121812,4.0579205
-42.424667,2.5764127,4.0583034
-42.748894,2.5269122,4.046666
-43.085182,2.4759781,4.035532
-43.41013,2.4299548,4.0311337
-43.768723,2.3768601,4.021935
-44.160194,2.3171966,4.0087247
-44.539406,2.2628748,4.002885
-44.90908,2.213077,4.00354
-45.36666,2.1432056,3.9883595
-45.806335,2.080326,3.9823194
-46.357235,1.9925861,3.957282
-46.83229,1.9262938,3.9543734
-47.336937,1.8555205,3.9507766
-47.926697,1.7673938,3.9360356
-48.52536,1.6804364,3.9262357
-49.13098,1.5951552,3.9218764
-49.82708,1.4925959,3.9080396
-50.748684,1.3432169,3.862801
-11.857353,1.8386414,3.94239
-13.267246,2.1071057,4.1129084
-13.667789,2.1498652,4.0945163
-14.077211,2.196846,4.0824223
-14.602066,2.2734601,4.0997343
-15.024954,2.3284533,4.1004434
-15.409953,2.3765318,4.097297
-15.713666,2.4066606,4.07951
-16.095299,2.4578667,4.0837173
-16.502476,2.5176365,4.098495
-16.688377,2.5230649,4.062283
-17.015034,2.5658689,4.064266
-17.832584,2.6615686,4.047558
-18.137724,2.7053115,4.0572896
-18.4179,2.7439137,4.063301
-18.604664,2.7581172,4.044973
-18.845669,2.7885535,4.044989
-19.078693,2.8180575,4.045268
-19.297327,2.8447163,4.0436635
-19.506239,2.8697567,4.0414047
-19.681675,2.8860984,4.030568
-19.93618,2.9269223,4.047966
-20.107006,2.9440322,4.039937
-20.28653,2.9647157,4.0368004
-20.508165,2.9993582,4.0505066
-20.685736,3.0215726,4.050976
-20.779951,3.0185487,4.0229983
-20.946884,3.0390913,4.0229836
-21.148281,3.071659,4.037903
-21.290955,3.086315,4.0325503
-21.36828,3.0802674,4.0031586
-21.564556,3.1140785,4.021916
-21.739761,3.1419911,4.0344543
-21.815575,3.137187,4.008043
-21.971392,3.1601682,4.015887
-22.098642,3.174152,4.013361
-22.220299,3.1868827,4.0098324
-22.351194,3.2035651,4.0117297
-22.441774,3.206555,3.9970784
-22.593594,3.232167,4.0111957
-22.687963,3.2376847,4.000597
-22.769257,3.2388587,3.984863
-22.831617,3.2333498,3.9609241
-22.949396,3.2490134,3.9643257
-23.014126,3.2451243,3.9430404
-23.054306,3.2320397,3.910101
-23.203379,3.2614532,3.9324615
-23.2166,3.2383468,3.886933
-23.306295,3.2455153,3.8810549
-23.422413,3.26379,3.890117
-23.441826,3.2435029,3.8487015
-23.568981,3.2673292,3.8658032
-23.646187,3.2712655,3.856916
-23.637989,3.2398236,3.8010254
-23.772331,3.268375,3.8255153
-23.845875,3.271829,3.8167243
-23.856146,3.248322,3.7717547
-23.99569,3.2810662,3.803051
-24.05909,3.2812042,3.7904978
-24.07609,3.2609615,3.7503204
-24.195139,3.2865403,3.7729354
-24.25899,3.2878268,3.7625875
-24.251072,3.2564375,3.7073817
-24.371445,3.2842574,3.7339993
-24.44202,3.2895699,3.7298088
-24.466604,3.2734652,3.6960335
-24.54086,3.2810912,3.6954317
-24.621016,3.2920022,3.6996675
-24.679445,3.2927845,3.689939
-24.720276,3.2851515,3.6685333
-24.801285,3.2976785,3.675703
-24.888718,3.313968,3.6884575
-24.8956,3.2897968,3.6440473
-24.95504,3.29244,3.637783
-25.023224,3.2999425,3.6386266
-25.081589,3.3026862,3.632866
-25.114166,3.2920327,3.6080542
-25.182579,3.3006413,3.6110096
-25.23479,3.3008814,3.6021056
-25.289791,3.3028965,3.5959082
-25.31245,3.2872696,3.564311
-25.399408,3.3075557,3.5848746
-25.45826,3.3125997,3.5835304
-25.508482,3.3130474,3.5756464
-25.53835,3.3019643,3.551045
-25.621151,3.3217998,3.5717754
-25.655136,3.313459,3.5514054
-25.73242,3.3310065,3.5691743
-25.724085,3.297492,3.5119314
-25.796938,3.3129892,3.526967
-25.86736,3.3275418,3.540812
-25.916014,3.3290615,3.5355392
-25.964558,3.3307574,3.5306478
-26.009693,3.3305302,3.5230155
-26.018118,3.3068647,3.4805584
-26.060764,3.3051682,3.4708815
-26.14272,3.3295233,3.500268
-26.206135,3.3422866,3.512518
-26.215794,3.3193479,3.4713511
-26.263113,3.3217342,3.4682431
-26.308428,3.3229952,3.463552
-26.391556,3.350819,3.4990306
-26.409853,3.3338118,3.4670115
-26.440079,3.3251095,3.4475722
-26.483786,3.3261154,3.4428983
-26.557518,3.3492277,3.4718752
-26.60617,3.3545759,3.4740458
-26.64219,3.3508122,3.4624586
-26.687628,3.35426,3.4619355
-26.724762,3.351632,3.452241
-26.742815,3.3343792,3.42026
-26.723372,3.2875636,3.343032
-26.737274,3.266205,3.30472
-26.682346,3.189353,3.1812181
-26.699917,3.16962,3.145288
-26.686348,3.1240199,3.0695543
-26.693449,3.0946667,3.0187626
-26.703308,3.0670958,2.970694
-26.70834,3.0349119,2.9154792
-26.696451,2.9875052,2.8366852
-26.703485,2.955626,2.7818465
-26.691324,2.9061317,2.699667
-26.678137,2.8546343,2.6142879
-26.671156,2.807632,2.5357985
-26.69302,2.786149,2.4969301
-26.694744,2.7455182,2.428257
-26.70773,2.7146506,2.374754
-26.728703,2.6908083,2.3321996
-26.69772,2.616075,2.2101498
-26.702919,2.575116,2.1407647
-26.699478,2.524611,2.056395
-26.666132,2.4426394,1.9226494
-26.68329,2.4104023,1.8667483
-26.692852,2.3695588,1.797328
-26.712784,2.3387115,1.7435846
-26.715433,2.2886736,1.6596556
-26.720917,2.2404683,1.578558
-26.706892,2.1695309,1.4615955
-26.706486,2.1119416,1.3655791
-26.716263,2.06441,1.2853708
-26.721163,2.0100229,1.1942973
-35.60093,1.3486602,0.31442308
-35.591362,1.4138196,0.42371273
-35.628326,1.4392364,0.4716797
-35.567642,1.5440376,0.6417866
-35.532192,1.6262546,0.77691984
-35.60811,1.6180773,0.77318525
-35.57821,1.6936727,0.89796066
-35.61061,1.7193179,0.9461379
-35.542145,1.8221648,1.1122918
-35.607296,1.8214121,1.1200848
-35.539772,1.9205487,1.2801943
-35.590374,1.9300425,1.3036337
-35.541275,2.0127096,1.4383163
-35.575127,2.033634,1.4791145
-35.59582,2.0637937,1.5339384
-35.57233,2.124851,1.6354747
-35.568035,2.1713638,1.7149034
-35.579666,2.20608,1.7764645
-35.587498,2.2429008,1.8411613
-35.586388,2.28523,1.9140878
-35.627842,2.2983975,1.9432092
-35.66975,2.3112497,1.9719315
-35.649986,2.3644843,2.0610776
-35.77063,2.3258896,2.0130987
-35.891098,2.3285933,2.036953
-35.921158,2.349238,2.0777154
-35.50331,2.6831741,2.5918274
-35.56653,2.6800864,2.5968413
-35.609406,2.689539,2.6204786
-35.648735,2.7011633,2.6473956
-35.725296,2.6909387,2.6423626
-36.64785,2.1894739,1.9189625
-35.802242,2.7157428,2.6989985
-35.84328,2.726701,2.725328
-35.77776,2.7977028,2.8390012
-35.852146,2.789542,2.8375878
-35.89162,2.8010728,2.864873
-35.945393,2.8048403,2.8810382
-36.031864,2.7911534,2.8722124
-36.098995,2.7883618,2.8792977
-36.142776,2.798256,2.904748
-36.199745,2.8013332,2.9205594
-36.25823,2.8038483,2.9357228
-36.301075,2.8146133,2.9627767
-36.388092,2.8030524,2.9582748
-36.436954,2.8111713,2.981876
-36.48954,2.817573,3.003181
-36.540565,2.8249097,3.0259418
-36.601505,2.8275766,3.0422926
-36.67096,2.826393,3.0534348
-36.737442,2.8269587,3.0672288
-36.8009,2.8292508,3.083622
-36.86988,2.829231,3.0970035
-36.936607,2.8305724,3.1124778
-36.99946,2.8339782,3.1310015
-37.068684,2.8347545,3.1461072
-37.137993,2.8358042,3.161806
-37.20978,2.8360634,3.176649
-37.284878,2.8351994,3.1901984
-37.344757,2.8413026,3.213428
-37.44434,2.8305526,3.2141094
-37.500267,2.8389435,3.240872
-37.590477,2.8330767,3.2487154
-37.648872,2.8409426,3.2751942
-37.71711,2.844946,3.2967262
-37.76632,2.8569946,3.329134
-37.81955,2.8675373,3.3597035
-37.875175,2.877273,3.3893805
-37.926517,2.8888736,3.4216728
-37.97773,2.9006603,3.4543686
-37.994186,2.9260519,3.5048513
-38.050934,2.9358444,3.5352225
-39.058754,2.5848005,3.1025462
-39.098305,2.6051702,3.1489964
-39.117855,2.6329858,3.2050214
-39.13354,2.6620839,3.2626839
-39.145317,2.692436,3.3219228
-39.14276,2.7277572,3.3873668
-39.13355,2.7651522,3.455308
-39.125473,2.801805,3.522211
-39.11943,2.837422,3.587726
-39.119827,2.8705075,3.650035
-39.12499,2.9017143,3.7099857
-39.17471,2.917653,3.7513986
-39.342964,2.8940897,3.7454343
-39.4193,2.9018817,3.7777514
-39.55888,2.8892906,3.7861533
-39.689835,2.8802376,3.7993693
-39.71252,2.9065118,3.854622
-39.878723,2.887281,3.8569093
-39.9741,2.8911405,3.8866987
-40.085766,2.8903787,3.9116073
-40.215668,2.884565,3.9312768
-40.299362,2.8933935,3.9681263
-40.475998,2.874732,3.9745045
-40.53966,2.8904762,4.0200624
-40.654457,2.891449,4.049591
-40.765625,2.8940074,4.081414
-41.0362,2.8514633,4.0648565
-41.190285,2.8434212,4.086833
-41.50009,2.792612,4.0640664
-41.740295,2.7628222,4.065165
-42.015472,2.7247965,4.058976
-42.2699,2.6939065,4.0616894
-42.562267,2.654283,4.05689
-42.8956,2.6054769,4.0444627
-43.195995,2.5671165,4.044403
-43.56946,2.511591,4.029116
-43.920307,2.4639065,4.023692
-44.32671,2.4041955,4.008756
-44.66314,2.3641138,4.01496
-45.05236,2.3129096,4.012755
-45.577244,2.2309828,3.9844956
-46.057743,2.1626027,3.9718986
-46.53453,2.0977452,3.9655113
-47.036175,2.0297005,3.9593534
-47.55701,1.9599783,3.9549856
-48.180428,1.8697844,3.9365053
-48.83297,1.7764797,3.9195623
-49.384956,1.7090051,3.92835
-50.265182,1.5727966,3.8852167
-51.04123,1.4638953,3.8698726
-11.977968,2.017961,4.024903
-11.745573,1.9136057,3.8728843
-13.364445,2.2208252,4.088098
-13.996498,2.3141842,4.1189175
-14.351195,2.3475082,4.0981636
-14.722486,2.3865626,4.0849395
-15.19108,2.4504838,4.0976195
-15.485824,2.4755983,4.075654
-15.848333,2.5186067,4.072906
-16.25832,2.575182,4.085704
-16.510643,2.5950553,4.064069
-16.836987,2.6347802,4.0639915
-17.7123,2.737811,4.057584
-18.00399,2.7753358,4.0619817
-18.24651,2.8014016,4.055678
-18.471764,2.82414,4.0470533
-18.764248,2.866404,4.060912
-19.018902,2.8999019,4.066642
-19.250729,2.928462,4.068192
-19.462627,2.9526894,4.06606
-19.638191,2.9677155,4.0545835
-19.87569,3.001556,4.0654078
-19.96447,2.9933283,4.029076
-20.134415,3.0094414,4.0213156
-20.31306,3.0290725,4.0184646
-20.511196,3.055576,4.024531
-20.720503,3.0866182,4.0369015
-20.88858,3.1061366,4.0365243
-21.015759,3.1138148,4.0227146
-21.174961,3.1322699,4.022479
-21.309597,3.1437688,4.014505
-21.443031,3.1556034,4.0075307
-21.606339,3.1779137,4.014023
-21.726631,3.1869671,4.0048265
-21.860775,3.2012827,4.0026875
-21.992786,3.2156258,4.001152
-22.086721,3.217721,3.9847553
-22.176147,3.2187252,3.9673514
-22.229742,3.2076764,3.9349658
-22.385027,3.232607,3.9487712
-22.399569,3.208375,3.9000394
-22.575708,3.2421553,3.9262335
-22.581842,3.2152271,3.8743756
-22.734789,3.24206,3.892578
-22.791576,3.2341268,3.8658586
-22.892612,3.2430034,3.8614457
-22.998451,3.2542567,3.860553
-23.02047,3.233973,3.8182068
-23.155376,3.257351,3.834085
-23.220253,3.2541552,3.8149185
-23.25175,3.2380314,3.7785988
-23.380613,3.2608364,3.794866
-23.408035,3.2434754,3.757224
-23.500765,3.2527442,3.755837
-23.61781,3.2725675,3.7691755
-23.626556,3.2479868,3.722135
-23.727594,3.2620833,3.7282233
-23.83067,3.2776613,3.7367077
-23.843048,3.2548704,3.69246
-23.959318,3.2770586,3.7106538
-24.044676,3.2864423,3.7114186
-24.056578,3.2637315,3.6676164
-24.151972,3.278273,3.6760292
-24.223328,3.2825246,3.6702905
-24.259996,3.2712784,3.6429152
-24.32724,3.2742248,3.6357064
-24.433931,3.2959538,3.6553516
-24.466656,3.2834897,3.6266966
-24.489552,3.2663527,3.5914435
-24.635126,3.3082812,3.6407437
-24.668587,3.2967408,3.6138186
-24.687057,3.2778444,3.576384
-24.793966,3.3028145,3.60224
-24.842556,3.299256,3.5871825
-24.88293,3.291711,3.566472
-24.930048,3.2877245,3.5510302
-25.014751,3.3034086,3.5643673
-25.074837,3.3067725,3.559968
-25.072803,3.2775483,3.5080261
-25.161901,3.2967443,3.5270739
-25.233923,3.3073559,3.5337648
-25.301327,3.3159122,3.537632
-25.317184,3.2964046,3.5002308
-25.353907,3.2883716,3.4798226
-25.4667,3.323351,3.5233016
-25.49963,3.313746,3.500846
-25.523647,3.299027,3.4708357
-25.5845,3.3056943,3.4727817
-25.662275,3.3227077,3.4903607
-25.717094,3.326644,3.4885612
-25.712147,3.2948968,3.4333253
-25.80873,3.3244882,3.4702902
-25.877848,3.3380477,3.4833727
-25.93663,3.3456917,3.4877086
-25.96088,3.3319983,3.4599228
-25.995827,3.325018,3.44234
-26.014599,3.3076904,3.4091225
-26.080143,3.3206067,3.4218988
-26.134428,3.32662,3.4243302
-26.189138,3.3332598,3.4278493
-26.230993,3.331612,3.418837
-26.243353,3.3100688,3.3794699
-26.300896,3.3193223,3.3872962
-26.368649,3.3360968,3.4068046
-26.410843,3.3354692,3.399733
-26.427456,3.3168125,3.364993
-26.475155,3.3203099,3.364418
-26.546019,3.3409703,3.3904476
-26.605078,3.353609,3.404254
-26.63967,3.3484857,3.390698
-26.687136,3.3531513,3.3923836
-26.728642,3.3535676,3.3875747
-26.747711,3.336834,3.3561888
-26.714237,3.2787642,3.2604704
-26.71242,3.2445421,3.2017717
-26.698463,3.199938,3.1268177
-26.701488,3.1682072,3.0718894
-26.689262,3.1233487,2.9963841
-26.700245,3.096874,2.9495888
-26.695618,3.056776,2.881414
-26.704615,3.0274827,2.8301387
-26.685184,2.9730728,2.7393627
-26.694088,2.94226,2.6856098
-26.665857,2.8779237,2.5790224
-26.671276,2.842335,2.5176334
-26.691116,2.8191402,2.4757733
-26.708902,2.7936435,2.430283
-26.697918,2.7407782,2.3414965
-26.707705,2.7063706,2.2818522
-26.728891,2.6821806,2.238379
-26.694836,2.6037576,2.1088643
-26.70145,2.563513,2.0398278
-26.655373,2.4696145,1.8854613
-26.680082,2.4451327,1.8413553
-26.69702,2.412171,1.7837582
-26.72144,2.3862984,1.7374516
-26.69844,2.3096428,1.6101379
-26.728025,2.2875,1.5697432
-26.703403,2.205767,1.4341402
-26.70476,2.15058,1.3408637
-26.71924,2.108711,1.2688494
-35.579197,1.4774966,0.4172392
-35.59124,1.5229955,0.49685335
-35.566246,1.5975668,0.6218233
-35.59632,1.6267428,0.67583656
-35.59926,1.6768827,0.76251936
-35.563503,1.7562132,0.8945446
-35.60957,1.7710707,0.9262142
-35.5863,1.8385248,1.0395613
-35.5874,1.8863976,1.1224174
-35.576904,1.9420404,1.217226
-35.584328,1.9835429,1.2900777
-35.601143,2.017573,1.3513517
-35.57312,2.0832129,1.4613075
-35.618782,2.0954778,1.4889874
-35.55852,2.1818712,1.6306167
-35.578857,2.2108278,1.6838818
-35.583046,2.2504575,1.7534885
-35.59275,2.2857459,1.8164024
-35.604317,2.3192823,1.876605
-35.62163,2.34855,1.930273
-35.67506,2.3538313,1.9474344
-35.659164,2.4041066,2.0330524
-35.69837,2.418315,2.0638585
-35.803726,2.3906524,2.0313482
-35.840992,2.4064736,2.0648355
-35.51051,2.721362,2.5675373
-35.57311,2.7189045,2.5730867
-35.612602,2.7304552,2.5997634
-35.66709,2.7332418,2.61342
-36.61181,2.220065,1.857832
-36.658722,2.2331243,1.8885942
-36.699154,2.2499027,1.9249725
-36.82756,2.2172492,1.8881669
-36.663544,2.3480673,2.093482
-35.949696,2.7786934,2.7405214
-35.98184,2.7948143,2.7746587
-36.02819,2.8032331,2.7975335
-36.07301,2.8125763,2.8218718
-36.144047,2.8081954,2.826243
-36.200577,2.8117595,2.8424
-36.27931,2.804085,2.842348
-36.330803,2.810771,2.8633718
-36.393475,2.8119712,2.8765798
-36.43368,2.8246777,2.9065776
-36.491096,2.8289087,2.9244533
-36.54093,2.8370671,2.9481254
-36.625042,2.8287535,2.9483204
-36.667244,2.8410213,2.9781823
-36.740902,2.8384192,2.9869537
-36.804646,2.840842,3.0030851
-36.87779,2.8391652,3.0135913
-36.92917,2.8478591,3.0389671
-37.000908,2.847427,3.0516276
-37.071976,2.8476367,3.0654078
-37.145523,2.8470669,3.0783134
-37.212013,2.8499582,3.0962758
-37.284958,2.8503108,3.11091
-37.358006,2.8509555,3.1261773
-37.46184,2.838761,3.1239414
-37.509235,2.8510656,3.155786
-37.608643,2.8416786,3.1580057
-37.667427,2.8496888,3.1843476
-37.722046,2.8596056,3.2134628
-37.773273,2.8710623,3.2448292
-37.81775,2.885365,3.280192
-37.901142,2.8842657,3.294941
-37.95209,2.8963356,3.3276377
-37.98781,2.9144654,3.3685784
-38.02327,2.9327002,3.4097452
-38.07622,2.9442718,3.4421768
-39.042576,2.6113296,3.0205312
-39.1174,2.618648,3.0497255
-39.126404,2.6505742,3.111332
-39.137463,2.6815214,3.1716318
-39.14889,2.712129,3.2314687
-39.14688,2.7473497,3.2972255
-39.1261,2.788921,3.3710427
-39.12462,2.823298,3.4355164
-39.126076,2.8563788,3.4982662
-39.130505,2.8881876,3.5593472
-39.149357,2.9148784,3.613954
-39.228607,2.9211926,3.643146
-39.4254,2.8888254,3.624638
-39.49167,2.9004738,3.661316
-39.63342,2.8878424,3.6684656
-39.691635,2.902796,3.7098608
-39.82126,2.8952384,3.724205
-39.966377,2.8834815,3.7340684
-40.019997,2.900916,3.7794838
-40.169968,2.8888855,3.7901125
-40.23426,2.9036734,3.8330526
-40.413647,2.8840966,3.8360224
-40.507923,2.890778,3.87036
-40.635933,2.887958,3.8941607
-40.796097,2.8764296,3.9085975
-40.86574,2.8917146,3.9542484
-41.0667,2.8699813,3.9585252
-41.129837,2.8879886,4.008173
-41.265743,2.8860152,4.035985
-41.399906,2.8851786,4.065717
-41.659515,2.851027,4.05993
-41.919777,2.8181424,4.056888
-42.205853,2.7798698,4.049508
-42.47488,2.7476392,4.050062
-42.80822,2.7002819,4.0363092
-43.131145,2.6574414,4.029088
-43.44825,2.6178515,4.0270095
-43.806602,2.5697365,4.0181417
-44.17618,2.52084,4.0105715
-44.55985,2.4705582,4.0038037
-44.964287,2.4174054,3.9965239
-45.365803,2.3671606,3.9944592
-45.862396,2.2968943,3.9759073
-46.40017,2.2198715,3.9541292
-46.849342,2.1659837,3.9569488
-47.392197,2.0934753,3.9457746
-47.931366,2.0247474,3.9414363
-48.566628,1.9379187,3.9247756
-49.18779,1.8576035,3.9178867
-49.908367,1.7594814,3.9001284
-50.827168,1.623646,3.8560781
-11.896278,2.1038194,3.9636126
-13.275951,2.346581,4.1274004
-13.576294,2.3624568,4.0885878
-14.024666,2.4124975,4.08388
-14.573453,2.4873862,4.1057143
-14.90262,2.5155966,4.085394
-15.308368,2.563107,4.0860305
-15.651523,2.5982828,4.076687
-16.058512,2.6503255,4.086377
-16.270555,2.6581402,4.0530357
-16.83469,2.752028,4.110133
-17.622372,2.826391,4.0777063
-17.76277,2.822993,4.0391374
-18.097519,2.8701887,4.0566273
-18.376339,2.9047253,4.061885
-18.602364,2.926911,4.054803
-18.837183,2.9526613,4.0528717
-19.040894,2.971309,4.044052
-19.24787,2.9919431,4.0385056
-19.473726,3.0189137,4.041283
-19.640171,3.0305421,4.0272994
-19.884232,3.0649824,4.0408583
-20.026978,3.0718443,4.022987
-20.25066,3.1028526,4.0345182
-20.403635,3.1144452,4.0238094
-20.582596,3.134543,4.0240626
-20.754745,3.153595,4.0238543
-20.88675,3.1614442,4.010702
-21.055374,3.1811981,4.012789
-21.202892,3.1953604,4.008684
-21.316957,3.19985,3.9931471
-21.354166,3.180573,3.9482565
-21.550726,3.2123744,3.9679549
-21.585316,3.1928923,3.9233937
-21.750008,3.216035,3.9333436
-21.787365,3.1979804,3.8911037
-21.974154,3.2299857,3.9135652
-21.9879,3.2045696,3.862327
-22.145002,3.228067,3.8748505
-22.180773,3.210535,3.8342595
-22.363106,3.244274,3.8612537
-22.389355,3.223993,3.8175387
-22.485542,3.2286553,3.8070183
-22.582384,3.2340512,3.79783
-22.610725,3.2149503,3.7561584
-22.790716,3.251769,3.7898293
-22.82159,3.2341557,3.7506094
-22.958214,3.2563913,3.7655554
-23.011883,3.2478728,3.7390914
-23.07818,3.2443955,3.7196898
-23.19366,3.260336,3.7271752
-23.230602,3.2460883,3.6934485
-23.349655,3.2645133,3.7050314
-23.412182,3.260973,3.6865253
-23.427074,3.2383652,3.6416326
-23.556742,3.2626848,3.662387
-23.631275,3.2650013,3.652711
-23.636787,3.2387838,3.603087
-23.76697,3.2651024,3.6276584
-23.837065,3.2665968,3.6174903
-23.889435,3.2607765,3.597134
-23.975248,3.2697515,3.5980277
-24.037003,3.2686052,3.5847116
-24.095524,3.266296,3.5699062
-24.18695,3.2790697,3.5769715
-24.26941,3.2883258,3.5792484
-24.267635,3.2592998,3.526371
-24.400944,3.2927794,3.564149
-24.464947,3.2946796,3.556407
-24.479807,3.273561,3.5152593
-24.569672,3.2882762,3.5265355
-24.66973,3.3085241,3.546198
-24.680296,3.2856092,3.5027032
-24.7505,3.2920198,3.5024185
-24.813751,3.2953558,3.4977903
-24.876835,3.2989426,3.4937048
-24.896217,3.2805254,3.4571261
-25.001736,3.3064852,3.4865923
-25.043858,3.300149,3.4682136
-25.080944,3.2912755,3.446138
-25.126785,3.2871342,3.4312277
-25.207033,3.3017063,3.4445138
-25.296131,3.3216636,3.466124
-25.291897,3.2908885,3.411518
-25.369925,3.30549,3.425384
-25.451036,3.3223855,3.4429336
-25.504562,3.3241932,3.437828
-25.522022,3.3055372,3.4017625
-25.552166,3.2940807,3.3766656
-25.654793,3.325201,3.4165473
-25.70377,3.3253636,3.4094214
-25.70956,3.2998219,3.3630676
-25.772017,3.3083484,3.3689194
-25.86409,3.335472,3.4034882
-25.909946,3.3347342,3.395442
-25.966217,3.3407357,3.397882
-25.99885,3.3320863,3.3778396
-26.002523,3.3048735,3.3291526
-26.064442,3.3150647,3.3383546
-26.110132,3.3150506,3.3318772
-26.177227,3.3294568,3.347899
-26.22259,3.3298135,3.3422256
-26.25168,3.319336,3.319766
-26.321077,3.3365123,3.3405042
-26.370394,3.3403394,3.34055
-26.416504,3.342206,3.337634
-26.445,3.3317916,3.3155708
-26.485023,3.3296285,3.3064961
-26.561226,3.3539515,3.3391194
-26.611488,3.3599439,3.3430853
-26.651033,3.3582852,3.3351064
-26.684755,3.3523881,3.3205152
-26.732882,3.35754,3.3234334
-26.731335,3.3246207,3.266242
-26.714682,3.27927,3.1893163
-26.70905,3.241721,3.1246653
-26.687038,3.1903052,3.0379415
-26.680943,3.1507208,2.9699087
-26.69307,3.125319,2.924374
-26.697632,3.0931756,2.8680916
-26.71352,3.0699627,2.826014
-26.68234,3.0061722,2.719164
-26.676607,2.9629378,2.6450229
-26.663507,2.9123316,2.5590239
-26.680199,2.8870425,2.513476
-26.691309,2.8562758,2.4591455
-26.691006,2.8144965,2.387127
-26.701029,2.7813406,2.328907
-26.684221,2.7223835,2.229185
-26.707588,2.7001486,2.1884537
-26.730434,2.6770127,2.1462855
-26.684324,2.5861926,1.9950137
-26.656694,2.5113132,1.8692799
-26.679516,2.4851396,1.822072
-26.697813,2.4538405,1.7665873
-26.722206,2.4281542,1.72018
-26.691963,2.3447204,1.5802808
-26.710094,2.3104637,1.5199308
-26.72763,2.2747774,1.4572549
-26.708336,2.1979156,1.3277388
-26.719755,2.15309,1.2501473
-35.5682,1.5398974,0.4059434
-35.593353,1.5743406,0.4687605
-35.548885,1.6637414,0.6187606
-35.60293,1.673703,0.64267826
-35.564583,1.7555914,0.7805147
-35.535908,1.828377,0.9037733
-35.596138,1.8322186,0.9180331
-35.64245,1.8467102,0.9491954
-35.58248,1.93995,1.104423
-35.622147,1.9582977,1.1416264
-35.57095,2.0423028,1.2819891
-35.614075,2.0571504,1.3136649
-35.569168,2.1342087,1.4428339
-35.59283,2.1618457,1.4945045
