x,y,z
-32.8754,1.5847082,2.8896127
-32.919617,1.5796766,2.892376
-32.96556,1.5722389,2.8927999
-33.012054,1.5643096,2.8928776
-33.06161,1.5520961,2.8887033
-33.108006,1.5450971,2.8900785
-33.157097,1.5344591,2.8878803
-33.20854,1.5208313,2.8827991
-33.25716,1.5117726,2.882588
-33.305943,1.5028696,2.8827124
-33.35892,1.4884882,2.8774362
-33.41805,1.4661608,2.8642855
-33.466545,1.459013,2.8667774
-33.523064,1.4414358,2.8588881
-33.575188,1.4302678,2.8577018
-26.552177,1.3789234,2.7822523
-26.613375,1.3999157,2.7930346
-26.66808,1.4130995,2.796101
-26.728146,1.4338899,2.8071532
-26.78785,1.4548917,2.8186646
-26.847187,1.4761033,2.8306313
-26.888111,1.4726403,2.8174515
-26.943344,1.4892347,2.825078
-26.98991,1.4941537,2.8208575
-27.029844,1.4898341,2.8072386
-27.086185,1.5094342,2.8185468
-27.147282,1.5367606,2.8380985
-27.203707,1.5580161,2.8515778
-27.246906,1.5599399,2.8451166
-27.318705,1.6061549,2.8850684
-27.33679,1.5698559,2.8389716
-27.381783,1.5753338,2.8366728
-27.42863,1.5841181,2.8379965
-27.472212,1.5879674,2.8342924
-27.520302,1.5995774,2.8389091
-27.564787,1.6056073,2.8378048
-27.60878,1.6111321,2.836316
-27.653763,1.6187043,2.83714
-27.699326,1.6276932,2.8396168
-27.738674,1.6259282,2.8308272
-27.78574,1.6383867,2.8372836
-27.828787,1.6439245,2.836532
-27.873083,1.6521621,2.8387976
-27.920559,1.6669753,2.8482323
-27.95825,1.6632285,2.8379827
-28.00051,1.6686254,2.8376331
-28.044882,1.6786718,2.842404
-28.088444,1.687557,2.8460732
-28.130922,1.6946259,2.8479319
-28.171164,1.6972747,2.845169
-28.21164,1.7006857,2.8433504
-28.25262,1.705512,2.8431816
-28.291237,1.7052436,2.8376374
-28.329565,1.7044268,2.831613
-28.37226,1.7141588,2.8371196
-28.423315,1.7449296,2.8655596
-28.460499,1.742502,2.8581696
-28.51536,1.7853601,2.9000564
-28.553713,1.787106,2.897462
-28.582735,1.7640207,2.8679652
-28.636978,1.8093009,2.9129777
-28.676207,1.8146625,2.914679
-28.715332,1.8201334,2.916617
-28.752579,1.8204448,2.9130383
-28.787434,1.8136034,2.9017506
-28.813564,1.7791424,2.8603482
-28.850306,1.7770755,2.8544488
-28.88807,1.7784071,2.8523746
-28.925991,1.7805011,2.8512435
-28.965181,1.7873282,2.8554134
-29.003696,1.7922766,2.8576374
-29.041239,1.7940166,2.8564467
-29.078913,1.7965188,2.8562016
-29.116535,1.7991214,2.8561735
-29.153944,1.8011599,2.8556323
-29.192226,1.8072836,2.859694
-29.22966,1.8101871,2.8603187
-29.266895,1.8125243,2.8604236
-29.303946,1.8142946,2.8600092
-29.341219,1.8174927,2.8612738
-29.378551,1.8214562,2.8634868
-29.415928,1.8261852,2.866652
-29.452206,1.8250122,2.8633986
-29.48882,1.8259332,2.8625607
-29.52581,1.8296192,2.864882
-29.561787,1.8267262,2.8600278
-29.599495,1.8366137,2.8694143
-29.63628,1.8405893,2.8723636
-29.67245,1.8399832,2.8703418
-29.715048,1.8996274,2.935155
-29.76302,2.0249164,3.0728326
-29.798891,2.0393476,3.0878186
-29.831709,2.0190911,3.0644565
-29.8632,1.9755011,3.0153108
-29.899115,1.9901986,3.0308743
-29.934841,2.0063298,3.048129
-29.97004,2.0172,3.0596461
-30.004948,2.0254836,3.0683918
-30.039503,2.026494,3.0691652
-30.073784,2.0142038,3.0552764
-30.108223,1.9966452,3.0356364
-30.143063,2.0367544,3.080068
-30.177347,2.0561962,3.101667
-30.211586,2.05698,3.1026568
-30.245895,2.0545046,3.1001253
-30.280136,2.055464,3.1014967
-30.314444,2.0545044,3.1008325
-30.348736,2.0543015,3.1011028
-30.382952,2.0555255,3.103047
-30.417147,2.0568368,3.1051822
-30.451527,2.0555608,3.1045418
-30.48616,2.051698,3.1011276
-30.520546,2.0512683,3.1016154
-30.554874,2.0515964,3.103035
-30.589497,2.049339,3.1016855
-30.624,2.0485086,3.1020112
-30.658434,2.0484352,3.1032681
-30.69315,2.0464478,3.1025033
-30.728394,2.0412133,3.0982432
-30.763317,2.0387409,3.097135
-30.798286,2.0363603,3.0962272
-30.832954,2.0360706,3.0977254
-30.868118,2.0332055,3.096476
-30.903082,2.0317652,3.0968976
-30.938608,2.0277545,3.0945811
-30.974209,2.0238378,3.0924683
-31.009447,2.0220108,3.0927596
-31.044724,2.0202768,3.0932531
-31.080505,2.016643,3.091754
-31.11668,2.0117776,3.0890021
-31.154793,1.9997139,3.0784397
-31.204758,1.943347,3.0193143
-31.277964,1.8050122,2.8703637
-31.315054,1.8046477,2.873118
-31.352348,1.8037198,2.875358
-31.390257,1.8009076,2.8756409
-31.427818,1.7995179,2.8775897
-31.46541,1.798229,2.879757
-31.50453,1.7924247,2.8770957
-31.543541,1.7873878,2.8753905
-31.581293,1.7864082,2.8782272
-31.619535,1.784214,2.879849
-31.65735,1.7834373,2.8831286
-31.699793,1.7702906,2.8730526
-31.737263,1.7710404,2.878223
-31.774984,1.7712352,2.8828988
-31.814268,1.7676034,2.883531
-31.854153,1.7627738,2.8829818
-31.899813,1.7443395,2.8678226
-31.937794,1.7449684,2.8734398
-31.977463,1.7417891,2.8750515
-32.01634,1.7406733,2.8790126
-32.05524,1.7396634,2.883203
-32.095367,1.7361634,2.8848286
-32.13526,1.7334249,2.8873973
-32.175526,1.73015,2.8895116
-32.217747,1.7231064,2.8877087
-32.26074,1.714895,2.884789
-32.30193,1.7106841,2.886292
-32.3442,1.7046576,2.885985
-32.381527,1.7084112,2.8962507
-32.430107,1.6910489,2.8841228
-32.4696,1.6911774,2.8907819
-32.50981,1.6901324,2.8963137
-32.558666,1.6738372,2.8857918
-32.59761,1.6755993,2.8945742
-32.643932,1.6647015,2.8900847
-32.687824,1.6584103,2.8906212
-32.731457,1.6528873,2.892115
-32.775585,1.6468599,2.8932233
-32.822956,1.6358912,2.8892884
-32.86854,1.6282396,2.8890014
-32.91548,1.6188307,2.8870316
-32.960144,1.613358,2.8893433
-33.00409,1.6092815,2.8932643
-33.044777,1.6103716,2.9027152
-33.102383,1.5864513,2.886294
-33.146267,1.5834265,2.891786
-33.193253,1.5761507,2.8930235
-33.243008,1.5652752,2.890708
-33.29207,1.5558083,2.890029
-33.344448,1.5421417,2.8852081
-33.40025,1.5243015,2.8762975
-33.461414,1.4998317,2.8608117
-33.51928,1.480535,2.8508697
-33.62868,1.3941009,2.7726274
-26.514181,1.4262602,2.7845564
-26.548027,1.4120796,2.7593813
-26.614088,1.438978,2.776609
-26.691969,1.4820609,2.8108187
-26.755558,1.5076289,2.8272505
-26.809454,1.5211148,2.8314166
-26.868591,1.5421834,2.8436651
-26.925098,1.5603695,2.8531466
-26.9719,1.5657501,2.8494892
-27.031399,1.5892627,2.8649478
-27.07521,1.5912373,2.8580852
-27.124577,1.6014352,2.8599973
-27.16864,1.6043081,2.8543873
-27.22021,1.6185577,2.8609042
-27.27235,1.6342285,2.869112
-27.335281,1.6669965,2.8955827
-27.351496,1.6284168,2.8467603
-27.393114,1.628819,2.8392744
-27.441406,1.640049,2.8434243
-27.486382,1.646385,2.842536
-27.53123,1.6528573,2.8419414
-27.575953,1.6594648,2.8416424
-27.620544,1.6662083,2.8416362
-27.659498,1.6635642,2.8317242
-27.702099,1.6673827,2.8288608
-27.746397,1.6745093,2.8296847
-27.79091,1.682406,2.8314838
-27.83527,1.6904368,2.8335738
-27.875738,1.6915681,2.8283663
-27.91751,1.6953738,2.8261695
-27.963474,1.7076342,2.833249
-28.009861,1.721319,2.8420258
-28.066803,1.7570002,2.8748136
-28.11562,1.7774348,2.8912597
-28.15456,1.7780519,2.8863297
-28.191969,1.7755516,2.8781214
-28.230885,1.7763789,2.8736477
-28.292686,1.8283973,2.92514
-28.320292,1.8048964,2.8943844
-28.351639,1.7892232,2.872243
-28.387615,1.7839997,2.8616133
-28.422064,1.7749703,2.8469124
-28.463205,1.7822802,2.850224
-28.502668,1.7858024,2.849503
-28.537046,1.7764037,2.8346972
-28.585783,1.8049116,2.8616824
-28.62468,1.808119,2.8609753
-28.670282,1.83038,2.8813815
-28.710701,1.8390491,2.8869438
-28.749844,1.8445599,2.889142
-28.793428,1.8639364,2.9067755
-28.825912,1.8500054,2.8877163
-28.856375,1.8289325,2.8608303
-28.894768,1.8328781,2.861724
-28.931536,1.8316708,2.8570166
-28.96944,1.8345048,2.8568935
-29.007286,1.8374412,2.8569913
-29.04613,1.8444309,2.8616982
-29.083477,1.8462536,2.860776
-29.12144,1.8508141,2.8630023
-29.159,1.8541563,2.8639803
-29.196493,1.8575993,2.8651762
-29.233475,1.8591592,2.8643794
-29.270422,1.8608167,2.8637943
-29.30801,1.8658788,2.8671079
-29.344593,1.8664081,2.8654704
-29.381285,1.8676953,2.864778
-29.417,1.8637793,2.8583775
-29.454803,1.8718827,2.865499
-29.490324,1.8668272,2.8580203
-29.527138,1.8698211,2.8596373
-29.564749,1.8788834,2.8681407
-29.60041,1.8747706,2.862009
-29.63689,1.8767245,2.862764
-29.673178,1.8774447,2.862236
-29.720472,1.9805715,2.9764824
-29.764368,2.0678966,3.0731864
-29.800072,2.0815737,3.0875168
-29.832777,2.0614374,3.0640564
-29.866268,2.0473669,3.0474787
-29.90305,2.081267,3.084762
-29.935768,2.052073,3.051414
-29.969366,2.030943,3.027192
-30.005386,2.0651224,3.0650806
-30.039293,2.0461633,3.043476
-30.074156,2.0592322,3.0578823
-30.108852,2.0783808,3.0791998
-30.143175,2.0796504,3.0805597
-30.177336,2.100972,3.1045022
-30.211456,2.1010864,3.1047497
-30.24572,2.0952988,3.0984702
-30.279865,2.0962543,3.0998454
-30.314219,2.0919747,3.0954423
-30.348137,2.0977626,3.1024194
-30.382395,2.09632,3.1013803
-30.416996,2.090311,3.095316
-30.45083,2.0956953,3.1021152
-30.4852,2.093853,3.1009073
-30.519545,2.0927646,3.1006365
-30.553562,2.0950873,3.104279
-30.587692,2.096168,3.1066227
-30.622936,2.08804,3.09875
-30.656853,2.0912907,3.1037097
-30.691364,2.0899825,3.1036587
-30.726294,2.0861108,3.1008358
-30.761087,2.083657,3.0996952
-30.795269,2.0852716,3.1031957
-30.830235,2.0823355,3.101706
-30.865501,2.0781677,3.0989375
-30.899826,2.0793886,3.1022801
-30.9352,2.0754051,3.0999122
-30.970093,2.0741606,3.1006966
-31.005737,2.0697033,3.0979972
-31.041767,2.0640206,3.0940347
-31.077276,2.0610757,3.0932207
-31.112358,2.0602043,3.0948143
-31.148972,2.0534918,3.0900111
-31.193186,2.0185504,3.0539522
-31.27161,1.8606353,2.8815088
-31.308868,1.8589585,2.8827496
-31.346354,1.8567233,2.8834753
-31.38369,1.8552461,2.8851466
-31.422073,1.8505855,2.883401
-31.460545,1.8460302,2.8818822
-31.498463,1.8435466,2.8827658
-31.536434,1.8411653,2.8838706
-31.575583,1.8356156,2.8815885
-31.612988,1.8354039,2.8853092
-31.651354,1.8326797,2.8863668
-31.690746,1.8274508,2.8847814
-31.729994,1.8229837,2.88415
-31.770851,1.814719,2.8794641
-31.79551,1.8475509,2.920003
-31.84613,1.8154373,2.8893795
-31.876734,1.832825,2.913148
-31.916449,1.8282306,2.912938
-31.955406,1.8256917,2.9150949
-31.993559,1.8252022,2.9196053
-32.030262,1.8280468,2.9278631
-32.08606,1.789681,2.8913436
-32.127304,1.7837439,2.8903108
-32.176105,1.7624729,2.8727484
-32.21361,1.7651539,2.8813477
-32.254295,1.7615116,2.8832011
-32.296688,1.7547793,2.8818378
-32.337215,1.7520149,2.8848982
-32.379494,1.7461677,2.8847575
-32.418797,1.7461939,2.8910828
-32.461597,1.7399497,2.890778
-32.50381,1.7351072,2.892119
-32.54612,1.7303884,2.8937283
-32.590717,1.7219834,2.8915234
-32.633617,1.7168858,2.8930073
-32.676994,1.7112823,2.8940916
-32.72239,1.7026474,2.892086
-32.76601,1.6973095,2.8937454
-32.810524,1.6908412,2.8943481
-32.85397,1.6863976,2.8972502
-32.896698,1.6833403,2.9017644
-32.948875,1.6659827,2.8912945
-32.995167,1.6581936,2.8911219
-33.039093,1.6542993,2.895215
-33.08818,1.64305,2.8917189
-33.134907,1.6356966,2.8924913
-33.182636,1.6272461,2.8922782
-33.22701,1.6239135,2.8975897
-33.273674,1.6176174,2.8999581
-33.321815,1.6096122,2.9007096
-33.378746,1.5900333,2.8896012
-33.42544,1.5848236,2.893629
-33.49085,1.5551636,2.8725042
-26.478628,1.479387,2.783371
-26.534767,1.4929795,2.786921
-26.59501,1.5122185,2.7965736
-26.66639,1.546243,2.8219128
-26.72014,1.5586333,2.8249035
-26.774597,1.5724237,2.8295636
-26.823246,1.579068,2.8269162
-26.885956,1.6048393,2.8445945
-26.947306,1.6296113,2.8614693
-26.992554,1.6331007,2.8560739
-27.041262,1.6416516,2.8561974
-27.089367,1.6497424,2.8560038
-27.131702,1.6499546,2.8475966
-27.187664,1.6700928,2.8605642
-27.242422,1.6891849,2.8726268
-27.296835,1.7084627,2.8850927
-27.319277,1.6800272,2.8466325
-27.353943,1.6696846,2.8276172
-27.405167,1.6850154,2.8363008
-27.44664,1.6855111,2.8291907
-27.491589,1.691761,2.8284163
-27.537178,1.6994014,2.8292933
-27.581104,1.7046688,2.827754
-27.62455,1.7094386,2.8258166
-27.669735,1.7174873,2.82758
-27.718384,1.7319837,2.8364992
-27.759987,1.7346292,2.8326855
-27.811014,1.7544806,2.8477597
-27.87344,1.7960472,2.886723
-27.914705,1.7997627,2.8845472
-27.945845,1.7845323,2.8617573
-27.986124,1.7865508,2.8579483
-28.025381,1.7867715,2.8522868
-28.064938,1.7877383,2.8475623
-28.114782,1.809896,2.8662724
-28.151937,1.8066308,2.8571467
-28.191246,1.8079469,2.8531785
-28.23259,1.8138595,2.8544016
-28.279331,1.8320878,2.8693666
-28.321754,1.8414655,2.8746924
-28.358974,1.8393872,2.8674574
-28.400593,1.8477128,2.8718672
-28.434816,1.8387499,2.8572087
-28.471022,1.8343885,2.847752
-28.510113,1.8372278,2.846405
-28.553406,1.8511701,2.857535
-28.590065,1.8484087,2.8501835
-28.62556,1.8425024,2.8394227
-28.666061,1.850307,2.844067
-28.713257,1.8777041,2.8707266
-28.761736,1.9104483,2.9035225
-28.80096,1.9173329,2.907535
-28.834145,1.9061005,2.891368
-28.8591,1.868237,2.845426
-28.899076,1.8773544,2.852233
-28.935394,1.8748384,2.846095
-28.972876,1.8763342,2.844564
-29.011412,1.881851,2.8476572
-29.04949,1.8861644,2.8495069
-29.086628,1.8873091,2.8478956
-29.124231,1.8905158,2.848709
-29.16161,1.8931684,2.8490024
-29.199085,1.896575,2.8502502
-29.236198,1.8987696,2.8502345
-29.273264,1.9010625,2.85043
-29.310282,1.9034529,2.8508377
-29.346727,1.9033129,2.8484874
-29.383171,1.9032671,2.846342
-29.420317,1.9072618,2.848865
-29.456823,1.9080651,2.847878
-29.493523,1.9102798,2.848587
-29.530682,1.9158833,2.8532329
-29.567068,1.9169731,2.8528676
-29.603254,1.9168401,2.8512135
-29.639769,1.9194367,2.8527513
-29.676077,1.9208097,2.8529992
-29.725233,2.0410168,2.9881177
-29.767584,2.1145327,3.0704322
-29.802584,2.1215143,3.077383
-29.83573,2.1074624,3.0605583
-29.871191,2.1218853,3.0761418
-29.905378,2.1205525,3.0739336
-29.939806,2.12327,3.076416
-29.97406,2.1234345,3.0760899
-30.008259,2.1223657,3.0744553
-30.042515,2.1227062,3.0745106
-30.07685,2.1277602,3.0800118
-30.111074,2.13092,3.0834517
-30.145248,2.138793,3.0923371
-30.17934,2.1388245,3.0924058
-30.213463,2.1369615,3.0904121
-30.247585,2.1365077,3.0901113
-30.281534,2.1414273,3.0960011
-30.315681,2.139827,3.0945792
-30.350063,2.134352,3.0888472
-30.384222,2.1342494,3.0893059
-30.41806,2.1388571,3.0952048
-30.452442,2.1356287,3.0922966
-30.486998,2.1311696,3.0880852
-30.521254,2.1307595,3.08856
-30.555656,2.1291184,3.0877314
-30.589415,2.1335025,3.0938258
-30.623585,2.1340165,3.095622
-30.658443,2.1293447,3.0916324
-30.693203,2.1260827,3.089335
-30.727926,2.1235707,3.0879807
-30.7627,2.1211495,3.0868244
-30.796854,2.122768,3.0903335
-30.831451,2.121843,3.0910568
-30.865946,2.1216657,3.0927181
-30.901344,2.1169772,3.089375
-30.937235,2.1104124,3.0840092
-30.972267,2.1085405,3.084043
-31.007631,2.105449,3.0827956
-31.04366,2.0998275,3.0787935
-31.079008,2.0975802,3.0786963
-31.114079,2.096737,3.0802784
-31.15035,2.0914047,3.0769024
-31.192827,2.0632772,3.047978
-31.271843,1.9045548,2.8723254
-31.309229,1.9022582,2.8728042
-31.347046,1.898757,2.8720336
-31.384342,1.8973136,2.8736796
-31.422892,1.8920608,2.8711572
-31.460497,1.8901689,2.8725138
-31.49836,1.8877275,2.8733587
-31.536715,1.8840885,2.872972
-31.576275,1.8773069,2.8691826
-31.613878,1.8764768,2.8721576
-31.652218,1.8738022,2.87318
-31.69159,1.8686421,2.8715415
-31.72384,1.8823547,2.8910418
-31.750517,1.9097145,2.9258056
-31.789219,1.9061253,2.926209
-31.833843,1.8884523,2.9110827
-31.875803,1.878006,2.9041224
-31.914907,1.8747633,2.9052777
-31.958323,1.8619862,2.8959918
-31.999088,1.8557622,2.8940935
-32.040268,1.8490148,2.8917418
-32.08128,1.8430271,2.890356
-32.119358,1.8435574,2.8962808
-32.15837,1.8422735,2.9003181
-32.19489,1.8462043,2.910205
-32.23264,1.8476803,2.9174986
-32.26874,1.8524415,2.928504
-32.318092,1.8318648,2.9118567
-32.35732,1.8311338,2.9170928
-32.408615,1.8083196,2.8983245
-32.45822,1.7894773,2.8840742
-32.50533,1.7758555,2.8756847
-32.54728,1.7718532,2.877923
-32.58895,1.7686045,2.8811107
-32.634777,1.758553,2.8770528
-32.678905,1.7517872,2.8767066
-32.722786,1.7457817,2.8773298
-32.766785,1.7399092,2.8782392
-32.8109,1.7341702,2.879438
-32.85513,1.7285645,2.8809276
-32.89665,1.7274578,2.8873959
-32.94556,1.7152672,2.88211
-32.992626,1.7063422,2.880494
-33.03902,1.6988068,2.8805265
-33.08089,1.6982276,2.8881392
-33.124073,1.6959162,2.8940425
-33.16949,1.6906486,2.896945
-33.22206,1.6756673,2.8897018
-33.27,1.6676247,2.8900003
-33.31584,1.6628041,2.8938718
-33.359955,1.6605754,2.9006357
-33.42441,1.6315844,2.8793893
-33.465595,1.6339452,2.8913288
-33.527973,1.609026,2.874816
-26.498482,1.5493476,2.7947292
-26.552456,1.5604162,2.7959976
-26.615425,1.5830927,2.809731
-26.668404,1.5939438,2.8111968
-26.724968,1.6098018,2.81817
-26.784525,1.630091,2.83007
-26.833975,1.6378586,2.8288612
-26.89795,1.6652238,2.84875
-26.95554,1.68491,2.8606796
-27.002012,1.6901629,2.8573608
-27.048819,1.6961713,2.855012
-27.109074,1.7212996,2.873394
-27.1559,1.7282479,2.872414
-27.204721,1.7384148,2.8750691
-27.244907,1.7364304,2.8647504
-27.297194,1.7524364,2.874051
-27.329845,1.7395949,2.8522234
-27.370415,1.7385802,2.843338
-27.417795,1.7482126,2.8461738
-27.463015,1.7548921,2.8459473
-27.506147,1.7586017,2.8426247
-27.549965,1.763684,2.8409424
-27.594057,1.7695215,2.840228
-27.640644,1.7798638,2.8446007
-27.685928,1.7884748,2.8472257
-27.727776,1.7915862,2.8439445
-27.773485,1.8017204,2.8485355
-27.826042,1.8245623,2.8673067
-27.863972,1.8217828,2.8579383
-27.906364,1.8272963,2.8578587
-27.948647,1.8329344,2.858049
-27.985859,1.8292189,2.8479881
-28.027016,1.8331938,2.8465776
-28.07,1.8410878,2.8496542
-28.110636,1.8446693,2.8480606
-28.150883,1.8477314,2.8460078
-28.188341,1.8451841,2.837811
-28.225533,1.8420999,2.8291178
-28.263926,1.8416622,2.8234897
-28.305166,1.8477106,2.8252382
-28.343767,1.8481274,2.820794
-28.101625,1.1937184,2.081159
-28.139791,1.1789045,2.0590687
-28.153759,1.1045697,1.9700994
-28.539078,1.9535027,2.9209056
-28.580414,1.9641807,2.928681
-28.628185,1.9923387,2.9563055
-28.661758,1.9839687,2.9428377
-28.696405,1.978257,2.9324589
-28.730227,1.9700532,2.919353
-28.76552,1.9658055,2.91081
-28.804134,1.9713356,2.9134412
-28.831219,1.9420645,2.876719
-28.866219,1.9361339,2.8665333
-28.904312,1.9400034,2.86757
-28.942133,1.9433284,2.8680935
-28.977621,1.9389737,2.8599882
-29.014822,1.9405496,2.8587255
-29.05269,1.9448223,2.8606362
-29.090132,1.9478979,2.8612866
-29.127012,1.949122,2.8599296
-29.1645,1.9530466,2.8617544
-29.202063,1.9577222,2.8645377
-29.238792,1.9592416,2.86382
-29.275913,1.9628131,2.8655481
-29.31269,1.9651787,2.8659964
-29.348766,1.9643786,2.862924
-29.385593,1.9675887,2.8645358
-29.422358,1.970896,2.8663588
-29.458605,1.9716864,2.865399
-29.494831,1.9725711,2.8646421
-29.531742,1.9781282,2.8693366
-29.568262,1.9818203,2.871993
-29.604086,1.9810257,2.8696032
-29.640167,1.9822881,2.8696656
-29.676533,1.986264,2.8729372
-29.724808,2.0997524,3.0020056
-29.765837,2.1616201,3.0719652
-29.800772,2.1691983,3.0797057
-29.834536,2.1644108,3.073337
-29.868818,2.1656115,3.0739336
-29.903288,2.1701798,3.0784917
-29.93738,2.1695898,3.0772114
-29.971481,2.1690872,3.0761223
-30.005167,2.1575174,3.0624013
-30.039436,2.1591582,3.063953
-30.0737,2.1621993,3.067204
-30.107859,2.160734,3.0653648
-30.142076,2.1783907,3.0855966
-30.176027,2.1889153,3.0977182
-30.209852,2.1955886,3.105503
-30.243807,2.192505,3.102159
-30.277725,2.192133,3.1020217
-30.311539,2.1944733,3.1050901
-30.345173,2.1995242,3.1113615
-30.37912,2.1981013,3.1102824
-30.413597,2.1895518,3.1011043
-30.447763,2.1869943,3.0989017
-30.481918,2.1851802,3.097643
-30.516237,2.1821444,3.0950718
-30.550264,2.1824737,3.096455
-30.583912,2.1861663,3.101787
-30.618145,2.1847055,3.101294
-30.652494,2.1826787,3.1002426
-30.68707,2.1794329,3.0978842
-30.72151,2.1775858,3.0972219
-30.756302,2.1738665,3.0945063
-30.79083,2.1722004,3.0942369
-30.825512,2.1699708,3.0934138
-30.85987,2.1697907,3.0950289
-30.89424,2.1697004,3.096839
-30.92915,2.1670904,3.0958595
-30.964111,2.1645715,3.095079
-30.999414,2.1608424,3.09301
-31.035095,2.155905,3.0896583
-31.070713,2.1517143,3.0872579
-31.105923,2.1495707,3.0872893
-31.141684,2.1455705,3.0853019
-31.178223,2.139068,3.080563
-31.2515,2.0008864,2.926034
-31.298578,1.9628944,2.8857803
-31.337513,1.9548728,2.8797522
-31.373043,1.9586182,2.8872037
-31.409733,1.9585707,2.8904448
-31.448318,1.9528012,2.8872938
-31.487015,1.9471374,2.8843746
-31.524939,1.944164,2.884612
-31.562246,1.9432282,2.8872638
-31.600742,1.9391713,2.886489
-31.640747,1.9313569,2.8815799
-31.67871,1.9294448,2.8834524
-31.723448,1.9102883,2.8659844
-31.740238,1.9625196,2.9290905
-31.777746,1.9615219,2.9322758
-31.812355,1.9676721,2.9436045
-31.869165,1.9214411,2.896182
-31.908762,1.9169569,2.8958197
-31.954681,1.8985388,2.879953
-31.999203,1.8840919,2.8686857
-32.036926,1.8850687,2.8748145
-32.080048,1.8746955,2.868369
-32.117252,1.8771601,2.8763866
-32.153805,1.8809927,2.8860335
-32.19157,1.8823853,2.8930645
-32.230938,1.8807149,2.8967962
-32.271004,1.8778906,2.8993645
-32.31147,1.8745496,2.9014788
-32.35065,1.8738458,2.9066386
-32.397095,1.8600307,2.8974104
-32.42595,1.8784246,2.9239216
-32.48435,1.8441432,2.8923788
-32.511246,1.865859,2.922749
-32.54364,1.8776059,2.942202
-32.6015,1.8463058,2.9144492
-32.65162,1.8289399,2.9022021
-32.700527,1.8142321,2.8930445
-32.75048,1.7984407,2.882872
-32.791286,1.7977171,2.889326
-32.83571,1.7915311,2.8899527
-32.88147,1.7836237,2.888853
-32.924923,1.7795668,2.8920918
-32.970123,1.7731736,2.8929372
-33.017136,1.7644563,2.891419
-33.06261,1.7583473,2.892881
-33.10692,1.75422,2.896636
-33.1548,1.7453282,2.8954062
-33.200207,1.7402575,2.8984523
-33.24527,1.7359383,2.9024568
-33.292686,1.7287121,2.9035025
-33.34298,1.7179897,2.9009795
-33.390244,1.7116802,2.9033442
-33.45398,1.6843266,2.883481
-33.49884,1.6819868,2.890441
-26.446524,1.5738702,2.779152
-26.50765,1.5929651,2.7890034
-26.581661,1.6283808,2.8164897
-26.638557,1.6437609,2.8228855
-26.691805,1.6551456,2.8252206
-26.749584,1.67271,2.8343801
-26.807041,1.690476,2.8439775
-26.856739,1.6988025,2.843625
-26.90673,1.7078936,2.8442736
-26.965626,1.729244,2.8583565
-27.017847,1.7423182,2.8636975
-27.069376,1.7549601,2.8687572
-27.115843,1.761081,2.86691
-27.164349,1.7703943,2.8686981
-27.209248,1.7749789,2.8654919
-27.259542,1.787652,2.8712773
-27.328377,1.828062,2.9076204
-27.335505,1.7778933,2.8448591
-27.387411,1.7940702,2.8549552
-27.430586,1.7974873,2.8511891
-27.474869,1.8028829,2.849742
-27.517084,1.8053234,2.845173
-27.561548,1.8116007,2.8449798
-27.606262,1.8186328,2.845765
-27.651209,1.8264217,2.8475347
-27.693787,1.8306177,2.845457
-27.734816,1.832448,2.84088
-27.779734,1.8412559,2.844201
-27.855146,1.9045396,2.9084482
-27.870085,1.8611596,2.8538318
-27.892942,1.8309186,2.8139
-27.94017,1.8452368,2.8239102
-27.568094,1.0632837,1.9409618
-27.613363,1.0604782,1.930934
-27.662493,1.065351,1.9296675
-27.732227,1.1119821,1.9755554
-27.785704,1.1272907,1.9863987
-27.841917,1.1490853,2.0047307
-27.88703,1.148272,1.9977093
-27.879396,1.0328841,1.8612456
-28.359037,1.9946067,2.9439974
-28.072483,1.2602572,2.1070738
-28.108047,1.2403474,2.0790234
-28.129969,1.1874115,2.0135489
-28.139397,1.1019821,1.9111476
-28.54608,1.9969723,2.9241471
-28.58679,2.006306,2.930581
-28.625843,2.0119224,2.9328985
-28.201551,0.78468275,1.5288467
-28.701262,2.0170794,2.930933
-28.741629,2.027505,2.9390755
-28.780012,2.0329137,2.9416003
-28.813501,2.0243,2.928184
-28.839087,1.9913452,2.8869681
-28.86793,1.966794,2.8554292
-28.905409,1.9686956,2.8542938
-28.944202,1.9752078,2.8585534
-28.980417,1.9734452,2.8534155
-29.018297,1.9775836,2.8551588
-29.055563,1.9798875,2.8548946
-29.093119,1.9835825,2.8563328
-29.131094,1.9893186,2.8602257
-29.168798,1.9945104,2.863595
-29.205477,1.9959197,2.8627052
-29.242416,1.9987206,2.8635206
-29.279438,2.0022686,2.865296
-29.31598,2.003968,2.865038
-29.35209,2.0038176,2.8627396
-29.388447,2.0050592,2.862144
-29.425604,2.0109427,2.8670125
-29.46152,2.0104263,2.8645792
-29.497972,2.013254,2.8661075
-29.53376,2.0122747,2.863328
-29.569845,2.0133395,2.863007
-29.60662,2.019705,2.8689203
-29.642525,2.0203078,2.8682547
-29.679731,2.0320752,2.8806229
-29.727354,2.1403654,3.004982
-29.76741,2.1934128,3.0654407
-29.80188,2.1963847,3.0679383
-29.83602,2.1961854,3.0668511
-29.870062,2.1947703,3.0644393
-29.904213,2.194747,3.0637326
-29.938726,2.201335,3.070785
-29.973085,2.2073603,3.0772758
-30.007435,2.216084,3.086987
-30.041359,2.2157612,3.0862875
-30.075148,2.208347,3.0774426
-30.10906,2.2003667,3.068029
-30.143171,2.2251055,3.0966868
-30.177046,2.2212157,3.0921984
-30.210764,2.2311175,3.103807
-30.244703,2.225444,3.0974212
-30.278587,2.2244258,3.0965285
-30.312403,2.2254527,3.0980968
-30.34634,2.2239563,3.0968251
-30.380264,2.2231996,3.0964994
-30.414572,2.2173135,3.0903096
-30.448727,2.2147768,3.0880966
-30.48212,2.2214546,3.0966597
-30.516224,2.219745,3.095582
-30.550013,2.2213814,3.0984726
-30.584152,2.219847,3.097776
-30.618402,2.21775,3.0965157
-30.653305,2.211186,3.0901713
-30.687214,2.2125232,3.093071
-30.720705,2.216549,3.0991697
-30.755596,2.2115567,3.0949192
-30.790472,2.207307,3.091621
-30.823912,2.2115953,3.0982895
-30.858261,2.2107732,3.0991354
-30.893911,2.2035503,3.0926785
-30.929028,2.199668,3.0901756
-30.96464,2.193933,3.0856304
-30.998465,2.1967177,3.0910115
-31.034218,2.1911712,3.086873
-31.068188,2.193487,3.0918941
-31.1049,2.1848946,3.0844398
-31.140759,2.180283,3.0816703
-31.17863,2.1686628,3.0709367
-31.248697,2.0429049,2.929081
-31.296417,2.0025597,2.8856463
-31.332949,2.0023286,2.8884335
-31.370089,2.0002627,2.8892121
-31.408703,1.9937916,2.8850412
-31.445135,1.9945002,2.8892074
-31.482643,1.9920924,2.8899026
-31.520203,1.9897864,2.8908186
-31.559175,1.9837346,2.8875575
-31.598732,1.97651,2.883068
-31.637001,1.973238,2.8832045
-31.675581,1.9694319,2.8828397
-31.71474,1.9644547,2.8812509
-31.724129,2.034253,2.964881
-31.779789,1.9879806,2.9164834
-31.818417,1.9845722,2.9169822
-31.84922,1.9997196,2.9386487
-31.885883,2.000955,2.944614
-31.925373,1.9959402,2.9436011
-32.373417,1.0958755,1.9301167
-32.433136,1.0661848,1.9025517
-32.47687,1.0714755,1.9146795
-32.093216,1.9586947,2.921349
-32.14271,1.9353447,2.900301
-32.201202,1.8951461,2.8604722
-32.236526,1.901722,2.873415
-32.27635,1.8995898,2.876679
-32.31856,1.8931761,2.8752632
-32.357845,1.892528,2.8804312
-32.399918,1.8869834,2.8802423
-32.444206,1.8778136,2.8761349
-32.486538,1.8725228,2.8764968
-32.533314,1.8598809,2.8688068
-32.572258,1.8610747,2.8766537
-32.60524,1.8723154,2.8957667
-32.638042,1.8836331,2.9150457
-32.684074,1.8733528,2.9105048
-32.735355,1.8551798,2.8973956
-32.78303,1.8433511,2.89147
-32.82574,1.8396883,2.8947015
-32.872578,1.8299994,2.8914433
-32.919193,1.8210738,2.8891816
-32.966393,1.8116829,2.886567
-33.011253,1.806114,2.8882966
-33.05495,1.8025162,2.8923292
-33.09959,1.797831,2.895317
-33.145203,1.7920649,2.8972769
-33.193584,1.7827957,2.8955846
-33.235886,1.7821727,2.9034362
-33.283646,1.7744117,2.9036999
-33.3343,1.7631783,2.9003787
-33.382397,1.7557313,2.901322
-33.442795,1.7327931,2.885769
-33.48375,1.735296,2.8977695
-33.5438,1.7139428,2.8843389
-26.396076,1.6046567,2.7667542
-26.466997,1.6345696,2.7883763
-26.532421,1.6588404,2.8042173
-26.583658,1.6667681,2.802692
-26.661455,1.7075074,2.8368173
-26.710644,1.7140541,2.8342333
-26.763027,1.7249308,2.8365202
-26.825077,1.748524,2.852828
-26.879717,1.7633653,2.8598394
-26.931774,1.7753942,2.8639812
-26.985876,1.7906017,2.8717856
-27.03924,1.8053913,2.879331
-27.086102,1.8119185,2.877995
-27.130192,1.8149676,2.8729906
-27.181149,1.8278358,2.878952
-27.228859,1.8366272,2.88059
-27.281898,1.8534694,2.891294
-27.332531,1.8674476,2.899016
-27.347399,1.8291583,2.8489075
-27.396732,1.8415473,2.8551192
-27.436178,1.8394127,2.8453293
-27.481985,1.847193,2.8467116
-27.524115,1.849591,2.8422308
-27.566566,1.8527269,2.8387055
-27.61503,1.8658414,2.84649
-27.65424,1.8643076,2.8380022
-27.70048,1.8746202,2.842939
-27.737778,1.8702278,2.8314795
-27.799881,1.9086888,2.8684072
-27.860579,1.9461334,2.9044228
-27.885824,1.9216523,2.8707023
-27.466696,1.0881803,1.921845
-27.991087,1.9718974,2.9157572
-27.533325,1.0365443,1.8492517
-27.58569,1.0461237,1.8532443
-27.640419,1.0608656,1.8632665
-27.71247,1.110862,1.9135904
-27.77311,1.1397848,1.9401631
-27.828056,1.1582296,1.954987
-27.868668,1.1472864,1.9364233
-27.888433,1.0911059,1.8662386
-28.024286,1.2883415,2.086092
-28.074068,1.3006046,2.0946112
-28.113987,1.290901,2.0780888
-28.131704,1.2287927,2.0015044
-28.138391,1.1375408,1.8914161
-28.555866,2.05159,2.937543
-28.590569,2.0462697,2.9272985
-28.628311,2.048659,2.9260273
-28.667444,2.0549674,2.9293795
-28.706684,2.062022,2.9337049
-28.744637,2.0660028,2.9345922
-28.782505,2.0700877,2.9357061
-28.822464,2.080659,2.9444284
-28.839521,2.0229995,2.8742638
-28.875357,2.020317,2.8678021
-28.910225,2.0145278,2.8578315
-28.948303,2.0190713,2.8599396
-28.98591,2.022437,2.860784
-29.022713,2.023339,2.8588681
-29.060196,2.0269055,2.8601475
-29.097948,2.0318568,2.8631396
-29.135105,2.034983,2.864109
-29.170914,2.0330637,2.859303
-29.207672,2.0350978,2.8591952
-29.244385,2.0372283,2.8592987
-29.28219,2.0446105,2.865624
-29.31712,2.0392036,2.8571267
-29.354624,2.0461373,2.8631263
-29.389746,2.0415583,2.8557801
-29.42661,2.0461059,2.8591871
-29.463158,2.0494592,2.8612962
-29.499746,2.053555,2.864369
-29.53615,2.0571012,2.8668942
-29.571815,2.0562165,2.8643293
-29.607939,2.0586576,2.8657508
-29.643509,2.05731,2.8628297
-29.680265,2.065764,2.87148
-29.731134,2.2025244,3.030551
-29.769451,2.241002,3.0746126
-29.80399,2.2465458,3.0801802
-29.837551,2.2418122,3.0737886
-29.870615,2.2293866,3.058463
-29.904625,2.2280643,3.0562406
-29.939169,2.2359056,3.0648541
-29.973074,2.233462,3.061492
-30.006527,2.2181354,3.0431027
-30.041449,2.2437537,3.0728354
-30.075655,2.257139,3.088306
-30.109423,2.2531,3.0834198
-30.143253,2.2433093,3.0718722
-30.176975,2.2731733,3.1069384
-30.210756,2.2661512,3.0988111
-30.24445,2.2676475,3.1007652
-30.278206,2.2666366,3.0998635
-30.312008,2.265064,3.0983896
-30.34567,2.2668202,3.1009073
-30.379862,2.259587,3.0929675
-30.413084,2.2679994,3.1034636
-30.446983,2.2661262,3.101984
-30.48144,2.2585096,3.0938592
-30.514889,2.2626438,3.099595
-30.548615,2.263625,3.1017227
-30.582478,2.2633982,3.102522
-30.616264,2.2639055,3.1042666
-30.651007,2.2573829,3.0978694
-30.685219,2.2554798,3.0969691
-30.719765,2.2517269,3.0939946
-30.752916,2.257112,3.1017985
-30.787527,2.2535367,3.0992098
-30.821856,2.2519903,3.099083
-30.856462,2.2492423,3.0976415
-30.891768,2.2433605,3.0926332
-30.925173,2.2472446,3.0991182
-30.959633,2.246058,3.0997725
-30.995434,2.239166,3.0938635
-31.030153,2.2375207,3.0941677
-31.065382,2.234037,3.0924215
-31.100027,2.2332191,3.093875
-31.135035,2.2312071,3.09403
-31.17866,2.1978333,3.0578074
-31.243149,2.0927527,2.938385
-31.292377,2.0468905,2.8879905
-31.331093,2.0389833,2.8818164
-31.366394,2.042704,2.8892379
-31.403065,2.0420382,2.8916678
-31.439756,2.0414708,2.8943076
-31.479055,2.0333388,2.8882914
-31.5163,2.0316973,2.889895
-31.554493,2.0276067,2.8887691
-31.592072,2.0255313,2.890077
-31.62827,2.0273743,2.8960094
-31.666155,2.024864,2.8970203
-31.714094,1.9970639,2.86901
-31.723694,2.0658164,2.9522552
-31.74801,2.0958798,2.9909806
-31.800901,2.056998,2.9505591
-31.842505,2.046114,2.9424477
-31.881811,2.0410368,2.9411197
-31.92037,2.037964,2.9422007
-32.393948,1.0887694,1.8611708
-32.442574,1.0838945,1.8615727
-32.487396,1.0873289,1.8715987
-32.545654,1.0632627,1.8503933
-32.582832,1.0826397,1.8788557
-32.172806,1.9829886,2.9094734
-32.59771,1.2347996,2.0648618
-32.61548,1.2873504,2.1310487
-32.639015,1.3274126,2.183064
-32.690746,1.314558,2.1751971
-32.387367,1.9417162,2.8909721
-32.43357,1.9288838,2.8825088
-32.47182,1.9304578,2.890439
-32.52707,1.9030399,2.865837
-32.57694,1.8857048,2.8527732
-32.6167,1.8858159,2.8594675
-32.6508,1.8952823,2.8767657
-32.682068,1.9091382,2.8990645
-32.73256,1.8923488,2.8871832
-32.77548,1.8879926,2.8893547
-32.81969,1.8819289,2.8897586
-32.862003,1.879056,2.893855
-32.905617,1.8744786,2.8961911
-32.95058,1.868206,2.8967867
-32.99946,1.8566005,2.8916283
-33.040882,1.8560789,2.8988867
-33.088383,1.847197,2.8970523
-33.132996,1.8427,2.9002085
-33.179035,1.8365295,2.901672
-33.228336,1.8262866,2.8988214
-33.27104,1.8252244,2.906198
-33.316994,1.8200881,2.9092593
-33.36815,1.8085089,2.9054475
-33.410625,1.8084567,2.9143686
-33.472534,1.7840734,2.8969927
-33.52627,1.7706316,2.891726
-26.41182,1.6651907,2.764526
-26.483156,1.6954014,2.7871294
-26.559408,1.7323308,2.8173614
-26.626635,1.7595689,2.837306
-26.681683,1.7729301,2.8423038
-26.734545,1.784121,2.8451185
-26.783377,1.7907603,2.8431106
-26.832539,1.7981479,2.8420968
-26.8932,1.8205342,2.857831
-26.951601,1.8407595,2.8714013
-27.011902,1.8641708,2.8887248
-27.05555,1.8663027,2.8826241
-27.09602,1.8643792,2.8721457
-27.149261,1.8799527,2.881308
-27.20003,1.8927047,2.887507
-27.24454,1.8972023,2.8846421
-27.29573,1.911479,2.8928857
-27.31775,1.884265,2.8547
-27.360077,1.8861055,2.849228
-27.402346,1.8880715,2.8440275
-27.446571,1.8931961,2.8425212
-27.489094,1.8960228,2.8385572
-27.531544,1.8989747,2.8348637
-27.57817,1.9087627,2.8390517
-27.624222,1.9180856,2.8428636
-27.668207,1.9244921,2.8435073
-27.709465,1.9267416,2.839552
-27.766708,1.9561195,2.86666
-27.83131,1.9992242,2.9096508
-27.880972,2.0179396,2.924995
-27.90451,1.991189,2.8884444
-27.962776,2.0262198,2.92276
-27.442831,1.0021892,1.7414894
-27.503006,1.0243933,1.7599821
-27.571888,1.0641537,1.7988753
-27.628815,1.0824213,1.8132491
-27.69232,1.1145451,1.8437872
-27.758005,1.1524849,1.8812561
-27.812052,1.1682093,1.8932705
-27.856556,1.164753,1.8832536
-27.885893,1.1289225,1.8358474
-28.04749,1.3802764,2.1215482
-28.077734,1.349874,2.0808644
-28.116772,1.3383324,2.0621476
-28.136578,1.2816868,1.9910603
-28.137846,1.178534,1.8658185
-28.561377,2.09881,2.9331598
-28.597752,2.0979211,2.9280796
-28.648205,2.133061,2.965157
-28.674845,2.1077926,2.9318194
-28.711351,2.1078358,2.9281282
-28.746923,2.1054487,2.92169
-28.78275,2.1037865,2.9161944
-28.818375,2.1015847,2.9101586
-28.84659,2.0772882,2.8782973
-28.87606,2.0555847,2.8495355
-28.913754,2.0587068,2.849996
-28.950594,2.0593889,2.8476887
-28.987411,2.060168,2.845594
-29.02457,2.0623183,2.8452086
-29.062033,2.065841,2.8465385
-29.099936,2.0713773,2.8503408
-29.137396,2.0757406,2.852862
-29.174284,2.0782902,2.8533435
-29.211426,2.082215,2.855544
-29.248037,2.0843222,2.8556962
-29.285032,2.0884438,2.8583255
-29.322489,2.0952232,2.8641925
-29.35824,2.0944228,2.8611941
-29.394625,2.096917,2.8621855
-29.431433,2.1020694,2.8664193
-29.466324,2.0970628,2.8587184
-29.50291,2.1017652,2.862605
-29.538898,2.1033556,2.8628998
-29.575232,2.1076078,2.8664408
-29.609863,2.1003973,2.8564858
-29.646637,2.1086898,2.8650017
-29.683174,2.116437,2.8729677
-29.73313,2.2451136,3.024529
-29.771242,2.282017,3.0673237
-29.805292,2.283017,3.067597
-29.8409,2.3027573,3.090211
-29.87216,2.2698386,3.0503802
-29.905855,2.2646642,3.0435772
-29.940193,2.269229,3.0484285
-29.973059,2.244918,3.0190592
-30.007265,2.2438643,3.017404
-30.041676,2.2493353,3.0235896
-30.075804,2.2458816,3.0192552
-30.109928,2.2367213,3.0082254
-30.144386,2.3158567,3.1022115
-30.177996,2.3120224,3.097683
-30.211739,2.3044116,3.0887513
-30.245472,2.302682,3.0868936
-30.279194,2.3023267,3.0867543
-30.31278,2.305277,3.0906281
-30.346552,2.3038075,3.0893345
-30.380112,2.3062866,3.0928168
-30.413998,2.3037043,3.0903716
-30.447878,2.3018527,3.0888805
-30.481737,2.3007321,3.088344
-30.515749,2.2984133,3.086471
-30.549385,2.3000388,3.089365
-30.582996,2.3017516,3.0924468
-30.616903,2.30098,3.092667
-30.650917,2.299655,3.0923162
-30.684866,2.299059,3.0929174
-30.719128,2.2966268,3.0914288
-30.753649,2.293001,3.088614
-30.787685,2.292672,3.0897942
-30.821735,2.2924314,3.091165
-30.856161,2.2903576,3.0904531
-30.88986,2.2922153,3.0944815
-30.92501,2.2871213,3.090375
-30.9597,2.284679,3.0894957
-30.994877,2.2804115,3.0865521
-31.030294,2.275599,3.0830574
-31.065489,2.272159,3.081276
-31.100428,2.2700891,3.081205
-31.135412,2.2681122,3.0813336
-31.170443,2.2662282,3.0816646
-31.240479,2.14156,2.9375324
-31.293356,2.0833333,2.8718472
-31.329182,2.0850458,2.876822
-31.366774,2.0811343,2.8752813
-31.403221,2.0811336,2.8784328
-31.43926,2.082497,2.8832817
-31.475931,2.082054,2.8861065
-31.513731,2.0785432,2.8854342
-31.552061,2.0738716,2.8835058
-31.589788,2.0712013,2.8840246
-31.62901,2.0648468,2.88034
-31.666891,2.0623865,2.8813148
-31.697819,2.0776703,2.9030972
-31.722338,2.1081264,2.942636
-31.747625,2.1354737,2.978588
-31.79276,2.1151316,2.9590855
-31.821342,2.1338263,2.9851093
-31.874971,2.0955565,2.9450312
-32.378494,1.0692005,1.7587185
-32.419243,1.0824859,1.779953
-32.46243,1.0902474,1.794889
-32.520866,1.0663123,1.7732744
-32.556732,1.0892787,1.8060365
-32.12016,2.05161,2.9229255
-32.61391,1.1615133,1.902092
-32.625694,1.2280805,1.9852295
-32.611267,1.3416836,2.122405
-32.639034,1.3734295,2.165371
-32.677826,1.3842039,2.1843152
-32.380844,1.9935338,2.889111
-32.434677,1.9672768,2.8649845
-32.47722,1.9615059,2.8644586
-32.500664,1.9884167,2.9013567
-32.558975,1.9564786,2.8712215
-32.598457,1.9565914,2.8777752
-32.64023,1.9531474,2.8804007
-32.677467,1.9571509,2.8916059
-32.70881,1.9703956,2.913382
-32.763645,1.9472051,2.8940134
-32.814507,1.9308877,2.882606
-32.85593,1.9292922,2.887978
-32.903164,1.9193432,2.8840718
-32.94601,1.916193,2.8879657
-32.99062,1.9107585,2.8894296
-33.0362,1.9042568,2.889843
-33.081486,1.8984988,2.8912373
-33.124268,1.8964806,2.896955
-33.17685,1.8814197,2.8882723
-33.223446,1.874903,2.8892827
-33.268814,1.8703227,2.8926005
-33.313366,1.8670743,2.897544
-33.35382,1.869309,2.908698
-33.411148,1.8503182,2.8965397
-33.455547,1.8480954,2.9030766
-33.502888,1.8424661,2.906012
-26.36257,1.7073662,2.756073
-26.418,1.7185149,2.7580428
-26.473207,1.7298534,2.7604218
-26.561045,1.7797468,2.8056898
-26.63566,1.8154306,2.8355665
-26.686708,1.8239615,2.8355603
-26.728893,1.8221295,2.8241868
-26.792564,1.8468058,2.842533
-26.84822,1.8623135,2.8508701
-26.896105,1.8685939,2.8490677
-26.95863,1.8939061,2.868793
-27.010178,1.9058492,2.8737183
-27.060137,1.916188,2.8770137
-27.10721,1.9231303,2.876646
-27.15722,1.9343834,2.88131
-27.203524,1.9410355,2.8809295
-27.248392,1.946043,2.8788352
-27.298244,1.9583642,2.8851962
-27.326454,1.9402995,2.85713
-27.37029,1.9444911,2.8544998
-27.41689,1.9530239,2.8569646
-27.462103,1.9598963,2.8576803
-27.504381,1.9626868,2.8538613
-27.548157,1.9680183,2.8530865
-27.592978,1.9752991,2.8546863
-27.63726,1.9821107,2.855886
-27.678766,1.9848075,2.852481
-27.71983,1.9870174,2.8486376
-27.77362,2.0106642,2.8696861
-27.834883,2.0479155,2.906664
-27.884819,2.0670607,2.9228864
-27.939968,2.0961607,2.9508252
-27.968132,2.0782714,2.9243731
-27.442875,1.0547092,1.7283301
-27.486738,1.0465806,1.7119398
-27.535297,1.0471783,1.7058339
-27.595383,1.070092,1.7259097
-27.659445,1.1018369,1.7564983
-27.726006,1.1399736,1.7947788
-27.79063,1.1758642,1.8306551
-27.835167,1.171715,1.819809
-27.869793,1.1465988,1.784473
-28.03475,1.4021757,2.0789485
-28.07473,1.3930638,2.062892
-28.109612,1.3722265,2.0331335
-28.140528,1.3414936,1.9917874
-28.13176,1.2160113,1.8387561
-28.086946,0.997972,1.5763264
-28.134987,0.9989798,1.5723429
-28.645823,2.1701128,2.9520397
-28.678467,2.1606553,2.9370852
-28.707022,2.1399922,2.9089365
-28.745153,2.1444864,2.9106631
-28.781616,2.14469,2.907403
-28.816967,2.1418476,2.9006228
-28.848097,2.1265118,2.8790908
-28.881775,2.1181736,2.8659468
-28.918615,2.1193717,2.8642278
-28.956396,2.1238222,2.8664756
-28.993895,2.1277444,2.868196
-29.030573,2.1292417,2.8671236
-29.066856,2.1295712,2.8647547
-29.103638,2.1318948,2.864859
-29.140697,2.1355827,2.8666863
-29.177681,2.1393697,2.86873
-29.214117,2.1413543,2.8687153
-29.25051,2.1434345,2.868909
-29.286566,2.1443422,2.867793
-29.32287,2.1466138,2.8684006
-29.359123,2.148982,2.869217
-29.396078,2.1552591,2.8748107
-29.43219,2.1578195,2.8760438
-29.467678,2.1572933,2.8736691
-29.503061,2.1562216,2.8707285
-29.538864,2.1577888,2.8710432
-29.575495,2.165184,2.8784423
-29.611713,2.170764,2.883757
-29.64723,2.1719768,2.8839188
-29.682877,2.174557,2.8858123
-29.73114,2.2888854,3.0220623
-29.770897,2.342101,3.0850163
-29.804815,2.344362,3.0868344
-29.835848,2.3135073,3.0489254
-29.866522,2.2705925,2.996585
-29.900812,2.2699077,2.9951005
-29.938765,2.3325603,3.069882
-29.973944,2.3620923,3.1049232
-30.006767,2.345707,3.0848165
-30.04018,2.3389912,3.0764236
-30.073664,2.3298042,3.0651393
-30.107367,2.325177,3.0594249
-30.141142,2.3155231,3.0477457
-30.17473,2.35709,3.0977793
-30.20825,2.355919,3.0964723
-30.24176,2.3561113,3.0968904
-30.275131,2.3602245,3.102108
-30.308512,2.3625062,3.1052046
-30.342056,2.3610396,3.1038747
-30.375467,2.362215,3.1058073
-30.40909,2.3602824,3.104083
-30.442802,2.3577986,3.1017823
-30.47633,2.3579555,3.1027389
-30.509985,2.3569224,3.1023483
-30.543873,2.3540616,3.0998473
-30.577587,2.3532033,3.0998359
-30.611078,2.354345,3.1023111
-30.644726,2.3542979,3.1034431
-30.678566,2.3530629,3.1032333
-30.712334,2.3525534,3.1039782
-30.745905,2.3534052,3.1064415
-30.779911,2.3517969,3.1060386
-30.814419,2.3477323,3.102778
-30.84913,2.3431242,3.0989532
-30.883032,2.3430574,3.100659
-30.917076,2.3424432,3.1017938
-30.9517,2.3393786,3.1000843
-30.986828,2.3345025,3.0962954
-31.021748,2.330989,3.0942287
-31.056267,2.3294697,3.0946364
-31.091312,2.326142,3.0929713
-31.12609,2.3241744,3.0930228
-31.16319,2.3140771,3.083465
-31.22062,2.233935,2.9904995
-31.281403,2.1476886,2.8904672
-31.318697,2.1437,2.8886027
-31.35528,2.1423347,2.8899603
-31.392103,2.1404374,2.890781
-31.428553,2.1398978,2.8933125
-31.46459,2.1407132,2.8975458
-31.501513,2.1391098,2.8990045
-31.54007,2.1332116,2.8954682
-31.579216,2.1261666,2.8906784
-31.617067,2.122993,2.8905807
-31.652784,2.1255565,2.8973722
-31.690975,2.1219597,2.896976
-31.726427,2.1253405,2.904923
-31.748724,2.1600125,2.9498758
-31.784595,2.1616724,2.9559417
-31.820179,2.1640496,2.9629464
-31.871365,2.1316938,2.929183
-32.39511,1.0702081,1.6860714
-32.450783,1.0524585,1.6710238
-32.49347,1.0627661,1.6890559
-32.022373,2.1265874,2.9415483
-32.590633,1.0589685,1.6968575
-32.588276,1.1578994,1.8188419
-32.614735,1.1975143,1.871428
-32.63174,1.2537758,1.9434547
-32.605206,1.3893306,2.1078396
-32.62654,1.432534,2.1645064
-32.669277,1.4358854,2.1748557
-32.34925,2.0803869,2.9295754
-32.398438,2.0616293,2.9135766
-32.438328,2.0595164,2.9170132
-32.46811,2.0745854,2.940434
-32.522697,2.0483327,2.916202
-32.565063,2.0429308,2.9162083
-33.183846,1.1161342,1.855341
-32.666306,2.0070698,2.8877974
-32.70417,2.0099542,2.8977509
-32.728943,2.032863,2.9307685
-32.792637,1.9967473,2.896254
-32.833015,1.9963644,2.9028254
-32.876713,1.9912941,2.9041662
-32.923027,1.98276,2.901699
-32.966133,1.9791601,2.9049969
-33.0089,1.9762881,2.9092546
-33.05737,1.9657938,2.905004
-33.10605,1.9554582,2.9010978
-33.148277,1.954191,2.9076014
-33.195488,1.9465284,2.907024
-33.24195,1.9402008,2.9081063
-33.284874,1.9387443,2.9148169
-33.331093,1.9332926,2.917182
-33.381195,1.9232824,2.9145975
-33.43197,1.9128511,2.911718
-33.47911,1.9072757,2.914432
-33.533653,1.8930845,2.9077168
-26.367025,1.7457736,2.741273
-26.420424,1.7544887,2.740819
-26.50334,1.7973647,2.7787552
-26.596931,1.8538468,2.8322845
-26.653492,1.8684824,2.8392243
-26.705374,1.8780963,2.8407202
-26.766716,1.8995042,2.8556929
-26.818094,1.9094887,2.8579912
-26.866432,1.9161434,2.856697
-26.914623,1.9229536,2.855742
-26.971449,1.9410508,2.8677683
-27.017414,1.9458439,2.8648577
-27.068687,1.9578402,2.8703084
-27.117935,1.9676495,2.8734365
-27.170952,1.9829342,2.8829937
-27.21277,1.9836078,2.875988
-27.256271,1.9867754,2.871972
-27.335419,2.0399597,2.9256086
-27.33463,1.9816055,2.8510895
-27.377155,1.9839535,2.8465052
-27.424934,1.9941893,2.851162
-27.470486,2.0015876,2.8526902
-27.514683,2.0073304,2.8524427
-27.55836,2.0126078,2.8517919
-27.601528,2.0174162,2.8507285
-27.645733,2.0241609,2.8520494
-27.68565,2.024406,2.8459291
-27.725538,2.0247638,2.840054
-27.776735,2.043992,2.856347
-27.839088,2.0827827,2.8957052
-27.882977,2.091455,2.8999972
-27.93402,2.113027,2.919557
-27.96815,2.1055508,2.9051614
-27.434027,1.0734518,1.685677
-27.453472,1.0201359,1.6160336
-27.496426,1.0089853,1.5960903
-27.557552,1.0322185,1.6168346
-27.646019,1.1095874,1.7017436
-27.71133,1.144331,1.7365589
-27.77263,1.172535,1.7638478
-27.81725,1.1677127,1.7521834
-27.86164,1.162391,1.7400403
-28.031199,1.4255004,2.0468655
-28.072144,1.4182565,2.0329733
-28.101046,1.3839118,1.986928
-28.144085,1.3805578,1.9778414
-28.123611,1.2285976,1.7916756
-28.087524,1.0323842,1.5524936
-28.132824,1.0265214,1.5403857
-28.64601,2.1950426,2.932304
-28.681118,2.1918447,2.924765
-28.719814,2.198081,2.9286108
-28.751926,2.1869686,2.9117737
-28.786028,2.1809244,2.9010882
-28.823729,2.18496,2.9025807
-28.84941,2.1540887,2.8622527
-28.886633,2.1564233,2.8618727
-28.920778,2.1494641,2.8504128
-28.958755,2.154499,2.8534675
-28.996248,2.1583827,2.855237
-29.033472,2.1617405,2.856471
-29.070799,2.1658273,2.8586793
-29.108212,2.1706433,2.8618655
-29.144857,2.173044,2.8622332
-29.180803,2.1730242,2.8597713
-29.217514,2.176248,2.8613195
-29.253708,2.177679,2.8607945
-29.289864,2.1792054,2.860474
-29.32612,2.1814575,2.861125
-29.362455,2.1844366,2.8627467
-29.398727,2.1875117,2.8645763
-29.435291,2.1925793,2.8689117
-29.471071,2.193949,2.8688588
-29.506817,2.1954122,2.8690085
-29.542427,2.1963363,2.8685932
-29.577915,2.1967196,2.8676095
-29.613302,2.1965616,2.8660579
-29.648767,2.1971285,2.8654723
-29.686094,2.2129984,2.8835554
-29.733889,2.3234358,3.0165787
-29.77245,2.3655343,3.0667381
-29.806953,2.3734882,3.0755177
-29.83907,2.3555183,3.0528822
-29.873558,2.3642817,3.0628133
-29.90741,2.3661542,3.0644536
-29.943686,2.4106479,3.1179905
-29.975645,2.383493,3.0845108
-30.009155,2.3830884,3.083633
-30.042044,2.3618119,3.0574584
-30.075563,2.3520517,3.0453658
-30.109053,2.3233235,3.0102887
-30.143108,2.3118296,2.996252
-30.176674,2.3931525,3.0951748
-30.21,2.3989797,3.1023679
-30.243464,2.395367,3.0981612
-30.277065,2.3899343,3.0918255
-30.310484,2.3909388,3.093399
-30.343952,2.3907592,3.093614
-30.377466,2.3900309,3.0932446
-30.410717,2.3931975,3.09769
-30.444172,2.3932753,3.0984654
-30.477743,2.3921711,3.0978847
-30.51134,2.391154,3.0974927
-30.544537,2.3940275,3.1019092
-30.578215,2.3925488,3.101122
-30.612087,2.3898904,3.0989857
-30.646103,2.3866866,3.0962725
-30.679619,2.3873708,3.098361
-30.713327,2.3868759,3.099102
-30.747683,2.382672,3.0954294
-30.781898,2.379824,3.0934863
-30.81629,2.3764338,3.0909734
-30.850258,2.3756618,3.0917182
-30.884247,2.3749783,3.0926552
-30.917313,2.3788013,3.0991306
-30.951439,2.3776624,3.0996842
-30.986914,2.3709383,3.0935712
-31.02237,2.3649414,3.0884295
-31.056677,2.364078,3.0895805
-31.091993,2.3595295,3.0863705
-31.126213,2.3594782,3.0886784
-31.16326,2.349462,3.0790548
-31.217226,2.2817824,3.0000386
-31.282778,2.1797872,2.8798757
-31.319668,2.1771004,2.8794928
-31.356817,2.1738868,2.8785725
-31.392807,2.1745296,2.8823843
-31.428373,2.1765177,2.8879051
-31.466084,2.1723502,2.8861246
-31.503658,2.1689103,2.8853188
-31.541311,2.1655734,2.8847346
-31.578804,2.162963,2.8851213
-31.616117,2.161078,2.8864756
-31.652008,2.1630242,2.8925114
-31.686117,2.1694148,2.9039478
-31.724234,2.16596,2.9037132
-31.746143,2.2010462,2.9495525
-31.782183,2.202097,2.954854
-31.820957,2.197058,2.9529986
-31.861519,2.1884222,2.9469724
-31.915098,2.1521366,2.9082088
-32.46159,1.073776,1.6325622
-32.52016,1.0514572,1.6119857
-32.559807,1.0686724,1.6384277
-32.5662,1.1516793,1.742815
-32.601204,1.1757295,1.7774248
-32.63484,1.201683,1.8143468
-32.637478,1.2851872,1.9192085
-32.607227,1.4266145,2.0922122
-32.627842,1.4707963,2.1505165
-32.673634,1.4686902,2.1544151
-32.921158,1.1133759,1.7438183
-33.003433,1.0549707,1.6824908
-33.05778,1.04599,1.6793451
-33.093044,1.0692606,1.7140784
-33.146366,1.0623734,1.7136583
-33.187103,1.0761659,1.7375154
-33.14323,1.2238188,1.917367
-32.638275,2.0863888,2.9283156
-32.69096,2.0658033,2.9108925
-32.73096,2.0651836,2.9168053
-32.787468,2.0401392,2.8945532
-32.833046,2.0320256,2.892078
-32.877552,2.0258446,2.8919797
-32.92094,2.0215871,2.894238
-32.965275,2.0162735,2.8954163
-33.009296,2.0116904,2.8975716
-33.05603,2.0036898,2.895947
-33.100292,1.9993842,2.898705
-33.1451,1.9946251,2.901085
-33.19137,1.9882398,2.901752
-33.238224,1.9814129,2.9020686
-33.284767,1.975323,2.9033756
-33.32865,1.9728913,2.908989
-33.373547,1.9694269,2.91357
-33.428993,1.9532816,2.9039612
