x,y,z
-40.784912,1.1281233,1.6190605
-40.801804,1.1680436,1.69346
-40.81231,1.2105005,1.7708583
-40.806465,1.259819,1.8563433
-40.87931,1.2742188,1.9004326
-40.883823,1.3184123,1.9798079
-40.999462,1.314548,2.0028853
-41.78828,1.217488,2.0372977
-41.822716,1.2505555,2.1057773
-41.87379,1.2768345,2.1666875
-41.950275,1.2930534,2.216507
-40.82242,1.7818997,2.7920613
-40.842453,1.8157592,2.858683
-40.875004,1.8446193,2.9198275
-40.879242,1.8841665,2.9927034
-40.888115,1.9216673,3.0632882
-40.916588,1.9515975,3.1256795
-40.927895,1.9877574,3.194787
-40.958954,2.0164661,3.2559605
-40.917,2.0715191,3.3449407
-40.983395,2.0871425,3.3923979
-41.01396,2.1156557,3.4535055
-41.052147,2.1414204,3.5118704
-41.092648,2.166366,3.5695295
-41.21004,2.16487,3.6006021
-41.281563,2.179535,3.6484842
-41.434193,2.1671014,3.6697812
-41.545395,2.169264,3.7062845
-41.70383,2.1563385,3.7286606
-41.88527,2.1367168,3.7454543
-42.080746,2.1135259,3.7598715
-42.277534,2.0909705,3.776022
-42.48479,2.066156,3.7912097
-42.590363,2.074286,3.8381476
-42.767746,2.0606098,3.8656878
-44.351902,1.616807,3.504683
-44.36254,1.6600847,3.5899377
-44.37625,1.702218,3.674141
-44.36981,1.7501342,3.7633772
-44.36266,1.7979348,3.8523607
-44.38658,1.8363969,3.933251
-44.364056,1.8880744,4.025279
-44.47872,1.9003975,4.0845265
-44.853645,1.8401105,4.0853567
-45.226578,1.7824624,4.0908346
-45.675797,1.7059247,4.083956
-46.15725,1.6231515,4.0753517
-46.714645,1.52269,4.0566344
-47.335045,1.4086494,4.03171
-47.844704,1.3271515,4.035165
-48.529694,1.2030029,4.01156
-49.17137,1.09379,4.0035386
-49.927147,0.9592354,3.982749
-50.69124,0.82680917,3.9690776
-51.584393,0.66669154,3.9429069
-52.51493,0.5024011,3.920917
-15.5098715,1.873066,3.9204745
-15.238853,1.7502108,3.764557
-16.981934,2.2014823,4.1145678
-17.884918,2.301705,4.0406394
-18.337536,2.3983564,4.092748
-18.564663,2.428847,4.084763
-18.812414,2.4669614,4.0854187
-19.06777,2.5088525,4.0911756
-19.232767,2.5237,4.0719132
-19.491457,2.569292,4.08398
-19.667456,2.5897448,4.0724115
-19.867577,2.619012,4.0706925
-20.094322,2.6581752,4.08014
-20.255371,2.6768112,4.0697784
-20.432259,2.701651,4.066693
-20.633808,2.7358663,4.0743303
-20.80698,2.7615223,4.074044
-20.996613,2.793879,4.081768
-21.09754,2.7962708,4.058482
-21.271116,2.8248663,4.063884
-21.439718,2.852702,4.069352
-21.574268,2.8692265,4.06333
-21.704075,2.884767,4.056892
-21.890497,2.9219105,4.074994
-21.98887,2.9274023,4.058772
-22.130604,2.9497125,4.061866
-22.294434,2.981258,4.076063
-22.368582,2.97937,4.0531034
-22.514214,3.005543,4.0625143
-22.630974,3.0212896,4.0606375
-22.755081,3.0406165,4.0634365
-22.845526,3.0472155,4.052018
-22.95277,3.0610743,4.0494785
-23.08085,3.0840476,4.0581255
-23.16797,3.090932,4.048354
-23.275896,3.1069365,4.049782
-23.371742,3.118503,4.046388
-23.462305,3.12837,4.0413685
-23.57752,3.149316,4.0500793
-23.628609,3.1432056,4.02654
-23.755503,3.1704385,4.0437365
-23.816208,3.1692612,4.0267763
-23.913618,3.184732,4.030477
-23.995213,3.1936693,4.0265293
-24.093575,3.2107015,4.032928
-24.177837,3.221867,4.03244
-24.252186,3.2289248,4.02716
-24.32393,3.2351713,4.021152
-24.409807,3.248505,4.024334
-24.489025,3.2591798,4.024497
-24.5656,3.2690516,4.023947
-24.631716,3.2742696,4.0177655
-24.699224,3.2805305,4.0131598
-24.773539,3.2905543,4.0136256
-24.806599,3.280273,3.9882457
-24.873652,3.2872996,3.9853013
-24.912933,3.2804554,3.9646304
-24.981234,3.288754,3.9637573
-25.040205,3.2925732,3.9572868
-25.066608,3.2794757,3.9288895
-25.117207,3.279272,3.917471
-25.220718,3.3078537,3.944109
-25.261995,3.3033125,3.9274035
-25.272295,3.2818413,3.8883967
-25.342415,3.2934384,3.8933027
-25.393255,3.2946587,3.8846278
-25.454893,3.3022537,3.88463
-25.493216,3.2968469,3.8674192
-25.530146,3.290737,3.8493688
-25.607082,3.3081403,3.8630905
-25.651688,3.3069892,3.8520195
-25.69484,3.3051553,3.8401542
-25.737965,3.3034747,3.8286197
-25.790808,3.3078952,3.8255122
-25.838652,3.3095305,3.8187666
-25.89396,3.3160555,3.8188505
-25.92311,3.306444,3.7969823
-25.967323,3.3064175,3.7883492
-26.021591,3.313055,3.7890196
-26.070969,3.316853,3.7859335
-26.102238,3.3090284,3.7669115
-26.136911,3.3034897,3.7511292
-26.190672,3.310837,3.7533383
-26.23509,3.3121977,3.7473693
-26.292368,3.3225951,3.7541342
-26.321728,3.3140533,3.7345848
-26.34738,3.3029094,3.7114515
-26.408672,3.316965,3.7237463
-26.45515,3.3209019,3.7219915
-26.51147,3.3322408,3.7307968
-26.511755,3.3029609,3.6824064
-26.558687,3.3077621,3.6821828
-26.623753,3.3264396,3.701754
-26.662354,3.325666,3.693902
-26.714115,3.3351388,3.7007203
-26.734068,3.320345,3.6731033
-26.777304,3.323642,3.6713333
-26.824512,3.3303423,3.6745405
-26.86978,3.335814,3.6761136
-26.897604,3.3274198,3.6579142
-26.93126,3.3237882,3.6466088
-26.96833,3.3230805,3.6395864
-27.011532,3.3276827,3.6403031
-27.057917,3.335275,3.6454449
-27.095823,3.3359113,3.6406498
-27.138031,3.3404799,3.6416368
-27.156837,3.324656,3.6131592
-27.186644,3.3184376,3.598648
-27.235626,3.3295927,3.6094556
-27.282742,3.3394809,3.6185465
-27.319712,3.3403606,3.6146226
-27.347343,3.3326395,3.5982242
-27.375092,3.3249874,3.5819764
-27.41254,3.3266592,3.5794263
-27.455898,3.3343096,3.5857239
-27.498053,3.3411307,3.590908
-27.535614,3.3436778,3.589913
-27.562435,3.3355193,3.5732532
-27.59082,3.328906,3.5589151
-27.627813,3.3312683,3.5578618
-27.673126,3.3426702,3.5702343
-27.713062,3.3487654,3.574873
-27.744598,3.346026,3.5665336
-27.76622,3.3323913,3.5421166
-27.797905,3.3298054,3.5341086
-27.838413,3.3373406,3.5411844
-27.88568,3.353054,3.560503
-27.927834,3.3633938,3.5719447
-27.956572,3.3582244,3.5603943
-27.977007,3.34301,3.5339236
-28.008476,3.3410118,3.5271902
-28.044842,3.3451998,3.5297532
-28.081074,3.3495011,3.5325613
-28.117573,3.3544247,3.5363765
-28.153532,3.3589516,3.5396738
-28.180107,3.3512964,3.5247912
-28.20757,3.344731,3.5115857
-28.238508,3.3428614,3.5054727
-28.275717,3.3498335,3.512701
-28.312372,3.356407,3.5194068
-28.349922,3.3646457,3.5286942
-28.37741,3.3585029,3.5164042
-28.403616,3.3503528,3.5011349
-28.430988,3.343823,3.4883494
-28.4665,3.3498533,3.4945636
-28.508093,3.3658977,3.5159726
-28.53993,3.3669376,3.5147967
-28.571081,3.3670213,3.5122337
-28.59659,3.3577619,3.4955878
-28.625637,3.3543315,3.4878073
-28.658031,3.3567564,3.4889483
-28.695637,3.3687449,3.5046506
-28.724586,3.365571,3.4974265
-28.754707,3.364583,3.4935694
-28.785099,3.364205,3.4906912
-28.808971,3.35121,3.4686909
-28.83814,3.3483312,3.4621053
-28.875124,3.3614411,3.479897
-28.908499,3.3677623,3.4874272
-28.939728,3.369926,3.488689
-28.969679,3.369515,3.486082
-28.997963,3.3654523,3.4779606
-29.024248,3.3566594,3.462669
-29.050703,3.3479276,3.4475098
-29.090193,3.3708081,3.4806533
-29.123428,3.3793626,3.4919972
-29.152124,3.3767614,3.4863577
-29.182459,3.3785253,3.4874372
-29.213512,3.3825178,3.4919782
-29.240692,3.3758492,3.4802632
-29.265995,3.3633304,3.4596376
-29.297556,3.3691702,3.4671545
-29.333908,3.3907218,3.4987879
-29.363354,3.3913572,3.4984508
-29.389286,3.380199,3.4800901
-29.415909,3.3707213,3.464343
-29.443018,3.3623874,3.4503894
-29.471983,3.3606076,3.4465313
-29.501913,3.3626904,3.448645
-29.538202,3.391924,3.492476
-29.567467,3.393097,3.4933052
-29.597042,3.3959737,3.4967966
-29.62555,3.3940465,3.4929624
-29.654402,3.393821,3.4917874
-29.682856,3.3914983,3.4874372
-29.707111,3.3642645,3.4448547
-29.735323,3.358273,3.4349523
-29.765339,3.3637676,3.442749
-29.79441,3.3633604,3.4415221
-29.824572,3.371731,3.4538403
-29.855467,3.3883438,3.4788823
-29.8847,3.3925223,3.4848557
-29.9109,3.3646572,3.4415898
-29.942259,3.3934844,3.4855685
-29.970148,3.3815498,3.466897
-29.998363,3.3707752,3.4500523
-30.027529,3.3753257,3.456832
-30.057306,3.4001112,3.4947915
-30.085327,3.3759346,3.4574652
-30.114534,3.4003267,3.4949164
-30.14312,3.3904638,3.4797058
-30.171928,3.3801293,3.4638166
-30.200726,3.3818574,3.4665346
-30.229214,3.3923774,3.4828258
-30.257421,3.4040594,3.5009503
-30.285778,3.4081852,3.507495
-30.314503,3.4053025,3.5033035
-30.342758,3.409574,3.5101633
-30.370493,3.4188175,3.5247164
-30.399096,3.4172432,3.5226746
-30.426725,3.4249942,3.5350213
-30.456482,3.413773,3.5182385
-40.920387,0.5814109,0.53027916
-40.935143,0.6276767,0.6141262
-41.05799,0.6205299,0.6298456
-40.83803,0.78035665,0.85803413
-40.8681,0.8173826,0.92973614
-40.89202,0.85707784,1.0048251
-40.821968,0.9407275,1.1350822
-40.83859,0.9827874,1.2128968
-40.844067,1.029639,1.2966413
-40.785717,1.1052198,1.4159203
-40.83242,1.1322432,1.4748545
-40.76539,1.2101724,1.5964804
-40.81491,1.2353299,1.6530857
-40.802414,1.287713,1.7429919
-40.794,1.3377624,1.8298969
-40.86185,1.354464,1.8764005
-40.887886,1.389142,1.9447274
-40.904198,1.4277222,2.0177422
-40.989513,1.4371881,2.0561028
-41.826305,1.2791047,1.9846845
-41.889915,1.3006759,2.0400295
-41.882072,1.3504679,2.1280918
-42.189228,1.277098,2.0750084
-40.781235,1.8671486,2.7783995
-40.84443,1.884263,2.8261404
-40.872635,1.9147487,2.8891516
-40.88468,1.9511597,2.9588356
-40.890045,1.9898086,3.03097
-40.898323,2.027107,3.1015482
-40.932446,2.054772,3.161531
-40.94143,2.0914075,3.2313585
-40.963142,2.1232777,3.2959986
-40.97816,2.157362,3.363038
-41.01049,2.1852303,3.4234614
-41.044205,2.2125647,3.4834137
-41.084686,2.2375436,3.5410018
-41.143696,2.2562747,3.592249
-41.24573,2.2607722,3.6290984
-41.35498,2.2633233,3.6644735
-41.488712,2.2583508,3.6927967
-41.655304,2.2433958,3.7118263
-41.804863,2.2347658,3.7380505
-41.976536,2.2198782,3.7589402
-42.206207,2.1877038,3.7639594
-42.38866,2.1714442,3.7856488
-42.52169,2.1712983,3.8237524
-42.70828,2.1555142,3.8478436
-42.89237,2.1414466,3.8746276
-44.36643,1.745256,3.5500522
-44.362473,1.7924764,3.6390557
-44.365265,1.8374286,3.7258854
-44.380466,1.8785582,3.8092299
-44.394127,1.9199514,3.8928032
-44.38656,1.9671292,3.9813724
-44.377357,2.0144515,4.06991
-44.650764,1.9838326,4.0927105
-45.083035,1.9115202,4.08274
-45.39254,1.8745892,4.104545
-45.859688,1.797468,4.0961537
-46.355392,1.7154593,4.0871134
-47.00896,1.5952721,4.051896
-47.531826,1.5122786,4.049637
-48.127266,1.413785,4.0395
-48.7507,1.3115838,4.030929
-49.530388,1.1741848,4.001613
-50.249496,1.055934,3.991517
-51.078476,0.9151249,3.9712725
-52.04273,0.7466407,3.938705
-52.95121,0.59663606,3.925622
-53.894173,0.44359493,3.9176188
-15.600331,2.0275152,3.996337
-15.359514,1.9160833,3.8496046
-17.682865,2.3944106,4.10929
-17.770315,2.3796382,4.056178
-18.127653,2.4442809,4.0793943
-18.436768,2.4967127,4.0929346
-18.699799,2.537118,4.0965414
-18.934528,2.570442,4.094675
-19.147556,2.598435,4.088828
-19.34634,2.6232,4.080923
-19.589417,2.6629183,4.089299
-19.776215,2.6862385,4.0822144
-20.003452,2.7235193,4.0905743
-20.186512,2.747842,4.086652
-20.383566,2.7777572,4.0895824
-20.544003,2.7967165,4.0819373
-20.644753,2.7966456,4.054773
-20.852959,2.8332717,4.067643
-21.067616,2.8733318,4.0853243
-21.193329,2.8840656,4.072032
-21.314348,2.8938308,4.0582876
-21.467003,2.9153533,4.058176
-21.648338,2.9479358,4.0711737
-21.739285,2.9491725,4.0498085
-21.886272,2.9711618,4.0523543
-22.082624,3.0120916,4.0771923
-22.17971,3.0175173,4.0622735
-22.318316,3.0389614,4.066274
-22.416649,3.046008,4.0542116
-22.519096,3.055138,4.045018
-22.701237,3.0955467,4.0730085
-22.758379,3.0884485,4.0457587
-22.915424,3.120866,4.065646
-22.985071,3.1195464,4.0459843
-23.112274,3.1416485,4.0547066
-23.179916,3.1403718,4.0357976
-23.336632,3.1758943,4.061757
-23.382887,3.1667385,4.0340004
-23.482635,3.1800785,4.0339355
-23.587048,3.1959686,4.037423
-23.654665,3.1967912,4.022736
-23.783194,3.2241802,4.041273
-23.842167,3.222145,4.0236845
-23.931355,3.2336454,4.0232544
-24.019436,3.2451744,4.0232162
-24.096682,3.2523618,4.0180464
-24.185017,3.2649984,4.0200796
-24.242496,3.2640455,4.0051675
-24.351122,3.2869902,4.020986
-24.391533,3.2788153,3.9973326
-24.415382,3.262929,3.9638762
-24.49234,3.272287,3.9630833
-24.5659,3.2804604,3.9610403
-24.63219,3.2855234,3.9552183
-24.642294,3.2633557,3.9140725
-24.766571,3.297619,3.946855
-24.813053,3.2938538,3.930127
-24.827343,3.2739654,3.892276
-24.883907,3.2755284,3.8828177
-24.996517,3.3063111,3.9123363
-25.018608,3.2907388,3.8805497
-25.05145,3.2807522,3.8562617
-25.121023,3.2903523,3.8582993
-25.197762,3.3042355,3.8663301
-25.252718,3.3068004,3.8593738
-25.266397,3.2869887,3.8223486
-25.323524,3.2910893,3.8177338
-25.394304,3.3031497,3.8241177
-25.44526,3.30446,3.8160882
-25.465946,3.2887073,3.7848978
-25.540445,3.303943,3.7961907
-25.599653,3.310786,3.796204
-25.639599,3.3066216,3.7812452
-25.676756,3.3009195,3.7642713
-25.73836,3.310037,3.7678976
-25.798319,3.3185568,3.7708879
-25.836006,3.3137617,3.7555494
-25.877827,3.3116412,3.7440343
-25.905354,3.3006978,3.7203074
-25.959373,3.3065472,3.7201424
-26.0293,3.322935,3.7349215
-26.07417,3.3236184,3.7278385
-26.08984,3.305369,3.6941996
-26.119627,3.2962775,3.6734996
-26.194572,3.3174415,3.6956701
-26.239843,3.3191645,3.6905117
-26.290808,3.3250144,3.6913362
-26.310282,3.309383,3.6617274
-26.356653,3.3124247,3.6587696
-26.41549,3.324544,3.6689043
-26.451513,3.3207958,3.656495
-26.499954,3.326136,3.6572032
-26.521149,3.3118382,3.6298265
-26.571888,3.3192692,3.63375
-26.638763,3.3391328,3.6557355
-26.681118,3.3410654,3.6520205
-26.703106,3.3276215,3.6261654
-26.731234,3.3187997,3.6070385
-26.76242,3.3123484,3.5914035
-26.847176,3.3484056,3.63763
-26.874605,3.3394916,3.6186314
-26.90674,3.3343592,3.605197
-26.930431,3.3223362,3.5817647
-26.96499,3.3192356,3.5714188
-27.018484,3.3321657,3.5846305
-27.054544,3.3307323,3.576911
-27.100964,3.338365,3.5825896
-27.12172,3.3239489,3.5559444
-27.164183,3.3285284,3.5573087
-27.195868,3.3237443,3.544959
-27.250748,3.340027,3.5637932
-27.287514,3.340263,3.559033
-27.323706,3.340135,3.5538144
-27.345045,3.3261778,3.5281644
-27.380783,3.3257551,3.5226364
-27.42648,3.3351097,3.5317187
-27.47687,3.3494709,3.5483623
-27.519554,3.356729,3.5545464
-27.536852,3.3388011,3.523252
-27.567425,3.3340762,3.5116906
-27.592367,3.3235593,3.4915233
-27.661036,3.3587437,3.5398078
-27.693249,3.3563194,3.531918
-27.724552,3.3530025,3.522749
-27.749102,3.3423567,3.5026317
-27.78054,3.3391972,3.4938045
-27.815088,3.3396013,3.4903994
-27.861786,3.3540473,3.508215
-27.90296,3.3626719,3.5173612
-27.931156,3.3564343,3.5041661
-27.959026,3.3497667,3.4903693
-27.984518,3.340156,3.4721665
-28.00773,3.3275833,3.4495187
-28.067425,3.3604388,3.4957194
-28.102524,3.3632078,3.4964533
-28.140654,3.3701346,3.5035648
-28.164696,3.35892,3.4832025
-28.187803,3.3462307,3.4606318
-28.215279,3.3391886,3.446681
-28.258005,3.3531315,3.4647236
-28.298569,3.3646634,3.4791846
-28.335978,3.372232,3.4876895
-28.364027,3.3665814,3.476097
-28.388353,3.355348,3.4560237
-28.418007,3.3518882,3.4478621
-28.457085,3.3629436,3.4619498
-28.493906,3.3710253,3.4715676
-28.528252,3.3756015,3.4758887
-28.560236,3.3766522,3.4748726
-28.590918,3.3757174,3.47087
-28.615154,3.3639514,3.4503007
-28.64263,3.3574421,3.4378338
-28.674345,3.358297,3.4367232
-28.713814,3.3733363,3.4574714
-28.746122,3.3759556,3.459199
-28.775848,3.3739557,3.4538736
-28.802334,3.3657436,3.4390335
-28.827381,3.3544445,3.419476
-28.863564,3.3652735,3.434061
-28.896431,3.3698983,3.4391465
-28.931402,3.3793592,3.4517546
-28.964441,3.3852324,3.458888
-28.992365,3.3801103,3.4491005
-29.019228,3.372414,3.4353786
-29.046015,3.3642526,3.4209762
-29.074492,3.3598633,3.4124475
-29.115158,3.3857799,3.450852
-29.144894,3.3852816,3.448454
-29.176023,3.388582,3.4519863
-29.203165,3.3813286,3.4392233
-29.228184,3.36775,3.4167013
-29.257328,3.3654184,3.4116468
-29.283676,3.3546271,3.3935184
-29.323229,3.384471,3.4384618
-29.35336,3.3861241,3.4397392
-29.383755,3.3889263,3.4428506
-29.412388,3.3859243,3.4370003
-29.438873,3.3749619,3.4188318
-29.467558,3.3715644,3.4124541
-29.495903,3.366631,3.4037333
-29.532198,3.3944988,3.4460382
-29.561838,3.3961697,3.4476848
-29.591663,3.398993,3.451171
-29.62086,3.3992076,3.4506483
-29.651295,3.4059517,3.4603295
-29.67851,3.3960989,3.4442363
-29.705107,3.3814669,3.4207482
-29.733059,3.3733606,3.407454
-29.761988,3.3707104,3.4026957
-29.791712,3.3735232,3.4064884
-29.822252,3.3834221,3.4213634
-29.85188,3.3874707,3.427177
-29.881742,3.394833,3.4381986
-29.910635,3.3936412,3.435944
-29.939062,3.3865876,3.4246025
-29.967455,3.3769064,3.4092126
-29.996826,3.3802533,3.414164
-30.026323,3.3879967,3.426011
-30.05578,3.3995962,3.4439144
-30.084566,3.3950706,3.436737
-30.113497,3.3938599,3.4347706
-30.142467,3.398664,3.442222
-30.17151,3.3824792,3.4170132
-30.200703,3.377171,3.4087987
-30.229177,3.39894,3.442821
-30.257483,3.413221,3.4652185
-30.285728,3.4227123,3.480198
-30.31446,3.4214785,3.4785113
-30.343512,3.4165401,3.4710984
-30.372112,3.4181538,3.4739385
-30.39956,3.43117,3.4945827
-30.429686,3.4172854,3.4733725
-30.459604,3.4077964,3.4590578
-40.872192,0.62270856,0.43000174
-40.917828,0.65377736,0.49439812
-40.88812,0.72151875,0.60668564
-41.012375,0.7139356,0.62087965
-40.801517,0.86744165,0.8440132
-40.85595,0.89262915,0.90060043
-40.88062,0.93176436,0.97524166
-40.831223,1.0050161,1.0935464
-40.786148,1.0753059,1.2077341
-40.81878,1.1093004,1.2755113
-40.795063,1.1685019,1.3752108
-40.84264,1.1951916,1.4337382
-40.776424,1.2721131,1.5553875
-40.80718,1.3055708,1.6223302
-40.802864,1.3540344,1.7079725
-40.78866,1.4062569,1.7981405
-40.810078,1.4428043,1.8688169
-40.88172,1.4580078,1.91331
-40.916405,1.4887705,1.9770441
-40.961533,1.5151093,2.035469
-40.79352,1.8426311,2.5881343
-40.83348,1.9106505,2.722434
-40.831005,1.9528148,2.7990322
-40.861786,1.9822521,2.8608794
-40.876423,2.0175376,2.9294791
-40.899273,2.0496163,2.994419
-40.896164,2.09091,3.0697875
-40.914436,2.124233,3.1361074
-40.933975,2.156937,3.2017446
-40.98317,2.1791115,3.2557516
-40.937775,2.2340784,3.3459425
-41.00123,2.2511506,3.394486
-41.034927,2.278471,3.4543805
-41.08528,2.3001654,3.5083356
-41.129936,2.3238287,3.5645828
-41.24283,2.3251235,3.5973668
-41.335854,2.3333871,3.638013
-41.460552,2.3318434,3.6689243
-41.592613,2.3285482,3.6986732
-41.754883,2.3163848,3.720066
-41.91648,2.305263,3.7433877
-42.075565,2.2957428,3.7691922
-42.29734,2.2679307,3.7777386
-42.489204,2.2503421,3.7975779
-42.629673,2.2490711,3.8343525
-42.785934,2.2438092,3.868072
-44.353577,1.8280022,3.5126944
-44.363537,1.8709772,3.5979657
-44.377525,1.912591,3.681933
-44.381554,1.9568269,3.768291
-44.37838,2.0028288,3.8561707
-44.37828,2.0477006,3.9429212
-44.382217,2.0912144,4.028373
-44.469345,2.1121044,4.0940886
-44.87892,2.047473,4.087039
-45.29322,1.9838808,4.083559
-45.69137,1.9267788,4.0882215
-46.16055,1.8536048,4.0824146
-46.737232,1.7557313,4.059949
-47.31144,1.6617053,4.044507
-47.891678,1.5693738,4.0343847
-48.517097,1.4691823,4.022376
-49.294113,1.3357682,3.9900503
-49.989414,1.2262075,3.9807854
-50.77828,1.0983815,3.9635425
-51.627377,0.96085525,3.9453602
-52.502213,0.8220713,3.9326863
-53.506027,0.6587615,3.9103193
-54.63828,0.47213173,3.8805437
-15.543943,2.0971117,3.9452066
-17.422676,2.4350686,4.0847416
-17.775906,2.4936805,4.101757
-17.993351,2.5157619,4.0852976
-18.287382,2.5609946,4.0928593
-18.544537,2.5971866,4.093116
-18.774273,2.6267664,4.0881844
-19.065174,2.675777,4.104252
-19.201782,2.680149,4.076202
-19.411572,2.707407,4.072543
-19.622673,2.7362337,4.0716543
-19.84963,2.771166,4.078327
-20.025923,2.7915068,4.0707083
-20.234447,2.8230348,4.075991
-20.39624,2.8407803,4.0674763
-20.6262,2.881495,4.0847936
-20.815811,2.9103618,4.0903006
-20.923244,2.9131227,4.0679035
-21.073477,2.9307253,4.0625477
-21.255423,2.9598813,4.070888
-21.42522,2.9859548,4.076645
-21.552834,2.9984503,4.067785
-21.6722,3.0087585,4.0570207
-21.87408,3.048801,4.0810814
-21.972458,3.0532157,4.0647926
-22.110056,3.0722446,4.065998
-22.233276,3.0868363,4.0626283
-22.347462,3.0987968,4.0567093
-22.49773,3.12479,4.0679684
-22.591331,3.1304288,4.0555944
-22.72088,3.1501803,4.060575
-22.795122,3.1495128,4.0414667
-22.940193,3.176598,4.056356
-23.025955,3.1813984,4.044688
-23.13953,3.1976264,4.04739
-23.215551,3.1995358,4.0329223
-23.325119,3.2153409,4.035969
-23.420897,3.2261772,4.0332885
-23.511375,3.2353768,4.0289507
-23.604097,3.246011,4.0267777
-23.732159,3.2720137,4.044366
-23.790333,3.269205,4.025976
-23.832048,3.2595859,3.9991276
-23.89924,3.2610955,3.986632
-24.007065,3.2806997,3.9976008
-24.0122,3.2556279,3.9514399
-24.09449,3.2647638,3.9494884
-24.206284,3.2876704,3.9657235
-24.223057,3.2680535,3.926976
-24.312683,3.2818255,3.9319215
-24.374184,3.2830837,3.9207728
-24.422943,3.2786565,3.902344
-24.457561,3.2677011,3.8754368
-24.561172,3.2898393,3.8925295
-24.630781,3.2962365,3.8890545
-24.65524,3.2809505,3.8568587
-24.72619,3.288571,3.8554034
-24.785402,3.2907438,3.8468695
-24.845257,3.2935364,3.8393638
-24.857128,3.272205,3.7994204
-24.976648,3.3060539,3.8343356
-25.014977,3.2986526,3.8135571
-25.040672,3.2847064,3.7839503
-25.082933,3.2794995,3.7663546
-25.188831,3.3085256,3.795858
-25.227125,3.3017843,3.7765117
-25.26621,3.2955709,3.7579927
-25.293713,3.2830555,3.7308574
-25.406012,3.317862,3.7694263
-25.452803,3.3166604,3.758305
-25.466663,3.2968807,3.7214122
-25.506441,3.2918408,3.705123
-25.609821,3.3239417,3.7409782
-25.642252,3.3152003,3.7198186
-25.688747,3.3148518,3.7105474
-25.730326,3.3117547,3.697526
-25.784986,3.316749,3.696055
-25.838102,3.3211126,3.6938472
-25.891056,3.3256776,3.6920753
-25.90329,3.3050249,3.65455
-25.962887,3.3141398,3.6594906
-26.029554,3.328187,3.6716552
-26.06605,3.3232083,3.6567607
-26.092714,3.3118877,3.6328468
-26.123468,3.3032262,3.6128054
-26.203638,3.327623,3.6404715
-26.247152,3.3279693,3.633655
-26.295067,3.331528,3.6315937
-26.309196,3.3120036,3.5962
-26.35392,3.313621,3.5915074
-26.42856,3.336613,3.6180196
-26.464163,3.3324091,3.6051207
-26.510876,3.3363304,3.6041613
-26.525661,3.3171844,3.5695887
-26.581417,3.3280835,3.5790281
-26.643492,3.344145,3.5961905
-26.676517,3.338782,3.5820394
-26.715515,3.3380456,3.5747666
-26.746248,3.331074,3.5583897
-26.784637,3.3301156,3.5509505
-26.836256,3.3398037,3.55934
-26.881884,3.3450933,3.561348
-26.920532,3.3450186,3.55551
-26.94057,3.3298278,3.5273046
-26.976482,3.3276403,3.5184612
-27.036118,3.3455477,3.5396266
-27.073975,3.3455067,3.5341768
-27.107979,3.3423142,3.5241008
-27.130724,3.3293753,3.499516
-27.176025,3.3362327,3.5046082
-27.21217,3.3352308,3.4980197
-27.258709,3.3438005,3.505878
-27.300875,3.3487406,3.5083895
-27.333168,3.3447857,3.4976063
-27.357405,3.333291,3.4755225
-27.387344,3.3271081,3.4614859
-27.443617,3.3464212,3.4860153
-27.490103,3.3568127,3.4971924
-27.522251,3.3533885,3.4875607
-27.547712,3.3432894,3.4678717
-27.582354,3.342454,3.4622755
-27.623524,3.3485222,3.4672332
-27.671463,3.3620315,3.4835925
-27.703482,3.3591156,3.4750638
-27.736423,3.3572693,3.4682221
-27.765335,3.3511043,3.4548554
-27.794336,3.3450131,3.4416485
-27.82299,3.3385043,3.4278512
-27.875864,3.3597226,3.456511
-27.916313,3.3672795,3.4643798
-27.946896,3.3635604,3.4550552
-27.969233,3.3499823,3.4306617
-28.001637,3.3484006,3.4247093
-28.027987,3.3394232,3.407452
-28.07159,3.3520155,3.4234009
-28.113695,3.3632526,3.4373574
-28.150871,3.3686042,3.442338
-28.178747,3.3619943,3.4289532
-28.20373,3.3514194,3.4094949
-28.238888,3.3545382,3.41121
-28.277939,3.363329,3.4217553
-28.31819,3.3742735,3.4357076
-28.352869,3.37773,3.4381561
-28.3798,3.370096,3.4234967
-28.4038,3.3579383,3.4018674
-28.43642,3.358595,3.4001365
-28.473278,3.365992,3.4089217
-28.51609,3.3832366,3.4330654
-28.548616,3.3847191,3.4328108
-28.577951,3.3811553,3.4247675
-28.5966,3.3596525,3.3888688
-28.62894,3.3608527,3.388318
-28.663288,3.3657582,3.393592
-28.70299,3.3805876,3.414392
-28.736658,3.3851907,3.4193258
-28.76603,3.3821142,3.4123406
-28.79408,3.3765182,3.4014692
-28.816114,3.3590353,3.3720775
-28.846317,3.3572063,3.367167
-28.87933,3.3611913,3.3713903
-28.916943,3.3751843,3.3913236
-28.950092,3.380413,3.397614
-28.983809,3.3873057,3.406567
-29.012732,3.383823,3.3993301
-29.040586,3.377792,3.3881464
-29.069866,3.3749785,3.3820467
-29.09876,3.3711896,3.3744621
-29.138685,3.3953495,3.4107609
-29.168594,3.3948936,3.4085112
-29.195766,3.3871388,3.3948517
-29.222147,3.3768122,3.377192
-29.248741,3.3665462,3.359664
-29.278559,3.3653247,3.3563852
-29.31882,3.3964415,3.403983
-29.34928,3.3985772,3.4060907
-29.3784,3.3965569,3.4017105
-29.40602,3.3893104,3.389152
-29.433933,3.3826618,3.377575
-29.459867,3.3681183,3.353612
-29.492058,3.3770072,3.3665762
-29.524546,3.3881116,3.3830838
-29.555786,3.395052,3.393086
-29.587206,3.4036744,3.405788
-29.616976,3.4054604,3.4077687
-29.646065,3.404128,3.4048796
-29.675272,3.403403,3.4029927
-29.703371,3.396355,3.3911796
-29.730667,3.3835075,3.3702626
-29.75897,3.3755293,3.3570642
-29.789162,3.3799012,3.36339
-29.818903,3.3816824,3.3656745
-29.848907,3.3862119,3.372342
-29.879196,3.3945608,3.3850827
-29.909792,3.408336,3.4064336
-29.938124,3.3986664,3.3908305
-29.96663,3.388533,3.3745365
-29.995718,3.3843553,3.3676863
-30.025675,3.3963,3.3863316
-30.055237,3.4051137,3.4000783
-30.084457,3.4086528,3.4055443
-30.113464,3.4031708,3.396812
-30.142578,3.392948,3.380639
-30.171904,3.3854752,3.3688526
-30.201292,3.3834288,3.3656769
-30.230278,3.3959038,3.3854723
-30.258505,3.4196873,3.4231615
-30.287834,3.4130492,3.412869
-30.316444,3.4198585,3.423849
-30.345188,3.4229975,3.4290771
-30.374052,3.424071,3.4310894
-30.402948,3.424684,3.4324179
-30.43219,3.422165,3.4288487
-40.83619,0.7151644,0.41781712
-40.833496,0.7695241,0.51328707
-40.835327,0.82110214,0.6049342
-40.88176,0.85087085,0.6675849
-40.792225,0.94470644,0.8148999
-40.82367,0.9806256,0.8855257
-40.862495,1.0128994,0.95140076
-40.82014,1.0821857,1.0656729
-40.88088,1.1038494,1.1176896
-40.793026,1.192239,1.256351
-40.863865,1.2088637,1.301857
-40.797928,1.2857857,1.4251161
-40.871063,1.3011246,1.4690971
-40.795624,1.3806641,1.595192
-40.794525,1.427391,1.6791587
-40.79348,1.4736502,1.7624264
-40.78586,1.5222187,1.8484936
-40.864098,1.5347805,1.8892903
-40.888676,1.5695632,1.9580827
-40.926147,1.5989158,2.0201473
-40.999435,1.6138062,2.0644164
-41.066513,1.6754565,2.1927233
-42.858955,1.1716602,1.6986656
-42.245056,1.4501357,2.0624504
-40.765514,2.0434856,2.7960896
-40.846565,2.0542507,2.8358297
-40.882103,2.0817852,2.8955288
-40.883938,2.1213417,2.9693098
-40.8957,2.157076,3.0385876
-40.916615,2.1893768,3.103891
-40.935265,2.222311,3.1699371
-40.940113,2.2598279,3.2411885
-40.939037,2.2990994,3.3143525
-40.992702,2.3196588,3.3664966
-41.0237,2.3478618,3.4273305
-41.049797,2.3776205,3.4899607
-41.10787,2.3968675,3.541153
-41.169296,2.4151692,3.5915565
-41.297485,2.4123356,3.619473
-41.381294,2.4241204,3.6636305
-41.55784,2.4072764,3.677884
-41.692734,2.4042249,3.7075372
-41.853367,2.3939664,3.7303925
-42.026154,2.380855,3.7511625
-42.262676,2.3495996,3.7543535
-42.463802,2.3301067,3.7707486
-42.583965,2.3353305,3.812982
-42.73837,2.3311944,3.8465896
-42.943954,2.3131893,3.8674712
-44.359734,1.9544795,3.5596294
-44.36251,1.9991102,3.6466208
-44.360886,2.0447056,3.7344413
-44.370766,2.0868886,3.818963
-44.38284,2.1282837,3.9027224
-44.385834,2.17192,3.988504
-44.36651,2.2212093,4.079287
-44.719513,2.1731668,4.0836105
-45.11677,2.1156642,4.081929
-45.49023,2.066401,4.0899134
-45.969833,1.9924936,4.0794706
-46.429558,1.9261761,4.0785456
-47.061802,1.8200696,4.0481195
-47.613396,1.7370338,4.0405917
-48.189075,1.651267,4.034712
-48.863625,1.5452912,4.017183
-49.620174,1.4238958,3.992714
-50.35235,1.312294,3.9809623
-51.189896,1.1807263,3.959982
-52.06475,1.0453746,3.9424648
-52.9876,0.9041662,3.9273896
-54.09776,0.7270012,3.8949046
-17.162985,2.5205097,4.1360016
-17.286049,2.512818,4.088633
-17.553108,2.5447822,4.0809035
-17.786957,2.569078,4.0670805
-18.227821,2.6521811,4.1136594
-18.476973,2.6839657,4.1106567
-18.707016,2.7116914,4.1048713
-18.933764,2.7397308,4.10067
-19.139698,2.762966,4.092671
-19.373676,2.7955756,4.0956697
-19.573097,2.8192205,4.0903645
-19.78302,2.8471227,4.0906806
-20.003342,2.8793654,4.096796
-20.180262,2.8995137,4.090831
-20.358574,2.9210658,4.087308
-20.464937,2.9209824,4.060647
-20.638914,2.942896,4.0591106
-20.839424,2.9743109,4.069149
-21.02763,3.0028968,4.0769644
-21.209877,3.0306177,4.0847096
-21.2836,3.0233722,4.053053
-21.489899,3.060905,4.073646
-21.655533,3.085896,4.0805893
-21.7561,3.0895517,4.063238
-21.904984,3.1104457,4.066714
-22.052525,3.1317286,4.071335
-22.106777,3.1208658,4.038153
-22.306019,3.1620102,4.067781
-22.366112,3.154142,4.0389857
-22.512089,3.1778483,4.0488596
-22.629026,3.1917188,4.0473375
-22.730986,3.200667,4.0402584
-22.843845,3.2142718,4.039365
-22.959778,3.22969,4.041199
-23.060005,3.2397413,4.036813
-23.161654,3.2508993,4.034225
-23.231724,3.2502322,4.0171313
-23.336254,3.263555,4.018032
-23.394302,3.2588549,3.996407
-23.441494,3.2499866,3.969657
-23.533722,3.2596817,3.966905
-23.599146,3.2588177,3.9508884
-23.665329,3.258566,3.9359002
-23.747055,3.2651772,3.9300742
-23.816282,3.266905,3.918173
-23.840546,3.2496095,3.8815758
-23.959246,3.2733407,3.8990262
-24.00221,3.2645712,3.873994
-24.043655,3.2552395,3.8483453
-24.175743,3.2866647,3.8770614
-24.232937,3.285082,3.862196
-24.23132,3.2568245,3.811761
-24.362967,3.2899017,3.8437576
-24.414408,3.2864594,3.8269663
-24.43765,3.2699068,3.7925816
-24.533607,3.2879627,3.8052502
-24.624462,3.3041992,3.8157797
-24.647001,3.287781,3.7819872
-24.715858,3.2940626,3.779358
-24.784504,3.3006275,3.7773418
-24.836973,3.299463,3.7648873
-24.853094,3.2800932,3.727404
-24.959032,3.3065948,3.753571
-25.010475,3.305684,3.7419662
-25.054415,3.3010745,3.7253518
-25.068027,3.2805836,3.6866422
-25.154846,3.2990015,3.7025018
-25.236813,3.3154235,3.7158403
-25.271774,3.3068008,3.6941361
-25.28079,3.2839355,3.6523838
-25.376537,3.3091056,3.6786714
-25.44736,3.3210151,3.686439
-25.472345,3.3073492,3.6580114
-25.510265,3.3010483,3.6401381
-25.57704,3.3115907,3.6464453
-25.635836,3.3178978,3.6468801
-25.68887,3.3211434,3.6430845
-25.714869,3.3084755,3.6165214
-25.77326,3.3153718,3.6182337
-25.84232,3.3291624,3.6300793
-25.89275,3.3319368,3.626165
-25.92021,3.3206124,3.6019125
-25.981867,3.330873,3.6091151
-26.037266,3.3375654,3.6112876
-26.075993,3.3338375,3.59839
-26.09708,3.3187075,3.5688958
-26.12621,3.3087573,3.5470214
-26.188992,3.3212605,3.5581818
-26.244392,3.3292608,3.5628905
-26.299551,3.337472,3.5680552
-26.321049,3.3228261,3.5396104
-26.358438,3.319139,3.5274029
-26.42937,3.3392467,3.550538
-26.479462,3.3451233,3.5527482
-26.520796,3.3450015,3.546165
-26.535982,3.3259614,3.5115027
-26.588827,3.3345003,3.51798
-26.657536,3.355286,3.5428863
-26.691385,3.350378,3.5295367
-26.721167,3.3424253,3.5116916
-26.756298,3.3386097,3.5001092
-26.802418,3.3434944,3.5016732
-26.856953,3.3553495,3.513836
-26.890738,3.351021,3.5017424
-26.932991,3.353643,3.500206
-26.948372,3.3344173,3.465742
-26.983444,3.3312821,3.4556355
-27.050816,3.3554506,3.4869733
-27.089397,3.3558462,3.4824142
-27.1263,3.3549745,3.4760108
-27.14774,3.3407292,3.449337
-27.184185,3.3395824,3.442638
-27.225813,3.3432264,3.443317
-27.275564,3.3545165,3.455759
-27.315807,3.3575182,3.455647
-27.344795,3.3502717,3.4399352
-27.364376,3.3341107,3.4106145
-27.39962,3.3326828,3.4039068
-27.4569,3.3527641,3.4302955
-27.505436,3.3649573,3.4446955
-27.539257,3.3629797,3.437399
-27.56264,3.3505554,3.4140716
-27.589996,3.3420215,3.3967724
-27.637424,3.35427,3.4115934
-27.687277,3.3695836,3.4312558
-27.7227,3.3700705,3.4280982
-27.75404,3.366296,3.4184103
-27.774809,3.3509343,3.3908205
-27.808094,3.349256,3.3844743
-27.847403,3.354515,3.3889556
-27.898457,3.373614,3.415018
-27.934757,3.3762105,3.415533
-27.963495,3.370063,3.4025044
-27.987421,3.3580725,3.3804188
-28.018024,3.354035,3.3707623
-28.05464,3.3575056,3.372871
-28.102507,3.375474,3.3976865
-28.142967,3.384665,3.4088879
-28.172894,3.3805413,3.399345
-28.193111,3.3635206,3.3696637
-28.223656,3.36003,3.3611922
-28.259336,3.3636334,3.3638897
-28.302778,3.378385,3.3841386
-28.341967,3.3877535,3.3960257
-28.37223,3.384656,3.3884063
-28.397068,3.3735657,3.3682723
-28.42145,3.3615172,3.3466635
-28.455301,3.3636947,3.3474727
-28.504622,3.3903122,3.3868284
-28.54089,3.3972964,3.395351
-28.571026,3.3947253,3.388874
-28.592905,3.378476,3.3608642
-28.618732,3.368388,3.3426027
-28.64889,3.365513,3.3357677
-28.68284,3.3693712,3.3396192
-28.726593,3.3912685,3.3720508
-28.758432,3.3922684,3.3715105
-28.78886,3.390786,3.3670926
-28.813177,3.3775463,3.3441038
-28.838545,3.3659027,3.3236732
-28.873049,3.3723752,3.3319898
-28.91284,3.3903162,3.3585515
-28.945648,3.3944175,3.3632312
-28.978573,3.3991292,3.3689327
-29.004679,3.388897,3.3509607
-29.030542,3.3776853,3.3314662
-29.062109,3.379524,3.3327446
-29.089989,3.3726044,3.320149
-29.127934,3.39075,3.347456
-29.16323,3.4032793,3.3658948
-29.192568,3.4007812,3.3604784
-29.221373,3.3967915,3.3527312
-29.246956,3.383464,3.3301535
-29.27654,3.3811817,3.3252048
-29.307697,3.3836882,3.3279314
-29.34719,3.4130096,3.3734512
-29.37598,3.40941,3.3665504
-29.404528,3.4048338,3.3581328
-29.430666,3.3913984,3.3356228
-29.458082,3.3817027,3.3191133
-29.488132,3.3815408,3.3178596
-29.521137,3.3935645,3.3361053
-29.554712,3.4093678,3.3604403
-29.585457,3.4141998,3.3673067
-29.614637,3.4122596,3.3634
-29.64469,3.4146144,3.3663993
-29.674479,3.4159932,3.3678842
-29.702557,3.4079437,3.3543425
-29.730637,3.398906,3.3392615
-29.759157,3.391524,3.3268666
-29.78858,3.3895,3.3230796
-29.817905,3.3864937,3.3177652
-29.850279,3.4089587,3.3532333
-29.879883,3.4103434,3.355032
-29.909399,3.4112744,3.3561487
-29.938534,3.4080465,3.3506546
-29.967209,3.3974783,3.3334575
-29.996502,3.3933382,3.3265882
-30.026377,3.3993397,3.3359885
-30.056541,3.4170742,3.3642097
-30.08593,3.4205804,3.3697057
-30.115108,3.4151545,3.3609505
-30.144403,3.4076838,3.3489647
-30.17387,3.4002883,3.337144
-30.203365,3.3998575,3.3365102
-30.232618,3.407451,3.3487606
-30.261423,3.4214756,3.371346
-30.290283,3.4286866,3.3830671
-30.319298,3.4312027,3.38732
-30.349161,3.422143,3.3730936
-30.377348,3.4343405,3.3929195
-30.40659,3.433374,3.391727
-30.436039,3.4308958,3.3881593
-40.816086,0.80450535,0.3997574
-40.842754,0.84427595,0.476058
-40.817207,0.9085028,0.5855222
-40.839973,0.9492476,0.66303205
-40.804493,1.016731,0.7765479
-40.818516,1.0605762,0.8580713
-40.846134,1.0978405,0.93074226
-40.76841,1.1823287,1.0663838
-40.84014,1.1989284,1.1114011
-40.74066,1.2912962,1.2569051
-40.859882,1.2866981,1.2740173
-40.745785,1.3836384,1.4249215
-40.865273,1.3790781,1.4424176
-40.743713,1.4772906,1.5942736
-40.80414,1.4976559,1.6444478
-40.788994,1.5494895,1.7354684
-40.774635,1.6004493,1.8251953
-40.83115,1.6220381,1.8771186
-40.874813,1.6488664,1.9358888
-40.932377,1.670115,1.9876771
-41.00569,1.6852264,2.0318756
-41.06783,1.7049091,2.0820727
-42.25651,1.526144,2.025177
-40.878056,2.072817,2.7184734
-40.835777,2.1286077,2.812357
-40.861637,2.159533,2.8760977
-40.862473,2.1991394,2.9502363
-40.89172,2.2285511,3.0122004
-40.89228,2.2677536,3.085763
-40.91525,2.2990236,3.149952
-40.93064,2.3327212,3.2169957
-40.972248,2.3574958,3.2737198
-40.94916,2.4036334,3.3550982
-41.014957,2.420307,3.4026837
-41.049088,2.4473977,3.4623237
-41.095444,2.4705508,3.5176387
-41.15503,2.4895768,3.5685196
-41.263306,2.4935286,3.6029663
-41.37977,2.4954305,3.6356745
-41.498093,2.4972956,3.6689072
-41.67036,2.4833887,3.6856961
-41.793472,2.485086,3.7200685
-41.98825,2.4661527,3.7331815
-42.16868,2.4524543,3.752829
-42.400158,2.424928,3.759047
-42.50727,2.4342268,3.8044848
-42.702377,2.4190974,3.8255444
-42.87827,2.410351,3.8541245
-44.32955,2.0501034,3.5325313
-44.354618,2.0883677,3.613389
-44.37257,2.1284468,3.6960745
-44.383366,2.1702895,3.780478
-44.385086,2.2143378,3.8669553
-44.360733,2.264941,3.9595199
-44.36393,2.3080559,4.0448756
-44.57634,2.2977262,4.081155
-44.864697,2.269372,4.102428
-45.289185,2.208736,4.096738
-45.70984,2.1513767,4.0966496
-46.21039,2.076959,4.084548
-46.750187,1.9959114,4.0701103
-47.326508,1.9092112,4.054549
-47.943306,1.8162427,4.037735
-48.592075,1.7193027,4.02194
-49.28827,1.615139,4.004925
-50.02145,1.5064878,3.989315
-50.80133,1.3914962,3.9740977
-51.685944,1.2578573,3.9506507
-52.53939,1.1357791,3.9420366
-53.637207,0.9662905,3.9061565
-54.609207,0.8292365,3.9008803
-15.662454,2.3497725,3.9801583
-15.233879,2.196936,3.787301
-16.954758,2.5912285,4.129246
-17.209473,2.616227,4.114331
-18.286709,2.745774,4.0993223
-18.486649,2.762804,4.083125
-18.718668,2.7898104,4.0785594
-18.916866,2.808577,4.0664115
-19.133114,2.8335402,4.061987
-19.371857,2.8661642,4.067032
-19.561308,2.8857856,4.0590224
-19.781464,2.9154744,4.0631285
-20.001926,2.946496,4.0698414
-20.191704,2.9695325,4.0686655
-20.416412,3.0042598,4.0816975
-20.58516,3.023062,4.0776234
-20.784195,3.0522225,4.0862985
-20.841202,3.0378273,4.045376
-21.064545,3.0765336,4.0667505
-21.233358,3.0990305,4.0701165
-21.365955,3.1107104,4.061453
-21.479557,3.116856,4.046789
-21.665731,3.1477084,4.0622716
-21.789309,3.158639,4.054554
-21.900246,3.165943,4.042973
-22.02414,3.1782765,4.0380125
-22.154726,3.193612,4.0372744
-22.297161,3.213838,4.0431433
-22.418224,3.2273235,4.04125
-22.505976,3.2295532,4.0258074
-22.577166,3.2262194,4.003728
-22.69227,3.239261,4.0025864
-22.770973,3.2394938,3.9856684
-22.813652,3.2266378,3.952368
-22.969002,3.2564158,3.973806
-22.963173,3.2256832,3.9180243
-23.104221,3.2512856,3.9349782
-23.167978,3.2476616,3.914554
-23.188892,3.2274394,3.8727086
-23.348112,3.2621498,3.9028406
-23.375761,3.245039,3.8654566
-23.457592,3.249905,3.8571568
-23.583027,3.2730937,3.8734465
-23.596807,3.2507927,3.8296642
-23.692898,3.2628264,3.8317642
-23.788654,3.2752833,3.8347821
-23.812557,3.2575808,3.797542
-23.885273,3.2609074,3.7887607
-24.00294,3.2842312,3.807343
-24.004555,3.2571497,3.7577643
-24.059324,3.2534895,3.740118
-24.19355,3.2858243,3.771955
-24.216272,3.268393,3.7358742
-24.289654,3.274171,3.7318368
-24.361258,3.2795265,3.7274542
-24.425642,3.2818851,3.7191448
-24.451082,3.2661066,3.6857905
-24.56789,3.2940388,3.7135081
-24.624857,3.2938619,3.7022715
-24.645805,3.2763338,3.6668382
-24.743856,3.296802,3.6849408
-24.78842,3.2912564,3.6666336
-24.838282,3.2885263,3.6524315
-24.87688,3.2802553,3.6304998
-24.959507,3.2947416,3.6410594
-25.035076,3.3061104,3.64743
-25.055803,3.2891278,3.6134648
-25.114899,3.292422,3.6086125
-25.185493,3.3022056,3.6132598
-25.248552,3.3083487,3.6128697
-25.27179,3.2930253,3.581645
-25.314598,3.2884595,3.5660343
-25.407236,3.3119397,3.591239
-25.470993,3.3198068,3.5940151
-25.491608,3.3033948,3.5615726
-25.551626,3.30964,3.5622602
-25.610733,3.3157134,3.5628633
-25.673079,3.3240552,3.566955
-25.688534,3.3048096,3.530654
-25.749973,3.3131127,3.5349474
-25.821981,3.3282633,3.5495176
-25.871393,3.3300295,3.5444922
-25.893974,3.3153243,3.5151796
-25.95129,3.3223977,3.5182347
-26.002445,3.325914,3.516148
-26.042324,3.3224556,3.5037947
-26.093248,3.3263204,3.5024638
-26.112404,3.3095613,3.4704113
-26.148499,3.3039126,3.4550228
-26.22088,3.3227715,3.4764905
-26.268793,3.3256009,3.4740562
-26.317823,3.329464,3.4732928
-26.33375,3.3105636,3.438311
-26.382095,3.3142614,3.4374762
-26.42539,3.3146448,3.431737
-26.494717,3.333992,3.4548354
-26.512941,3.316731,3.4225512
-26.560162,3.320643,3.4224644
-26.632114,3.3432946,3.451014
-26.660591,3.333848,3.4308176
-26.711355,3.3413916,3.436607
-26.721432,3.3178506,3.3949904
-26.770351,3.3243165,3.3992991
-26.820763,3.3323069,3.4060564
-26.860235,3.3319097,3.4000535
-26.90523,3.336165,3.4012833
-26.93569,3.3287723,3.3846831
-26.972824,3.3269258,3.3766809
-27.012106,3.3270214,3.3717475
-27.062075,3.3364067,3.3812437
-27.101652,3.337241,3.3776264
-27.130077,3.3285234,3.3592954
-27.16438,3.3249614,3.3490024
-27.198702,3.3214993,3.3389258
-27.254534,3.3376648,3.3594098
-27.295254,3.3405197,3.3593154
-27.336351,3.343975,3.360239
-27.354002,3.3255305,3.3271022
-27.39213,3.326375,3.3240776
-27.433094,3.330167,3.3257313
-27.480637,3.340709,3.3380203
-27.514118,3.337678,3.329163
-27.5509,3.3380675,3.3257246
-27.57741,3.328093,3.3060966
-27.613264,3.3277266,3.30159
-27.65859,3.3375177,3.3131075
-27.70633,3.3503435,3.3294916
-27.738686,3.3469872,3.3205013
-27.76932,3.3417923,3.3086672
-27.799158,3.335713,3.2954855
-27.846973,3.350048,3.314571
-27.887266,3.3563004,3.3209877
-27.921144,3.3553877,3.316153
-27.953362,3.352623,3.308444
-27.977518,3.3401773,3.2854586
-28.01107,3.3390388,3.2804193
-28.052847,3.348297,3.291925
-28.091658,3.3542514,3.298266
-28.127237,3.356388,3.2986145
-28.157087,3.3512285,3.2874274
-28.185904,3.344662,3.2740464
-28.214462,3.3376718,3.2600331
-28.251034,3.3416703,3.2635622
-28.29453,3.3557243,3.2831807
-28.332457,3.3624518,3.2911983
-28.368137,3.3663034,3.2946935
-28.396635,3.3597631,3.2816548
-28.422935,3.3497872,3.2631674
-28.456564,3.3509052,3.2624497
-28.499372,3.366689,3.2852473
-28.533644,3.3695312,3.2874112
-28.56536,3.3684397,3.2833319
-28.593147,3.3608725,3.2689233
-28.620483,3.35236,3.253037
-28.655514,3.3570755,3.2584062
-28.688984,3.3593588,3.2599282
-28.724869,3.3663058,3.2689943
-28.760292,3.3728523,3.2774763
-28.790472,3.3698287,3.2706347
-28.815224,3.3561761,3.246745
-28.843061,3.3481898,3.2320004
-28.878263,3.3550937,3.2412562
-28.917162,3.3702898,3.2639227
-28.952839,3.379458,3.2769465
-28.984121,3.379498,3.2753196
-29.011328,3.3703773,3.2589717
-29.04266,3.3705742,3.2576852
-29.069489,3.3600466,3.239143
-29.101095,3.360915,3.239027
-29.135674,3.3696065,3.2515883
-29.168858,3.375299,3.2593617
-29.200184,3.3764343,3.2598228
-29.227247,3.365755,3.2412386
-29.257372,3.3634226,3.2361817
-29.28873,3.364795,3.2371578
-29.32417,3.3792162,3.2592864
-29.35559,3.381804,3.2623258
-29.385862,3.38084,3.2596645
-29.414665,3.3747563,3.2487588
-29.442465,3.3645818,3.2312684
-29.473185,3.3648844,3.2307825
-29.504658,3.368393,3.2355332
-29.540218,3.3897073,3.2691798
-29.572227,3.3975663,3.2810788
-29.602709,3.3992507,3.2830172
-29.63125,3.391617,3.2698941
-29.662329,3.3965912,3.2772508
-29.690775,3.387537,3.2619042
-29.718033,3.370187,3.23314
-29.747375,3.3638854,3.222333
-29.778124,3.366552,3.2261162
-29.80983,3.377151,3.2428122
-29.841404,3.3888824,3.261393
-29.871685,3.3912702,3.2648573
-29.902506,3.400024,3.278695
-29.931747,3.3926134,3.2663417
-29.960775,3.380036,3.2456408
-29.99057,3.375395,3.2378626
-30.020935,3.380267,3.2455692
-30.051401,3.3909848,3.2628107
-30.081423,3.394441,3.2683048
-30.111307,3.394303,3.2680058
-30.141176,3.3879485,3.2576551
-30.171232,3.376952,3.23981
-30.201298,3.3780935,3.2417145
-30.23117,3.3845568,3.2523003
-30.26046,3.4010575,3.279224
-30.289946,3.407147,3.2892842
-30.319187,3.414883,3.3020587
-30.348417,3.4205968,3.3115916
-30.378744,3.412761,3.2991724
-30.407766,3.4196732,3.310732
-30.43758,3.4182787,3.3088503
-40.818848,0.88186264,0.35563946
-40.81987,0.93356586,0.44889116
-40.83172,0.9796648,0.53427505
-40.82393,1.0344009,0.6315322
-40.830173,1.0821075,0.7189741
-40.816574,1.1383276,0.8180213
-40.831455,1.1811464,0.8985791
-40.896034,1.2015636,0.94855833
-40.810856,1.2877932,1.0881085
-40.833073,1.3261211,1.1623564
-40.780888,1.3961611,1.2793708
-40.870758,1.40483,1.3135891
-40.792145,1.4847867,1.4435363
-40.868107,1.4991856,1.4856095
-40.789722,1.5774717,1.612793
-40.798523,1.6190686,1.6909862
-40.76923,1.6757135,1.7889538
-40.797382,1.7087317,1.8556876
-40.883682,1.7185717,1.8921595
-40.907673,1.7531276,1.9610853
-41.034554,1.7913983,2.0592003
-41.150223,1.8343983,2.1641417
-42.207794,1.6238954,2.0047646
-42.201244,1.6719675,2.093285
-40.783077,2.217348,2.797946
-40.863026,2.2291539,2.838108
-40.899857,2.256124,2.8971543
-40.894024,2.2976255,2.9740005
-40.92728,2.3255787,3.0343208
-40.926453,2.3648677,3.1083674
-40.941006,2.3987756,3.1758876
-40.964844,2.429465,3.2395716
-40.996273,2.4575875,3.3002615
-41.00845,2.4918158,3.3681908
-41.04619,2.517768,3.426458
-41.100693,2.5384681,3.478765
-41.146774,2.5618882,3.5343995
-41.25148,2.5674148,3.5698018
-41.350723,2.5750537,3.60807
-41.480007,2.5741143,3.637165
-41.629505,2.5678082,3.6609063
-41.770023,2.5648775,3.6891108
-41.961216,2.5479636,3.7027044
-42.1408,2.535385,3.7219858
-42.31605,2.52496,3.7445087
-42.49063,2.5156198,3.7690964
-42.602333,2.5245428,3.8138633
-42.77441,2.5174487,3.8424654
-42.953194,2.5094032,3.8710032
-44.370064,2.1718647,3.563573
-44.376835,2.214868,3.649385
-44.371704,2.2607589,3.7380314
-44.37905,2.3031552,3.8230991
-44.38294,2.34623,3.908782
-44.401295,2.3854532,3.9906826
-44.383125,2.433619,4.0811195
-44.710194,2.3967988,4.0915384
-45.051155,2.3583708,4.1024694
-45.45742,2.306155,4.102927
-45.93598,2.2390785,4.092586
-46.4337,2.1701622,4.083681
-47.080704,2.0696106,4.050455
-47.590263,2.0038788,4.0513115
-48.236076,1.9103472,4.0321627
-48.88514,1.8196371,4.019704
-49.597076,1.7187316,4.0034184
-50.29304,1.6251523,3.9978762
-51.18434,1.4938049,3.9678516
-52.037727,1.3752801,3.9539194
-52.913948,1.2566569,3.9460588
-54.026314,1.0945766,3.9130907
-15.515941,2.393908,3.9061499
-15.073208,2.2396634,3.7076955
-16.94248,2.6611867,4.090787
-17.787174,2.757252,4.077979
-18.010527,2.7770534,4.0638027
-18.318254,2.8204834,4.07611
-18.523823,2.838151,4.0622034
-18.871834,2.8957045,4.0928946
-19.111427,2.9253988,4.0947294
-19.320877,2.9480205,4.0899296
-19.569435,2.9828162,4.099834
-19.775957,3.0070271,4.0990257
-19.952644,3.023769,4.090725
-20.113407,3.0368145,4.079034
-20.267466,3.0487342,4.0668054
-20.411219,3.058391,4.052662
-20.6109,3.0856943,4.059918
-20.828968,3.1197536,4.076111
-20.949871,3.1250706,4.059085
-21.104734,3.1416106,4.0560575
-21.259197,3.1588778,4.0546074
-21.392693,3.1703074,4.046755
-21.51875,3.1800542,4.0374293
-21.691593,3.205748,4.0482664
-21.81782,3.2170663,4.0420756
-21.905785,3.216302,4.0213823
-21.954956,3.2028651,3.9851787
-22.134073,3.2338681,4.0050793
-22.149054,3.2093859,3.9555326
-22.359535,3.2528992,3.9924963
-22.33554,3.2151794,3.926487
-22.468782,3.2330127,3.9317021
-22.56019,3.2365716,3.9190228
-22.607616,3.2245991,3.8865376
-22.746773,3.2464647,3.8983202
-22.764284,3.223989,3.8525805
-22.898561,3.2452364,3.8643837
-22.962894,3.2407675,3.8427281
-23.000229,3.226213,3.807908
-23.155376,3.257351,3.834085
-23.173386,3.2358067,3.7903638
-23.315102,3.2630963,3.8122764
-23.36899,3.256189,3.788597
-23.413822,3.2458138,3.7603912
-23.555115,3.2749329,3.7859974
-23.577627,3.2559905,3.7465591
-23.678822,3.269773,3.751966
-23.746296,3.2699609,3.7390485
-23.792618,3.2614655,3.714374
-23.862394,3.2631907,3.7039723
-23.950493,3.2732227,3.7053285
-24.005531,3.269254,3.6874766
-24.029541,3.251735,3.6508527
-24.149597,3.2772083,3.6745372
-24.21545,3.2789555,3.6652718
-24.219221,3.252614,3.6165895
-24.358454,3.2886622,3.6561313
-24.422283,3.2905097,3.6476278
-24.421062,3.261959,3.5960593
-24.55568,3.2979069,3.6364703
-24.62212,3.3020098,3.6317697
-24.634335,3.2800534,3.5898747
-24.736277,3.3020759,3.6112442
-24.790953,3.3013153,3.600078
-24.836561,3.2962432,3.5828252
-24.856102,3.278082,3.5467124
-24.966368,3.3063688,3.5781283
-25.011803,3.301879,3.562139
-25.035254,3.2860217,3.5296607
-25.096127,3.2899055,3.526116
-25.17712,3.3048925,3.5390306
-25.233202,3.3069658,3.5331912
-25.2519,3.288883,3.4977918
-25.33214,3.3046694,3.5124397
-25.3893,3.3081412,3.5090885
-25.448406,3.3130236,3.5079808
-25.46956,3.2965894,3.47534
-25.545885,3.311853,3.4899416
-25.603836,3.3169663,3.4896064
-25.65953,3.32109,3.4879417
-25.68301,3.3063388,3.4581337
-25.746687,3.315697,3.4645543
-25.805367,3.3224401,3.4672103
-25.86916,3.3327005,3.4753146
-25.888174,3.3155415,3.4421897
-25.955606,3.3286808,3.4549046
-26.003029,3.3295984,3.4492803
-26.046452,3.3281765,3.4402142
-26.093697,3.3294215,3.4352999
-26.10175,3.3051286,3.3916025
-26.1656,3.3176076,3.4039736
-26.217733,3.322694,3.4052124
-26.262781,3.323284,3.399692
-26.293432,3.314188,3.379427
-26.345196,3.3197763,3.381753
-26.394308,3.3238306,3.3818407
-26.452976,3.334983,3.3929682
-26.48962,3.3307304,3.3804846
-26.510143,3.3148265,3.35008
-26.571869,3.3291225,3.3663917
-26.631435,3.3423429,3.3811865
-26.668472,3.3390622,3.3705382
-26.70956,3.3389888,3.3649397
-26.735674,3.3275256,3.3417172
-26.787548,3.336134,3.3497758
-26.83578,3.3422546,3.354072
-26.880455,3.3458617,3.35455
-26.912811,3.3397424,3.3399234
-26.933727,3.3242543,3.3106928
-26.97882,3.3286793,3.312673
-27.038273,3.3454967,3.3341794
-27.083958,3.3511772,3.3383374
-27.103596,3.3346725,3.3077188
-27.130337,3.3241382,3.28651
-27.177425,3.331553,3.293612
