x,y,z
-25.21514,3.1000044,2.7143207
-25.268133,3.0986288,2.705533
-25.313824,3.093148,2.6900458
-25.360182,3.0882068,2.6755285
-25.401367,3.0802698,2.6561165
-25.4407,3.0712712,2.635004
-25.482689,3.063974,2.6167798
-25.512074,3.0488365,2.5855622
-25.535423,3.0297627,2.54781
-25.555374,3.0083103,2.5061035
-25.576345,2.987275,2.4650989
-25.595255,2.9646378,2.421424
-25.613983,2.9416013,2.3770828
-25.632551,2.918161,2.332066
-25.627583,2.8783464,2.2595553
-25.587772,2.813754,2.1453352
-25.622543,2.8000157,2.1165495
-25.469774,2.6534584,1.8640561
-25.564571,2.6809564,1.9046559
-25.597073,2.6642184,1.8707695
-25.625307,2.6442,1.8313694
-25.665775,2.6330433,1.8069801
-25.634735,2.5680556,1.6915026
-25.636219,2.5264857,1.6155858
-25.658388,2.500091,1.5653648
-25.672367,2.4668944,1.5036001
-25.637943,2.3948035,1.3757248
-25.631866,2.34385,1.2836676
-25.64384,2.3065088,1.2147183
-25.64089,2.2561834,1.1236234
-25.617775,2.1880002,1.0020175
-25.632658,2.1503844,0.9324727
-25.716454,2.1710324,0.9624262
-25.640177,2.0536509,0.75657415
-25.651253,2.0101707,0.6769166
-25.649973,1.9547746,0.57682896
-25.601215,1.8552277,0.40103674
-35.36504,1.8664684,0.48126507
-35.46354,1.8416924,0.4455657
-35.45196,1.9528255,0.6468797
-35.487118,1.9761868,0.69292593
-35.45146,2.0515823,0.82696533
-35.495438,2.0673552,0.86016226
-35.459457,2.1406732,0.9904976
-35.492336,2.1635,1.0355873
-35.533024,2.1805935,1.0710464
-35.493454,2.2533615,1.2001896
-35.529327,2.2728927,1.2397342
-35.46249,2.361965,1.396019
-35.488968,2.3866642,1.4441652
-35.470924,2.440586,1.5412574
-35.47393,2.479763,1.6135864
-35.466805,2.5248823,1.695795
-35.44621,2.577872,1.7910657
-35.510933,2.5759676,1.7947454
-35.53577,2.5993364,1.8406072
-35.48333,2.670234,1.9654951
-35.493847,2.7013357,2.0241194
-35.524548,2.7198281,2.0618124
-35.556896,2.7372074,2.0976915
-35.59423,2.7515404,2.1285677
-35.65723,2.7508545,2.1346889
-35.65222,2.7897463,2.2061992
-35.71974,2.7866511,2.208498
-35.71162,2.8266282,2.2817612
-35.742905,2.8440127,2.317852
-35.70873,2.8974516,2.413095
-35.606453,2.9871936,2.5676293
-35.69052,2.9746158,2.5545735
-35.711372,2.996369,2.597733
-35.744507,3.0114489,2.6300282
-35.844658,2.991472,2.6053343
-35.88344,3.0039425,2.633574
-35.914173,3.0205517,2.6685848
-36.000137,3.009174,2.6583314
-35.959637,3.0615902,2.751357
-35.993877,3.0762024,2.7832384
-36.029373,3.0901864,2.8141599
-36.085316,3.0942752,2.8292313
-36.14129,3.0985668,2.8447418
-36.65654,2.8855777,2.5124826
-36.214344,3.1260173,2.9062624
-36.33348,3.1014853,2.8760962
-36.398006,3.1028328,2.8874269
-36.47024,3.100975,2.8938098
-36.53117,3.104555,2.9089794
-36.743713,3.0411134,2.818276
-36.85653,3.0231435,2.7999353
-36.92793,3.0238879,2.8113608
-37.008038,3.0212252,2.8175998
-37.079712,3.0225556,2.8302956
-37.159378,3.020856,2.8384218
-37.251106,3.014541,2.8395448
-37.32799,3.014831,2.8511858
-37.409008,3.013805,2.8609738
-37.4661,3.022806,2.886496
-37.577988,3.01018,2.8787417
-37.63682,3.0191016,2.9044924
-37.712692,3.0215855,2.9204879
-37.78783,3.02469,2.9376297
-37.874542,3.0237174,2.9487362
-37.89135,3.0495124,3.0008597
-37.94499,3.0614266,3.031896
-38.0251,3.063729,3.048501
-38.09196,3.0712295,3.0731726
-38.669857,2.8947136,2.820993
-38.70504,2.9160519,2.8676577
-38.722183,2.9437373,2.9238806
-38.73888,2.9714248,2.9801078
-38.753426,2.9997003,3.03721
-38.81363,3.0122404,3.0710058
-38.97314,2.9914804,3.0558257
-38.987015,3.0202188,3.1139307
-39.154083,2.9982862,3.0978098
-39.20916,3.0138414,3.1369424
-39.387493,2.9898167,3.1186876
-39.440014,3.0069263,3.1605897
-39.494072,3.0236726,3.2021046
-39.6779,3.0001512,3.1859417
-39.77427,3.0046105,3.2104259
-39.911354,2.9971168,3.218204
-39.97782,3.011577,3.257564
-40.13575,2.9990728,3.2590833
-40.179897,3.0208437,3.3092895
-40.337395,3.0097742,3.3137188
-40.40193,3.02621,3.3569627
-40.542793,3.0212133,3.3707542
-40.712803,3.0087733,3.374815
-40.79087,3.0226808,3.4155798
-40.95052,3.014577,3.4266396
-41.074062,3.017051,3.4526248
-41.183105,3.0239785,3.485064
-41.35348,3.015235,3.4969382
-41.435165,3.0304537,3.541346
-41.602257,3.024029,3.5574484
-41.761326,3.0204957,3.5780172
-41.94465,3.0116818,3.592342
-42.038376,3.0259786,3.6373549
-42.217453,3.0198064,3.6564064
-42.393066,3.0153797,3.678442
-42.54277,3.0180023,3.7101555
-42.75338,3.007039,3.7254267
-42.870556,3.0188189,3.7699876
-43.045918,3.0178044,3.7992206
-43.280766,3.0042331,3.8138418
-43.472584,3.001461,3.8426685
-43.62581,3.0081177,3.883729
-43.796093,3.0117974,3.9219394
-44.044296,2.9996557,3.9422622
-44.159653,3.016766,3.9979808
-44.35298,3.0181746,4.036071
-44.610374,3.0074148,4.0611925
-45.004868,2.9703162,4.0578375
-45.423122,2.9306064,4.0536256
-45.840252,2.8933558,4.054346
-46.305244,2.8490894,4.0496645
-46.77494,2.8064132,4.0492315
-47.320705,2.751995,4.0389576
-47.85008,2.7035213,4.0379667
-48.485825,2.6385536,4.023038
-49.09073,2.5824997,4.020829
-49.79367,2.5124185,4.008227
-50.54737,2.4373043,3.994923
-51.426895,2.3447871,3.969514
-52.177326,2.2785861,3.9743347
5.1489315,0.89391685,3.1026053
5.012884,0.81762385,2.918663
4.9923954,0.7245326,2.7203445
4.9695606,0.6315968,2.5221777
4.9580784,0.5367098,2.3221898
4.723444,0.47668242,2.1557302
4.8411694,0.36117673,1.9360466
4.8996716,0.25432324,1.7241926
1.1977425,0.23793936,1.046382
0.26572418,0.3209641,1.0568838
-1.0096416,0.4736898,1.1520004
-1.8251743,0.545419,1.1596861
-2.2750988,0.5504873,1.0932388
-2.860443,0.5845177,1.0632792
-2.9695282,0.52629614,0.92555714
-5.6886024,0.70651793,0.835196
-7.2052574,0.9633174,1.1040921
-8.626753,1.142232,1.2309804
-8.64513,1.0803812,1.1026211
-8.792549,1.0480022,1.0127811
-8.745342,0.9707546,0.864377
-8.428535,0.82908916,0.63021183
-8.731754,0.8336315,0.5898571
-8.526035,0.71614003,0.38661575
-8.504421,0.64222956,0.24137211
-18.666073,2.7255657,2.7913394
-18.938345,2.7640092,2.8254123
-19.165035,2.790882,2.8436627
-19.30833,2.7946618,2.8290706
-19.44072,2.7959442,2.8112884
-19.579948,2.7999353,2.7978954
-19.755863,2.8157547,2.8023682
-19.890018,2.8197489,2.789909
-20.054493,2.8338366,2.79285
-20.209759,2.8459463,2.7933555
-20.368046,2.8598685,2.7970495
-20.50594,2.868124,2.7927184
-20.645195,2.8775609,2.790577
-20.778042,2.8856487,2.786808
-20.930214,2.9008756,2.7942576
-21.068226,2.912209,2.796229
-21.194757,2.9204073,2.7938113
-21.328548,2.9317892,2.796628
-21.445887,2.9381976,2.7921824
-21.557869,2.9433494,2.7861242
-21.67709,2.9516675,2.785263
-21.80595,2.9641085,2.7911167
-21.905315,2.9665577,2.7817926
-22.02346,2.9764228,2.7842855
-22.132164,2.98344,2.7826414
-22.233982,2.988463,2.7781553
-22.330624,2.9920595,2.7716885
-22.459518,3.0085638,2.785797
-22.545,3.0089726,2.7748275
-22.644001,3.015117,2.7731433
-22.73709,3.0194514,2.7688317
-22.834705,3.0261016,2.7684312
-22.928833,3.0318756,2.76687
-23.025043,3.0390205,2.767726
-23.11385,3.0436318,2.7647562
-23.202396,3.0486119,2.762586
-23.287556,3.0526369,2.7590857
-23.371696,3.0566797,2.7558098
-23.454819,3.0607338,2.7527428
-23.536163,3.064454,2.7493224
-23.618036,3.0688434,2.7471695
-23.696619,3.0722044,2.743526
-23.774979,3.075883,2.7405705
-23.850101,3.078497,2.7360501
-23.926514,3.082104,2.7333121
-23.996004,3.0828807,2.7261028
-24.071993,3.0870807,2.7246494
-24.1448,3.0901752,2.7215405
-24.215935,3.092848,2.7178874
-24.280321,3.0925953,2.709558
-24.357594,3.0990279,2.71239
-24.426672,3.1018138,2.709353
-24.492691,3.1034205,2.7045002
-24.558538,3.10528,2.7001944
-24.620682,3.1055639,2.6933994
-24.689703,3.1097503,2.693214
-24.753614,3.1116223,2.6893063
-24.818045,3.114106,2.6865401
-24.878849,3.1149712,2.6811914
-24.936083,3.1141906,2.6732001
-25.004087,3.1196318,2.675735
-25.066435,3.1223135,2.673768
-25.120548,3.1206746,2.664657
-25.17591,3.1199896,2.6572433
-25.227201,3.1172037,2.646387
-25.29552,3.1245916,2.6527715
-25.339405,3.117953,2.6355991
-25.384628,3.1122284,2.6200376
-25.424726,3.103532,2.599515
-25.465557,3.0953445,2.5799112
-25.500767,3.0837436,2.554573
-25.525452,3.0655296,2.5180454
-25.547962,3.0457697,2.478907
-25.568981,3.0248425,2.4377956
-25.587318,3.0019376,2.3933206
-25.604877,2.978234,2.347485
-25.621086,2.9533224,2.2995863
-25.639584,2.929614,2.2537389
-25.644855,2.896582,2.1919374
-25.650446,2.8254178,2.0595036
-25.602139,2.7528176,1.9296966
-25.660778,2.7551703,1.9284987
-25.671337,2.7230375,1.8680925
-25.658047,2.6316087,1.7004266
-25.642633,2.5779731,1.6028457
-25.666378,2.5530446,1.5547256
-25.649738,2.4966254,1.4522214
-25.641924,2.4459167,1.3595047
-25.632027,2.3925223,1.2620769
-25.636032,2.3491502,1.1819329
-25.643084,2.3073895,1.1045427
-25.619892,2.2399366,0.9825616
-25.619312,2.18981,0.89055157
-25.62951,2.1477265,0.8124609
-25.63861,2.103854,0.7312317
-25.641703,2.0538588,0.6393218
-25.655268,2.0119946,0.5615206
-35.381405,1.9083331,0.43328142
-35.466393,1.8945782,0.41550016
-35.4778,1.9371471,0.49501467
-35.449825,2.0083904,0.62391615
-35.482147,2.033696,0.6735964
-35.499226,2.0698,0.74187136
-35.475468,2.1347232,0.85966444
-35.447956,2.201044,0.9797468
-35.490063,2.217173,1.0136065
-35.52838,2.2358475,1.0518723
-35.46741,2.322444,1.2064662
-35.52996,2.3236196,1.2147584
-35.461285,2.4128935,1.3736773
-35.480465,2.442261,1.4301252
-35.488045,2.4788163,1.4988241
-35.487473,2.5200822,1.5755134
-35.48977,2.5588553,1.6479082
-35.48687,2.6002991,1.7247982
-35.492577,2.6357167,1.7914009
-35.543987,2.6424415,1.8093152
-35.522327,2.6938312,1.9029522
-35.50602,2.7411187,1.9895473
-35.562153,2.7444816,2.001841
-35.54895,2.7888854,2.0834808
-35.598755,2.7959025,2.1020288
-35.635246,2.810717,2.1337795
-35.682873,2.8191574,2.154858
-35.709568,2.8394809,2.1959596
-35.735233,2.8602226,2.237781
-35.719624,2.9035046,2.31736
-35.67292,2.9630375,2.4240208
-35.71542,2.9735603,2.4486895
-35.698017,3.0160115,2.52665
-35.79026,3.000139,2.5074272
-35.835148,3.009552,2.5304298
-35.872856,3.0227492,2.559785
-35.892574,3.045114,2.6043854
-35.940563,3.0530617,2.6251383
-35.95245,3.079112,2.6758757
-36.006874,3.1155012,2.7514386
-36.81704,2.7564988,2.1692476
-36.846447,2.7775457,2.2128425
-36.68414,2.8888073,2.4042435
-36.68049,2.924066,2.4708705
-36.21124,3.173502,2.8870134
-36.33643,3.1468453,2.8520045
-36.397194,3.1501408,2.8660035
-36.474777,3.146189,2.8683653
-36.54187,3.1472816,2.8790712
-36.879993,3.030411,2.6992216
-36.9448,3.034394,2.7152686
-37.01821,3.0349727,2.7259707
-37.09097,3.0361717,2.7378335
-37.155212,3.041265,2.7561016
-37.280224,3.0215108,2.7347617
-37.36383,3.0194778,2.7420244
-37.38792,3.0419207,2.7884612
-37.509228,3.0253932,2.7730055
-37.610172,3.0176644,2.771809
-37.692078,3.0179427,2.7835288
-37.772507,3.019183,2.7969632
-37.81235,3.0363233,2.835608
-37.891212,3.0387342,2.8512092
-37.95129,3.0485318,2.8785653
-37.985737,3.0680115,2.9211717
-38.043915,3.0787973,2.9502997
-38.709812,2.86987,2.638475
-38.704323,2.90625,2.7084613
-38.725845,2.9327254,2.7630854
-38.73517,2.9633453,2.8241024
-38.750732,2.9915876,2.8814468
-38.78619,3.0128627,2.9281306
-38.891987,3.0103402,2.938592
-38.974937,3.0159914,2.9617758
-39.1128,3.0038416,2.958219
-39.172787,3.0179155,2.9946618
-39.359585,2.99119,2.9698777
-39.425797,3.0041013,3.005097
-39.4858,3.0191922,3.043745
-39.67568,2.9939244,3.0224905
-39.717415,3.0154738,3.0712519
-39.84407,3.0111706,3.0819297
-39.933964,3.0185926,3.110248
-40.08223,3.0090146,3.113935
-40.167,3.0189145,3.1465158
-40.305115,3.0136428,3.1573162
-40.346222,3.0369582,3.209906
-40.52488,3.0212574,3.2064314
-40.637585,3.0250363,3.2314835
-40.761185,3.0263197,3.2533479
-40.917442,3.019258,3.2637868
-41.020573,3.0273721,3.2962003
-41.160038,3.0262334,3.3159628
-41.32155,3.0199666,3.329052
-41.40756,3.034201,3.3712153
-41.574024,3.0280678,3.385521
-41.743534,3.022014,3.4005537
-41.84522,3.0338383,3.4406414
-42.0105,3.0303428,3.4602952
-42.194523,3.023098,3.4755244
-42.288895,3.0384264,3.521728
-42.474228,3.0324717,3.5399394
-42.67102,3.0247667,3.55658
-42.82423,3.028178,3.5886154
-43.0234,3.0218077,3.608522
-43.20127,3.0212584,3.636786
-43.407516,3.0152695,3.658814
-43.552788,3.0237176,3.7001028
-43.76131,3.0191374,3.7255569
-43.957775,3.0181842,3.7564654
-44.148716,3.0193663,3.790893
-44.369225,3.0153456,3.8197827
-44.588055,3.0127769,3.85145
-44.813744,3.009916,3.883781
-45.009056,3.0142207,3.9257193
-45.22069,3.016274,3.9659245
-45.463104,3.0134273,4.0014358
-45.691284,3.0144958,4.042657
-46.13219,2.97689,4.0409665
-46.596043,2.937401,4.039454
-47.122467,2.889026,4.030531
-47.607307,2.8508823,4.0356417
-48.198444,2.7966259,4.0260086
-48.8226,2.7398095,4.01694
-49.49733,2.6777143,4.0058727
-50.212074,2.6125147,3.9954853
-50.841312,2.5651684,4.0073195
-51.71808,2.481117,3.9864407
5.3828373,1.3529027,3.5799727
5.3261204,1.2646356,3.384677
5.242525,1.1800342,3.1929016
5.05303,0.9184382,2.6126041
4.9497623,0.8371875,2.42554
4.9206715,0.7451463,2.2281923
4.775881,0.6704898,2.0486145
4.8867435,0.55682755,1.8292522
4.89353,0.4585731,1.6254144
4.845312,0.36873293,1.4304566
4.787031,0.28044486,1.2373295
3.1732464,0.44966364,1.3298764
2.2471066,0.51180816,1.3104973
1.3571911,0.5726197,1.2943597
0.5566044,0.6225717,1.270174
0.2975483,0.58093166,1.142766
-0.25193024,0.5926182,1.07972
-0.44121742,0.54131556,0.9437933
-1.790884,0.7060027,1.0704527
-2.3138924,0.7223871,1.0218506
-2.26993,0.63297987,0.84468937
-2.9273014,0.67917943,0.8367176
-4.3974133,0.88911915,1.0383325
-4.427622,0.81919503,0.890131
-4.3582287,0.72886133,0.71572924
-5.6422043,0.8432858,0.7512913
-8.654663,1.2124667,1.0425506
-8.666477,1.1491082,0.9118204
-8.507544,1.0466454,0.7276406
-8.438841,0.9636271,0.5694394
-8.694775,0.95563126,0.5146384
-8.464045,0.8336599,0.30212355
-18.633068,2.8284125,2.8217735
-18.800762,2.8357341,2.8122735
-19.00207,2.8533216,2.8185601
-19.188519,2.8678217,2.820879
-19.32378,2.8686943,2.8033557
-19.463242,2.8714569,2.7890806
-19.608624,2.8766613,2.7789068
-19.774815,2.8887935,2.7796674
-19.927366,2.8977394,2.776074
-20.09701,2.9126952,2.782104
-20.239973,2.9203963,2.7775145
-20.37996,2.9279344,2.7730823
-20.52304,2.9371932,2.771699
-20.678656,2.9512184,2.7780972
-20.80626,2.957097,2.7722807
-20.94039,2.9657767,2.7711744
-21.059628,2.970276,2.7639008
-21.199821,2.9823875,2.7688727
-21.332779,2.992846,2.7716246
-21.449284,2.9984329,2.767048
-21.570518,3.0062702,2.7663298
-21.685534,3.012599,2.763533
-21.80272,3.0203137,2.7632308
-21.904606,3.0232093,2.7555437
-22.00294,3.0253465,2.7468953
-22.111748,3.031811,2.7454133
-22.21367,3.0363245,2.741065
-22.329191,3.046457,2.746004
-22.426422,3.050343,2.7411466
-22.509634,3.049388,2.7286882
-22.600754,3.0518847,2.7220097
-22.701267,3.05852,2.7222624
-22.787888,3.0602255,2.7147202
-22.883837,3.0660958,2.7141657
-22.968409,3.0679018,2.707181
-23.057495,3.0719829,2.7041092
-23.140057,3.073847,2.6975927
-23.220852,3.0753975,2.6907368
-23.30921,3.0805492,2.6899853
-23.398058,3.086396,2.6905718
-23.47816,3.0889678,2.6859293
-23.557281,3.0915296,2.6814375
-23.636948,3.0947459,2.6781921
-23.715628,3.0979466,2.675084
-23.788813,3.0990896,2.6687074
-23.864813,3.1018858,2.6652327
-23.936874,3.1032696,2.6595483
-24.006535,3.1039007,2.6527429
-24.07824,3.1058428,2.6482687
-24.15268,3.1094604,2.6467447
-24.218157,3.109165,2.6387825
-24.291454,3.1129951,2.6378908
-24.360203,3.1149883,2.634038
-24.415894,3.110836,2.6199265
-24.497837,3.1201262,2.6286583
-24.556108,3.1178765,2.617991
-24.633251,3.1256006,2.62435
-24.701002,3.1289086,2.6233482
-24.757446,3.1266344,2.6129675
-24.816568,3.1260297,2.6055255
-24.86599,3.120479,2.5897446
-24.942612,3.1299114,2.599638
-25.018873,3.1396487,2.6101913
-25.052504,3.126133,2.5810566
-25.117653,3.1303563,2.5823808
-25.209705,3.1502967,2.6107988
-25.313663,3.14564,2.591506
-25.368782,3.1454918,2.5857353
-25.378756,3.1186557,2.5340214
-25.411613,3.1052823,2.5055351
-25.452286,3.0966358,2.4852562
-25.491161,3.0869424,2.4632173
-25.527657,3.075796,2.4387097
-25.555016,3.058865,2.4042144
-25.577137,3.0384402,2.3636756
-25.594767,3.014875,2.3176918
-25.60862,2.9885309,2.2668738
-25.624805,2.9633608,2.218091
-25.643877,2.9397802,2.1720738
-25.643337,2.9025528,2.1022573
-25.631893,2.8571677,2.0181599
-25.645828,2.8286178,1.9634104
-25.69373,2.823588,1.94978
-25.674324,2.7706256,1.8523183
-25.65647,2.6768324,1.6784205
-25.648273,2.6290991,1.5899124
-25.651047,2.5886583,1.5141516
-25.641077,2.5377617,1.4199758
-25.659788,2.5079243,1.3627763
-25.64222,2.4492743,1.2548575
-25.631285,2.394613,1.153883
-25.604809,2.326342,1.0288491
-25.632866,2.300811,0.97911406
-25.632656,2.2516332,0.8876438
-25.632534,2.2014909,0.7944236
-25.653677,2.1682463,0.73102856
-25.648628,2.111949,0.6268482
-25.65324,2.062783,0.535233
-35.459274,1.9550922,0.39880848
-35.453445,2.0100436,0.5009227
-35.453094,2.0599036,0.5940428
-35.48037,2.0887477,0.6502805
-35.52071,2.1078126,0.6894016
-35.458683,2.1993446,0.85533285
-35.51019,2.2094002,0.87866735
-35.48693,2.2712717,0.9925499
-35.521694,2.2922838,1.0350432
-35.493805,2.3554265,1.151
-35.495598,2.3975534,1.230248
-35.556786,2.3998172,1.2400947
-35.476444,2.4945562,1.4107652
-35.491325,2.5260496,1.471384
-35.46729,2.5818672,1.5741849
-35.464424,2.623366,1.6520705
-35.495163,2.6433105,1.6925883
-35.47249,2.6959043,1.7895918
-35.5384,2.69379,1.7919898
-35.52243,2.741165,1.8798904
-35.51642,2.7818413,1.9561629
-35.51866,2.8170435,2.0229516
-35.55163,2.833928,2.058197
-35.609383,2.836515,2.068915
-35.618053,2.8671556,2.1278558
-35.67494,2.8703895,2.1398058
-35.70764,2.8872464,2.1751628
-35.689228,2.932017,2.2582693
-35.71627,2.9514718,2.2980657
-35.73886,2.9731772,2.3417215
-35.756912,2.997101,2.3891635
-35.789825,3.0130122,2.4229817
-35.857494,3.0108821,2.4261966
-35.911964,3.0158598,2.441587
-35.966454,3.0210261,2.457386
-35.85912,3.1074042,2.61061
-35.93131,3.1033,2.610736
-36.02177,3.090648,2.5965886
-36.79552,2.7477243,2.0266027
-36.82583,2.7686958,2.0702004
-36.896168,2.7706053,2.081833
-36.80275,2.8495321,2.2226462
-36.744728,2.9106874,2.3334432
-36.71004,2.960164,2.4245396
-36.302906,3.177668,2.7956505
-36.35623,3.1843948,2.8148322
-36.420918,3.1862688,2.8260489
-36.48265,3.189728,2.8400202
-36.614178,3.1631892,2.8044477
-37.007557,3.0252955,2.5851693
-37.05755,3.0363975,2.6126466
-37.110542,3.0463626,2.6383405
-37.23225,3.0279787,2.6175532
-37.297203,3.0336561,2.6365042
-37.38823,3.0290124,2.6386967
-37.43749,3.0416117,2.6692505
-37.515297,3.0429952,2.6816168
-37.65406,3.0208216,2.65585
-37.733196,3.0226765,2.6694074
-37.784996,3.035389,2.700717
-37.8464,3.0445857,2.7264466
-37.891464,3.0601263,2.7625265
-37.99034,3.0557687,2.7667027
-38.0147,3.0792775,2.8157997
-38.023014,3.108515,2.8740826
-38.67215,2.9075716,2.565103
-38.721184,2.9244988,2.6046991
-38.735767,2.9536035,2.6637158
-38.75238,2.9818203,2.7213192
-38.77358,3.0083017,2.7761807
-38.866203,3.0104456,2.792749
-38.96998,3.009282,2.8043613
-39.056927,3.0142107,2.8257766
-39.18241,3.0068998,2.8283167
-39.290215,3.0059834,2.8411455
-39.423187,2.9975424,2.8425994
-39.47876,3.0143075,2.8833761
-39.54801,3.0269337,2.9179044
-39.728546,3.0054066,2.9001799
-39.86521,2.9983268,2.905095
-39.921608,3.016195,2.9484344
-40.059547,3.0098834,2.955186
-40.15812,3.0158963,2.9809942
-40.307175,3.0076447,2.9855824
-40.3776,3.0228066,3.0257797
-40.49507,3.0248327,3.0465202
-40.60107,3.0306408,3.0732489
-40.751022,3.024735,3.082923
-40.91027,3.0170567,3.0904574
-41.01851,3.0240185,3.1200266
-41.17016,3.019859,3.1336575
-41.223297,3.0424776,3.1867847
-41.37975,3.0382786,3.2011814
-41.57566,3.0247173,3.2026033
-41.731834,3.0223026,3.2206979
-41.851593,3.0298069,3.253487
-41.99711,3.0314765,3.2783942
-42.201714,3.0194046,3.2844067
-42.250713,3.045959,3.345387
-42.460407,3.0343332,3.3532176
-42.625057,3.0343924,3.378038
-42.834534,3.0248692,3.3902578
-43.033195,3.0189052,3.4081507
-43.191048,3.0231636,3.440714
-43.376152,3.0221117,3.466702
-43.537994,3.0270858,3.5015001
-43.724373,3.0275223,3.5308857
-43.88641,3.0340734,3.5691013
-44.1373,3.0226963,3.5844526
-44.32042,3.0266728,3.6208324
-44.55581,3.020851,3.6453347
-44.800037,3.014442,3.6700969
-45.026463,3.012808,3.7019758
-45.191067,3.0243921,3.7514448
-45.401497,3.0279126,3.7916036
-45.65224,3.0248117,3.8245606
-45.924305,3.0189877,3.8553576
-46.20047,3.013784,3.8881822
-46.39603,3.024569,3.9413671
-46.690845,3.0185947,3.9757557
-46.9608,3.0184684,4.018398
-47.402092,2.990133,4.0300193
-47.98448,2.9401689,4.0194387
-48.46601,2.9101262,4.03417
-49.09877,2.8577905,4.026962
-49.797737,2.798131,4.0152845
-50.529,2.7370572,4.00599
-51.391144,2.659478,3.9835582
-52.212666,2.592684,3.9771895
5.3551083,1.6448128,3.7066107
5.436926,1.5393777,3.496173
5.272791,1.4645007,3.313158
5.1531925,1.1931522,2.7232628
4.9942303,1.1189919,2.5433674
4.9596806,1.0279014,2.3468075
4.754427,0.9611738,2.1759815
4.8611507,0.84966516,1.958169
4.9046535,0.7466619,1.7489324
4.8861523,0.65249395,1.5491428
6.5258923,0.3019762,1.0603528
3.512476,0.6736114,1.3891878
2.898264,0.67777944,1.3069401
2.1535244,0.7063,1.2563548
0.84799767,0.83156085,1.3247046
0.8581257,0.74218845,1.1403246
0.35624886,0.74012876,1.0624237
0.31824303,0.65978146,0.8900976
-1.4941864,0.8934288,1.109992
-2.3025513,0.8760998,0.95655155
-2.9361515,0.91301656,0.941082
-4.256529,1.082797,1.1009483
-4.3533287,0.94977736,0.8126955
-8.4792385,1.4291201,1.2097139
-8.631342,1.3958535,1.1200495
-8.754717,1.3569849,1.0230923
-8.771864,1.2953157,0.89454937
-8.437927,1.1556103,0.6558418
-8.729813,1.1540866,0.6119852
-8.62359,1.0633302,0.44167042
-8.526354,0.9736116,0.27235317
-18.59205,2.8860059,2.7773547
-18.721327,2.8820226,2.7521214
-18.90326,2.8930435,2.7501812
-19.147163,2.9221876,2.776575
-19.32883,2.9353077,2.7790303
-19.472752,2.938715,2.767002
-19.631397,2.9470868,2.7630758
-19.78788,2.9556742,2.7599306
-19.944826,2.9652352,2.7587404
-20.096092,2.9739532,2.75666
-20.254799,2.9857242,2.7597919
-20.39217,2.9918652,2.7544727
-20.530922,2.9991584,2.7513404
-20.672752,3.0081546,2.751274
-20.804714,3.0148046,2.7478418
-20.926895,3.0190334,2.7408829
-21.063286,3.0284944,2.742607
-21.17885,3.031892,2.734943
-21.29329,3.0355155,2.7279248
-21.407446,3.0396402,2.7219925
-21.522152,3.0445485,2.7176023
-21.627342,3.0468032,2.7091818
-21.738956,3.0518224,2.7055035
-21.844446,3.0552893,2.699555
-21.946358,3.0580378,2.6926746
-22.03978,3.058268,2.6819
-22.142853,3.0624607,2.6778383
-22.254627,3.0703907,2.6801567
-22.349762,3.0727725,2.6735783
-22.450329,3.0776823,2.6713839
-22.53367,3.0765972,2.6594806
-22.624882,3.0789316,2.6534238
-22.724648,3.0850565,2.6538653
-22.810574,3.0863018,2.6463866
-22.89867,3.0888422,2.6412468
-22.982595,3.0901659,2.6342545
-23.074154,3.0950143,2.6333356
-23.139683,3.08968,2.6155066
-23.247866,3.102312,2.6280208
-23.325453,3.10277,2.620245
-23.402863,3.103538,2.613142
-23.457916,3.0951014,2.590622
-23.56245,3.1083114,2.6048584
-23.644562,3.1123424,2.6037335
-23.717382,3.1126988,2.596521
-23.80351,3.1193862,2.6002169
-23.875172,3.1200092,2.593739
-23.981464,3.1368773,2.6151247
-24.034912,3.1299503,2.5960345
-24.284365,3.1529946,2.6145258
-24.395306,3.143727,2.585194
-24.438282,3.1332154,2.5605245
-24.81057,3.1644013,2.5833597
-25.014374,3.1779513,2.5895658
-25.325588,3.159965,2.5258288
-25.350002,3.14155,2.4884071
-25.388168,3.1311622,2.4651017
-25.420757,3.117442,2.435979
-25.458595,3.1068687,2.4124289
-25.501575,3.099483,2.3945365
-25.538412,3.088357,2.3701
-25.563715,3.0699463,2.3328443
-25.582642,3.0472817,2.2880874
-25.597164,3.0214891,2.237802
-25.612812,2.996072,2.1881738
-25.630161,2.9714315,2.1399155
-25.652735,2.949956,2.0972676
-25.648771,2.9102,2.0221877
-25.654411,2.8379602,1.8848176
-25.624172,2.6967802,1.6200509
-25.65289,2.6762557,1.5789952
-25.642904,2.6268017,1.4863324
-25.649315,2.5886576,1.4138064
-25.63224,2.5319507,1.3080797
-25.630384,2.4857671,1.2210975
-25.628508,2.4386373,1.1323781
-25.64029,2.4013462,1.0612326
-25.62067,2.3381913,0.94371796
-25.634924,2.301134,0.87292194
-25.61791,2.237639,0.75467014
-25.649239,2.2130246,0.70615435
-25.644663,2.1576777,0.6024375
-25.650732,2.1102211,0.51285267
-35.373596,2.0679257,0.48612595
-35.45105,2.0602257,0.47757292
-35.49981,2.0739112,0.507246
-35.50107,2.1217046,0.5977173
-35.504116,2.167363,0.6843424
-35.45057,2.2518709,0.840013
-35.49335,2.2679527,0.8739424
-35.46472,2.3327723,0.99444103
-35.50814,2.3476803,1.0262933
-35.54955,2.363881,1.0604806
-35.46751,2.4613664,1.2386508
-35.478447,2.4962862,1.3059077
-35.453403,2.553828,1.4131312
-35.47608,2.5799737,1.4648099
-35.49578,2.607678,1.5192404
-35.47822,2.658165,1.6138301
-35.492157,2.6884508,1.6727619
-35.513695,2.7137227,1.7228594
-35.518196,2.7489173,1.7903996
-35.52902,2.7798538,1.850429
-35.528885,2.8167934,1.9209685
-35.54034,2.846477,1.9787517
-35.559715,2.8712478,2.0279179
-35.596436,2.885945,2.0594702
-35.664154,2.8832774,2.0607328
-35.673214,2.9133925,2.1192951
-35.674942,2.9471364,2.1841583
-35.707844,2.9635792,2.2188697
-35.738438,2.9811893,2.2556424
-35.719288,3.0249767,2.3378992
-35.800823,3.0155132,2.327714
-35.84934,3.0236168,2.3481026
-35.890793,3.0354502,2.3750129
-35.999023,3.0136263,2.343822
-35.86767,3.1121867,2.520565
-35.995743,3.0808241,2.4730773
-35.923878,3.148053,2.595512
-35.968857,3.1577115,2.6188016
-36.05729,3.1467311,2.6067367
-36.06146,3.1760802,2.6639519
-36.039368,3.217354,2.7415404
-36.071056,3.2332127,2.7756119
-36.141106,3.2315304,2.7797923
-36.838318,2.947118,2.3024912
-36.73108,3.060947,2.5120263
-36.658966,3.1245909,2.6279397
-36.934677,3.0370193,2.4877043
-37.005722,3.039122,2.4996223
-37.05531,3.050606,2.5274973
-37.17833,3.0315475,2.504025
-37.233498,3.041302,2.529245
-37.333946,3.0327346,2.5238218
-37.381344,3.0461655,2.555447
-37.459377,3.0474572,2.5668607
-37.551025,3.0437386,2.5700703
-37.654884,3.035735,2.5663395
-37.751896,3.0309582,2.5681963
-37.812202,3.0407145,2.5943599
-37.869225,3.051911,2.6230197
-37.950493,3.0542269,2.6371222
-37.990326,3.0722115,2.6772118
-38.059372,3.0795608,2.6998792
-38.642914,2.9015326,2.418634
-38.705048,2.913982,2.4506364
-38.720673,2.943028,2.5098557
-38.743298,2.9694512,2.564797
-38.760483,2.9976285,2.622602
-38.80489,3.0163693,2.6651144
-38.95516,2.9995003,2.650147
-39.01301,3.0142887,2.686594
-39.149628,3.0033033,2.6817222
-39.241543,3.0076253,2.7017403
-39.42247,2.9837317,2.676866
-39.447945,3.0103326,2.732975
-39.530716,3.0188465,2.7603588
-39.716347,2.9957616,2.737866
-39.79253,3.0073478,2.770659
-39.921745,3.0031397,2.778758
-39.97614,3.0220144,2.8234391
-40.110924,3.0172143,2.8311958
-40.217003,3.0215096,2.8535037
-40.35053,3.0183623,2.86453
-40.41087,3.036787,2.9093318
-40.557114,3.0311513,2.9171538
-40.71615,3.0227106,2.9210877
-40.8452,3.0233612,2.9394083
-40.975334,3.0243478,2.9586134
-41.10295,3.0266438,2.9801893
-41.224407,3.0311847,3.005536
-41.34778,3.035794,3.0313435
-41.503887,3.0325232,3.045703
-41.61754,3.0408716,3.077896
-41.804146,3.0313587,3.083889
-41.97836,3.0259051,3.09649
-42.13273,3.0262122,3.1181374
-42.26525,3.0325723,3.1491508
-42.37849,3.0441556,3.1881995
-42.594208,3.0320687,3.1933093
-42.793716,3.0248883,3.2062387
-42.95831,3.0267487,3.2328186
-43.116558,3.03085,3.2631617
-43.28518,3.033395,3.291853
-43.49041,3.0287018,3.310956
-43.657524,3.033325,3.3438406
-43.909256,3.020639,3.3532882
-44.096516,3.022873,3.3842793
-44.29619,3.0234413,3.4136958
-44.470535,3.0301907,3.4522862
-44.756687,3.0151854,3.4621844
-44.97881,3.0144186,3.4923072
-45.15836,3.0231075,3.5358853
-45.35794,3.0287802,3.5762115
-45.592907,3.0286872,3.6098304
-45.878746,3.020237,3.633628
-46.110336,3.02325,3.6733546
-46.35836,3.0244193,3.7117467
-46.569057,3.0334873,3.7611566
-46.90782,3.0210593,3.7847857
-47.219025,3.0151377,3.8179803
-47.455162,3.0235572,3.8700552
-47.78322,3.0177512,3.9061618
-48.057285,3.0224812,3.9563456
-48.420704,3.014126,3.9925618
-48.93506,2.983654,4.005095
-49.58149,2.935265,3.9999185
-50.25425,2.8862495,3.9974556
-50.956295,2.8363678,3.9976544
-51.958324,2.7458768,3.9577165
5.155401,1.492713,2.8278666
5.0084248,1.4161496,2.6461458
4.987978,1.3233838,2.4477043
4.9612675,1.2312856,2.250002
4.8156757,1.1553917,2.0704408
4.9331264,1.0430794,1.8501515
4.945299,0.9448714,1.6454339
5.0028324,0.8396597,1.4323258
3.3860455,0.8894429,1.3189363
2.6581135,0.9081726,1.2604237
2.111353,0.9021964,1.1746802
0.81798935,1.0182362,1.2443142
0.24977112,1.0233214,1.1791568
0.7327137,0.8574009,0.897295
0.9601822,0.73138094,0.66484356
0.021886826,0.80318785,0.6901169
-2.4538708,1.1474915,1.0793576
-2.4072895,1.0595846,0.9027796
-4.163105,1.2950389,1.1609459
-8.1494255,1.8192012,1.7261882
-8.62538,1.5245156,1.0562477
-8.666227,1.4678864,0.9344578
-8.586205,1.3854916,0.7752123
-8.435646,1.2870655,0.59211063
-8.67918,1.2734895,0.53336287
-8.44845,1.1559386,0.32139826
-8.511116,1.1025293,0.20404005
-18.657288,2.9371562,2.690734
-18.87349,2.956166,2.7032046
-19.08723,2.9757159,2.7171297
-19.319857,3.0016317,2.7417421
-19.462082,3.0038302,2.7292323
-19.619051,3.0108879,2.7248526
-19.765932,3.0159113,2.7176185
-19.92125,3.0241275,2.715891
-20.056019,3.0271924,2.7062516
-20.207064,3.0357463,2.7058225
-20.334213,3.0379865,2.6955276
-20.461952,3.0410533,2.6868854
-20.5894,3.0446892,2.6794744
-20.716543,3.048891,2.6732926
-20.843372,3.0536587,2.6683354
-20.95877,3.0554745,2.6588197
-21.096882,3.0651543,2.6625323
-21.2015,3.0647392,2.649879
-21.316048,3.0680974,2.6437073
-21.4404,3.0753043,2.6441817
-21.527515,3.0706866,2.6252475
-21.639566,3.07493,2.6212792
-21.746326,3.0779471,2.6155014
-21.83709,3.075958,2.6015596
-21.944181,3.080143,2.5981722
-22.046871,3.0833294,2.593328
-22.136211,3.0822496,2.581499
-22.255486,3.092497,2.5889902
-22.341919,3.091339,2.5774174
-22.414478,3.0854313,2.5579534
-22.53275,3.0970416,2.5683994
-22.616985,3.0963848,2.5581956
-23.233131,3.1144066,2.5300078
-23.801807,3.1662695,2.5751934
-24.47049,3.1305084,2.4418645
-24.8624,3.0399022,2.231113
-25.23591,3.214928,2.5380974
-25.327744,3.17035,2.4441357
-25.348183,3.1493785,2.4019222
-25.386154,3.1385903,2.3779664
-25.421116,3.1260152,2.350843
-25.46939,3.1215057,2.338233
-25.510208,3.1125748,2.3177361
-25.545586,3.1003144,2.2912955
-25.568933,3.0804517,2.251203
-25.584782,3.0555964,2.202127
-25.601133,3.0307298,2.153026
-25.617989,3.0058527,2.1039038
-25.63594,2.981359,2.0554695
-25.660835,2.9611762,2.0148258
-25.652992,2.9185796,1.9336557
-25.645971,2.7975476,1.702107
-25.630096,2.746059,1.604631
-25.649876,2.7192543,1.5518951
-25.641567,2.6715167,1.4611359
-25.638712,2.626862,1.3759289
-25.623352,2.5719545,1.2720304
-25.627472,2.5306876,1.1928945
-25.626682,2.4848435,1.105391
-25.621685,2.4347901,1.0101776
-25.620956,2.3870625,0.9191575
-25.63161,2.3474598,0.8429208
-25.634998,2.3011801,0.7544737
-25.63692,2.2527275,0.6620226
-25.652924,2.2149823,0.5891051
-25.574034,2.096245,0.36805487
-35.40518,2.1001332,0.42080498
-35.458584,2.1104865,0.444386
-35.48172,2.142611,0.50752354
-35.516018,2.1663494,0.55545187
-35.48961,2.232278,0.67984676
-35.50641,2.2670522,0.74773836
-35.485455,2.327044,0.8612428
-35.467213,2.3840544,0.9692745
-35.507698,2.4009094,1.0046864
-35.545525,2.4194164,1.0431142
-35.475945,2.50755,1.2071567
-35.47788,2.5479956,1.2850776
-35.500214,2.5748475,1.3384833
-35.4687,2.6351,1.4519863
-35.467937,2.6751995,1.5291586
-35.478756,2.7075732,1.592412
-35.492043,2.7379992,1.6521511
-35.506607,2.767256,1.7097783
-35.479828,2.8205366,1.810431
-35.51472,2.836903,1.8449259
-35.518974,2.8708572,1.9108973
-35.546604,2.8910096,1.9521837
-35.553555,2.9226487,2.0139856
-35.61398,2.9240887,2.021922
-35.649254,2.9396422,2.0550785
-35.71306,2.9396229,2.0605593
-35.713013,2.9742606,2.1277294
-35.748867,2.9893258,2.16011
-35.736027,3.0299594,2.237875
-35.783478,3.0386477,2.258978
-35.843307,3.0410895,2.2690868
-35.89487,3.047989,2.2871604
-35.97513,3.0406365,2.2801414
-36.002155,3.0602028,2.3207226
-36.025307,3.0815544,2.3644686
-36.03524,3.1091664,2.4192386
-35.892513,3.2097685,2.602242
-35.98422,3.1971583,2.5862303
-36.01685,3.2128766,2.6200266
-36.017113,3.243587,2.680098
-36.044674,3.2614036,2.7175946
-36.06604,3.2819564,2.759892
-36.114532,3.2902043,2.7807484
-36.18313,3.2896714,2.7863894
-36.784946,3.055542,2.3860927
-36.862762,3.0543013,2.3913317
-36.960503,3.0449057,2.3825722
-37.010582,3.0563056,2.4099808
-37.121895,3.0421445,2.3932953
-37.182858,3.04956,2.4140463
-37.28176,3.0416336,2.4084716
-37.346786,3.0480125,2.4276834
-37.380547,3.0671797,2.4689584
-37.494183,3.0546453,2.4559412
-37.57434,3.0559173,2.4667706
-37.66893,3.0519753,2.468844
-37.762997,3.0487356,2.4722972
-37.831696,3.0555995,2.4931278
-37.904434,3.0612195,2.5119677
-37.942474,3.0799944,2.5532422
-38.017586,3.0852027,2.5716143
-37.950096,3.142359,2.6778383
-38.69606,2.9074936,2.2918057
-38.713566,2.9361942,2.3507757
-38.72646,2.9663346,2.4121614
-38.743813,2.9947276,2.4706068
-38.794823,3.0114508,2.5095563
-38.931732,2.9992566,2.5003924
-38.986885,3.0151434,2.5382361
-39.116005,3.006749,2.5358958
-39.172783,3.0226607,2.5740762
-39.3542,2.9985316,2.546258
-39.41622,3.0135396,2.5833292
-39.514877,3.017193,2.601871
-39.668602,3.0041661,2.5933084
-39.773727,3.006944,2.6109438
-39.880722,3.0096493,2.6287036
-39.98526,3.0135972,2.6487336
-40.1056,3.0133455,2.6622066
-40.194695,3.0228426,2.691718
-40.322365,3.021543,2.7040539
-40.383427,3.0399303,2.7483091
-40.51753,3.037854,2.7599506
-40.65455,3.0356407,2.7717185
-40.79006,3.034535,2.7856054
-40.929375,3.0330706,2.7992811
-41.05375,3.0363193,2.8207693
-41.150486,3.0474954,2.8550549
-41.35957,3.029641,2.844098
-41.45837,3.0414646,2.8800697
-41.61138,3.0398571,2.8954177
-41.771004,3.0373518,2.9098105
-41.98911,3.0211036,2.903469
-42.060062,3.0421665,2.9550843
-42.233192,3.0386949,2.9693642
-42.36628,3.0456753,3.0000763
-42.51507,3.0495715,3.0265064
-42.7193,3.0412807,3.0350108
-42.87127,3.0460486,3.0637565
-43.064117,3.0422873,3.0802417
-43.30742,3.0282397,3.0820694
-43.43769,3.0403676,3.123374
-43.663097,3.0324214,3.1355991
-43.833733,3.0373635,3.1674137
-44.056973,3.032028,3.1848745
-44.301216,3.0234625,3.1984472
-44.457382,3.0342093,3.240581
-44.669212,3.0344388,3.2682667
-44.95784,3.0204434,3.2765799
-45.133305,3.0301323,3.319252
-45.337273,3.035148,3.3560405
-45.53185,3.0429418,3.3974366
-45.777954,3.0420291,3.4276023
-46.09304,3.0296426,3.4430852
-46.340683,3.031113,3.4785585
-46.55593,3.039592,3.5244145
-46.82979,3.0388246,3.5588593
-47.166374,3.0285985,3.5820012
-47.414757,3.0350757,3.6283298
-47.69699,3.037118,3.6699991
-48.0567,3.027851,3.6984773
-48.37227,3.027541,3.739862
-48.677372,3.0304706,3.7867126
-48.99621,3.0327818,3.8342047
-49.40561,3.0228386,3.8682966
-49.73651,3.0267665,3.9209929
-50.12407,3.0239952,3.9673772
-50.79399,2.982365,3.9704323
-51.435486,2.9482684,3.9855747
-52.21379,2.898485,3.9863882
5.028013,1.7006831,2.753396
5.0000744,1.6091113,2.5561275
4.9835606,1.5159707,2.3571148
4.783224,1.4464185,2.1855373
4.8298244,1.3450513,1.9772282
4.9580517,1.2321277,1.754694
4.9027653,1.1434412,1.5610056
3.438425,1.1597311,1.4169912
3.056059,1.1224494,1.2921848
2.2156124,1.1550531,1.2588692
1.0957699,1.234323,1.2898984
0.8335991,1.1872633,1.1595697
0.30580902,1.1830606,1.0872393
0.8004093,1.0180736,0.80114937
0.9603386,0.90439606,0.58246326
0.07469559,0.962533,0.598135
-2.4134846,1.2952092,0.9963274
-3.8148441,1.455677,1.1645341
-2.8830662,1.2176127,0.7786312
-8.44491,1.6760173,1.0783954
-8.762754,1.6746554,1.0387354
-8.777967,1.613255,0.9099417
-8.483191,1.4875491,0.6840391
-8.726204,1.4724982,0.6250224
-8.603699,1.3808091,0.44980383
-8.510714,1.2943869,0.28218174
-18.561577,2.980817,2.6176772
-18.75754,2.9931319,2.621436
-18.904749,2.993625,2.6064453
-19.184286,3.0302775,2.6508632
-19.336739,3.0341268,2.6422563
-19.504766,3.04304,2.642336
-19.652061,3.0470915,2.6348062
-19.79023,3.0493388,2.6246376
-19.941238,3.0559497,2.6220202
-20.056938,3.0531764,2.6041532
-20.192467,3.056751,2.5971189
-20.33374,3.062727,2.594398
-20.45736,3.0641696,2.5843973
-20.582432,3.066679,2.5764556
-20.696926,3.0665874,2.564403
-20.785564,3.059041,2.540011
-23.99971,2.9070885,1.9354982
-24.752855,3.02235,2.1012821
-24.760029,2.9918284,2.0409694
-25.24158,3.2256696,2.461433
-25.362194,3.1971056,2.3964424
-25.334059,3.147713,2.3020968
-25.38643,3.14508,2.2930746
-25.436234,3.1411257,2.2816958
-25.47918,3.1331964,2.2631016
-25.520964,3.1246395,2.2434025
-25.55795,3.1131701,2.2184062
-25.579952,3.0922742,2.1761594
-25.594543,3.0664263,2.124833
-25.610268,3.0409439,2.074171
-25.624743,3.01429,2.0213528
-25.646221,2.9918728,1.9763165
-25.65536,2.960921,1.9155807
-25.626553,2.9037876,1.8066182
-25.659039,2.8485188,1.6972375
-25.637432,2.793645,1.5922813
-25.649366,2.7615168,1.5292506
-25.643818,2.7162366,1.4419088
-25.631117,2.664843,1.3432245
-25.630426,2.6212792,1.2589679
-25.632874,2.5792098,1.1774402
-25.627262,2.5301955,1.0830226
-25.628561,2.4854872,0.99653816
-25.620485,2.432562,0.89478874
-25.63012,2.3925006,0.8168521
-25.638622,2.350741,0.73574066
-25.635468,2.29867,0.6354599
-25.653986,2.2633054,0.56617594
-35.45528,2.1655648,0.4269066
-35.458252,2.2116642,0.51640606
-35.5019,2.228517,0.5519266
-35.47646,2.2929335,0.6751509
-35.52639,2.3047273,0.70135975
-35.480686,2.3808942,0.84610844
-35.514313,2.402796,0.8909192
-35.511036,2.448704,0.97987604
-35.501984,2.4975545,1.0741944
-35.488243,2.5485413,1.1723785
-35.49266,2.5871274,1.2477546
-35.449406,2.654895,1.3765883
-35.46649,2.6840901,1.4346628
-35.459503,2.7275898,1.518908
-35.48767,2.7491715,1.5630236
-35.498497,2.7808833,1.6256633
-35.501072,2.8170114,1.6963468
-35.508614,2.8497126,1.7607484
-35.521885,2.8786597,1.8182855
-35.54039,2.9042673,1.8697281
-35.553185,2.9327936,1.9264793
-35.571304,2.9580095,1.9772005
-35.600815,2.9766996,2.0160666
-35.62535,2.9979658,2.059627
-35.670918,3.0077794,2.0824342
-35.72919,3.010946,2.0932498
-35.780075,3.0182245,2.1115818
-35.8118,3.0355697,2.1481686
-35.8618,3.043482,2.167746
-35.92836,3.0431557,2.1725183
-35.972107,3.0545695,2.1985407
-36.00451,3.0716572,2.2348247
-36.036644,3.0888171,2.271266
-36.062828,3.1087914,2.3127894
-36.08724,3.1294887,2.3556252
-35.92321,3.239087,2.5578194
-35.99273,3.2374377,2.5604887
-36.01886,3.2561865,2.5997376
-36.024223,3.2843223,2.6557708
-36.045937,3.3047688,2.6980624
-36.073944,3.3222723,2.7351198
-36.110588,3.3358982,2.7653017
-36.165726,3.3414779,2.7812223
-36.898335,3.0549312,2.2787304
-36.95713,3.0626554,2.299302
-37.048553,3.0568202,2.2959538
-37.10977,3.0640922,2.3159275
-37.182495,3.0668423,2.3280087
-37.248394,3.0727031,2.345686
-37.309677,3.0806837,2.3671956
-37.409103,3.0736818,2.3624663
-37.523746,3.0612426,2.3483682
-37.61923,3.0569587,2.3487673
-37.740284,3.043337,2.3329988
-37.775345,3.0631914,2.3759189
-37.884274,3.055215,2.3703504
-37.92149,3.0745401,2.412506
-38.00832,3.0756078,2.4229789
-38.08562,3.0805593,2.4403415
-38.626617,2.9191277,2.1697364
-38.700386,2.927916,2.1945271
-38.724182,2.9545407,2.2502136
-38.74097,2.9834769,2.3098931
-38.772957,3.007018,2.3602982
-38.88172,3.0044622,2.365973
-38.949116,3.016336,2.3965607
-39.065773,3.0121152,2.3997726
-39.15,3.0191262,2.4223661
-39.30844,3.0024736,2.404869
-39.406578,3.0060294,2.422011
-39.5074,3.009193,2.438684
-39.574265,3.0234344,2.4742775
-39.708607,3.017068,2.4752593
-39.839027,3.0126116,2.479745
-39.924095,3.0224965,2.5085697
-40.075764,3.0129075,2.5049853
-40.176666,3.0190651,2.5280237
-40.278522,3.0253983,2.551569
-40.37609,3.0334203,2.5781384
-40.477207,3.0408602,2.6039567
-40.595978,3.0438075,2.622582
-40.74581,3.038739,2.6282902
-40.916363,3.0287943,2.6263576
-40.98166,3.0481272,2.6727352
-41.14121,3.0425742,2.678667
-41.26358,3.0476172,2.702219
-41.394142,3.051109,2.723556
-41.592316,3.0379205,2.718285
-41.734207,3.040022,2.7381358
-41.89891,3.0371268,2.750341
-42.051224,3.0381181,2.7691875
-42.21376,3.0373766,2.7856784
-42.35467,3.0426304,2.8121095
-42.494797,3.04874,2.8402686
-42.681805,3.0445774,2.8526554
-42.882034,3.0383306,2.8623095
-43.052223,3.0399308,2.884769
-43.242043,3.037979,2.902206
-43.43401,3.036511,2.9209456
-43.605827,3.0403898,2.9484744
-43.749878,3.051057,2.986898
-44.042343,3.0310245,2.979024
-44.20454,3.0396874,3.015524
-44.363052,3.049871,3.0548105
-44.68134,3.0284882,3.0473228
-44.93066,3.0225406,3.063871
-45.118076,3.0300145,3.1011062
-45.322613,3.0350814,3.1354156
-45.483707,3.0494115,3.1839485
-45.783394,3.0385227,3.1964102
-46.028378,3.039269,3.226706
-46.29076,3.038082,3.255105
-46.52095,3.043963,3.2944937
-46.779015,3.046074,3.3294058
-47.11973,3.0351927,3.3471103
-47.36393,3.042462,3.3912945
-47.65248,3.043519,3.4278722
-48.001,3.0361753,3.4541383
-48.277523,3.0422254,3.499885
-48.63344,3.0370572,3.5317593
-49.044888,3.0250509,3.5560737
-49.388927,3.0254626,3.5983906
-49.732224,3.0277154,3.6445708
-50.099045,3.0282207,3.6900215
-50.4768,3.0289898,3.7374468
-50.90352,3.0247164,3.7803116
-51.314907,3.024737,3.8304467
-51.7666,3.0213387,3.8783956
-52.170578,3.0265975,3.938868
4.8808384,1.8333716,2.477109
4.924387,1.7334399,2.2698517
4.946802,1.6356072,2.0649052
4.9314976,1.5421305,1.8652573
4.940256,1.4453473,1.6613541
4.9055195,1.3539419,1.4642925
4.9582844,1.2506685,1.2516956
3.3744526,1.3711319,1.3362765
2.3416958,1.4229581,1.3351307
1.552578,1.4454479,1.2982783
0.6324005,1.4910684,1.2963381
0.42708397,1.4355788,1.15765
0.8279381,1.2894032,0.89260006
0.9073467,1.1900926,0.69218063
-2.312437,1.5278406,1.0617433
-2.974327,1.5560765,1.0513563
-2.960373,1.4761553,0.8852463
-4.36878,1.5605695,0.9147515
-4.2728386,1.4693279,0.7338443
-6.1543636,1.7266166,1.0762014
-5.711506,1.5770547,0.8096366
-8.534531,1.8288987,1.0440421
-8.616999,1.7803626,0.93454933
-8.663498,1.7249017,0.8144126
-8.423201,1.611913,0.60394764
-8.630884,1.5882821,0.5337739
-8.452583,1.4858651,0.33917046
-8.488287,1.4268575,0.21313715
-18.487888,3.0000677,2.4739585
-18.570757,2.9823408,2.429584
-18.71519,2.980986,2.4129748
-18.965862,3.0084462,2.445395
-19.1581,3.0216968,2.4542913
-19.414227,3.0161042,2.418632
-23.357948,3.073004,2.1886797
-23.753036,3.1461875,2.304212
-24.685328,3.1029513,2.1491723
-25.349209,3.1692152,2.2352452
-25.37426,3.1502855,2.19622
-25.412697,3.139171,2.1717849
-25.454977,3.1303923,2.151743
-25.502846,3.125099,2.1382494
-25.547684,3.118081,2.1215763
-25.578142,3.1021578,2.088285
-25.599936,3.0806217,2.0445046
-25.613876,3.0537858,1.9908018
-25.628382,3.0269256,1.937047
-25.64578,3.0015745,1.8861146
-25.66371,2.9762144,1.8351645
-25.642738,2.924231,1.7342215
-25.656408,2.8948872,1.6757526
-25.644892,2.847633,1.5836077
-25.647272,2.8091905,1.5079899
-25.657139,2.7753553,1.4410167
-25.632809,2.716317,1.3265705
-25.63802,2.6775541,1.250258
-25.636074,2.6327739,1.1625795
-25.634108,2.58708,1.0731449
-25.632677,2.5408673,0.98269653
-25.636486,2.4977324,0.89802504
-25.626362,2.4428713,0.7911792
-25.64149,2.4067569,0.7197118
-25.64029,2.3568757,0.6222062
-25.659224,2.3222604,0.5535431
-35.40159,2.2579527,0.4690194
-35.458275,2.26567,0.48743248
-35.526752,2.2654068,0.49089622
-35.508354,2.3245065,0.60592365
-35.524727,2.3591301,0.67494154
-35.4541,2.4508638,0.85108805
-35.48051,2.4771605,0.904407
-35.468117,2.5282118,1.0041122
-35.502647,2.548379,1.0459337
-35.514656,2.5825768,1.1140289
-35.480663,2.6449175,1.2347388
-35.50545,2.6699038,1.2855515
-35.457985,2.7385273,1.4178658
-35.47998,2.7641015,1.4697299
-35.490883,2.7959645,1.5333238
-35.500484,2.8281446,1.5974922
-35.513203,2.8580692,1.657444
-35.524666,2.8883188,1.717988
-35.540634,2.9156187,1.7730322
-35.5567,2.9425364,1.8273597
-35.578087,2.966196,1.8756323
-35.6023,2.988074,1.9206028
-35.628086,3.0089076,1.963644
-35.652824,3.0301292,2.0074153
-35.687218,3.0460846,2.0414486
-35.729446,3.0579033,2.0678582
-35.774925,3.0680943,2.0912995
-35.857872,3.0592935,2.0797257
-35.89582,3.0736637,2.1109943
-35.9564,3.0767713,2.121542
-36.000347,3.0883155,2.1476927
-36.086914,3.0792072,2.1358995
-36.14355,3.0850224,2.1516466
-36.204464,3.089011,2.1641045
-35.973476,3.2303376,2.4285026
-35.98178,3.2576838,2.4836478
-36.009777,3.2756994,2.5217
-36.040382,3.2924504,2.5574584
-36.092648,3.2994359,2.5754056
-36.061115,3.3437603,2.6615353
-36.091442,3.3602896,2.696926
-36.127457,3.3743122,2.7277775
-36.168514,3.3861928,2.7547703
-36.92395,3.0954921,2.2322807
-36.994995,3.098394,2.2437267
-37.085133,3.093707,2.2415204
-37.170235,3.0915778,2.2440758
-37.266315,3.0854464,2.2395225
-37.351177,3.084344,2.2441921
-37.437805,3.082972,2.2485008
-37.540245,3.0758607,2.2426076
-37.661057,3.0622253,2.2251468
-37.739937,3.065347,2.237965
-37.811035,3.0717647,2.2568111
-37.910763,3.0677824,2.2571416
-37.950962,3.0863008,2.297853
-38.016552,3.0955772,2.3221126
-38.041862,3.1196127,2.3727689
-38.690254,2.921471,2.0281029
-38.711044,2.9494755,2.0864682
-38.72484,2.9797616,2.1488843
-38.747116,3.00692,2.205751
-38.842995,3.0089128,2.2181396
-38.946487,3.0088046,2.226982
-39.138306,3.0151,2.2566552
-39.224823,3.021967,2.2782683
-39.40797,2.9982333,2.246419
-39.450294,3.0202029,2.2948375
-39.549866,3.0242884,2.3121
-39.702248,3.0125089,2.3019133
-39.79631,3.019393,2.3244576
-39.93752,3.0124638,2.323217
-40.03103,3.0205069,2.348164
-40.147003,3.0223386,2.362557
-40.28048,3.0196424,2.3693738
-40.33699,3.0397367,2.4156313
-40.46558,3.0395155,2.4271417
-40.562073,3.0489266,2.45539
-40.721756,3.0412712,2.4547043
-40.851944,3.0425203,2.4695153
-40.979706,3.0450633,2.4867954
-41.144875,3.038267,2.488532
-41.214474,3.0574572,2.5345101
-41.395317,3.0480034,2.5323896
-41.53908,3.0490081,2.5482397
-41.749462,3.0338874,2.5374188
-41.881294,3.039507,2.5617042
-42.01687,3.044826,2.5857882
-42.180634,3.0439415,2.5998945
-42.32654,3.0481594,2.6228228
-42.483543,3.050458,2.6429343
-42.64441,3.0526252,2.6632094
-42.850338,3.0452223,2.6682253
-42.99432,3.0529382,2.6984024
-43.25615,3.0349803,2.6872559
-43.42737,3.0384102,2.7113895
-43.626522,3.0366054,2.7275352
-43.72404,3.0575802,2.780744
-44.012775,3.0385563,2.7703137
-44.138298,3.0550396,2.8171458
-44.456985,3.0324636,2.802487
-44.645462,3.0379007,2.8328767
-44.883816,3.0343325,2.849681
-45.140396,3.028406,2.863501
-45.31544,3.0395262,2.904533
-45.554726,3.0392683,2.9285145
-45.802826,3.0385647,2.952537
-46.030376,3.0428915,2.985003
-46.252426,3.0493371,3.0213904
-46.507935,3.050907,3.0511265
-46.717934,3.0617304,3.09555
-47.12481,3.039628,3.0916657
-47.39174,3.0433836,3.1273756
-47.66368,3.047632,3.1647134
-48.01748,3.0398278,3.1854439
-48.306297,3.0442908,3.225152
-48.61748,3.0466554,3.262888
-49.038975,3.0334551,3.2796507
-49.383663,3.034135,3.317544
-49.762527,3.0314374,3.3520355
-50.139793,3.030894,3.390975
-50.48432,3.0369704,3.4404564
-50.957428,3.0266027,3.4690757
-51.325798,3.0331619,3.522294
-51.762604,3.0322704,3.5672011
-52.131317,3.0426435,3.6286879
4.9320087,2.0212996,2.3846874
4.9902897,1.9199934,2.1747313
4.9861774,1.8254609,1.9733906
4.9718304,1.7319112,1.7733002
4.946306,1.6395364,1.5747786
4.9683094,1.541023,1.3678417
4.941946,1.448319,1.1688004
3.5673885,1.532723,1.2185574
4.8928814,1.2619264,0.7693701
3.564085,1.3471437,0.8253927
1.4229774,1.5529413,1.0607123
0.2797928,1.6280637,1.1129589
0.25312233,1.5469689,0.939188
-1.5774555,1.7329688,1.1619344
-2.264658,1.7563379,1.147594
-3.0095692,1.7921557,1.1542735
-3.6742783,1.8193295,1.1502376
-4.1986313,1.8275976,1.1194091
-4.664776,1.8291073,1.0798011
-5.5225697,1.8976865,1.1454697
-5.755741,1.8659132,1.0573902
-5.799471,1.8027945,0.9208317
-8.368797,1.9871259,1.0746584
-8.761143,1.995482,1.0568447
-8.758398,1.9313421,0.92287064
-8.488049,1.8156023,0.70501804
-8.670691,1.7860768,0.6270008
-8.696453,1.7263212,0.4998889
-8.471273,1.6160355,0.28965187
-18.555952,3.0099895,2.311408
-23.276463,3.0544717,2.0357208
-24.631208,3.0853276,2.0092225
-25.32843,3.1648731,2.1269612
-25.377773,3.1598315,2.1140738
-25.417244,3.1490822,2.090375
-25.470303,3.1465425,2.082323
-25.511765,3.1371527,2.0612798
-25.557543,3.130481,2.045443
-25.586056,3.113133,2.0092983
-25.597733,3.0849771,1.9525595
-25.614122,3.0594163,1.9007621
-25.629887,3.033088,1.847496
-25.649094,3.0086374,1.7978115
-25.649944,2.9716318,1.7241368
-25.628407,2.9188733,1.6203208
-25.649685,2.8942716,1.5703087
-25.638645,2.846974,1.4768639
-25.638096,2.8060822,1.3956437
-25.634125,2.761981,1.3082495
-25.632807,2.7189205,1.222816
-25.631424,2.674964,1.1356382
-25.63744,2.6355927,1.0572248
-25.62439,2.581202,0.94996786
-25.621494,2.5333385,0.8551984
-25.622822,2.4877207,0.7647104
-25.645107,2.4574814,0.7037482
-25.639297,2.4045289,0.59911966
-25.635258,2.3518271,0.49493837
