x,y,z
-28.058708,1.5980573,2.796229
-28.063164,1.522974,2.710431
-28.073988,1.4589169,2.6363049
-28.077051,1.3752148,2.5411735
-28.080082,1.2881603,2.4423714
-28.078348,1.186614,2.3279796
-28.0461,1.0088997,2.1319127
-28.08794,1.0022347,2.1189008
-28.129616,0.99501896,2.1054144
-28.172445,0.9905391,2.0949826
-28.218912,0.99538827,2.0947018
-28.261038,0.98916245,2.0826426
-28.303743,0.98436284,2.072236
-28.349144,0.9869368,2.0699015
-28.384941,0.9625361,2.0385842
-28.433638,0.9745934,2.0467367
-28.469715,0.94971275,2.0150986
-29.209146,2.9178464,4.1351357
-29.256695,2.9865372,4.207076
-29.282991,2.986269,4.2043343
-29.307228,2.978752,4.1937933
-29.32524,2.9479938,4.158045
-29.358355,2.9725547,4.182514
-29.383734,2.9685535,4.175998
-29.413116,2.9806259,4.187063
-29.439117,2.9794328,4.183757
-29.464981,2.977639,4.1798677
-29.491457,2.978585,4.1790395
-29.518616,2.9829435,4.1820135
-29.54448,2.9813542,4.178568
-29.572824,2.9925487,4.189166
-29.598497,2.990429,4.1852903
-29.624321,2.9890447,4.182289
-29.6505,2.9897375,4.181634
-29.67677,2.9911692,4.181859
-29.702507,2.9893153,4.1785593
-29.727991,2.9855144,4.173197
-29.753448,2.9811068,4.167238
-29.78072,2.9908652,4.176882
-29.806585,2.9899497,4.1748962
-29.831966,2.984397,4.1678953
-29.858093,2.985629,4.1684084
-29.884077,2.9855847,4.167591
-29.910114,2.9862795,4.167658
-29.93676,2.9957833,4.177472
-29.963701,3.0127573,4.1955643
-29.989548,3.0150023,4.1975546
-30.01502,3.0099134,4.191557
-30.040604,3.0055623,4.1864405
-30.066298,3.0026226,4.1829453
-30.091927,2.9936914,4.1729364
-30.117773,2.9908838,4.1697273
-30.143671,2.9894884,4.1681404
-30.16958,2.9895053,4.1681767
-30.195492,2.9895887,4.168358
-30.221384,2.9904122,4.1694236
-30.247307,2.9899557,4.169153
-30.273293,2.9882212,4.16755
-30.299446,2.9838614,4.1631365
-30.325596,2.9809155,4.160347
-30.35143,2.983418,4.1636143
-30.377636,2.9806066,4.1611156
-30.404636,2.9691238,4.149172
-30.430954,2.967123,4.147712
-30.456755,2.9705667,4.1523
-30.482199,2.9767632,4.159978
-30.50818,2.9776502,4.1619005
-30.533545,2.9833035,4.169121
-30.55909,2.9870064,4.1742725
-30.58575,2.982724,4.170744
-30.613527,2.9718056,4.160023
-30.641386,2.9616344,4.1502028
-30.66746,2.9629307,4.153013
-30.693634,2.9636245,4.1552362
-30.719929,2.9637158,4.1568747
-30.74782,2.9558463,4.149886
-30.770992,2.9714603,4.168629
-30.798092,2.967742,4.1663246
-30.824808,2.9661007,4.1663632
-30.85749,2.9391603,4.138893
-30.884165,2.9390104,4.140727
-30.909004,2.9462655,4.1507006
-30.937363,2.9395866,4.1455746
-30.962618,2.9449732,4.153655
-30.988708,2.9470952,4.1582556
-31.016293,2.9439645,4.1572247
-31.044329,2.93958,4.154914
-31.077497,2.9186733,4.1347704
-31.105421,2.9157836,4.1342616
-31.130625,2.921587,4.1432457
-31.154858,2.9301019,4.1552315
-31.180748,2.9333792,4.161618
-31.207283,2.934739,4.166005
-31.23427,2.9348474,4.169119
-31.265135,2.9244685,4.161007
-31.296183,2.9141812,4.1530943
-31.322601,2.916502,4.1588445
-31.352095,2.9109945,4.1562586
-31.38169,2.905572,4.1538553
-31.407602,2.9094276,4.1614957
-31.43897,2.9002295,4.1552253
-31.477535,2.8747454,4.131632
-31.50937,2.8657546,4.1258116
-31.537271,2.866013,4.129969
-31.565773,2.8650413,4.1328993
-31.592173,2.8687134,4.1408615
-31.617592,2.874408,4.1510487
-31.645754,2.8743095,4.1551523
-31.68353,2.8547926,4.1387424
-31.714808,2.8490329,4.137047
-31.74917,2.837532,4.129382
-31.775658,2.8416758,4.1383657
-31.799004,2.851705,4.153635
-31.831575,2.8443573,4.1506553
-31.862867,2.8396873,4.1506042
-31.903206,2.819018,4.133853
-31.938444,2.8081303,4.1275163
-31.968338,2.8069837,4.1315074
-31.997885,2.8065636,4.1363516
-32.024788,2.8107066,4.1460543
-32.053173,2.8123636,4.153246
-32.094433,2.7930462,4.138706
-32.131668,2.7808797,4.131755
-32.165104,2.7751966,4.131665
-32.19905,2.768981,4.1311426
-32.228165,2.7704782,4.1387057
-32.256016,2.7739546,4.148402
-32.298603,2.7553973,4.1355095
-32.33424,2.747711,4.133955
-32.372612,2.736362,4.1287775
-32.405045,2.7339396,4.13288
-32.434425,2.7360053,4.141677
-32.463333,2.73878,4.15129
-32.49992,2.731011,4.150275
-32.543983,2.7133808,4.139396
-32.5851,2.700268,4.1332707
-32.623158,2.6916475,4.1318502
-32.65378,2.6930766,4.140705
-32.689663,2.6877851,4.1429043
-32.73484,2.670874,4.1335826
-32.77835,2.6565921,4.1270823
-32.82852,2.6344674,4.112932
-32.8581,2.6383162,4.124875
-32.88712,2.64286,4.137604
-32.93135,2.6291437,4.132331
-32.981983,2.6082664,4.120165
-33.02777,2.5936666,4.114416
-33.062805,2.5919871,4.1215677
-33.095757,2.5928414,4.131336
-33.13938,2.5817037,4.129494
-33.197193,2.5550363,4.11269
-33.23751,2.548458,4.1156964
-33.27575,2.5444183,4.1213307
-33.310196,2.544699,4.131293
-33.36193,2.5265608,4.1236277
-33.410027,2.5127916,4.120398
-33.45211,2.505742,4.1238227
-33.49317,2.500025,4.128697
-33.544132,2.4843893,4.124298
-33.59825,2.465994,4.117514
-33.660282,2.4401522,4.1039395
-33.700294,2.4368758,4.1119475
-33.74869,2.4255338,4.1125407
-33.811066,2.4009328,4.1009364
-33.858124,2.3917313,4.1040134
-33.90533,2.3827,4.1074595
-33.955135,2.371523,4.109129
-34.002033,2.3634207,4.1138687
-34.065857,2.3399258,4.104664
-34.114388,2.3310578,4.109182
-34.162426,2.3229408,4.1146092
-34.240448,2.2881374,4.095996
-34.284473,2.2844381,4.1059647
-34.31826,2.2899847,4.124467
-34.372707,2.277503,4.126908
-34.437782,2.256191,4.121714
-34.48283,2.252602,4.1326423
-34.544456,2.2351346,4.131468
-34.602356,2.2212713,4.133791
-34.67318,2.1970305,4.127285
-34.727535,2.1869912,4.1335816
-34.780006,2.1788235,4.1417766
-34.863274,2.1459723,4.128836
-34.93194,2.1256027,4.1271276
-34.980904,2.1214468,4.1397033
-35.06184,2.09228,4.1311526
-35.156464,2.0530868,4.114534
-35.217968,2.0404208,4.120891
-35.29518,2.016069,4.1177444
-35.38339,1.9839355,4.1085167
-35.447796,1.9704932,4.115351
-35.52817,1.9455007,4.1129727
-35.605297,1.9235221,4.1135306
-35.671852,1.9098619,4.1213307
-35.76848,1.8746928,4.1119986
-35.83702,1.8605882,4.1202736
-35.96761,1.8024619,4.093548
-36.05534,1.7759361,4.0928826
-36.161278,1.7372212,4.083058
-36.233368,1.7229724,4.0931807
-36.358215,1.6726375,4.0754313
-36.453556,1.6435807,4.0750346
-36.56293,1.6056528,4.068356
-36.64996,1.5836289,4.074572
-36.75104,1.5527606,4.0745645
-36.852528,1.5223355,4.0755186
-36.957493,1.4903231,4.0759096
-37.063644,1.4582679,4.076926
-37.18344,1.418113,4.072615
-37.284977,1.3905447,4.078324
-37.433205,1.3339219,4.063491
-37.541916,1.3033793,4.068508
-37.688232,1.2500088,4.0578494
-37.81931,1.20719,4.0556774
-37.953304,1.163491,4.0537567
-38.097454,1.1145248,4.049048
-38.26554,1.0520756,4.0359764
-38.373783,1.0268352,4.0496097
-38.531784,0.9725728,4.044214
-38.737656,0.8911164,4.021591
-38.871773,0.8533032,4.029553
-39.067833,0.7803023,4.0151887
-25.980495,1.6019266,3.2033844
-25.976206,1.5497158,3.1398
-26.249947,1.7942364,3.3658724
-26.319822,1.8236129,3.3827815
-26.400131,1.865216,3.412023
-26.469471,1.8957617,3.4307594
-26.522213,1.9085634,3.4322886
-26.605026,1.9558575,3.4682002
-26.63756,1.9467893,3.4485393
-26.771431,2.055091,3.5458398
-26.814125,2.059173,3.5398054
-26.861345,2.0688581,3.5395393
-26.912447,2.0835721,3.5445046
-26.96229,2.097247,3.548636
-27.006924,2.1049845,3.5469823
-27.050926,2.1122575,3.54503
-27.1352,2.1706069,3.5949879
-27.1814,2.1819613,3.5976305
-27.318932,2.311766,3.7209988
-27.397236,2.367497,3.7695327
-27.484869,2.4371605,3.8326778
-27.535343,2.4588566,3.8471127
-27.618298,2.5254421,3.9078383
-27.66765,2.5475883,3.9232488
-27.72465,2.581132,3.950612
-27.775787,2.6074028,3.9707112
-27.822117,2.6276083,3.9847498
-27.87111,2.6523657,4.003694
-27.917126,2.6735363,4.019116
-27.962774,2.6948714,4.0348945
-28.001833,2.706922,4.0411744
-27.744768,2.2629457,3.5712008
-27.764202,2.2384777,3.5387068
-27.801973,2.242515,3.536118
-28.047735,2.5820603,3.8859935
-27.877268,2.250929,3.5316782
-27.865047,2.1726232,3.4427066
-27.892616,2.159149,3.4219975
-27.915936,2.1380782,3.3933249
-27.941431,2.1202395,3.368115
-27.963243,2.095411,3.3355484
-27.98582,2.0712519,3.3037233
-28.009493,2.048408,3.2733326
-28.021822,2.0037544,3.2197552
-28.04711,1.9822428,3.190835
-28.037039,1.8918352,3.0883822
-28.03736,1.8187096,3.004261
-28.043756,1.7551873,2.9303288
-28.057253,1.7038975,2.8694525
-28.055717,1.6195574,2.773067
-28.066938,1.5591085,2.7022552
-28.07828,1.496675,2.6292672
-28.076813,1.4036567,2.5232806
-28.077795,1.3124862,2.4191742
-28.09225,1.2485828,2.3444152
-28.045185,1.0379157,2.110937
-28.068527,0.98686004,2.049858
-28.114365,0.988755,2.0461702
-28.163029,0.99797225,2.0505605
-28.206661,0.9948859,2.0417428
-28.247332,0.98404694,2.0246205
-28.292576,0.9851186,2.020565
-28.334206,0.97645974,2.0060434
-28.37597,0.9679041,1.9917469
-28.420603,0.96734905,1.9862905
-28.458134,0.94583726,1.9580789
-29.181177,2.9322982,4.1215363
-29.22163,2.975398,4.1660748
-29.262321,3.0219417,4.2145348
-29.286556,3.0150642,4.204586
-29.3124,3.0135403,4.200572
-29.335543,3.0021496,4.1857986
-29.364855,3.0133433,4.1958923
-29.390224,3.0100324,4.190132
-29.417784,3.0154119,4.1939983
-29.444132,3.0162196,4.192913
-29.470459,3.0170956,4.1919775
-29.49721,3.0200362,4.193391
-29.523336,3.0203867,4.192025
-29.549995,3.0234678,4.1937437
-29.576206,3.0246215,4.1934104
-29.601648,3.0218484,4.188814
-29.627962,3.0238042,4.189511
-29.653788,3.0231628,4.1874113
-29.67994,3.0245888,4.187667
-29.706161,3.02675,4.1888094
-29.731302,3.0216374,4.1819773
-29.755817,3.0112453,4.1693697
-29.783335,3.0236254,4.1820354
-29.809086,3.0227163,4.180064
-29.83528,3.025884,4.182678
-29.861416,3.0291197,4.1854415
-29.887312,3.0304174,4.1861286
-29.912807,3.0270996,4.1817703
-29.938168,3.021171,4.1745872
-29.965143,3.0393956,4.194254
-29.991257,3.047654,4.202944
-30.016521,3.040585,4.194706
-30.042206,3.041614,4.1955194
-30.067833,3.04137,4.194989
-30.093334,3.034497,4.1871758
-30.118946,3.0270195,4.1787615
-30.1447,3.0249643,4.176432
-30.170473,3.024984,4.1764746
-30.196331,3.0197139,4.170718
-30.222181,3.018527,4.1695623
-30.247831,3.0241013,4.1759777
-30.273804,3.0197,4.171397
-30.299618,3.0200515,4.172159
-30.325186,3.024484,4.177517
-30.351225,3.0209527,4.1741133
-30.377327,3.0174897,4.1708574
-30.40372,3.0114188,4.1647844
-30.429907,3.0087614,4.162565
-30.45607,3.0068398,4.161235
-30.48242,3.00365,4.158572
-30.508503,3.0032017,4.1590166
-30.534163,3.0061598,4.1633043
-30.558662,3.0171947,4.1765985
-30.586218,3.0062654,4.1656594
-30.613028,3.0014148,4.1615233
-30.641356,2.987967,4.147961
-30.66772,2.9872637,4.1485624
-30.692156,2.9972892,4.1610837
-30.718714,2.9953856,4.1605015
-30.746374,2.9882278,4.1541967
-30.77152,2.9937851,4.161993
-30.795994,3.0020647,4.172856
-30.826202,2.984487,4.1553006
-30.855782,2.9709837,4.142326
-30.88268,2.9695125,4.1426806
-30.90894,2.9707656,4.1461062
-30.933964,2.9767268,4.154778
-30.96284,2.9681761,4.14758
-30.984274,2.9868467,4.1703405
-31.01131,2.9850554,4.1707096
-31.04448,2.9628472,4.1487856
-31.073383,2.9559326,4.1437182
-31.09825,2.962299,4.153268
-31.124937,2.9627914,4.1564617
-31.15228,2.9613774,4.157649
-31.177628,2.965961,4.165461
-31.201748,2.9738963,4.1769953
-31.23189,2.9648056,4.1700444
-31.264132,2.9505525,4.157571
-31.29415,2.942956,4.152442
-31.323034,2.9387233,4.1510615
-31.347853,2.9450438,4.1612215
-31.372835,2.9507709,4.1708026
-31.400702,2.949375,4.172738
-31.431637,2.9408784,4.167076
-31.467234,2.9220471,4.1503468
-31.5,2.9104934,4.1415987
-31.532974,2.8990407,4.133072
-31.55869,2.9039278,4.1422486
-31.587067,2.9030404,4.1452875
-31.611443,2.9106545,4.1575427
-31.641684,2.9060311,4.156734
-31.683237,2.878876,4.1318808
-31.710909,2.8802686,4.1377354
-31.739895,2.8791566,4.140995
-31.770931,2.8742635,4.14031
-31.800346,2.8726768,4.1432495
-31.82771,2.875026,4.15047
-31.857162,2.8736012,4.1537595
-31.895985,2.8556156,4.1395726
-31.928196,2.8499084,4.1385403
-31.958664,2.8474908,4.141095
-31.98956,2.8445241,4.1431704
-32.020897,2.8410127,4.144771
-32.046898,2.84649,4.155938
-32.084946,2.8323662,4.1465807
-32.12523,2.8152046,4.13418
-32.160984,2.8057704,4.1300287
-32.18917,2.808447,4.138667
-32.2165,2.812461,4.148788
-32.247948,2.810255,4.1525106
-32.287907,2.7955804,4.1433773
-32.32469,2.78606,4.1397476
-32.36425,2.7729049,4.1324906
-32.394386,2.7736316,4.139736
-32.426296,2.7719493,4.1445947
-32.461838,2.7653828,4.144535
-32.499317,2.756446,4.142169
-32.54247,2.740191,4.1324434
-32.58311,2.7278035,4.126852
-32.620213,2.720499,4.126609
-32.649372,2.7237988,4.137307
-32.68377,2.7204108,4.1413026
-32.72648,2.7066908,4.134947
-32.77089,2.6912832,4.1270595
-32.812103,2.6803164,4.1238384
-32.852505,2.670714,4.122157
-32.885498,2.6703858,4.12995
-32.92361,2.66408,4.1318736
-32.973164,2.6445603,4.1207404
-33.011086,2.639144,4.1238823
-33.048584,2.6344562,4.127897
-33.087227,2.6286874,4.130983
-33.125977,2.6230485,4.1343503
-33.182625,2.5977514,4.1184883
-33.234245,2.5786588,4.10899
-33.261486,2.5866199,4.1262507
-33.301342,2.5809562,4.130275
-33.345207,2.57127,4.1305385
-33.40614,2.5439634,4.113864
-33.442524,2.542909,4.1229186
-33.476643,2.5443296,4.134505
-33.533268,2.5229177,4.124231
-33.596058,2.4958615,4.108807
-33.64697,2.4813461,4.1056886
-33.691612,2.473442,4.1091084
-33.742947,2.4592943,4.1067863
-33.788506,2.4511456,4.110385
-33.84146,2.4362118,4.1077766
-33.88856,2.4272547,4.111038
-33.935196,2.4190452,4.1152124
-34.00114,2.3932002,4.103125
-34.04943,2.3842328,4.107074
-34.092216,2.3805823,4.1161714
-34.136967,2.3753724,4.124014
-34.195793,2.3578284,4.1207085
-34.265785,2.3308897,4.1090846
-34.311695,2.325694,4.1176677
-34.342113,2.3341737,4.1388865
-34.42925,2.2939095,4.1160917
-34.47426,2.2903938,4.1268992
-34.52528,2.2820172,4.133547
-34.594418,2.258815,4.1271887
-34.667927,2.2325706,4.118488
-34.721603,2.2232141,4.1251364
-34.771355,2.2173676,4.135143
-34.850548,2.188088,4.1248226
-34.91301,2.1728306,4.127184
-34.97708,2.1567311,4.129138
-35.057373,2.1283793,4.1208277
-35.12201,2.1128364,4.1239877
-35.190388,2.094852,4.125398
-35.283768,2.0582986,4.111357
-35.357777,2.03718,4.110935
-35.40851,2.034019,4.1260557
-35.504547,1.9974658,4.1134334
-35.580887,1.9762065,4.1141224
-35.652447,1.9589714,4.1185756
-35.745415,1.9267349,4.111059
-35.81829,1.9096184,4.1164775
-35.934177,1.8624301,4.097809
-35.998104,1.8528094,4.1102653
-36.126213,1.7987354,4.0872993
-36.20941,1.77684,4.090862
-36.30419,1.7475574,4.0890408
-36.42128,1.7037787,4.076347
-36.52302,1.6712816,4.073228
-36.63054,1.6356606,4.0682964
-36.7278,1.6076317,4.069903
-36.8262,1.5795202,4.0720396
-36.904858,1.5649486,4.085102
-37.03263,1.519062,4.074926
-37.125114,1.496768,4.0832953
-37.27037,1.4414904,4.0676427
-37.377792,1.4111977,4.0714297
-37.48875,1.3794031,4.0747957
-37.661987,1.3097126,4.0512857
-37.755657,1.2903371,4.0652742
-37.925533,1.224998,4.0469465
-38.059296,1.182811,4.046209
-38.217754,1.1267138,4.0365767
-38.341293,1.0925543,4.0433207
-38.518036,1.0277641,4.029727
-38.673553,0.9767003,4.0267553
-38.80594,0.9401479,4.0346904
-38.992138,0.87341833,4.0232716
-39.141197,0.82924795,4.028157
-25.960907,1.6662045,3.2247
-26.005743,1.6660645,3.2118592
-26.026989,1.6413169,3.1749187
-26.26067,1.8416433,3.3606129
-26.335484,1.8761003,3.3830838
-26.431059,1.9340026,3.4292254
-26.489891,1.9530439,3.437079
-26.573652,2.00033,3.4734368
-26.614029,2.0001462,3.4625907
-26.74355,2.1013265,3.5538125
-26.795612,2.1160288,3.5585265
-26.842241,2.1248994,3.5575614
-26.891787,2.1375465,3.560605
-26.933489,2.141302,3.5548172
-26.980143,2.1512465,3.5554843
-27.021637,2.1552804,3.5503001
-27.062063,2.1582294,3.544158
-27.150715,2.2216449,3.6001635
-27.281258,2.339789,3.712843
-27.332922,2.3599944,3.725309
-27.4244,2.4325082,3.7919874
-27.500633,2.4869819,3.8404465
-27.572243,2.5368454,3.884482
-27.63066,2.5703483,3.9118495
-27.683983,2.5978975,3.9332743
-27.732807,2.6200747,3.9493194
-27.78787,2.6517336,3.9754758
-27.836714,2.6755252,3.993628
-27.889025,2.7050977,4.018046
-27.933155,2.7236423,4.031091
-27.972334,2.7354712,4.0372367
-28.00922,2.7443027,4.0403643
-27.74536,2.2938035,3.558114
-27.768002,2.2744784,3.5308423
-27.80494,2.277202,3.5269961
-28.048323,2.610106,3.874075
-27.885624,2.2943325,3.5320988
-27.873203,2.2165163,3.4427795
-27.899136,2.2005804,3.419372
-27.923464,2.1815264,3.392686
-27.946634,2.159976,3.3633747
-27.971968,2.141641,3.3375502
-27.994038,2.1169863,3.3049889
-28.01406,2.0878983,3.2676911
-28.028347,2.0473366,3.2180543
-28.046377,2.0125175,3.1745996
-28.031548,1.9136848,3.0620008
-28.039125,1.8550777,2.9927397
-28.049963,1.8009143,2.9282374
-28.054407,1.7319338,2.847629
-28.070019,1.6834788,2.789235
-28.067434,1.5950632,2.6873817
-28.077808,1.531055,2.6119819
-28.078926,1.4443986,2.5118546
-28.078049,1.3498919,2.4030628
-28.083912,1.2669349,2.306777
-28.074469,1.1450212,2.1678162
-28.057562,1.0002494,2.0036726
-28.100683,0.9949274,1.9921336
-28.143097,0.987766,1.9786959
-28.18434,0.97745776,1.9619174
-28.231258,0.98158264,1.9611101
-28.272947,0.9721427,1.945518
-28.315266,0.9641111,1.9315867
-28.367989,0.9849336,1.9495702
-28.413042,0.984987,1.9448113
-28.453857,0.9727249,1.9265819
-28.477339,0.90749836,1.8499336
-29.183603,2.9626322,4.1181326
-29.235102,3.0408926,4.202146
-29.264095,3.0497386,4.2094846
-29.289059,3.045523,4.2024345
-29.315214,3.0453162,4.199897
-29.341366,3.0451784,4.197509
-29.36681,3.0424747,4.1923428
-29.392805,3.0418134,4.189515
-29.419794,3.0451765,4.1912355
-29.446241,3.046632,4.19091
-29.472658,3.0481584,4.1907363
-29.499485,3.0517364,4.1929216
-29.525534,3.052081,4.191579
-29.551302,3.0511703,4.1889086
-29.57721,3.0509882,4.187121
-29.60324,3.0515351,4.186218
-29.62961,3.054138,4.187681
-29.655594,3.054822,4.1870747
-29.68156,3.0555735,4.186614
-29.70751,3.056392,4.1863003
-29.733727,3.059269,4.1883593
-29.756233,3.0350013,4.160119
-29.785744,3.0632372,4.190694
-29.810804,3.0576842,4.18353
-29.836676,3.0588388,4.1839437
-29.861998,3.0547438,4.178548
-29.888227,3.0600195,4.1837173
-29.914145,3.062704,4.186055
-29.940302,3.0694451,4.1930103
-29.966635,3.0809107,4.205333
-29.991707,3.073155,4.196179
-30.01737,3.0754423,4.1983523
-30.042969,3.0771306,4.1999226
-30.068386,3.0735614,4.1956663
-30.093708,3.0620718,4.1825953
-30.119282,3.0553055,4.1748896
-30.144981,3.0525975,4.1718044
-30.170692,3.0552795,4.1748333
-30.196375,3.0566964,4.1765127
-30.222033,3.0581796,4.178335
-30.247753,3.057067,4.1773157
-30.273438,3.057351,4.1779327
-30.299084,3.0583668,4.179437
-30.324991,3.0547915,4.175865
-30.350779,3.053944,4.175421
-30.376583,3.0531635,4.1751213
-30.403551,3.039154,4.1600685
-30.429312,3.040503,4.162298
-30.455532,3.037268,4.1594615
-30.481363,3.0380864,4.161236
-30.507505,3.036315,4.160181
-30.533247,3.0379305,4.1629877
-30.557482,3.05023,4.1778145
-30.583961,3.0460029,4.174222
-30.611145,3.037868,4.1663346
-30.639353,3.0245037,4.1526823
-30.664673,3.0291076,4.1591806
-30.6904,3.0311253,4.16286
-30.71686,3.0292377,4.162249
-30.744823,3.0201426,4.153673
-30.768639,3.0316226,4.1681175
-30.793995,3.0352285,4.1738453
-30.823814,3.0190833,4.157645
-30.851574,3.012927,4.1526556
-30.878471,3.0108054,4.152234
-30.903393,3.016666,4.160762
-30.931,3.0120473,4.157713
-30.957256,3.0127711,4.160675
-30.97924,3.0286946,4.180573
-31.008406,3.0190248,4.1721454
-31.039717,3.0028706,4.156622
-31.06645,3.002565,4.158745
-31.095905,2.9938035,4.1515884
-31.12188,2.9962676,4.1569314
-31.148916,2.995525,4.1588035
-31.174168,3.0000875,4.166607
-31.199348,3.004714,4.1745477
-31.226585,3.0035257,4.1761503
-31.260159,2.9854486,4.1592445
-31.290081,2.9779067,4.1540365
-31.321156,2.9678478,4.1461563
-31.346704,2.9721918,4.1541815
-31.37086,2.9798493,4.165909
-31.395971,2.984967,4.1749163
-31.428192,2.9732895,4.165615
-31.464006,2.9539382,4.148038
-31.494987,2.946351,4.1434274
-31.525227,2.9407945,4.1411295
-31.555273,2.9359715,4.139727
-31.583889,2.9344592,4.1420197
-31.60727,2.9439726,4.156378
-31.634598,2.945179,4.1617804
-31.6693,2.9316866,4.151332
-31.701956,2.9227965,4.1459856
-31.731453,2.9204125,4.1477823
-31.760664,2.918753,4.1504526
-31.793688,2.910149,4.1457276
-31.815365,2.9227002,4.163886
-31.84852,2.9142728,4.159543
-31.883986,2.9021316,4.151328
-31.919306,2.8907413,4.1440454
-31.953718,2.8813686,4.1390457
-31.984543,2.8784382,4.141051
-32.012383,2.8806574,4.1486473
-32.039803,2.883583,4.1570807
-32.075417,2.8733451,4.1515994
-32.115585,2.8563006,4.139022
-32.152027,2.8456788,4.133403
-32.184174,2.8420758,4.135343
-32.213497,2.8429542,4.1421213
-32.2424,2.84454,4.14974
-32.274258,2.8418386,4.152937
-32.319897,2.8192987,4.1354084
-32.35811,2.8081193,4.1299753
-32.388172,2.8088622,4.1371584
-32.41601,2.8127894,4.1477623
-32.446945,2.8124623,4.1540174
-32.482903,2.8054364,4.15341
-32.53003,2.783741,4.1377134
-32.57102,2.7708297,4.1313105
-32.60753,2.764198,4.1315584
-32.63655,2.7674851,4.142168
-32.667458,2.7684083,4.1504374
-32.717785,2.745021,4.1338577
-32.76066,2.7315645,4.1276674
-32.802776,2.7194757,4.123047
-32.839096,2.7148092,4.126163
-32.867413,2.7199397,4.1393757
-32.903316,2.7160919,4.1435704
-32.96353,2.6840525,4.119376
-33.001377,2.6786976,4.1223907
-33.04353,2.6686707,4.1208496
-33.071533,2.6749446,4.135846
-33.111225,2.6681616,4.1378546
-33.17318,2.6370976,4.115774
-33.21222,2.6318307,4.1196775
-33.253555,2.6243243,4.1215115
-33.283936,2.628787,4.1353664
-33.328793,2.618,4.1342654
-33.385685,2.5950174,4.12135
-33.427597,2.588106,4.1244736
-33.470207,2.580756,4.127342
-33.511787,2.5747228,4.131674
-33.57213,2.5501928,4.1181893
-33.631695,2.5270662,4.1063538
-33.680386,2.5151868,4.1056705
-33.712574,2.5196705,4.120964
-33.78318,2.4873574,4.101051
-33.827652,2.4806328,4.105973
-33.87834,2.4683325,4.105771
-33.900948,2.4825232,4.1309667
-33.971657,2.4522867,4.114162
-34.037228,2.42746,4.102821
-34.08498,2.4193425,4.1075087
-34.125904,2.4176183,4.1183977
-34.18534,2.3996859,4.114341
-34.2425,2.384237,4.112883
-34.291504,2.376296,4.1186504
-34.32894,2.3785937,4.1340795
-34.391872,2.3592868,4.1298285
-34.4551,2.3402328,4.1261272
-34.516644,2.323094,4.1244874
-34.56244,2.3194478,4.135388
-34.63045,2.2978077,4.130259
-34.69677,2.2780914,4.1272106
-34.745037,2.2734084,4.137952
-34.817997,2.249281,4.131607
-34.89476,2.222741,4.123514
-34.953247,2.211145,4.1290174
-35.03,2.1857445,4.1226993
-35.114136,2.1552882,4.112385
-35.155075,2.1584315,4.1317368
-35.252605,2.1189685,4.1144304
-35.342175,2.0863247,4.103552
-35.379974,2.0928059,4.126659
-35.47165,2.059749,4.1162763
-35.558014,2.0313058,4.1103263
-35.61497,2.0247622,4.123302
-35.71077,1.9907079,4.1135445
-35.802643,1.9602014,4.1072993
-35.87058,1.9472355,4.1161013
-36.005505,1.8879672,4.0871964
-36.070393,1.8783027,4.0996737
-36.163902,1.8493774,4.096856
-36.26685,1.814717,4.0899625
-36.39828,1.7616482,4.068928
-36.4833,1.7406693,4.0742846
-36.58464,1.7094274,4.0720167
-36.673355,1.6871974,4.0774493
-36.790894,1.646776,4.0692077
-36.85553,1.641381,4.0888534
-36.990242,1.5914233,4.0745635
-37.0803,1.5708494,4.0835857
-37.208282,1.5269518,4.0754695
-37.305317,1.5033135,4.0834193
-37.436676,1.4590306,4.076557
-37.574165,1.4119306,4.0684643
-37.6979,1.3742063,4.0681596
-37.87337,1.306078,4.046511
-37.99583,1.2710493,4.0499635
-38.12518,1.2327347,4.051863
-38.31092,1.1620541,4.0316453
-38.479645,1.1027102,4.020685
-38.57723,1.0858123,4.040463
-38.74303,1.0302186,4.034152
-38.899624,0.98102784,4.0333643
-39.08075,0.9190173,4.0249796
-39.254322,0.8625059,4.021554
-39.455166,0.7919965,4.0100646
-25.973757,1.720357,3.2144284
-26.011158,1.712584,3.1941652
-26.053726,1.7101748,3.1793928
-26.31093,1.933466,3.3913565
-26.401983,1.9853117,3.4321427
-26.463682,2.0069249,3.4428515
-26.504917,2.0069358,3.431961
-26.5908,2.0561717,3.4711823
-26.639057,2.064854,3.4695425
-26.754787,2.1497679,3.5458736
-26.83245,2.1934977,3.5806608
-26.869965,2.1921759,3.5696082
-26.91262,2.1969492,3.564952
-26.963316,2.2114549,3.5704818
-26.997135,2.2063107,3.5559163
-27.034512,2.2054746,3.545919
-27.142466,2.2910454,3.625722
-27.170807,2.2803323,3.6059036
-27.32404,2.4260283,3.749218
-27.354265,2.4194112,3.7341895
-27.45226,2.4998794,3.8104315
-27.521263,2.5448036,3.849854
-27.595976,2.598558,3.8988724
-27.640923,2.6140637,3.9079356
-27.693739,2.640765,3.9289932
-27.749666,2.6725788,3.9556785
-27.803272,2.7021446,3.9802184
-27.84456,2.7152643,3.9875193
-27.894249,2.74088,4.0082693
-27.937086,2.7573972,4.019524
-27.97668,2.7697237,4.0264683
-28.013138,2.7778354,4.0290494
-27.747602,2.3288445,3.5419178
-27.770233,2.3096251,3.5145721
-27.813978,2.3228986,3.5222058
-28.060333,2.6576543,3.8762531
-27.890614,2.3335955,3.5208416
-27.875021,2.2513144,3.4256606
-27.90133,2.2360864,3.4028764
-27.92677,2.2190254,3.3781633
-27.951382,2.2001216,3.351503
-27.976305,2.181262,3.324936
-27.99833,2.1567602,3.292275
-28.017246,2.1259596,3.2527795
-28.026308,2.0761597,3.1925535
-28.049149,2.0504375,3.1586118
-28.033579,1.95103,3.044035
-28.041454,1.8934565,2.9751396
-28.048372,1.8320112,2.9019432
-28.056345,1.7705119,2.82863
-28.06756,1.7134345,2.7601285
-28.071154,1.638413,2.6718206
-28.082676,1.5774047,2.5988898
-28.083702,1.4913547,2.4982667
-28.081278,1.3943007,2.3853817
-28.099901,1.3408368,2.3206224
-28.095715,1.2326791,2.1952596
-28.046904,1.0149043,1.9481874
-28.08869,1.0056863,1.9322948
-28.128262,0.9907627,1.9101701
-28.176546,0.99725366,1.9119654
-28.221691,0.996119,1.9054127
-28.265121,0.99057245,1.8940692
-28.308638,0.98513675,1.8829651
-28.351297,0.9772177,1.8692064
-28.409367,1.0129051,1.9042912
-28.44344,0.9805455,1.863461
-28.472,0.93003845,1.8023839
-29.187525,2.996427,4.112816
-29.242273,3.0845425,4.2090487
-29.271318,3.0939784,4.217229
-29.293411,3.0806603,4.1999493
-29.31855,3.0771859,4.1937804
-29.344109,3.0750823,4.1892195
-29.370756,3.0769675,4.189214
-29.396852,3.076961,4.187154
-29.423105,3.0776777,4.185979
-29.44966,3.079774,4.186431
-29.476168,3.0819407,4.1870365
-29.502634,3.0841782,4.1877947
-29.528204,3.0825474,4.1842585
-29.55407,3.082296,4.182349
-29.580194,3.0834255,4.1820703
-29.60654,3.0859385,4.183426
-29.63284,3.0885208,4.184932
-29.659088,3.091173,4.1865892
-29.684963,3.0919192,4.186161
-29.71052,3.090757,4.1836414
-29.736092,3.0896606,4.181264
-29.760967,3.0833573,4.1730537
-29.788282,3.095576,4.185904
-29.813673,3.0933604,4.1824646
-29.8391,3.0912097,4.1791654
-29.864695,3.0904436,4.177504
-29.89036,3.090403,4.176734
-29.916452,3.09571,4.182102
-29.942738,3.105047,4.192114
-29.968475,3.1085093,4.195529
-29.994078,3.110718,4.197588
-30.019394,3.1077073,4.1937895
-30.044983,3.1107082,4.196884
-30.07018,3.1018813,4.186614
-30.095562,3.0944405,4.177985
-30.121141,3.0936728,4.1770024
-30.146736,3.0929706,4.1761627
-30.17236,3.0896916,4.1724634
-30.198011,3.0884604,4.171158
-30.223633,3.0892773,4.1722474
-30.249195,3.0914814,4.1749797
-30.274918,3.089127,4.1726036
-30.300613,3.08816,4.17187
-30.326328,3.0872593,4.1712813
-30.352104,3.085764,4.170087
-30.377962,3.0836754,4.1682873
-30.404202,3.0776942,4.162139
-30.430614,3.0711212,4.1553917
-30.456104,3.0745144,4.160021
-30.482664,3.0680795,4.153571
-30.508368,3.0696266,4.156244
-30.533175,3.0778308,4.166529
-30.558302,3.0828023,4.173215
-30.584728,3.0786152,4.169594
-30.610289,3.0804234,4.1728325
-30.638582,3.0658448,4.1575937
-30.665161,3.0625286,4.155179
-30.690947,3.0638852,4.158121
-30.71799,3.0587368,4.15378
-30.74406,3.058916,4.155532
-30.76776,3.0703235,4.1700335
-30.794022,3.0693192,4.1705847
-30.822876,3.0572364,4.1587124
-30.850224,3.0524452,4.155144
-30.877172,3.0496926,4.1539526
-30.903162,3.0509405,4.157339
-30.930706,3.0463684,4.1542473
-30.956713,3.0477543,4.157934
-30.980284,3.057698,4.1713095
-31.00637,3.0585594,4.174541
-31.03541,3.0497065,4.1669416
-31.063797,3.0435433,4.162447
-31.092926,3.0355067,4.1559362
-31.120274,3.033409,4.1561623
-31.148323,3.0294352,4.1543684
-31.172832,3.0359306,4.164359
-31.198626,3.0385923,4.1701303
-31.227468,3.032893,4.1666403
-31.258364,3.0220952,4.1575527
-31.290203,3.009448,4.1465034
-31.318964,3.005302,4.1450167
-31.346241,3.0051103,4.1480126
-31.370607,3.0120883,4.159049
-31.39703,3.0139697,4.1644926
-31.424261,3.013989,4.167946
-31.456875,3.0018668,4.1580334
-31.494322,2.9795718,4.1369796
-31.522758,2.9779284,4.138873
-31.552732,2.9731612,4.1374044
-31.581272,2.9716802,4.1396513
-31.604252,2.9817834,4.1547337
-31.630547,2.9849155,4.1622076
-31.67096,2.9600673,4.1390285
-31.701008,2.9563699,4.139197
-31.73213,2.9508524,4.1374664
-31.762344,2.9473329,4.1380215
-31.791252,2.9464374,4.1415367
-31.816341,2.9525883,4.1528263
-31.84666,2.9493167,4.153919
-31.88029,2.9404526,4.1490245
-31.91847,2.9241295,4.1361437
-31.95249,2.9154894,4.131736
-31.98328,2.9126134,4.133684
-32.00993,2.9167306,4.143294
-32.034966,2.923424,4.155759
-32.067757,2.9176674,4.154875
-32.110214,2.8970246,4.1380844
-32.145775,2.8877554,4.1336775
-32.177006,2.8854494,4.136862
-32.212017,2.877643,4.1342607
-32.240463,2.8798742,4.1425095
-32.27058,2.8797073,4.1482873
-32.304585,2.8740644,4.1483307
-32.353058,2.8481674,4.1269693
-32.384804,2.846472,4.13148
-32.41659,2.8448722,4.136197
-32.445717,2.847049,4.1450095
-32.47983,2.8425717,4.1468973
-32.52095,2.829033,4.139371
-32.563248,2.8144174,4.1308746
-32.602028,2.8048224,4.1278076
-32.63431,2.8038666,4.13392
-32.66277,2.8078594,4.1453047
-32.702854,2.7974057,4.14174
-32.755424,2.7719939,4.1227946
-32.79551,2.7624521,4.1205244
-32.834267,2.7548528,4.120419
-32.867077,2.7545843,4.128022
-32.904,2.7496262,4.1309147
-32.951874,2.7322433,4.121193
-32.99274,2.7233834,4.1204014
-33.037453,2.710502,4.1156645
-33.069633,2.7120233,4.125783
-33.10556,2.7094963,4.131901
-33.159943,2.687004,4.117923
-33.209793,2.6700258,4.1097603
-33.250565,2.6632285,4.1120753
-33.283127,2.665367,4.123534
-33.32183,2.661169,4.1287565
-33.374184,2.6430964,4.1202674
-33.423992,2.6281347,4.1151133
-33.46601,2.6214871,4.1184363
-33.50757,2.6155663,4.122651
-33.559166,2.5999696,4.117485
-33.616913,2.5788088,4.1070743
-33.66848,2.5641952,4.1033564
-33.698174,2.5709796,4.120796
-33.753677,2.553272,4.114463
-33.81251,2.5329301,4.105829
-33.861897,2.5219154,4.1065035
-33.90407,2.5178862,4.114139
-33.96246,2.4993072,4.107963
-34.023655,2.4787045,4.1001277
-34.07448,2.4679003,4.101941
-34.119778,2.4623303,4.108963
-34.172836,2.4502172,4.109986
-34.235092,2.4305072,4.104086
-34.28796,2.4193778,4.1065598
-34.326675,2.4206333,4.1208763
-34.38112,2.4087658,4.1231146
-34.444336,2.3899527,4.1191587
-34.50586,2.3730402,4.117277
-34.542248,2.3771584,4.135074
-34.61558,2.3514028,4.1256175
-34.68119,2.3324761,4.122781
-34.74369,2.3165252,4.1229835
-34.79616,2.3089247,4.131061
-34.876328,2.279992,4.1201715
-34.947227,2.2589107,4.1167564
-34.98637,2.26272,4.1359296
-35.07035,2.2325518,4.1250906
-35.159725,2.199026,4.1117463
-35.20704,2.1976461,4.127171
-35.318577,2.1489658,4.1014333
-35.374893,2.1417859,4.1124687
-35.43781,2.130108,4.1198916
-35.533524,2.095196,4.1076336
-35.580185,2.0960662,4.1265745
-35.663467,2.0711951,4.123809
-35.768467,2.0317073,4.1091347
-35.827408,2.025093,4.122761
-35.962315,1.9664361,4.093127
-36.01434,1.9655824,4.1124215
-36.131725,1.9206715,4.095538
-36.21578,1.8990921,4.098546
-36.320614,1.8642422,4.0911984
-36.427456,1.8288517,4.0840435
-36.527134,1.7989445,4.081955
-36.641838,1.7599969,4.0732265
-36.72849,1.7399485,4.0802355
-36.851883,1.69701,4.0696745
-36.952473,1.6694176,4.0719233
-37.036205,1.6530659,4.083538
-37.132725,1.6292467,4.0898747
-37.2643,1.5844266,4.080692
-37.38854,1.5450552,4.076501
-37.51647,1.5043149,4.072071
-37.679314,1.443485,4.053415
-37.79719,1.4106991,4.056682
-37.944496,1.3612847,4.048452
-38.09324,1.3120754,4.041348
-38.226357,1.2730012,4.0425763
-38.35996,1.2345324,4.0451174
-38.522675,1.1802835,4.0373197
-38.697563,1.120266,4.0265636
-38.81547,1.09355,4.0402627
-38.975883,1.0438027,4.0388145
-39.161804,0.9810071,4.029538
-39.355145,0.91542625,4.019681
-39.545918,0.852581,4.0130258
-39.703865,0.80876803,4.020352
-25.983225,1.7743783,3.209764
-26.006317,1.7521472,3.1749334
-26.075378,1.7769127,3.1878495
-26.313807,1.9786501,3.3812337
-26.399376,2.0241907,3.416462
-26.47484,2.0601544,3.4422927
-26.530104,2.0753438,3.4471474
-26.600193,2.1071665,3.469346
-26.63714,2.1033802,3.4551187
-26.765718,2.2017124,3.546646
-26.838615,2.2397456,3.576295
-26.880722,2.2437155,3.5708613
-26.921717,2.2466342,3.5644875
-26.96723,2.255038,3.5639892
-27.011574,2.2624028,3.5625758
-27.04978,2.2627437,3.5539565
-27.137909,2.3236873,3.6092095
-27.169193,2.3165863,3.593145
-27.328457,2.4683332,3.744995
-27.35812,2.4611204,3.7293563
-27.458065,2.5433536,3.8087087
-27.52048,2.5794325,3.8394675
-27.59154,2.6278815,3.883676
-27.652584,2.6644723,3.915545
-27.70573,2.6915646,3.9375157
-27.755709,2.715198,3.9559999
-27.807924,2.7426815,3.978819
-27.85615,2.7654653,3.9967957
-27.900076,2.7829063,4.009207
-27.943686,2.8005018,4.0219526
-27.988245,2.8200972,4.037029
-28.0262,2.8306046,4.042427
-27.777143,2.410831,3.5808759
-27.776989,2.3577619,3.516622
-27.815014,2.3622365,3.5149589
-28.059374,2.6907916,3.8669815
-27.886875,2.365315,3.505589
-27.883884,2.3041253,3.4324193
-27.911528,2.2914834,3.4123635
-27.936382,2.2739046,3.3869514
-27.96005,2.25387,3.3588896
-27.981514,2.2294893,3.326085
-28.00517,2.208274,3.2967992
-28.019325,2.1695037,3.2481713
-28.025824,2.115622,3.1828241
-28.048937,2.0906737,3.149457
-28.042269,2.008972,3.053206
-28.041967,1.9366276,2.9672165
-28.055248,1.8882349,2.907754
-28.05182,1.8049793,2.8094711
-28.070522,1.7634797,2.7575994
-28.074852,1.6908634,2.6710205
-28.084072,1.6258066,2.5928087
-28.083443,1.5371461,2.4881558
-28.08698,1.4541223,2.389708
-28.088541,1.3633609,2.282506
-28.09616,1.2827287,2.1865697
-28.09066,1.1681354,2.052432
-28.059513,0.9874618,1.8438797
-28.105923,0.9879148,1.8388457
-28.151794,0.9872098,1.8326373
-28.197159,0.98534274,1.8252468
-28.243523,0.98616743,1.8210177
-28.286736,0.97875094,1.8076115
-28.329361,0.9695101,1.7922559
-28.37465,0.96746755,1.7851529
-28.434006,1.0061994,1.824338
-28.46355,0.9585712,1.7658639
-29.183521,3.0190449,4.09801
-29.236303,3.1000557,4.187414
-29.268639,3.1197557,4.207396
-29.293041,3.1142836,4.198874
-29.317158,3.107574,4.1890073
-29.342665,3.1054668,4.184438
-29.369085,3.1066718,4.183708
-29.39565,3.1085973,4.1838713
-29.422338,3.1112435,4.1849294
-29.448812,3.1133108,4.1854005
-29.475706,3.1174016,4.1882534
-29.502075,3.1196113,4.1890316
-29.527548,3.117979,4.1854925
-29.553452,3.1183686,4.184333
-29.578953,3.1168685,4.18108
-29.604227,3.114128,4.176475
-29.63073,3.1179843,4.1794877
-29.656258,3.1166825,4.176665
-29.681803,3.1154466,4.1739855
-29.708075,3.1188545,4.176696
-29.733805,3.1190605,4.175805
-29.757292,3.1029682,4.156291
-29.784655,3.1150885,4.1691985
-29.811098,3.1213875,4.1755013
-29.836636,3.1205492,4.173684
-29.861656,3.1145337,4.1659904
-29.886543,3.1059594,4.1554213
-29.914072,3.1276083,4.1796303
-29.940147,3.1349049,4.187427
-29.966005,3.1409574,4.193865
-29.99113,3.135925,4.187633
-30.016315,3.1303005,4.180787
-30.042044,3.1365516,4.1876554
-30.067377,3.1330256,4.1833525
-30.09277,3.1295648,4.1791916
-30.11824,3.127481,4.17668
-30.14374,3.122182,4.1705384
-30.169334,3.1169481,4.1645384
-30.194948,3.1163745,4.1639633
-30.220638,3.113242,4.160514
-30.24634,3.1114874,4.158716
-30.272017,3.1111114,4.1585703
-30.297665,3.1114578,4.159321
-30.323309,3.1118703,4.1602154
-30.348946,3.1123488,4.161253
-30.374525,3.1135492,4.163186
-30.401178,3.1023579,4.150955
-30.426826,3.1036918,4.1531796
-30.452593,3.1037812,4.1540403
-30.478508,3.1026263,4.1535435
-30.504854,3.0982645,4.1494346
-30.532063,3.0880804,4.1387186
-30.555088,3.1087284,4.163431
-30.579922,3.115036,4.1717577
-30.606215,3.111596,4.1689796
-30.634008,3.0997283,4.156619
-30.66097,3.0938184,4.1511593
-30.687922,3.088634,4.146604
-30.714327,3.0867858,4.1459394
-30.738762,3.0947933,4.1566153
-30.763477,3.1009033,4.1651835
-30.79129,3.0927377,4.157508
-30.817135,3.0937676,4.160409
-30.843908,3.0909586,4.1589985
-30.872042,3.0830176,4.1518087
-30.900658,3.0738554,4.1433086
-30.927698,3.07127,4.142383
-30.953167,3.0746,4.1482663
-30.976349,3.085779,4.163144
-31.002216,3.0872874,4.167083
-31.030437,3.08109,4.1623373
-31.05918,3.073678,4.156295
-31.089735,3.0611744,4.144562
-31.11708,3.0591002,4.144743
-31.143366,3.060327,4.1487417
-31.168959,3.0635583,4.155078
-31.192875,3.0713649,4.1666565
-31.219278,3.0721467,4.170356
-31.249329,3.0633507,4.1633186
-31.280289,3.0527153,4.1542997
-31.311703,3.041532,4.144759
-31.339672,3.0394206,4.1455297
-31.365826,3.0418708,4.1515102
-31.389767,3.0495074,4.1633887
-31.418858,3.0450563,4.1617613
-31.453417,3.0285592,4.146717
-31.484522,3.0204635,4.141197
-31.512539,3.0194674,4.1437182
-31.547483,3.0039172,4.1300583
-31.572626,3.0094483,4.1400447
-31.598616,3.0131378,4.148044
-31.629936,3.0061188,4.1441913
-31.663002,2.9960299,4.137025
-31.696253,2.9860444,4.130082
-31.727024,2.981213,4.1289673
-31.757551,2.9771042,4.128749
-31.787472,2.9743438,4.130118
-31.814302,2.9773278,4.137925
-31.840736,2.981011,4.146578
-31.868923,2.981628,4.151928
-31.908098,2.9635463,4.136791
-31.944256,2.9512239,4.128125
-31.978374,2.9427645,4.123823
-32.00615,2.9450054,4.1313553
-32.031178,2.951675,4.1438103
-32.064762,2.9447436,4.141484
-32.09648,2.9410172,4.142765
-32.13434,2.9281032,4.1341524
-32.169567,2.919642,4.1305146
-32.20122,2.9168468,4.1331444
-32.233776,2.9129143,4.1346474
-32.261734,2.9158444,4.1436744
-32.293957,2.9127142,4.146247
-32.33584,2.8962078,4.1345253
-32.37581,2.8829064,4.1264105
-32.409325,2.878897,4.128413
-32.437958,2.8816915,4.137815
-32.471577,2.8778782,4.140245
-32.509434,2.86871,4.1370797
-32.55213,2.8536134,4.1277475
-32.59415,2.8398776,4.1200266
-32.624966,2.8407648,4.127968
-32.657707,2.839335,4.1335583
-32.692436,2.8356025,4.1368313
-32.74202,2.8140001,4.121414
-32.792477,2.791987,4.105776
-32.825726,2.7910533,4.112442
-32.852917,2.7973678,4.1268024
-32.886677,2.7960296,4.13326
-32.9272,2.7870886,4.1319256
-32.97782,2.767049,4.1192284
-33.017708,2.7595954,4.1197815
-33.0588,2.751101,4.1194143
-33.097897,2.745099,4.1217775
-33.143074,2.7327824,4.1178036
-33.19448,2.7141986,4.1075945
-33.231865,2.7109752,4.113308
-33.26375,2.7136931,4.1252174
-33.303463,2.7083802,4.129076
-33.35007,2.6962552,4.126185
-33.38833,2.6929638,4.1324196
-33.46407,2.652359,4.1012073
-33.49406,2.6580377,4.116862
-33.54035,2.6477563,4.1166315
-33.591545,2.6330712,4.112202
-33.640015,2.6214302,4.1110296
-33.69168,2.6071267,4.107428
-33.732727,2.6032238,4.114342
-33.790268,2.5841978,4.106517
-33.84752,2.5659614,4.0997367
-33.89149,2.5603192,4.1055527
-33.937435,2.5531502,4.1100664
-33.990395,2.5399985,4.108961
-34.047985,2.5231476,4.104514
-34.098873,2.5126362,4.1064606
-34.150578,2.501762,4.108288
-34.195385,2.4971604,4.116362
-34.265556,2.4712372,4.104278
-34.316566,2.4620788,4.1084895
-34.35591,2.4629667,4.1224484
-34.410454,2.451434,4.1248527
-34.478497,2.4292288,4.1174893
-34.525467,2.4246588,4.1269693
-34.582626,2.4121506,4.129264
-34.661003,2.3831596,4.116546
-34.72756,2.3641694,4.11348
-34.7752,2.3604422,4.124787
-34.847065,2.338212,4.119374
-34.908863,2.3242574,4.1218767
-34.97507,2.3073692,4.1220303
-35.03803,2.2933922,4.125153
-35.127346,2.2601886,4.111324
-35.181644,2.2536044,4.1217847
-35.267483,2.2242248,4.1122355
-35.330776,2.211885,4.11824
-35.415207,2.1847448,4.1115417
-35.490604,2.164691,4.111516
-35.56265,2.1475298,4.114419
-35.62321,2.1388822,4.125086
-35.721516,2.104382,4.1137943
-35.79364,2.088664,4.119159
-35.884617,2.0605495,4.11436
-35.98424,2.0272655,4.1057067
-36.097893,1.9853506,4.0903707
-36.186436,1.9610143,4.0904217
-36.270767,1.9400601,4.093792
-36.398903,1.8910741,4.0744915
-36.464085,1.883852,4.0902553
-36.612564,1.8235214,4.0630713
-36.681404,1.8150663,4.0788345
-36.788445,1.7828708,4.0758834
-36.86391,1.7711656,4.0899487
-36.998344,1.7233112,4.075776
-37.064915,1.7181933,4.0961003
-37.187695,1.6791117,4.090253
-37.296703,1.6492276,4.0923123
-37.457146,1.5892339,4.0718765
-37.55032,1.5704477,4.0839586
-37.702427,1.5174682,4.0707083
-37.873795,1.4543419,4.0508347
-37.98844,1.4253738,4.0575542
-38.166916,1.3604381,4.0384364
-38.302937,1.3210192,4.039211
-38.459126,1.2710967,4.033257
-38.608536,1.2260516,4.031862
-38.739502,1.1922586,4.0394864
-38.926407,1.1284316,4.0267835
-39.06835,1.0905113,4.0334816
-39.208237,1.0545993,4.042528
-39.403824,0.9895792,4.0325875
-39.60103,0.9250362,4.0243487
-39.833572,0.8431251,4.0058637
-40.02817,0.78276205,4.0033455
-25.975935,1.7994134,3.1853456
-26.010458,1.7887309,3.1621838
-26.272457,2.0102804,3.377637
-26.34563,2.0419364,3.3989449
-26.41881,2.0744624,3.421483
-26.478785,2.0939322,3.4308295
-26.537868,2.1130447,3.4400587
-26.603092,2.139374,3.457049
-26.648056,2.1443286,3.4520159
-26.78993,2.256648,3.5594754
-26.83746,2.2662573,3.5599332
-26.877005,2.267202,3.5514636
-26.930426,2.2841973,3.560048
-26.976397,2.2931092,3.5603075
-27.020176,2.2998068,3.5583959
-27.055817,2.297148,3.5467153
-27.136051,2.3481517,3.5922241
-27.165895,2.3392537,3.574246
-27.333626,2.500154,3.737739
-27.391563,2.5282872,3.759954
-27.47369,2.5878465,3.816125
-27.549614,2.641136,3.8659325
-27.602308,2.6658206,3.8852715
-27.654102,2.6900978,3.9043856
-27.713182,2.7248507,3.9350376
-27.767159,2.753774,3.9596229
-27.8184,2.779866,3.981357
-27.866104,2.8018916,3.9988742
-27.907347,2.8155594,4.0074735
-27.949192,2.830589,4.017712
-27.99541,2.8524914,4.03562
-28.03414,2.864145,4.0424824
-27.785044,2.4475164,3.5795698
-27.788015,2.3996701,3.5205297
-27.821102,2.3967192,3.5108452
-28.069637,2.7294447,3.871377
-27.892063,2.3985033,3.5002518
-27.888588,2.337041,3.4261498
-27.915035,2.322592,3.404025
-27.939846,2.3050933,3.378574
-27.96347,2.2851532,3.3504596
-27.98343,2.2584026,3.3148098
-28.00456,2.2329192,3.2805915
-28.020832,2.198093,3.2359762
-28.042212,2.1713974,3.2004452
-28.042871,2.1058931,3.1215234
-28.036604,2.0252535,3.0255637
-28.05058,1.9802973,2.969502
-28.050385,1.9063938,2.8809156
-28.052757,1.8349195,2.7949667
-28.054808,1.7602131,2.705297
-28.068644,1.7068923,2.6396446
-28.086433,1.6598699,2.5810761
-28.088705,1.5780313,2.4831734
-28.085417,1.4808998,2.3678885
-28.098412,1.4160094,2.2889843
-28.096294,1.3142455,2.1682558
-28.097067,1.2149127,2.0501695
-28.052547,1.0040805,1.805368
-28.089922,0.9821789,1.7749715
-28.13668,0.9826834,1.7701492
-28.18266,0.9813976,1.7634182
-28.228643,0.98023486,1.7569523
-28.271025,0.96959543,1.7398024
-28.314753,0.96226287,1.726531
-28.36638,0.9768355,1.7384076
-28.422867,1.006315,1.7674861
-28.450537,0.95248485,1.7013879
-29.190338,3.0576534,4.1083975
-29.247938,3.1536424,4.2159467
-29.273376,3.1520004,4.2117295
-29.297089,3.1446257,4.2009983
-29.320358,3.135374,4.1881685
-29.344885,3.130048,4.1799088
-29.373924,3.1409268,4.1903486
-29.399338,3.138965,4.1860948
-29.425276,3.139008,4.184217
-29.452162,3.143002,4.18696
-29.478048,3.1431837,4.185382
-29.50348,3.1414895,4.181709
-29.529081,3.1405091,4.1789255
-29.556463,3.1480258,4.186021
-29.581749,3.1458845,4.1820354
-29.607065,3.1438074,4.1781893
-29.632652,3.1430948,4.1759863
-29.659151,3.1476462,4.179939
-29.685028,3.1490178,4.1802835
-29.71047,3.1478558,4.177764
-29.736881,3.1532655,4.18292
-29.759523,3.132059,4.157318
-29.788229,3.1551797,4.1831255
-29.813639,3.1542826,4.18118
-29.838125,3.1449811,4.1695595
-29.862843,3.1363919,4.158825
-29.890175,3.1545906,4.17922
-29.91501,3.1467838,4.1695232
-29.942059,3.1670804,4.1924953
-29.967297,3.1652741,4.1898937
-29.992382,3.160271,4.183647
-30.017527,3.1546793,4.176782
-30.043165,3.1595912,4.1821733
-30.06828,3.149561,4.170286
-30.093742,3.1480784,4.1683874
-30.119078,3.1323037,4.1499605
-30.144743,3.143352,4.1627407
-30.17024,3.1498976,4.1703596
-30.195726,3.1499825,4.170543
-30.221245,3.1488276,4.1693535
-30.24676,3.1483908,4.1690645
-30.2722,3.1499772,4.171189
-30.297678,3.150324,4.171941
-30.323193,3.1500843,4.1720777
-30.348896,3.1473007,4.16933
-30.374495,3.146541,4.168997
-30.40034,3.143239,4.165782
-30.425863,3.1439152,4.167248
-30.451864,3.140096,4.1635685
-30.478163,3.1343908,4.157772
-30.503836,3.1346154,4.1589165
-30.530378,3.1283972,4.152665
-30.553963,3.143724,4.1714344
-30.57945,3.1447947,4.173756
-30.605762,3.1407294,4.1702003
-30.633257,3.1302342,4.159277
-30.660479,3.1224139,4.1515236
-30.686375,3.1224597,4.152939
-30.712532,3.1212754,4.152999
-30.738983,3.1188617,4.15171
-30.763103,3.12754,4.1632953
-30.789112,3.1272044,4.16454
-30.815739,3.1243465,4.162945
-30.843365,3.1176765,4.157029
-30.870955,3.1117299,4.1520233
-30.897642,3.1097379,4.1516476
-30.92542,3.103941,4.146968
-30.951864,3.1033852,4.1483917
-30.97422,3.1170886,4.166271
-30.999222,3.1211731,4.173155
-31.02673,3.1169481,4.1705675
-31.057583,3.1025035,4.15634
-31.08409,3.1022973,4.1585217
-31.112114,3.0976644,4.1557074
-31.140451,3.0924678,4.1523285
-31.16526,3.0976114,4.1608515
-31.190218,3.1021755,4.1687746
-31.218197,3.0984807,4.167337
-31.247717,3.0910273,4.161695
-31.28062,3.0753553,4.146778
-31.309217,3.0712743,4.14516
-31.338158,3.0666366,4.1429925
-31.365053,3.0671759,4.146791
-31.389227,3.074148,4.157964
-31.41412,3.0792727,4.167103
-31.44432,3.0723984,4.162716
-31.47899,3.0561051,4.1477656
-31.512487,3.0430899,4.136637
-31.540813,3.0415645,4.138589
-31.569178,3.0401187,4.140713
-31.594461,3.045061,4.150114
-31.62062,3.0481765,4.157526
-31.650932,3.043179,4.1558933
-31.686268,3.0288455,4.1438785
-31.718529,3.0209026,4.1391473
-31.74992,3.01494,4.136736
-31.779705,3.012201,4.1380277
-31.806396,3.0151725,4.1457853
-31.831623,3.0207107,4.156478
-31.867605,3.0076184,4.1464977
-31.900162,3.0008674,4.143691
-31.933594,2.9929743,4.1397247
-31.96944,2.981465,4.1318607
-32.00129,2.9768853,4.131791
-32.025066,2.9853861,4.1462774
-32.051865,2.9890034,4.1554356
-32.086197,2.9809828,4.15185
-32.125538,2.96569,4.140384
-32.159416,2.9591312,4.138653
-32.192596,2.9539056,4.1384974
-32.22125,2.9555159,4.1459336
-32.254147,2.9510975,4.1468697
-32.29231,2.9394624,4.1400485
-32.331997,2.9261308,4.1315203
-32.36751,2.9190123,4.1298904
-32.400925,2.9150414,4.1317983
-32.428997,2.918438,4.1417937
-32.458397,2.9200997,4.1499968
-32.49657,2.910389,4.146032
-32.54194,2.8917804,4.132636
-32.576767,2.887152,4.134432
-32.61551,2.8778389,4.1313314
-32.651527,2.8722472,4.1323543
-32.688633,2.8655791,4.132357
-32.729813,2.8542695,4.127556
-32.770203,2.8442922,4.1243286
-32.810776,2.834455,4.1214056
-32.840347,2.8377767,4.1325517
-32.876038,2.8340971,4.136405
-32.91906,2.8222857,4.131831
-32.96439,2.8082767,4.125121
-33.011555,2.7926745,4.1169286
-33.048866,2.7883618,4.1207247
-33.080883,2.7900088,4.130869
-33.119404,2.7847652,4.133961
-33.17282,2.763968,4.1210775
-33.22107,2.7491717,4.1146336
-33.26456,2.7397575,4.1139417
-33.293606,2.74549,4.1289997
-33.335045,2.738649,4.1312575
-33.390907,2.7176113,4.119168
-33.441944,2.701942,4.1128025
-33.478138,2.7013054,4.1219387
-33.520218,2.6950934,4.1255608
-33.574818,2.6771073,4.117458
-33.627342,2.6615973,4.1120954
-33.678936,2.647418,4.1083026
-33.711433,2.6514542,4.122969
-33.77494,2.6269493,4.1092787
-33.83456,2.6066217,4.1000433
-33.875362,2.6038408,4.108476
-33.91934,2.5984166,4.114463
-33.969055,2.5881515,4.11587
-34.03285,2.5658941,4.1057377
-34.08874,2.551071,4.103178
-34.128235,2.5507727,4.1150203
-34.1858,2.535245,4.112248
-34.24492,2.5188496,4.1089096
-34.29582,2.509777,4.112902
-34.340954,2.5057886,4.1220026
-34.406025,2.4857042,4.1159244
-34.46809,2.4685855,4.1129894
-34.51233,2.4662552,4.12437
-34.556618,2.4640813,4.1360908
-34.64848,2.4246135,4.1129637
-34.69451,2.4218109,4.1246343
-34.748154,2.4133272,4.1312184
-34.820606,2.3907456,4.124985
-34.891327,2.37005,4.1208673
-34.947685,2.3606968,4.127539
-35.01686,2.342124,4.1260524
-35.09977,2.3139074,4.116146
-35.159634,2.3032305,4.1225753
-35.24614,2.27359,4.1122117
-35.328785,2.2474267,4.105442
-35.38217,2.2427392,4.118285
-35.46545,2.2172074,4.112885
-35.563736,2.1818027,4.099226
-35.5898,2.197281,4.1308117
-35.694675,2.1584969,4.115084
-35.790474,2.1267557,4.106081
-35.83451,2.1307056,4.1284494
-35.968475,2.0745761,4.099434
-36.03393,2.0650644,4.11102
-36.181305,2.0020237,4.077538
-36.235252,2.0011885,4.0974183
-36.363358,1.9526218,4.077571
-36.432255,1.9430324,4.0909605
-36.542946,1.9072508,4.083056
-36.637093,1.8827053,4.085054
-36.74248,1.851763,4.082383
-36.850643,1.819835,4.079549
-36.967102,1.7835667,4.0738754
-37.06513,1.759346,4.0785484
-37.15556,1.7403362,4.087947
-37.27329,1.7055278,4.08544
