x,y,z
-33.26305,1.9112935,3.0690165
-33.30201,1.9139221,3.0806317
-33.334793,1.9244692,3.1008716
-33.382233,1.9165161,3.101375
-33.432243,1.9057276,3.099019
-33.480503,1.8974957,3.0995746
-33.528923,1.8894224,3.1004767
-33.58348,1.8743777,3.09415
-33.631264,1.8678277,3.0970383
-33.683754,1.8561075,3.094635
-33.73954,1.8410268,3.0888872
-33.788345,1.8343906,3.0922475
-33.84199,1.8226268,3.0904045
-33.89268,1.8145676,3.0926514
-33.954727,1.7943935,3.0824342
-34.00529,1.7872899,3.0860953
-34.06468,1.7710407,3.0804439
-34.12272,1.7567499,3.0770655
-34.17935,1.7444055,3.0759382
-34.23231,1.7363083,3.0794168
-34.465908,1.5433102,2.8930006
-34.5621,1.4940591,2.8552356
-34.61452,1.4899561,2.864087
-34.673378,1.4797337,2.8669004
-34.73649,1.4657235,2.866105
-34.800434,1.451374,2.8652306
-34.859913,1.4418001,2.8694506
-34.93802,1.4148853,2.85645
-34.996788,1.4069107,2.8628244
-35.064774,1.3906965,2.8611927
-35.13365,1.3741751,2.8595524
-35.195454,1.3646319,2.8651547
-35.2735,1.3407927,2.8568501
-35.348213,1.3206005,2.8525095
-35.41261,1.3101344,2.8580832
-35.480984,1.2965822,2.860908
-35.536236,1.2948759,2.8756146
-35.590893,1.2939079,2.8912635
-35.65203,1.2876387,2.9019914
-35.713284,1.2815876,2.9131932
-35.765503,1.2833903,2.9322205
-35.81968,1.2837348,2.9500585
-35.877842,1.2810111,2.965187
-35.935394,1.2790313,2.9812722
-35.990982,1.2788684,2.9993234
-36.043213,1.2815802,3.0203223
-36.096092,1.2839313,3.0411954
-29.08566,1.3483236,2.056108
-29.134274,1.37592,2.0856123
-29.258495,1.7626829,2.534418
-29.303741,1.7952664,2.570218
-29.366255,1.9202528,2.714086
-29.406723,1.938298,2.7332072
-29.445042,1.9461231,2.7404928
-29.48375,1.9572811,2.751779
-29.522957,1.973069,2.7685866
-29.562637,1.994137,2.7916803
-29.601566,2.0127277,2.811984
-29.639818,2.028837,2.8294883
-29.677225,2.040518,2.84191
-29.713478,2.0438821,2.844686
-29.749664,2.0473402,2.8476663
-29.785664,2.049596,2.8493323
-29.821617,2.051946,2.8511996
-29.858541,2.0679996,2.8692284
-29.89368,2.0614617,2.8608623
-29.929777,2.069926,2.8701792
-29.96535,2.0707023,2.870572
-30.00098,2.0735161,2.8734465
-30.036404,2.0712333,2.8704314
-30.071972,2.07423,2.873703
-30.10755,2.083156,2.8840222
-30.142963,2.0928223,2.8953004
-30.178244,2.0967412,2.8999262
-30.213598,2.09167,2.894093
-30.248932,2.0912304,2.893785
-30.284182,2.0934756,2.896717
-30.319506,2.0932174,2.8968024
-30.354288,2.103424,2.9092531
-30.389566,2.1026978,2.9089684
-30.425365,2.094932,2.9005203
-30.458765,2.1190157,2.9295058
-30.498316,2.0693157,2.8720822
-30.533552,2.0728476,2.877159
-30.569422,2.0699935,2.8748426
-30.605347,2.0672324,2.8727279
-30.641325,2.064565,2.8708158
-30.677094,2.0639322,2.8713799
-30.712877,2.0633922,2.8721442
-30.748577,2.0635915,2.8738675
-30.786585,2.049665,2.85916
-30.820753,2.0597446,2.8726249
-30.856958,2.0576396,2.8719325
-30.894188,2.0504665,2.8654156
-30.929756,2.052425,2.8696613
-30.966234,2.0499618,2.8688374
-30.99002,2.1062315,2.9366345
-31.023588,2.114875,2.9489217
-31.063986,2.0939949,2.9268813
-31.102406,2.0828812,2.916336
-31.135479,2.0937304,2.93147
-31.171242,2.0937386,2.9340692
-31.206835,2.0944822,2.9376178
-31.242426,2.0953188,2.9413667
-31.280062,2.0891974,2.9371285
-31.315315,2.0915058,2.9427786
-31.350737,2.0932658,2.9478855
-31.386951,2.0925586,2.9502249
-31.738626,1.1309414,1.8396792
-31.767387,1.1791313,1.8996372
-31.830252,1.1265738,1.8431158
-31.890444,1.0844262,1.7988386
-31.893227,1.2016499,1.9387822
-31.885805,1.3403993,2.1034565
-31.92474,1.3519042,2.1213017
-31.982224,1.3158884,2.0845132
-31.738262,2.0296679,2.9106622
-31.776752,2.0261927,2.9108706
-31.817451,2.0177617,2.9054976
-31.856136,2.0145066,2.9061832
-31.89016,2.0220935,2.919406
-31.933432,2.0089512,2.9089794
-31.953787,2.0463388,2.9564867
-32.027214,1.969219,2.8731685
-32.069847,1.9596345,2.8672295
-32.10991,1.9558268,2.8680067
-32.1513,1.9496255,2.8661776
-32.18964,1.9498062,2.8717303
-32.2309,1.9444642,2.8711185
-32.274574,1.9348719,2.8658075
-32.319103,1.924165,2.8593712
-32.358402,1.9235582,2.864509
-32.40049,1.918087,2.8642616
-32.443745,1.9108768,2.8621807
-32.48643,1.9050376,2.8617797
-32.52996,1.8980868,2.8602614
-32.571796,1.8943586,2.8625035
-32.613342,1.8913705,2.8657036
-32.65685,1.885422,2.8657126
-32.70125,1.8783753,2.8646297
-32.743843,1.8745348,2.8672738
-32.78613,1.8714347,2.8708773
-32.82249,1.8776431,2.884984
-32.85147,1.8949478,2.9115324
-32.87565,1.9190202,2.9456577
-32.889862,1.9571342,2.9953842
-32.89964,2.000702,3.051128
-32.92744,2.0175235,3.0772753
-32.964035,2.0216758,3.0895052
-33.026794,1.9896452,3.0620022
-33.066692,1.9898398,3.070167
-33.107502,1.9889455,3.0772629
-33.126614,2.0170336,3.1162229
-33.224026,1.941911,3.042396
-33.2996,1.8971505,3.002133
-33.29214,1.9596832,3.0789924
-33.324814,1.9701884,3.0991883
-33.374554,1.9593418,3.0963206
-33.426437,1.9462864,3.0912452
-33.470745,1.9428942,3.0967965
-33.516117,1.9384584,3.101376
-33.564583,1.9306252,3.1024604
-33.61471,1.9211862,3.1019993
-33.664513,1.9125035,3.1025329
-33.71911,1.8987114,3.097796
-33.76566,1.8944721,3.1034465
-33.815968,1.8862972,3.1050806
-33.87807,1.8654802,3.0935025
-33.928272,1.8582573,3.0965548
-33.985077,1.8442473,3.092636
-34.036705,1.8362231,3.095243
-34.09617,1.8202991,3.0897555
-34.1526,1.8080444,3.0883522
-34.20814,1.7971387,3.088583
-34.2971,1.75265,3.0540724
-34.54069,1.5537684,2.8596888
-34.59525,1.5474415,2.8659754
-34.657436,1.5339146,2.8650398
-34.72045,1.520046,2.8640094
-34.78079,1.5092335,2.8663788
-34.84369,1.4963815,2.8669062
-34.906822,1.4837584,2.8679314
-34.97679,1.4652,2.8631835
-35.03317,1.459763,2.8720455
-35.101852,1.443372,2.8700628
-35.17205,1.4261274,2.8675199
-35.237602,1.4135833,2.8700056
-35.30899,1.3963072,2.86804
-35.378166,1.3815072,2.8688612
-35.449497,1.3653188,2.868608
-35.526207,1.3450198,2.8646054
-35.607754,1.3211958,2.8574767
-35.672268,1.3123987,2.8655052
-35.733044,1.3070943,2.877236
-35.78476,1.3095832,2.8968282
-35.84568,1.3046892,2.9094477
-35.898075,1.3070042,2.9293098
-35.958458,1.3030596,2.9433422
-36.013546,1.3036053,2.9619493
-36.0727,1.3011434,2.9779067
-36.135986,1.2957053,2.9912825
-36.189114,1.2984357,3.0126886
-36.252533,1.2934337,3.027011
-36.36036,1.2550237,3.0101972
-29.030928,1.3356366,1.9742937
-29.081207,1.3666844,2.008175
-29.120205,1.3499248,1.9857159
-29.275412,1.8751423,2.6040297
-29.309774,1.8575807,2.5810933
-29.364845,1.9444911,2.6818433
-29.409609,1.9848111,2.7276278
-29.447956,1.9932117,2.7357483
-29.487215,2.0081294,2.75169
-29.52528,2.0173805,2.7610235
-29.564701,2.037003,2.782751
-29.604652,2.0631554,2.8123274
-29.643112,2.0817118,2.8330054
-29.679585,2.0868804,2.8379025
-29.716246,2.0947156,2.8460593
-29.752825,2.1032906,2.8551874
-29.788336,2.1023154,2.8530731
-29.82446,2.1085067,2.8595586
-29.860806,2.119296,2.8715959
-29.89648,2.1231024,2.8754334
-29.931898,2.1237836,2.875649
-29.967733,2.133567,2.886766
-30.00291,2.1312122,2.8835545
-30.038208,2.1315236,2.8835988
-30.073534,2.1338573,2.8861332
-30.108782,2.1330621,2.8850408
-30.14404,2.1310694,2.8826146
-30.17929,2.134963,2.88727
-30.214523,2.1357272,2.8882966
-30.249659,2.1398013,2.8933444
-30.284878,2.1394587,2.8932328
-30.320074,2.1398506,2.8940825
-30.354956,2.1461258,2.90201
-30.389963,2.1486278,2.9055424
-30.42562,2.1415687,2.8978076
-30.45922,2.1616206,2.922357
-30.498945,2.1097233,2.8615656
-30.534264,2.111952,2.8651357
-30.569962,2.1104136,2.8643231
-30.605917,2.1070402,2.861425
-30.641695,2.1056876,2.8610158
-30.677238,2.1063542,2.8630924
-30.71296,2.105829,2.8638458
-30.748497,2.1066792,2.8663206
-30.783815,2.1089048,2.8705144
-30.82065,2.102244,2.8642735
-30.85691,2.099527,2.8627982
-30.891754,2.1045914,2.870626
-30.929985,2.0924578,2.8581963
-30.961182,2.114985,2.8868513
-30.984537,2.1714776,2.9557147
-31.030106,2.1263664,2.9045897
-31.064499,2.1318672,2.9133625
-31.092484,2.162991,2.9524565
-31.129566,2.1565259,2.94727
-31.164911,2.1571758,2.950571
-31.200777,2.1560059,2.9518194
-31.23595,2.1574774,2.9562712
-31.272226,2.1552231,2.9564319
-31.312603,2.1397164,2.941104
-31.346916,2.1446545,2.9499187
-31.657854,1.2903163,1.9498386
-31.697311,1.3037581,1.969521
-31.739128,1.3096898,1.9804897
-31.782402,1.3112962,1.9864955
-31.88138,1.1580617,1.8113375
-31.901546,1.2263863,1.8957615
-31.882498,1.3950725,2.0974808
-31.924501,1.3983164,2.1057777
-31.970966,1.3903303,2.1010776
-31.72669,2.0974274,2.9301624
-31.765165,2.0933506,2.9295263
-31.808006,2.0793345,2.9174304
-31.845924,2.0773678,2.9194736
-31.880548,2.0830243,2.9304771
-31.898298,2.1256952,2.9845128
-31.948368,2.0970998,2.9559488
-32.007843,2.0499418,2.9060612
-32.065468,2.0086129,2.8631368
-32.107582,2.0005014,2.858797
-32.148293,1.9956253,2.8583179
-32.189747,1.9896243,2.8566613
-32.230354,1.985606,2.8574119
-32.27105,1.9817045,2.8584156
-32.312836,1.976064,2.8575416
-32.354057,1.9717829,2.8583522
-32.394684,1.9688554,2.8608365
-32.436787,1.9635801,2.8607545
-32.48079,1.955354,2.8574286
-32.52459,1.9478767,2.8550954
-32.567074,1.9429855,2.8558455
-32.608166,1.94067,2.8596578
-32.651215,1.9354167,2.8602533
-32.6963,1.9272413,2.8576674
-32.73921,1.9228618,2.8595276
-32.780636,1.9210441,2.864418
-32.818913,1.9242065,2.8750591
-32.85025,1.9377811,2.897552
-32.8752,1.9605033,2.930416
-32.88852,1.9995763,2.981698
-32.89484,2.047673,3.0430822
-32.924686,2.0613935,3.0658917
-32.948257,2.0835922,3.0982509
-33.004738,2.0602357,3.079783
-33.057213,2.043069,3.0684276
-33.092525,2.0493894,3.083393
-33.126842,2.0569954,3.0998836
-33.20142,2.0123093,3.0585117
-33.24571,2.0077207,3.0618105
-33.284473,2.010385,3.0732646
-33.311825,2.027359,3.1006036
-33.361443,2.0166354,3.0975404
-33.404964,2.0137382,3.1032453
-33.459824,1.9974546,3.0944357
-33.510532,1.9866455,3.0918164
-33.559948,1.9777644,3.0914865
-33.60904,1.9696336,3.0921516
-33.65778,1.962249,3.0938053
-33.70152,1.9608421,3.1021094
-33.760902,1.9421666,3.091899
-33.811707,1.9335482,3.0927687
-33.862682,1.9251025,3.0940127
-33.915962,1.9145257,3.0931602
-33.972683,1.9006865,3.0890183
-34.028576,1.8881965,3.0865417
-34.08745,1.8730452,3.0814486
-34.138283,1.8666654,3.0859103
-34.19652,1.8530595,3.0829062
-34.244858,1.8498812,3.091155
-34.498608,1.642488,2.884366
-34.579792,1.6096661,2.8624086
-34.641308,1.59688,2.861813
-34.702477,1.584878,2.8622866
-34.76505,1.5719764,2.8620691
-34.829636,1.557626,2.8606052
-34.891502,1.5462985,2.8625417
-34.951775,1.5368626,2.8666859
-35.0292,1.5121281,2.8553238
-35.089348,1.5037198,2.8610659
-35.16012,1.4861608,2.8576908
-35.22314,1.4760118,2.8621817
-35.29447,1.4589715,2.859932
-35.367367,1.4411113,2.8571658
-35.43614,1.4273419,2.8588543
-35.491123,1.4257743,2.8731194
-35.58084,1.3951681,2.8584886
-35.64586,1.3859715,2.865675
-35.70909,1.3786273,2.8749857
-35.796062,1.3522091,2.8656507
-35.869625,1.3373685,2.8681698
-35.943447,1.3228095,2.8712997
-36.00148,1.3212817,2.8875432
-36.05552,1.3231325,2.9073277
-36.11429,1.3214715,2.923913
-36.162884,1.3279061,2.9485893
-36.225105,1.324012,2.9634876
-36.283955,1.3229551,2.9813828
-36.340065,1.3241885,3.001721
-36.43036,1.3001945,2.9982724
-29.018936,1.3419507,1.9132152
-29.067326,1.3632042,1.9358578
-29.271418,1.9084632,2.5833364
-29.32222,1.9704304,2.6553984
-29.365465,2.000138,2.6889706
-29.40696,2.0236115,2.7151952
-29.4471,2.0421119,2.735571
-29.486782,2.0600884,2.7554274
-29.526226,2.0788116,2.7762861
-29.56455,2.0925467,2.791264
-29.603062,2.1095734,2.8102942
-29.641253,2.1267052,2.8295527
-29.67857,2.139476,2.8436728
-29.715937,2.1548991,2.8610764
-29.752014,2.160849,2.8671923
-29.787977,2.1668937,2.8735147
-29.822948,2.1628165,2.8677578
-29.858967,2.1716006,2.877553
-29.894176,2.1708977,2.8760285
-29.929396,2.170286,2.874702
-29.964622,2.169764,2.8735704
-29.999931,2.1712503,2.8749428
-30.035154,2.17091,2.8742046
-30.070486,2.1757736,2.8798146
-30.105747,2.182645,2.8879285
-30.140903,2.201112,2.9100833
-30.175869,2.1985772,2.9070535
-30.210745,2.2044408,2.914216
-30.245922,2.1944163,2.9023485
-30.280993,2.1927905,2.9006748
-30.315926,2.1950889,2.9038067
-30.350819,2.1974766,2.9071345
-30.386066,2.1935666,2.9029737
-30.421806,2.1839986,2.892097
-30.456371,2.191128,2.9013877
-30.492777,2.1766376,2.8847728
-30.528112,2.1756487,2.884479
-30.56333,2.1760275,2.8859167
-30.599072,2.1720316,2.882187
-30.63473,2.1694043,2.8801918
-30.67044,2.1668704,2.878397
-30.705734,2.1676157,2.8806305
-30.74102,2.168452,2.883061
-30.776611,2.1674688,2.8833961
-30.812891,2.1627593,2.8793526
-30.84938,2.1575103,2.8747559
-30.885115,2.156809,2.8757033
-30.92074,2.1568367,2.877613
-30.957985,2.1493347,2.8705988
-30.983017,2.197802,2.9306607
-31.022377,2.1803172,2.9118705
-31.056438,2.1864092,2.9213781
-31.085812,2.2109637,2.9530296
-31.125557,2.193781,2.9348936
-31.461386,1.0736022,1.6002994
-31.50387,1.0865173,1.6190495
-31.548668,1.0906858,1.627471
-31.595272,1.088655,1.6286182
-31.64154,1.0880091,1.631536
-31.682667,1.1038797,1.6542273
-31.662756,1.3069541,1.8996286
-31.694664,1.3436291,1.9470744
-31.73045,1.3671494,1.978951
-31.781132,1.347388,1.9595413
-31.864521,1.2386351,1.8347654
-31.901129,1.2612853,1.8659878
-31.885435,1.4199774,2.0583353
-31.920734,1.4407654,2.0873713
-31.966446,1.4347394,2.0847898
-32.183033,1.012816,1.5912399
-32.23437,1.0037467,1.585762
-31.7779,2.1772552,2.974309
-31.829203,2.1435034,2.9387522
-31.868572,2.1379128,2.9364996
-31.901508,2.146723,2.9512835
-31.935171,2.15375,2.9640527
-32.00011,2.0951736,2.899959
-32.048023,2.073979,2.8799086
-32.093266,2.0591214,2.8674326
-32.13379,2.0542839,2.8668113
-32.173775,2.0507953,2.8678837
-32.21352,2.048038,2.8699217
-32.253662,2.0447779,2.8714895
-32.29321,2.0428624,2.8747363
-32.333153,2.0404441,2.877512
-32.374542,2.035692,2.8776922
-32.417442,2.0286162,2.8753033
-32.458702,2.0247214,2.876727
-32.501503,2.018509,2.8755932
-32.542595,2.0154696,2.8782535
-32.5875,2.006473,2.874167
-32.63183,1.9988296,2.87178
-32.673233,1.9961677,2.8752613
-32.71549,1.992418,2.8776155
-32.75625,1.9912093,2.8830128
-32.799053,1.9871049,2.8852162
-32.83708,1.9903488,2.8959498
-32.86106,2.0141149,2.93021
-32.867958,2.0618932,2.9918609
-32.887543,2.0904658,3.0316076
-32.90536,2.1208408,3.073412
-32.94345,2.1225998,3.082776
-32.997314,2.1030428,3.068128
-33.038235,2.1014948,3.0740228
-33.094467,2.0799124,3.0574512
-33.131123,2.0845654,3.0706224
-33.209522,2.0355837,3.023632
-33.25443,2.0305266,3.0262365
-33.25763,2.0779517,3.087738
-33.312744,2.0601583,3.0762982
-33.336983,2.0806296,3.10773
-33.38855,2.0678244,3.102169
-33.43742,2.058696,3.1008806
-33.484985,2.051477,3.101881
-33.535202,2.0415115,3.1000113
-33.583595,2.034034,3.101068
-33.633163,2.0255613,3.101201
-33.682903,2.017256,3.1016955
-33.733852,2.0079672,3.1012926
-33.782356,2.0017226,3.1044064
-33.83258,1.9939213,3.1059961
-33.893147,1.9754357,3.096137
-33.947563,1.9640126,3.094191
-33.99675,1.9584663,3.0988169
-34.049355,1.949682,3.1001244
-34.10491,1.9382508,3.0987768
-34.16349,1.9241958,3.0948243
-34.21273,1.9199209,3.1015916
-34.300232,1.8782008,3.0684938
-34.5493,1.6800752,2.868979
-34.608322,1.6696506,2.870429
-34.66754,1.6594348,2.8723354
-34.731083,1.6455431,2.8705854
-34.79132,1.6352081,2.872847
-34.857742,1.6195645,2.869769
-34.928066,1.6008649,2.8637629
-34.98476,1.5950654,2.8715425
-35.050144,1.5817959,2.8717604
-35.119473,1.5654922,2.8690996
-35.18413,1.553807,2.8715186
-35.246506,1.5445318,2.8766956
-35.32355,1.5230331,2.8695555
-35.3959,1.5061533,2.867497
-35.458965,1.4976227,2.8742876
-35.532494,1.4807386,2.872836
-35.60891,1.4619997,2.8698292
-35.68762,1.4419599,2.8658519
-35.752888,1.4333887,2.8737893
-35.838806,1.4086378,2.8657665
-35.91983,1.388458,2.8627195
-36.002544,1.367547,2.859321
-36.066757,1.3616531,2.871213
-36.15074,1.3408327,2.868627
-36.208485,1.3406696,2.8867774
-36.275856,1.3334374,2.8982344
-36.339222,1.3295615,2.9132676
-36.392944,1.3331361,2.935821
-36.45851,1.3281548,2.9503083
-36.532608,1.3172698,2.959395
-36.6281,1.2913604,2.9544115
-28.962006,1.3156321,1.8243737
-29.012728,1.3428705,1.8544064
-29.269325,1.9202065,2.5450258
-29.316236,1.962189,2.5937233
-29.368752,2.036532,2.6817455
-29.409472,2.05606,2.703527
-29.45073,2.080762,2.731688
-29.490547,2.099888,2.753202
-29.528475,2.1096315,2.763443
-29.568897,2.137205,2.7954116
-29.608349,2.1617258,2.8237863
-29.644478,2.1648147,2.8262496
-29.68062,2.168632,2.829689
-29.71777,2.182053,2.8448806
-29.754597,2.1949396,2.8595185
-29.79027,2.1984096,2.8628082
-29.825712,2.200068,2.863986
-29.861216,2.2030878,2.8669047
-29.896105,2.1979477,2.8599935
-29.931087,2.1928966,2.8532743
-29.966682,2.1987288,2.8598723
-30.002342,2.2090974,2.8720746
-30.037369,2.2049532,2.8667154
-30.072939,2.2237623,2.889357
-30.10779,2.209636,2.8720326
-30.142958,2.2267215,2.8927503
-30.177853,2.2375455,2.905939
-30.212793,2.2338514,2.901557
-30.247885,2.2270718,2.8935099
-30.282946,2.2248282,2.8910637
-30.31725,2.2404535,2.910431
-30.352505,2.2333097,2.9021974
-30.387367,2.2345102,2.9041948
-30.421375,2.2472236,2.920271
-30.456665,2.24162,2.9141684
-30.494448,2.2100987,2.8766627
-30.52955,2.2110288,2.8786793
-30.56485,2.2101471,2.8785825
-30.600471,2.206821,2.8756032
-30.63608,2.2042217,2.8735967
-30.671562,2.2029824,2.8733268
-30.707169,2.201201,2.8724885
-30.743011,2.198247,2.8703175
-30.778387,2.198551,2.8721857
-30.81376,2.1989462,2.8742514
-30.849606,2.1969047,2.8734527
-30.885122,2.196852,2.875153
-30.920391,2.1981544,2.878582
-30.957396,2.1913435,2.8722792
-30.984957,2.2275276,2.9180799
-31.016842,2.2423272,2.9380736
-31.053036,2.2382982,2.9353862
-31.083134,2.2589242,2.9625707
-31.126657,2.2267573,2.9260855
-31.459663,1.1269898,1.6016054
-31.505869,1.1260142,1.603724
-31.532652,1.192348,1.6870785
-31.600058,1.118783,1.6019526
-31.644659,1.123821,1.6116667
-31.691175,1.1227081,1.6140919
-31.663082,1.3495567,1.8906713
-31.702072,1.3647575,1.912745
-31.74253,1.3750491,1.9290118
-31.788372,1.369832,1.9267707
-31.866732,1.276176,1.8186431
-31.90987,1.2812669,1.8290753
-31.88461,1.4638796,2.0520735
-31.926935,1.4665246,2.0596232
-31.98003,1.4425681,2.0354958
-32.06236,1.349272,1.9287534
-32.21839,1.0864375,1.6201057
-31.77923,2.2089083,2.9629703
-31.832193,2.1716976,2.9228058
-31.867113,2.1760657,2.9322758
-31.902254,2.1799061,2.9412065
-31.939669,2.1789064,2.9444814
-31.996407,2.1379962,2.900527
-32.049675,2.1058955,2.8672094
-32.08815,2.104683,2.870627
-32.130116,2.0968308,2.8663
-32.17352,2.086654,2.859352
-32.2116,2.0870066,2.864954
-32.250027,2.0868535,2.8700638
-32.290157,2.083757,2.8718147
-32.331383,2.0789485,2.8716698
-32.374454,2.0712209,2.8682175
-32.415215,2.067874,2.8700309
-32.4557,2.065252,2.8728113
-32.49807,2.05972,2.8723059
-32.54425,2.0482697,2.865017
-32.58804,2.0411909,2.8629713
-32.629314,2.038464,2.866129
-32.670662,2.035858,2.8695483
-32.71325,2.0315711,2.871138
-32.75554,2.0280113,2.8736997
-32.7943,2.0299642,2.8827724
-32.84119,2.0200756,2.878263
-32.8561,2.0568593,2.9277816
-32.883743,2.0745752,2.9553084
-32.888657,2.12384,3.0191903
-32.90771,2.1522772,3.0590782
-32.940166,2.1617763,3.0772562
-32.98521,2.1542165,3.0759816
-33.0353,2.1403124,3.0676036
-33.082516,2.1306996,3.0642967
-33.120827,2.1329918,3.0747094
-33.16234,2.1312892,3.0806923
-33.205765,2.127371,3.084291
-33.25776,2.1130779,3.0762787
-33.298134,2.1135323,3.085125
-33.33083,2.1234117,3.1047301
-33.377472,2.1165423,3.1055589
-33.426224,2.1075103,3.104116
-33.477142,2.0963302,3.1004353
-33.52929,2.084172,3.0958424
-33.576607,2.077946,3.0980659
-33.623035,2.0730238,3.1019049
-33.674225,2.063099,3.1003413
-33.72718,2.0516367,3.0972576
-33.783516,2.03694,3.0907893
-33.82897,2.0343833,3.0979443
-33.8804,2.025735,3.0985417
-33.935795,2.0133016,3.0951672
-33.99143,2.001066,3.0922203
-34.04234,1.9940941,3.095245
-34.095066,1.9856117,3.096809
-34.153572,1.9717116,3.0926714
-34.21178,1.9585824,3.0896015
-34.27423,1.9417644,3.082767
-34.534355,1.73458,2.8705912
-34.600224,1.7176297,2.8646784
-34.658222,1.7086627,2.86761
-34.712864,1.7032084,2.8745284
-34.7807,1.685848,2.868937
-34.830288,1.685736,2.8819966
-34.909485,1.6590023,2.8669662
-34.981255,1.6396682,2.8601174
-35.04786,1.6255012,2.8590302
-35.10362,1.6213369,2.8687463
-35.176266,1.6027768,2.8635764
-35.24424,1.5888062,2.8635192
-35.30427,1.5820735,2.871295
-35.37588,1.5659165,2.8695226
-35.449707,1.5484331,2.8666854
-35.50903,1.543474,2.8770976
-35.589867,1.5212195,2.8699641
-35.66261,1.506161,2.8705726
-35.733654,1.492964,2.873402
-35.805603,1.4795125,2.876285
-35.891785,1.4553375,2.868616
-35.96498,1.4419515,2.8722458
-36.03707,1.4298875,2.8775325
-36.127716,1.4040985,2.8693876
-36.211967,1.3838494,2.867206
-36.2842,1.3732085,2.8749747
-36.37115,1.3520653,2.8726687
-36.440376,1.3445721,2.8842378
-36.499943,1.3444753,2.9033775
-36.57784,1.331384,2.9100647
-36.65384,1.3201163,2.9188914
-28.897488,1.2816811,1.7230716
-28.96287,1.3616829,1.8177695
-29.003286,1.3474245,1.7975144
-29.04605,1.3420293,1.7881861
-29.089907,1.3411274,1.7844529
-29.27309,1.9746904,2.5570698
-29.334455,2.0860038,2.6912327
-29.374205,2.1002698,2.7067676
-29.414879,2.1209242,2.7302322
-29.45561,2.1442063,2.7570248
-29.492977,2.1506379,2.7632704
-29.532463,2.1709995,2.7866912
-29.573969,2.207194,2.8296375
-29.608814,2.2019842,2.8218942
-29.644938,2.205674,2.8251572
-29.682005,2.2176437,2.8386745
-29.71819,2.2240436,2.8454452
-29.755047,2.238099,2.8617067
-29.790722,2.2428005,2.8665695
-29.826305,2.2475953,2.871636
-29.8615,2.2486992,2.872254
-29.896238,2.2435892,2.8653197
-29.932259,2.2587485,2.8833833
-29.967209,2.2582338,2.882268
-30.002193,2.2584395,2.882121
-30.037285,2.2625208,2.8868256
-30.072338,2.2685854,2.894051
-30.10721,2.2690616,2.8944917
-30.142084,2.275306,2.9021091
-30.176899,2.273437,2.8998342
-30.211779,2.2697654,2.8954258
-30.246744,2.265553,2.8904376
-30.281475,2.2702622,2.896503
-30.315893,2.280107,2.908965
-30.35023,2.2881455,2.919289
-30.384897,2.2887046,2.9205017
-30.419695,2.2874618,2.919582
-30.455715,2.27181,2.9010425
-30.492496,2.2512128,2.8765192
-30.528196,2.2452075,2.8700123
-30.563456,2.2443345,2.869896
-30.59866,2.2441826,2.870751
-30.633625,2.2460098,2.8741207
-30.669085,2.2441516,2.8730521
-30.70449,2.2430146,2.8729563
-30.740223,2.2400827,2.8707447
-30.775805,2.238502,2.8702784
-30.81131,2.237642,2.870782
-30.846722,2.2375028,2.8722568
-30.88288,2.2336893,2.869318
-30.9186,2.2324817,2.8696604
-30.955564,2.2257233,2.8632984
-30.987738,2.2409983,2.8839817
-31.010103,2.2970555,2.954595
-31.042404,2.3080723,2.970192
-31.295101,1.4478605,1.9217134
-31.43567,1.0770631,1.4718809
-31.482517,1.076678,1.4745998
-31.528854,1.0782883,1.4798679
-31.541183,1.1966586,1.6275554
-31.58752,1.1946824,1.6285987
-31.63913,1.176014,1.6094408
-31.706842,1.1083367,1.5308061
-31.700577,1.2690778,1.7300911
-31.71642,1.355741,1.8392329
-31.747776,1.3933377,1.888772
-31.807142,1.350991,1.8413696
-31.855904,1.3398168,1.8319459
-31.908398,1.3194985,1.8115807
-31.894392,1.4718521,2.0003786
-31.940914,1.464653,1.9960217
-31.989346,1.4532654,1.9867277
-32.12539,1.2324407,1.724678
-32.240334,1.0713241,1.5352364
-31.78326,2.2281418,2.934865
-31.81934,2.2293117,2.9403625
-31.871643,2.1949863,2.903246
-31.894333,2.2258112,2.9446168
-31.934525,2.2187068,2.9404645
-31.961802,2.2386234,2.9688416
-32.039856,2.1553895,2.8736496
-32.0831,2.1444345,2.8652945
-32.119972,2.1464026,2.8725219
-32.160664,2.14117,2.8712435
-32.202118,2.1348412,2.8687735
-32.242054,2.1316679,2.870184
-32.281395,2.1298206,2.8732848
-32.32182,2.126271,2.8744707
-32.363365,2.121026,2.8737574
-32.40609,2.114095,2.8711648
-32.4486,2.1078944,2.8695664
-32.49052,2.103025,2.8696666
-32.529224,2.1036825,2.8764224
-32.572815,2.0966568,2.8742175
-32.61503,2.0921583,2.875122
-32.65851,2.0859933,2.8741918
-32.70173,2.0805576,2.8742495
-32.74547,2.0746582,2.8738937
-32.787727,2.0712695,2.876614
-32.83048,2.0674143,2.8789139
-32.857224,2.0867858,2.9084787
-32.87234,2.1221642,2.9567618
-32.89066,2.1522188,2.9988303
-32.89816,2.1964138,3.0573444
-32.930508,2.2058713,3.0754824
-32.966667,2.2101262,3.0876684
-33.026352,2.1834416,3.064158
-33.070786,2.177434,3.064753
-33.112617,2.1750672,3.0696878
-33.155437,2.171664,3.0735607
-33.20347,2.1620026,3.0703778
-33.246986,2.1582987,3.0741906
-33.288692,2.157045,3.0809464
-33.32659,2.1605358,3.0932536
-33.368347,2.1595263,3.1005387
-33.41359,2.1546197,3.1035209
-33.46093,2.1475654,3.1042142
-33.510933,2.1378055,3.102004
-33.562145,2.1270742,3.0988698
-33.611526,2.1187975,3.098689
-33.657978,2.1140969,3.1027098
-33.707672,2.106146,3.1032367
-33.757008,2.0989292,3.104763
-33.807556,2.0907505,3.1053863
-33.863647,2.0771146,3.1001015
-33.916756,2.0670485,3.0990024
-33.970062,2.057169,3.0983071
-34.024124,2.0469165,3.0973969
-34.085625,2.0296097,3.0888891
-34.138474,2.021425,3.090685
-34.193752,2.0112066,3.0904398
-34.242386,2.0078192,3.0979
-34.426453,1.8750017,2.9638944
-34.573933,1.7798929,2.8719716
-34.621216,1.7808874,2.8853798
-34.6933,1.7590592,2.8741755
-34.75805,1.7446005,2.8712502
-34.824875,1.72875,2.8670845
-34.873272,1.7299633,2.8815584
-34.947857,1.7080772,2.8714137
-35.020393,1.6886394,2.8642068
-35.08278,1.6786213,2.8673577
-35.147854,1.6666863,2.86872
-35.21065,1.6571302,2.8728728
-35.28122,1.6414096,2.8707643
-35.343174,1.633395,2.8770747
-35.409134,1.6224279,2.880536
-35.477245,1.6101229,2.8828726
-35.550133,1.5943897,2.8819242
-35.622005,1.579988,2.8826752
-35.690197,1.5689988,2.8872733
-35.78709,1.5358558,2.8693013
-35.84855,1.5311692,2.88105
-35.918835,1.5199728,2.886383
-36.004868,1.497175,2.8801827
-36.087906,1.4772973,2.8773518
-36.16172,1.4649277,2.8825097
-36.276367,1.4227076,2.857885
-36.350876,1.4110131,2.8645072
-36.43605,1.391999,2.8641405
-36.527863,1.3687787,2.8599849
-36.630646,1.338381,2.8491497
-36.735367,1.3074129,2.8382626
-28.839502,1.2744563,1.642448
-28.91101,1.3715818,1.7594576
-28.954525,1.3684535,1.752675
-29.00197,1.3809578,1.7653446
-29.051258,1.4022899,1.7890697
-29.243725,2.044718,2.582384
-29.282984,2.0517662,2.5890002
-29.342552,2.1553736,2.7154431
-29.38086,2.1639292,2.724174
-29.419113,2.1732123,2.7339025
-29.457413,2.183845,2.7454028
-29.496042,2.197699,2.761001
-29.540749,2.2503338,2.8248692
-29.580397,2.276896,2.8564668
-29.610931,2.244263,2.8145938
-29.648254,2.257287,2.8295474
-29.684774,2.266038,2.8392792
-29.721048,2.274262,2.8484445
-29.756893,2.2800808,2.8547077
-29.79238,2.2834923,2.8580608
-29.828125,2.2907484,2.8662844
-29.863386,2.2937193,2.8692598
-29.898714,2.2986586,2.8747706
-29.93402,2.3049414,2.8820376
-29.968891,2.3050568,2.881711
-30.003454,2.2977507,2.8722253
-30.03854,2.3030531,2.8785224
-30.07347,2.3059413,2.8818955
-30.108349,2.3095458,2.8862457
-30.143166,2.31637,2.8946881
-30.17792,2.3138933,2.8916273
-30.212732,2.3108792,2.8879805
-30.24737,2.3167193,2.8954444
-30.282122,2.3163884,2.8953037
-30.316824,2.3173978,2.8969164
-30.350786,2.3316393,2.9150858
-30.385244,2.3340766,2.9186373
-30.420029,2.331598,2.9161506
-30.456062,2.314823,2.8959537
-30.49352,2.2862632,2.8611813
-30.52909,2.281565,2.856192
-30.564264,2.2813344,2.8568468
-30.599445,2.2811937,2.8576984
-30.634634,2.2811449,2.8587465
-30.669914,2.2805622,2.8592162
-30.704931,2.2819433,2.8622108
-30.740623,2.2790468,2.8599749
-30.776588,2.274997,2.8563929
-30.812302,2.2729118,2.8553376
-30.847942,2.2715435,2.855259
-30.883617,2.2702682,2.8553824
-30.919323,2.2690864,2.8557081
-30.953978,2.2729745,2.8624053
-30.985043,2.2924948,2.8885546
-31.011192,2.3313468,2.9387116
-31.048836,2.3205628,2.9274611
-31.39083,1.120213,1.4443426
-31.441303,1.1060956,1.4299068
-31.487799,1.107614,1.4349327
-31.535688,1.1042986,1.4340973
-31.537401,1.2582967,1.6276278
-31.630943,1.1005268,1.436317
-31.642216,1.2149906,1.581099
-31.691465,1.205301,1.5727983
-31.735775,1.2111707,1.5837908
-31.735632,1.3465776,1.7543416
-31.770935,1.3741076,1.7920814
-31.797047,1.4256985,1.8594618
-31.823118,1.4748533,1.9238706
-31.86094,1.490874,1.9476314
-31.89968,1.5039127,1.9678135
-31.937946,1.5176547,1.988946
-32.00215,1.4678221,1.9323087
-32.19475,1.115524,1.5058017
-32.23764,1.126946,1.5247898
-32.251026,1.2049756,1.6252337
-32.237156,1.3402433,1.7954822
-31.861937,2.2544947,2.9153347
-31.89268,2.2674506,2.935339
-31.911821,2.304158,2.984313
-31.958845,2.2826502,2.9625177
-32.03871,2.1964834,2.8623385
-32.07946,2.190493,2.859748
-32.118134,2.1888518,2.8625422
-32.15878,2.1836975,2.8611875
-32.199867,2.1780603,2.8593616
-32.240746,2.1731453,2.8585258
-32.280727,2.1701522,2.8601227
-32.32147,2.1660748,2.8605237
-32.362656,2.1615164,2.8604603
-32.404655,2.1558836,2.859223
-32.446423,2.1509733,2.8589725
-32.487934,2.146783,2.8597069
-32.52881,2.1439059,2.862135
-32.56938,2.1417434,2.8655324
-32.612686,2.1355445,2.864222
-32.65381,2.1330323,2.8674393
-32.696957,2.127683,2.8673944
-32.741024,2.1212847,2.866229
-32.783623,2.1173797,2.8681602
-32.826725,2.113015,2.8696709
-32.85587,2.128748,2.8951197
-32.87679,2.1556785,2.9338694
-32.879417,2.207201,3.0016794
-32.901325,2.2311962,3.0369549
-32.931522,2.2435572,3.0585566
-32.957993,2.2606397,3.0857735
-33.005123,2.2504795,3.0810733
-33.067345,2.2213504,3.0543075
-33.107765,2.2207942,3.0611882
-33.142227,2.227862,3.0770903
-33.17845,2.2327151,3.0905008
-33.22924,2.2198496,3.0834012
-33.27409,2.2146149,3.0853357
-33.31182,2.218108,3.0975308
-33.36658,2.2017205,3.0868387
-33.4123,2.1963549,3.0890684
-33.460632,2.1882944,3.0883431
-33.508633,2.1809626,3.0886192
-33.556286,2.1743567,3.0898929
-33.60408,2.1679087,3.0915089
-33.65513,2.1582391,3.0896034
-33.7069,2.1481824,3.0874405
-33.757824,2.139427,3.0869412
-33.806797,2.1330826,3.0893583
-33.854836,2.1280189,3.0933976
-33.912766,2.1130972,3.08646
-33.964417,2.1050475,3.0874915
-34.014023,2.09939,3.0913997
-34.069893,2.087826,3.088853
-34.131622,2.0709531,3.0805736
-34.187435,2.0603533,3.0795417
-34.24003,2.0532393,3.082602
-34.297394,2.041937,3.0812016
-34.567875,1.8313925,2.859222
-34.62039,1.8275757,2.8671212
-34.678917,1.8185167,2.869429
-34.731674,1.8150706,2.8781314
-34.79413,1.8031809,2.8777676
-34.862267,1.786684,2.8726144
-34.91852,1.7811604,2.8796997
-34.92698,1.8174996,2.9324956
-35.03265,1.7696381,2.8939962
-35.063713,1.78648,2.925891
-35.121532,1.7806246,2.9334126
-35.238327,1.7258923,2.8886795
-35.338875,1.6858742,2.8602552
-35.39779,1.6808989,2.8696847
-35.468445,1.6667206,2.8695574
-35.530262,1.6601088,2.8777509
-35.621696,1.6303446,2.8617368
-35.68399,1.6242585,2.8710685
-35.758366,1.6091084,2.8711462
-35.833023,1.5942473,2.8718486
-35.905945,1.5812144,2.874784
-35.978436,1.568974,2.8788576
-36.05933,1.5509005,2.8772182
-36.13096,1.5402544,2.8835945
-36.213135,1.5222971,2.882784
-36.285927,1.5117228,2.889894
-36.38543,1.482348,2.87819
-36.44404,1.4829097,2.897315
-36.56549,1.4393115,2.8721013
-28.746029,1.3115351,1.6214004
-28.78062,1.2741966,1.5714355
-28.853313,1.3697131,1.6878128
-28.951202,1.4014437,1.7216763
-29.009935,1.4581747,1.7900219
-29.057543,1.4737933,1.8069816
-29.24427,2.087848,2.574892
-29.27629,2.062733,2.5412855
-29.338602,2.177246,2.6830754
-29.381443,2.207336,2.7190137
-29.419254,2.2146797,2.7264838
-29.457373,2.2245986,2.7372851
-29.495834,2.2377145,2.7521987
-29.535364,2.2589831,2.7774653
-29.575638,2.2877944,2.8123217
-29.614988,2.314242,2.8443089
-29.650866,2.3191092,2.8492274
-29.686329,2.3215916,2.8512287
-29.72065,2.3148634,2.841712
-29.756893,2.3249705,2.8534846
-29.792816,2.3339336,2.863902
-29.828344,2.340508,2.8713942
-29.863056,2.3384845,2.868134
-29.897675,2.3346875,2.8627186
-29.9331,2.3433986,2.8731546
-29.968016,2.3453698,2.8751745
-30.002964,2.349295,2.8797417
-30.037588,2.3452349,2.8743186
-30.072365,2.3449905,2.8737893
-30.107166,2.3466995,2.8758044
-30.141943,2.3528469,2.8834972
-30.176609,2.3578413,2.8898177
-30.211103,2.367273,2.9018164
-30.245636,2.368717,2.903819
-30.280184,2.369007,2.904448
-30.314528,2.373734,2.9107528
-30.34892,2.376064,2.9141145
-30.38339,2.3766196,2.915319
-30.417341,2.3840926,2.925324
-30.452515,2.3755136,2.915175
-30.489666,2.3477898,2.8809848
-30.525293,2.340022,2.8720312
-30.560299,2.339171,2.8718753
-30.595476,2.3371692,2.8703542
-30.63078,2.33464,2.8682508
-30.665785,2.334681,2.8694668
-30.700699,2.335432,2.8716583
-30.735603,2.3362725,2.8740444
-30.771029,2.3341093,2.872734
-30.806164,2.3338945,2.8739586
-30.841194,2.3343883,2.8761568
-30.876965,2.3312654,2.8738942
-30.91319,2.3263845,2.8695087
-30.947891,2.3290076,2.8746338
-30.983965,2.32555,2.8722086
-31.01039,2.3628836,2.9210348
-31.043922,2.3688362,2.9305596
-31.26191,1.6605525,2.0451212
-31.41985,1.2277763,1.505723
-31.470053,1.213264,1.4905982
-31.50906,1.238837,1.5257592
-31.542482,1.2816861,1.5826015
-31.597149,1.2528028,1.5498419
-31.6687,1.1725891,1.4531202
-31.677357,1.2898746,1.6031733
-31.706453,1.3397601,1.6690736
-31.735674,1.386622,1.731235
-31.771854,1.4115248,1.7660713
-31.706158,1.7136161,2.1460853
-31.737188,1.7426686,2.185975
-31.776142,1.7498455,2.198717
-31.88504,1.5800176,1.991653
-31.907438,1.6319513,2.0603042
-31.939215,1.6589916,2.0980844
-31.984947,1.6521156,2.0938807
-32.23158,1.1842022,1.5188684
-32.23723,1.2785912,1.6406908
-32.251854,1.3493104,1.7331681
-32.288765,1.369262,1.7629008
-31.889872,2.3055093,2.923418
-31.918888,2.3214707,2.9473205
-31.958649,2.3152308,2.943932
-32.008568,2.2892773,2.9163976
-32.066113,2.24969,2.872262
-32.10426,2.2486656,2.8756762
-32.145653,2.241763,2.8719797
-32.185562,2.2379718,2.8722115
-32.225563,2.2342958,2.8726926
-32.264645,2.2325232,2.8756118
-32.306183,2.2266958,2.873683
-32.346104,2.2239633,2.8756466
-32.387165,2.219566,2.875692
-32.43157,2.2099588,2.8695107
-32.471058,2.2087703,2.8736954
-32.512447,2.2047415,2.8745399
-32.553936,2.200836,2.875651
-32.59514,2.1976414,2.8777404
-32.636036,2.1951566,2.8808055
-32.67897,2.1898594,2.8805876
-32.722424,2.1841073,2.8799496
-32.766006,2.1784875,2.8795977
-32.80768,2.1759202,2.8830462
-32.84486,2.1798825,2.8944554
-32.87234,2.1973174,2.9221144
-32.882946,2.2374332,2.9769754
-32.88939,2.2821462,3.0372944
-32.916832,2.2979004,3.0630012
-32.947975,2.3085158,3.0826359
-32.99369,2.3002028,3.0798264
-33.068943,2.254689,3.0329823
-33.104385,2.2605133,3.0473013
-33.16471,2.2355294,3.0252495
-33.186714,2.258169,3.0596852
-33.22015,2.266586,3.077372
-33.25537,2.2728138,3.092565
-33.313217,2.2524664,3.076622
-33.34167,2.2668667,3.101646
-33.391605,2.2564695,3.0976987
-33.435276,2.253571,3.102682
-33.486076,2.242937,3.0987844
-33.535576,2.2341616,3.0972242
-33.57961,2.2317104,3.1031804
-33.628384,2.2243736,3.1036124
-33.678368,2.2160866,3.1031132
-33.730648,2.2057476,3.1004171
-33.782074,2.1966991,3.0993934
-33.831535,2.1900406,3.101297
-33.885498,2.1791368,3.098503
-33.935844,2.1722748,3.1005297
-33.98579,2.1661334,3.1035547
-34.043697,2.1524997,3.0982237
-34.10244,2.1385303,3.0927286
-34.15805,2.128043,3.091401
-34.215023,2.1166687,3.0892773
-34.271652,2.1060405,3.08821
-34.47651,1.9584584,2.933322
-34.586475,1.9012344,2.8808107
-34.641224,1.8954985,2.8864055
-34.70864,1.8787072,2.8798628
-34.772774,1.865375,2.87744
-34.830505,1.8581362,2.8820286
-34.868237,1.8686182,2.9064455
-34.900272,1.8839645,2.9363394
-34.997196,1.8439829,2.9054346
-35.040493,1.850173,2.9256172
-35.11455,1.8307967,2.9179788
-35.182636,1.8169394,2.9166698
-35.23695,1.8148046,2.9283814
-35.31319,1.7951941,2.921362
-35.374264,1.7883122,2.9284148
-35.47394,1.7511983,2.9031653
-35.569035,1.718621,2.8832436
-35.66009,1.6900301,2.8680215
-35.722412,1.684303,2.8775811
-35.79691,1.6696348,2.8778958
-35.87101,1.6557641,2.8793745
-35.927757,1.655335,2.8953485
-36.022057,1.6273737,2.882618
-36.094894,1.6158822,2.8875666
-36.174168,1.6001661,2.8884258
-36.256516,1.5827682,2.8878922
-36.34967,1.558244,2.8803606
-36.43412,1.5405438,2.8802986
-36.51677,1.5246639,2.8824954
-36.61963,1.4953494,2.871338
-28.692856,1.3234155,1.578063
-28.729914,1.2947235,1.538475
-28.79387,1.3558266,1.6124744
-28.848309,1.3878233,1.6498508
-28.906975,1.4377112,1.7100158
-28.957224,1.4596503,1.7349639
-29.019657,1.5313108,1.8230257
-29.062103,1.5272362,1.8152947
-29.243475,2.1140277,2.5568104
-29.296793,2.1834886,2.6428618
-29.342678,2.2249038,2.6934848
-29.381817,2.2376075,2.707789
-29.42034,2.248578,2.7199874
-29.459328,2.2633395,2.7370977
-29.497478,2.2751355,2.7505345
-29.536522,2.2938006,2.7727976
-29.57655,2.3211887,2.8062491
-29.61477,2.3400733,2.8289862
-29.651688,2.3522892,2.8433366
-29.68639,2.3492055,2.838305
-29.721365,2.348059,2.8358188
-29.757425,2.3568645,2.8460832
-29.794348,2.376245,2.869897
-29.828745,2.3716757,2.8633003
-29.86357,2.3715117,2.8623924
-29.897789,2.3628008,2.8506775
-29.933546,2.3770053,2.868235
-29.96884,2.3876016,2.881279
-30.003521,2.3884149,2.88194
-30.037819,2.3775902,2.8678484
-30.072615,2.3804328,2.8712525
-30.107319,2.3802788,2.8709178
-30.142035,2.3851519,2.8770704
-30.176626,2.3938184,2.8881369
-30.21104,2.4031904,2.9001822
-30.245472,2.4052434,2.9029775
-30.280022,2.403064,2.9004598
-30.314415,2.4052942,2.9036398
-30.348766,2.4076116,2.9070096
-30.383236,2.4075499,2.9074273
-30.41771,2.4075768,2.9080372
-30.452812,2.4002917,2.8994136
-30.489403,2.3789175,2.872932
-30.524414,2.376752,2.870996
-30.559471,2.374678,2.869257
-30.594574,2.3726945,2.8677158
-30.629717,2.3708024,2.8663712
-30.664991,2.368386,2.8644428
-30.700222,2.366677,2.8634963
-30.735693,2.3638294,2.8611841
-30.770802,2.363535,2.8621998
-30.805586,2.3651748,2.8657565
-30.840698,2.365061,2.867166
-30.876192,2.3631966,2.8664331
-30.910952,2.3651075,2.8705764
-30.946903,2.361588,2.8679109
-30.982788,2.3587768,2.8662295
-31.00842,2.3989432,2.9191103
-31.042334,2.40303,2.9263158
-31.269247,1.6650641,1.9938555
-31.420416,1.2614095,1.4855542
-31.45629,1.2983363,1.5352731
-31.499954,1.3060248,1.5480809
-31.540562,1.3235829,1.5734606
-31.584808,1.3284328,1.5828724
-31.63092,1.3273051,1.5848408
-31.671864,1.3421218,1.6070361
-31.706978,1.3734531,1.6501398
-31.728155,1.443124,1.7416129
-31.765434,1.4642303,1.7719278
-31.701958,1.7576952,2.1450396
-31.737461,1.7744575,2.169798
-31.776659,1.7810092,2.181798
-31.822735,1.7701259,2.1719918
-31.90185,1.6790454,2.0616856
-31.930965,1.7119572,2.1071138
-31.973417,1.7123673,2.111865
-32.19355,1.3077292,1.6097069
-32.250137,1.2859778,1.5873728
-32.279064,1.3256683,1.6419811
-32.304726,1.3707917,1.703403
-31.884869,2.34468,2.9233866
-31.917,2.35397,2.939116
-31.95464,2.351981,2.9408717
-32.00419,2.3268168,2.913898
-32.065697,2.279763,2.8598766
-32.10352,2.2793732,2.8639965
-32.141373,2.2790878,2.8683438
-32.179253,2.2789068,2.8729172
-32.22214,2.2699387,2.866713
-32.264206,2.262878,2.8629894
-32.304367,2.2594895,2.8639202
-32.344616,2.2562177,2.8651018
-32.38566,2.2518847,2.8650856
-32.42932,2.243554,2.8602638
-32.468052,2.2435815,2.8658419
-32.50866,2.2407866,2.8680563
-32.54972,2.237524,2.869811
-32.59316,2.2308753,2.8675332
-32.63597,2.2255278,2.866973
-32.67655,2.2238052,2.8709617
-32.71759,2.2216198,2.8745003
-32.763138,2.2131698,2.870523
-32.806,2.2089202,2.871791
-32.841923,2.2146342,2.8852835
-32.871456,2.229102,2.909481
-32.877346,2.2753265,2.9721856
-32.894035,2.3059611,3.0159864
-32.91498,2.330278,3.0521579
-32.948753,2.3374267,3.0676575
-32.994488,2.3292248,3.0647702
-33.092854,2.2549787,2.9826894
-33.08877,2.3104193,3.05655
-33.13321,2.3049448,3.0573702
-33.158592,2.322862,3.086286
-33.25465,2.2559428,3.01402
-33.256287,2.3023608,3.0771446
-33.292885,2.3070064,3.090528
-33.342136,2.297137,3.0867853
-33.388138,2.2913616,3.0880547
-33.435276,2.2846165,3.088327
-33.482567,2.2780275,3.0889378
-33.528988,2.2727094,3.0911999
-33.570393,2.2731009,3.1003237
-33.62325,2.2614214,3.095415
-33.67425,2.2521403,3.0934982
-33.72757,2.2408278,3.0893846
-33.780052,2.230804,3.0869613
-33.82897,2.2248058,3.0894032
-33.879124,2.2178774,3.0909333
-33.925583,2.2149427,3.0972605
-33.983215,2.2012658,3.09133
-34.03553,2.193231,3.0921168
-34.089714,2.1837537,3.0914288
-34.15093,2.1679828,3.0837173
-34.204998,2.159446,3.084518
-34.254047,2.155937,3.0912538
-34.41752,2.0475457,2.9787245
-34.580013,1.9425826,2.8708687
-34.63295,1.9385581,2.8781424
-34.69615,1.9256799,2.8755994
-34.74998,1.9215131,2.8831158
-34.802097,1.919116,2.892815
-34.875698,1.8984594,2.882234
-35.782204,1.1685967,2.0793424
-35.00049,1.8779042,2.8851156
-35.044445,1.88363,2.9047017
-35.110382,1.8712766,2.9044003
-35.189262,1.8487961,2.8931751
-35.250675,1.8411086,2.8985748
-35.321907,1.825913,2.8959737
-35.381126,1.8207536,2.9046488
-35.445038,1.8122215,2.9098744
-35.51504,1.7993321,2.9106169
-35.568108,1.7999389,2.9262767
-35.67711,1.7581344,2.8963265
-35.77145,1.7284217,2.8799024
-35.86364,1.7011161,2.8664923
-35.935966,1.6892476,2.87
-36.0099,1.6766579,2.8730474
-36.075146,1.6708333,2.8835902
-36.15366,1.6558154,2.8846846
-36.226894,1.6450665,2.8906202
-36.312935,1.6257267,2.8878603
-36.409187,1.5998597,2.8786712
-36.4783,1.5934801,2.8902183
-36.58528,1.5615218,2.875546
-36.707863,1.5198193,2.8513355
-28.638926,1.341161,1.5309763
-28.68724,1.3482192,1.5365977
-28.731503,1.3427024,1.5262499
-28.789873,1.3845367,1.5766091
-28.865843,1.4907999,1.7096419
-28.90832,1.4839163,1.6979451
-28.9561,1.4965618,1.7113767
-29.022049,1.5810082,1.8170114
-29.070862,1.6030827,1.8428173
-29.243536,2.1488938,2.5410237
-29.302845,2.2439706,2.6611
-29.344784,2.2680197,2.690112
-29.384216,2.2824445,2.7068634
-29.423119,2.29576,2.7222848
-29.461521,2.3079631,2.736372
-29.500656,2.325762,2.7577496
-29.539331,2.3430598,2.7785788
-29.578438,2.36535,2.8059282
-29.616282,2.3822513,2.826437
-29.65277,2.391924,2.8377256
-29.688509,2.397415,2.8437142
-29.72289,2.392605,2.8365126
-29.760784,2.4190772,2.8697019
-29.795341,2.4175096,2.8668408
-29.83009,2.4178667,2.8665395
-29.86468,2.416477,2.8640642
-29.899593,2.4194615,2.8673077
-29.934631,2.4255984,2.8746958
-29.969234,2.425702,2.874383
-30.004034,2.4307938,2.8805819
-30.0385,2.4286256,2.8774948
-30.072979,2.4253201,2.8730178
-30.107616,2.4300678,2.8790078
-30.142174,2.441031,2.893094
-30.176558,2.4465685,2.90026
-30.210928,2.4466808,2.9005036
-30.24541,2.442594,2.8954082
-30.279861,2.441658,2.894454
-30.31419,2.4438734,2.897644
-30.348372,2.4480138,2.9033933
-30.382475,2.452241,2.9093318
-30.417286,2.4461489,2.90204
-30.45201,2.4425952,2.8981009
-30.488438,2.4219995,2.8722734
-30.523664,2.4167964,2.8663707
-30.558083,2.4196358,2.870913
-30.593136,2.4170604,2.8685565
-30.628242,2.4145765,2.8663993
-30.663404,2.4121845,2.8644404
-30.698523,2.4104948,2.8634658
-30.733881,2.4076755,2.8611183
-30.768982,2.40678,2.8613286
-30.804443,2.4041457,2.8593822
-30.839493,2.4040432,2.8607736
-30.874674,2.403422,2.861579
-30.909487,2.40472,2.8649316
-30.94442,2.4054992,2.8676968
-30.977081,2.4161015,2.883153
-31.004532,2.4474516,2.9253063
-31.199162,1.8142004,2.1149735
-31.361668,1.3512704,1.5238461
-31.410297,1.3404872,1.5128393
-31.45077,1.3595474,1.5401788
-31.50115,1.3435605,1.5227294
-31.542349,1.3591979,1.5458755
-31.581562,1.3803759,1.5761929
-31.629135,1.3744411,1.5719333
-31.67143,1.3849423,1.5887852
-31.704464,1.4220953,1.6397533
-31.740402,1.4490547,1.6777649
-31.71112,1.6549673,1.9440145
-31.704947,1.787802,2.1169086
-31.736393,1.8152947,2.1555376
-31.781212,1.8074121,2.1492057
-31.828133,1.7948573,2.1370463
-31.895313,1.733897,2.0635076
-31.924772,1.7653749,2.1075497
-31.962952,1.7753694,2.1243796
-32.20495,1.3243117,1.5568423
-32.25127,1.3260701,1.5638824
-32.288483,1.3476183,1.5960793
-32.31883,1.3829327,1.64575
-32.373222,1.3671606,1.630919
-31.914816,2.3918197,2.929484
-31.95361,2.3875039,2.928196
-31.992811,2.3827076,2.9264026
-32.05537,2.3336673,2.8690243
-32.09522,2.329158,2.8678555
-32.133247,2.3283038,2.8713827
-32.171314,2.327555,2.8751383
-32.210747,2.3245604,2.8761759
-32.25195,2.3187428,2.873783
-32.292946,2.3136344,2.8723893
-32.33476,2.3074758,2.8697953
-32.379196,2.2973511,2.8623667
-32.420246,2.293202,2.8625154
-32.457375,2.2955844,2.8709092
-32.499683,2.2899227,2.8693924
-32.542503,2.2838087,2.8674312
-32.58508,2.2784045,2.8664732
-32.626236,2.2754457,2.8686633
-32.66629,2.2743416,2.873263
-32.71158,2.265855,2.8688493
-32.754227,2.2615418,2.8697186
-32.79493,2.260233,2.8744102
-32.84233,2.2498634,2.8680654
-32.85462,2.2877498,2.9211617
-32.88156,2.3050323,2.9489508
-32.897423,2.3366258,2.99432
-32.90704,2.3756125,3.0487256
-32.93762,2.3867178,3.0690398
-32.96757,2.398461,3.0901976
-33.04306,2.353116,3.0419083
-33.077744,2.3594646,3.0567489
-33.08176,2.4030986,3.116928
-33.144966,2.3746853,3.0897493
-33.199726,2.357174,3.0759883
-33.25341,2.3415377,3.0646787
-33.289013,2.3473217,3.0793715
-33.319153,2.3593333,3.1016493
-33.37235,2.3452744,3.0926843
-33.41634,2.3419456,3.0967631
-33.465977,2.3326676,3.0938606
-33.511223,2.3285296,3.09726
-33.56225,2.3184772,3.0937538
-33.608803,2.3135486,3.0965161
-33.65601,2.3082242,3.098958
-33.706528,2.2997751,3.0978518
-33.75616,2.2925901,3.098412
-33.807037,2.284487,3.0980563
-33.863003,2.271673,3.092328
-33.91593,2.2623096,3.0908537
-33.964626,2.2574515,3.0948443
-34.02128,2.2452176,3.090374
-34.070282,2.2407079,3.09512
-34.127377,2.2288647,3.091497
-34.19046,2.2118866,3.08212
-34.23593,2.2116597,3.0923862
-34.31648,2.1797087,3.066143
-34.55426,2.0071886,2.8782115
-34.605827,2.0042918,2.8864546
-34.662865,1.9968297,2.8896408
-34.72369,1.9864185,2.88966
-34.780487,1.9798939,2.8943415
-34.85519,1.9584336,2.882238
-34.891445,1.9700506,2.9079638
-34.909504,1.9968076,2.9509153
-35.022305,1.944952,2.9051852
-35.073612,1.9446294,2.9179344
-35.112892,1.9542444,2.9420085
-36.35682,0.99928546,1.8876257
-36.377884,1.0331652,1.9422565
-36.358826,1.0980897,2.0313826
-35.462032,1.8436372,2.8743281
-35.52036,1.8401425,2.8850403
-35.599304,1.8212335,2.8790064
-35.686615,1.7966108,2.867041
-35.74554,1.7938676,2.8793826
-35.780926,1.8087926,2.9112034
-35.890144,1.7696278,2.8843832
-35.97751,1.7472775,2.876268
-36.07561,1.7178812,2.8609457
-36.14034,1.7129931,2.8724027
-36.21981,1.6980555,2.8733664
-36.296772,1.6853857,2.8770947
-36.362,1.6812875,2.8902636
-36.432297,1.6740384,2.9003668
-36.54267,1.6400247,2.882564
-36.63788,1.6170659,2.8768945
-28.586018,1.3600731,1.484755
-28.634457,1.3663032,1.4893532
-28.698662,1.4224625,1.5587063
-28.729044,1.3731556,1.491632
-28.80086,1.4590993,1.5998807
-28.910624,1.5288224,1.6844912
-28.98287,1.6322899,1.8160586
-29.0304,1.6486301,1.8347163
-29.072477,1.6446013,1.8270283
-29.255821,2.230223,2.5857534
-29.30416,2.2786906,2.6468139
-29.35034,2.3218734,2.7011337
-29.390339,2.3398118,2.7227316
-29.428282,2.3493962,2.7335548
-29.464304,2.3500075,2.7327843
-29.505314,2.3785603,2.768485
-29.54421,2.3981464,2.7926073
-29.582033,2.4136,2.8114386
-29.61936,2.4279456,2.8289156
-29.654953,2.4320838,2.833171
-29.690376,2.435709,2.8368378
-29.725283,2.435786,2.835957
-29.761526,2.4480922,2.8511086
-29.796907,2.454424,2.8585482
-29.831608,2.4547758,2.8582616
-29.866295,2.4552164,2.8581705
-29.9011,2.4575696,2.860651
-29.93578,2.4587975,2.8617406
-29.970745,2.4661915,2.8709588
-30.00551,2.4724607,2.8787866
-30.039898,2.4709182,2.8764906
-30.074474,2.4767582,2.8839116
-30.108984,2.4869432,2.8970842
-30.143265,2.4844503,2.893775
-30.177574,2.484477,2.8938327
-30.211914,2.4827683,2.8917007
-30.24637,2.4781084,2.8857903
-30.28049,2.4850864,2.8951545
-30.314617,2.4891124,2.9007387
-30.349045,2.486541,2.8977833
-30.383242,2.4883118,2.9005752
-30.417593,2.48774,2.9003835
-30.452114,2.4854352,2.8980064
-30.488028,2.469254,2.8775992
-30.52407,2.4549904,2.8597765
-30.558638,2.4559965,2.8619576
-30.593876,2.451631,2.8572092
-30.62896,2.4491775,2.8550339
-30.66436,2.4449964,2.8506856
-30.699379,2.4439387,2.8504887
-30.734425,2.442972,2.8504887
-30.7696,2.441491,2.8498979
-30.804813,2.4401016,2.8495064
-30.839825,2.4400141,2.8508897
-30.874971,2.4394128,2.8516817
-30.910137,2.4389033,2.8526735
-30.945593,2.4372778,2.852293
-30.976128,2.456871,2.8795757
-31.0023,2.4928184,2.928166
-31.036688,2.493847,2.9314446
-31.339699,1.4804702,1.6179137
-31.402369,1.4155567,1.5363941
-31.45039,1.4068003,1.5278916
-31.498953,1.3969746,1.5181179
-31.539486,1.414314,1.5436592
-31.582718,1.4221435,1.5569658
-31.627375,1.4252827,1.5642962
-31.672588,1.4267397,1.5695515
-31.7149,1.4366965,1.5858979
-31.690554,1.6339703,1.8443351
-31.7261,1.6565089,1.876955
-31.707674,1.8218052,2.0938363
-31.744896,1.8342099,2.1133957
-31.779537,1.8526602,2.1408205
-31.83002,1.8313055,2.1170554
-31.895283,1.7756212,2.0492573
-31.921154,1.8152015,2.1041522
