x,y,z
-25.275566,2.9543412,4.0394516
-25.327831,2.957737,4.030382
-25.390121,2.9677136,4.029008
-25.468016,2.9880104,4.0396805
-25.497595,2.9778504,4.015775
-25.550777,2.9829988,4.0095654
-25.630686,3.005951,4.0241175
-25.7003,3.0227346,4.031869
-25.731857,3.0146012,4.010948
-25.787125,3.0224924,4.008809
-25.859455,3.0423574,4.020893
-25.914242,3.050722,4.0197797
-25.95589,3.0502958,4.0085273
-26.005629,3.055723,4.0043306
-26.07608,3.0761337,4.0180683
-26.141438,3.0934844,4.0284576
-26.179882,3.091871,4.0165086
-26.214363,3.087492,4.00138
-26.282284,3.107915,4.016083
-26.337427,3.1193862,4.020298
-26.376818,3.1193728,4.0108786
-26.417452,3.120472,4.002933
-26.494324,3.1496878,4.029187
-26.532677,3.1496832,4.0202575
-26.576014,3.1537604,4.0164213
-26.612383,3.1525407,4.0062647
-26.646881,3.1499476,3.9945393
-26.716978,3.1763968,4.0185513
-26.75914,3.1806188,4.015499
-26.803598,3.1869974,4.015245
-26.834114,3.1819558,4.001028
-26.89323,3.2012467,4.0170307
-26.933067,3.2045622,4.013421
-26.971048,3.2064903,4.008212
-27.009537,3.209056,4.003916
-27.042763,3.207152,3.9941535
-27.106222,3.2325153,4.018629
-27.145409,3.2365487,4.016576
-27.172707,3.2298923,4.0012045
-27.217878,3.2398486,4.006829
-27.261173,3.2484145,4.0108466
-27.303722,3.2566154,4.0145426
-27.34824,3.2670517,4.021208
-27.378595,3.264065,4.010977
-27.405258,3.2575002,3.996274
-27.451464,3.2704387,4.006486
-27.483849,3.269856,3.9995885
-27.526007,3.2794027,4.005733
-27.572027,3.293332,4.0176244
-27.600065,3.2888627,4.006056
-27.629658,3.2860658,3.996705
-27.664219,3.2886848,3.9944024
-27.699188,3.2919483,3.9930277
-27.751015,3.3140702,4.016109
-27.777943,3.3090124,4.004204
-27.806358,3.30564,3.9945445
-27.843246,3.3120544,3.997653
-27.875343,3.313186,3.994003
-27.909222,3.3165815,3.993385
-27.948887,3.3271415,4.002196
-27.97713,3.3242383,3.9935536
-28.019548,3.3388572,4.0078783
-28.059027,3.3503492,4.0182414
-28.085747,3.3461037,4.0080976
-28.121038,3.3528984,4.012501
-28.151545,3.3537626,4.0092096
-28.187399,3.361875,4.0155315
-28.215698,3.360175,4.0090284
-28.241982,3.35579,3.9990516
-28.268726,3.3520274,3.989955
-28.302986,3.358877,3.994946
-28.332436,3.3591657,3.9913466
-28.367199,3.3673337,3.998259
-28.39914,3.3717093,4.0002337
-28.4306,3.3756237,4.0016785
-28.46086,3.3779545,4.0010977
-28.489971,3.3786917,3.9984713
-28.51232,3.368844,3.9818149
-28.546684,3.3781662,3.9907591
-28.576729,3.3808389,3.99092
-28.605686,3.3819067,3.9890096
-28.639238,3.3909664,3.997855
-28.666725,3.3899472,3.9932964
-28.694208,3.3890018,3.9889002
-28.723577,3.3915367,3.989231
-28.751331,3.391314,3.985932
-28.77907,3.3911674,3.9827974
-28.818682,3.4138918,4.0104704
-28.846155,3.413927,4.0077305
-28.871323,3.4094667,3.9989986
-28.90048,3.4130793,4.001197
-28.929546,3.4167747,4.0035753
-28.94859,3.3993342,3.9774988
-28.974531,3.39628,3.9708767
-28.956076,3.2938433,3.8299978
-28.915321,3.1354234,3.6132789
-28.927296,3.0931096,3.5534606
-28.925741,3.016179,3.4467564
-28.896296,2.8664186,3.2412992
-28.905848,2.8077524,3.1591725
-28.928553,2.7802973,3.1193638
-28.956978,2.7667763,3.0984983
-28.93838,2.6228964,2.900628
-28.908995,2.4399686,2.649551
-28.915838,2.3520424,2.5274577
-28.949858,2.3407812,2.5096145
-28.938375,2.1870859,2.2979736
-28.940657,2.0675888,2.132782
-28.951641,1.968982,1.9959817
-28.952456,1.8283515,1.8018703
-28.962955,1.7121315,1.640965
-28.97015,1.5748394,1.4512763
-38.49277,0.69071746,1.429204
-38.49035,0.7431376,1.5109344
-38.48706,0.7954228,1.5923724
-38.532806,0.8169067,1.6389532
-38.54061,0.8614099,1.7115002
-38.49653,0.9366896,1.8183813
-38.56227,0.94528365,1.8506289
-38.555977,0.9966614,1.9305687
-38.588017,1.02494,1.9848394
-38.616596,1.0550294,2.0411582
-38.62036,1.099155,2.1128855
-38.70263,1.1437728,2.2086859
-39.45955,0.95720506,2.134225
-38.436417,1.5494442,2.785431
-38.497395,1.5582013,2.818502
-38.516006,1.5893021,2.875136
-38.521328,1.6270504,2.9386706
-38.53652,1.6593571,2.99651
-38.539097,1.6978178,3.0606508
-38.555683,1.7288337,3.1171007
-38.57994,1.7557724,3.169404
-38.589893,1.7896309,3.2287312
-38.585365,1.830301,3.294845
-38.60907,1.8568311,3.3467336
-38.637344,1.8810053,3.396329
-38.66609,1.904841,3.445662
-38.69782,1.9271622,3.4935894
-38.73424,1.9472089,3.5394006
-38.792225,1.9572167,3.5756536
-38.855976,1.9647248,3.6097736
-38.924713,1.9701643,3.6422243
-39.02567,1.9612997,3.6615024
-39.107178,1.9616461,3.6899538
-39.19725,1.9585385,3.715611
-39.25649,1.9693878,3.7546263
-39.367252,1.9579728,3.7735395
-39.446228,1.9608345,3.806036
-39.533844,1.96032,3.835906
-39.91371,1.8364868,3.7561498
-40.02584,1.8275905,3.7805228
-40.168743,1.8064635,3.7948112
-40.251385,1.8109276,3.83219
-40.38151,1.7963448,3.8536224
-40.51362,1.7816379,3.8757281
-42.01098,1.2211089,3.4378781
-41.999977,1.2696018,3.519075
-42.00341,1.3119986,3.595036
-42.008904,1.3532822,3.6699915
-42.019176,1.3924358,3.7431464
-42.028877,1.4315569,3.8162308
-42.03441,1.4720082,3.8903213
-42.021294,1.519176,3.9695826
-42.02652,1.5591352,4.043076
-42.150066,1.5553088,4.0831375
-42.365536,1.5185575,4.099231
-42.70825,1.4370832,4.0836153
-42.95234,1.3929188,4.097719
-43.293194,1.3158627,4.0898046
-43.6497,1.2353287,4.0818615
-44.006275,1.1568699,4.0779486
-44.409004,1.0646145,4.067127
-44.85445,0.960176,4.0510178
-45.28538,0.86326337,4.0432434
-45.816807,0.73529005,4.0183606
-46.29853,0.6268997,4.0101166
-46.78148,0.5209048,4.007064
-47.14694,0.4557979,4.033039
-14.32556,0.8063173,3.9778638
-15.54169,1.1555638,4.156233
-15.623631,1.135025,4.086711
-16.166445,1.2695987,4.127228
-16.226795,1.2437236,4.0565867
-17.385265,1.508235,4.103033
-17.579237,1.5332162,4.0758657
-17.915174,1.6098075,4.089717
-18.105423,1.6360073,4.066555
-18.411488,1.7052987,4.0786657
-18.712074,1.7744246,4.0926876
-18.954815,1.8239582,4.092855
-19.175251,1.8665838,4.08895
-19.376225,1.9031489,4.081447
-19.582943,1.943059,4.0780153
-19.776577,1.979146,4.072656
-19.99551,2.0261807,4.0778556
-20.187992,2.06417,4.0766206
-20.391415,2.1076283,4.081336
-20.607422,2.1573453,4.0928073
-20.794506,2.196741,4.096439
-20.968697,2.2320242,4.097514
-21.091599,2.247283,4.081526
-21.278782,2.2898614,4.0911508
-21.411398,2.3107677,4.0819554
-21.544537,2.3326478,4.074417
-21.675587,2.3544028,4.067517
-21.851894,2.3963976,4.080419
-21.97176,2.4149952,4.0721245
-22.117805,2.4457605,4.0761266
-22.21052,2.4538188,4.0590677
-22.323452,2.4713864,4.051721
-22.481747,2.5100646,4.0656095
-22.54753,2.5076606,4.0399513
-22.696445,2.5437226,4.0527124
-22.791204,2.5556452,4.0422125
-22.952406,2.599195,4.0639386
-23.049767,2.613686,4.0571923
-23.176624,2.6428065,4.065805
-23.295551,2.6689374,4.072028
-23.39104,2.6844463,4.0679426
-23.481333,2.6979704,4.0622797
-23.587635,2.7199452,4.0658507
-23.662739,2.7270079,4.0543566
-23.765926,2.7486315,4.0585303
-23.81729,2.744533,4.0360136
-23.92148,2.7677646,4.0427647
-24.006916,2.781957,4.0403686
-24.099207,2.800255,4.042784
-24.174566,2.8101945,4.0366178
-24.228498,2.8091297,4.018861
-24.325424,2.8314443,4.0268044
-24.42192,2.8541865,4.035675
-24.488539,2.8611925,4.027693
-24.568872,2.876162,4.0287986
-24.645063,2.889328,4.028265
-24.7164,2.900228,4.0255456
-24.804977,2.9213886,4.034622
-24.864412,2.9263992,4.0259476
-24.938005,2.93995,4.0271583
-25.010565,2.9533706,4.02854
-25.06647,2.957394,4.0195436
-25.141506,2.9731488,4.02417
-25.218428,2.9905548,4.0310116
-25.28181,3.0002465,4.0293083
-25.336235,3.004814,4.021945
-25.399948,3.0154467,4.0218253
-25.47783,3.035382,4.0327888
-25.53096,3.0402098,4.026446
-25.581112,3.043419,4.0184093
-25.646027,3.0564291,4.0220823
-25.705029,3.0660279,4.0219936
-25.761015,3.074016,4.0202293
-25.814726,3.0808334,4.017291
-25.86965,3.0887883,4.015909
-25.936745,3.1053572,4.0250263
-25.97756,3.104401,4.013412
-26.019709,3.1045272,4.0032353
-26.098185,3.1302857,4.0240984
-26.131973,3.1251178,4.0078945
-26.182434,3.1319396,4.0063286
-26.239988,3.1441998,4.0115566
-26.29137,3.152379,4.0120234
-26.346462,3.1636362,4.0164394
-26.372196,3.1534138,3.9947295
-26.435974,3.1717978,4.008237
-26.491713,3.184616,4.0151286
-26.543367,3.1947308,4.018884
-26.584106,3.196735,4.01278
-26.614784,3.1910377,3.9972456
-26.673393,3.2075639,4.0094504
-26.717514,3.2129734,4.008003
-26.759052,3.216562,4.004425
-26.806532,3.2252622,4.007386
-26.850204,3.23115,4.006975
-26.903849,3.245689,4.017597
-26.940044,3.2459006,4.010333
-26.978539,3.248242,4.005868
-27.015789,3.249706,4.000408
-27.0547,3.2528105,3.9971437
-27.092943,3.2555408,3.9935212
-27.151485,3.2767105,4.0135226
-27.175892,3.2675083,3.9949331
-27.217693,3.2742214,3.9967663
-27.257118,3.2790298,3.9962878
-27.299147,3.286546,3.9994068
-27.341534,3.294726,4.0035124
-27.37407,3.293748,3.9959388
-27.421467,3.3073883,4.0073385
-27.453825,3.3066483,4.000283
-27.486162,3.3060076,3.9934409
-27.520542,3.3075564,3.9895296
-27.557922,3.312358,3.9899437
-27.593151,3.3151832,3.987891
-27.638304,3.3286524,3.9998286
-27.670275,3.3285637,3.9941845
-27.706627,3.333334,3.9949856
-27.758858,3.3557234,4.0189934
-27.788063,3.3533318,4.0106287
-27.819181,3.3531551,4.0052476
-27.85074,3.3536065,4.0007734
-27.883652,3.3557582,3.9986231
-27.917404,3.3590853,3.9981124
-27.94925,3.360369,3.994989
-27.981932,3.362826,3.9935021
-28.009226,3.3589077,3.983642
-28.041376,3.3610127,3.9818456
-28.069569,3.3583374,3.9737737
-28.090538,3.3465066,3.9535744
-28.108347,3.3303633,3.9276593
-28.152212,3.348054,3.946933
-28.196514,3.3669944,3.9680073
-28.21775,3.355439,3.948405
-28.254757,3.3653152,3.9575512
-28.293112,3.3775125,3.9699118
-28.32809,3.385435,3.9766388
-28.35944,3.3885071,3.976938
-28.389194,3.3894634,3.9744687
-28.41816,3.3893995,3.9706943
-28.446371,3.3883083,3.9656026
-28.473137,3.3850744,3.9576824
-28.502428,3.3858044,3.9551764
-28.539007,3.3983176,3.9686754
-28.561575,3.3886309,3.9522169
-28.589045,3.386818,3.9464684
-28.615198,3.3828402,3.937844
-28.646631,3.3878992,3.941543
-28.675055,3.3879993,3.9385798
-28.705658,3.3921137,3.9411397
-28.725023,3.376049,3.9163036
-28.762903,3.3938456,3.9376254
-28.794147,3.3999128,3.9430554
-28.823496,3.4026809,3.9440598
-28.85191,3.4038343,3.9429257
-28.87074,3.3857946,3.9156256
-28.904207,3.397297,3.9287515
-28.937153,3.4083352,3.9413247
-28.965115,3.4092345,3.9400942
-28.951353,3.3179364,3.8125706
-28.911772,3.1637766,3.5987306
-28.925198,3.125237,3.5433407
-28.9286,3.0609753,3.4526272
-28.894218,2.9011154,3.2305188
-28.913055,2.8664296,3.1803036
-28.916134,2.7893376,3.0717678
-28.935274,2.7506294,3.0160122
-28.954346,2.7096398,2.957128
-28.912844,2.4961848,2.660616
-28.91068,2.3837152,2.5030918
-28.927778,2.3218305,2.4152603
-28.957905,2.2962558,2.37753
-28.935495,2.101705,2.1065588
-28.928268,1.9438989,1.8861766
-28.965546,1.9269447,1.8603225
-28.945038,1.704222,1.5500789
-28.952055,1.5657763,1.3562245
-28.991867,1.5419104,1.3208365
-38.57911,0.6511409,1.2482862
-38.51155,0.7450566,1.3792138
-38.4925,0.80749536,1.4732442
-38.51477,0.8437607,1.53688
-38.526176,0.8862581,1.6076674
-38.60853,0.8856573,1.6290822
-38.44742,1.0302708,1.8163176
-38.48982,1.0525308,1.8636708
-38.50938,1.0880327,1.926106
-38.560055,1.1052103,1.9678936
-38.593056,1.1325209,2.021202
-38.671585,1.1795747,2.119588
-38.695705,1.2113762,2.1780877
-39.303596,1.1079693,2.1869717
-38.50326,1.5743389,2.7147007
-38.487495,1.6235995,2.7910638
-38.511658,1.6516662,2.844647
-38.536198,1.6793516,2.897859
-38.533737,1.7205315,2.9653335
-38.548428,1.7526746,3.0232134
-38.560997,1.7856088,3.0818987
-38.572247,1.8189187,3.1409416
-38.58462,1.8513958,3.199092
-38.58252,1.8906047,3.2641106
-38.570736,1.9340639,3.3333483
-38.62871,1.9439492,3.368411
-38.65495,1.9689095,3.4188948
-38.68666,1.9911966,3.466763
-38.724754,2.0104682,3.5117269
-38.77014,2.0263903,3.5535192
-38.838943,2.031753,3.5851383
-38.92125,2.0313034,3.611425
-38.992535,2.0361114,3.6432042
-39.07828,2.0348144,3.6694708
-39.165783,2.0331297,3.6958065
-39.29029,2.015839,3.7078433
-39.392666,2.0087123,3.7301025
-39.48825,2.0049703,3.7560658
-39.64554,1.9757323,3.7590103
-39.840736,1.9316304,3.7492642
-39.97547,1.9136837,3.764422
-40.07982,1.9088869,3.7921872
-40.22908,1.8863955,3.8047614
-40.3249,1.8861661,3.8378868
-40.46672,1.868078,3.8559184
-41.965748,1.3165042,3.412434
-41.99372,1.3493407,3.4804468
-42.001587,1.3898118,3.5550208
-42.019592,1.4261296,3.6260386
-42.024517,1.4672129,3.7010298
-42.024338,1.5099247,3.777279
-42.017227,1.5548995,3.8552547
-42.032074,1.5914302,3.9262805
-42.02644,1.6352313,4.0030746
-42.035625,1.6733425,4.075256
-42.226467,1.6462226,4.096877
-42.502583,1.5899079,4.0974545
-42.801395,1.527226,4.0951324
-43.118443,1.4599447,4.0914702
-43.440025,1.3929513,4.0902495
-43.792862,1.3171651,4.0849576
-44.172504,1.2343836,4.077223
-44.61427,1.1330516,4.059253
-45.061905,1.0323772,4.044982
-45.476345,0.9451997,4.0431633
-46.001747,0.8243997,4.022061
-46.50335,0.714319,4.0119295
-47.037086,0.5969167,4.00092
-47.60401,0.47214365,3.989376
-14.150879,0.8316479,3.899809
-15.51451,1.2220232,4.1135902
-15.847049,1.283216,4.1025896
-17.15276,1.5385921,4.0895395
-17.53167,1.6252122,4.109355
-17.711739,1.6449916,4.0797386
-17.928982,1.678757,4.0623217
-18.265984,1.7561696,4.0811834
-18.544676,1.8147526,4.087071
-18.792643,1.863884,4.0870543
-18.982979,1.8934367,4.072439
-19.210747,1.93784,4.071454
-19.459444,1.9913627,4.079633
-19.664326,2.0299249,4.0765944
-19.844496,2.0603106,4.0677643
-20.010834,2.0864275,4.056309
-20.223886,2.1315353,4.062599
-20.42384,2.1728199,4.066789
-20.627571,2.2167974,4.0746098
-20.842953,2.266654,4.0889854
-21.025928,2.3048463,4.093986
-21.192537,2.337516,4.0949707
-21.297516,2.3459659,4.074388
-21.50066,2.3954983,4.092923
-21.638826,2.4192374,4.0882506
-21.739422,2.4279675,4.0700436
-21.901882,2.4635024,4.078124
-22.015667,2.4791732,4.0678935
-22.15056,2.5046198,4.067806
-22.291838,2.5336692,4.0719924
-22.365486,2.5337548,4.0483065
-22.53054,2.5748732,4.0658402
-22.587757,2.5686016,4.03677
-22.733288,2.6026018,4.0485964
-22.8665,2.631908,4.056434
-22.951647,2.6398401,4.043129
-23.144648,2.698561,4.082472
-23.202541,2.695023,4.058444
-23.340427,2.7297475,4.074494
-23.411175,2.7331772,4.0584984
-23.502274,2.7468088,4.0535717
-23.590656,2.7596421,4.0482416
-23.70068,2.7836738,4.0552535
-23.804596,2.8053823,4.0603228
-23.863869,2.8052971,4.042455
-23.959934,2.8241565,4.045326
-24.01019,2.8201385,4.023795
-24.119997,2.8471217,4.0363216
-24.218231,2.8688183,4.0435762
-24.276718,2.8702052,4.0289
-24.359406,2.884747,4.029042
-24.42543,2.8908465,4.020162
-24.502937,2.903529,4.018925
-24.61722,2.9368398,4.0411935
-24.655598,2.9290292,4.0176272
-24.741457,2.9478116,4.02431
-24.840622,2.9746838,4.040575
-24.874949,2.9653814,4.015985
-24.976395,2.9946961,4.03578
-25.048061,3.007513,4.0370436
-25.081455,2.9983652,4.0132303
-25.150541,3.0103664,4.014052
-25.248108,3.0398269,4.0354877
-25.28645,3.0343394,4.0165176
-25.348904,3.0436378,4.0150146
-25.441591,3.0719187,4.036104
-25.484695,3.0701537,4.0221086
-25.545704,3.0797837,4.0217686
-25.588676,3.078371,4.008538
-25.669888,3.101592,4.024844
-25.718224,3.1042228,4.0168447
-25.772068,3.1106906,4.0136256
-25.825748,3.1173658,4.010858
-25.902079,3.1394472,4.026904
-25.937407,3.134575,4.010593
-25.985073,3.1381698,4.0046835
-26.050947,3.1545188,4.014491
-26.113098,3.1688004,4.022024
-26.14011,3.1589293,4.0001802
-26.186558,3.1627893,3.9952862
-26.259985,3.1862009,4.014659
-26.317173,3.1985354,4.020624
-26.348003,3.192052,4.0034723
-26.382801,3.1885262,3.9900813
-26.459406,3.2162743,4.0157604
-26.502249,3.2193313,4.0108953
-26.543722,3.2215755,4.0051517
-26.586998,3.225419,4.001548
-26.63328,3.2318459,4.0013366
-26.684355,3.2423434,4.006414
-26.731495,3.2501016,4.0082035
-26.760134,3.2433128,3.9917166
-26.81551,3.2582636,4.002912
-26.856134,3.2615795,3.9994915
-26.903807,3.2709804,4.0039597
-26.952438,3.2815533,4.0100837
-26.984991,3.278852,3.9993644
-27.02628,3.283749,3.998488
-27.063972,3.2857823,3.994055
-27.103302,3.2894511,3.9918413
-27.156128,3.305358,4.0055523
-27.191744,3.3062959,4.00007
-27.231201,3.3108997,3.9994428
-27.271635,3.316657,4.000431
-27.310276,3.3210244,3.9997318
-27.346083,3.3229656,3.9959843
-27.383427,3.3265631,3.9945002
-27.421192,3.3307996,3.993959
-27.457787,3.3341312,3.9923418
-27.495842,3.3391354,3.9930227
-27.532211,3.3427122,3.9919376
-27.564896,3.342773,3.986322
-27.599062,3.3444972,3.9829865
-27.639675,3.353118,3.9888577
-27.674128,3.3555984,3.9867208
-27.705555,3.3550415,3.9806495
-27.737442,3.3551047,3.975482
-27.773138,3.3594823,3.9761317
-27.809189,3.3645048,3.9777377
-27.846043,3.3707047,3.9810126
-27.876705,3.3701258,3.9753366
-27.911936,3.374958,3.976972
-27.938417,3.369773,3.9652882
-27.9708,3.371605,3.9630702
-28.000015,3.3697863,3.956033
-28.03361,3.373418,3.9563918
-28.056295,3.3637104,3.9388812
-28.075733,3.349742,3.915668
-28.11017,3.3547046,3.918028
-28.142397,3.3570707,3.9169693
-28.174137,3.3589926,3.9153893
-28.202972,3.357208,3.908867
-28.231417,3.3549592,3.9017806
-28.267757,3.3636928,3.9096649
-28.302727,3.3709064,3.9155788
-28.332928,3.3716648,3.9128027
-28.3778,3.3938894,3.9393272
-28.40212,3.386623,3.9257827
-28.418877,3.3678632,3.8966022
-28.45257,3.3744686,3.9020822
-28.477587,3.3679323,3.8896797
-28.508999,3.371409,3.8910275
-28.542719,3.3788536,3.8978858
-28.571869,3.3791943,3.895087
-28.613615,3.4007237,3.9214313
-28.641506,3.3995907,3.9167645
-28.657522,3.3779194,3.8839242
-28.680895,3.3685384,3.8680053
-28.708769,3.367032,3.862971
-28.744247,3.37959,3.8773775
-28.778849,3.3911402,3.8904843
-28.8129,3.4022386,3.903054
-28.840685,3.4016452,3.899557
-28.867338,3.3988771,3.8931134
-28.895405,3.3989944,3.8907151
-28.924524,3.4014442,3.8916054
-28.956207,3.4096217,3.9004943
-28.957054,3.3506207,3.8163366
-28.909256,3.1794949,3.5766048
-28.923244,3.1423464,3.5225859
-28.927418,3.0802383,3.4339008
-28.885778,2.9039414,3.186493
-28.912151,2.8876588,3.1613584
-28.919262,2.821357,3.0666747
-28.926207,2.7510245,2.9663482
-28.955236,2.7365198,2.9437408
-28.899752,2.4858222,2.5920482
-28.917263,2.4295344,2.5111213
-28.92434,2.338945,2.3823462
-28.955347,2.3158169,2.3476734
-28.932283,2.1203842,2.0724807
-28.927618,1.9717355,1.8624744
-28.969183,1.9692211,1.8565803
-28.942987,1.7286115,1.51792
-28.947418,1.581393,1.3096876
-28.988657,1.5622671,1.2805972
-38.52006,0.6939626,1.1848578
-38.504337,0.7554643,1.2788591
-38.48178,0.8203347,1.3766265
-38.5083,0.8542638,1.4378138
-38.484547,0.9183378,1.5342965
-38.502357,0.95657945,1.6004128
-38.557255,0.9723916,1.6404424
-38.443962,1.0872161,1.795238
-38.47886,1.113812,1.8475981
-38.50058,1.1478443,1.908566
-38.54592,1.1680646,1.9537334
-38.56593,1.2025857,2.0153174
-38.803024,1.2520008,2.1622458
-39.4003,1.068063,2.0304546
-39.412132,1.1080256,2.0998588
-38.448235,1.6547632,2.723835
-38.467964,1.685149,2.779992
-38.50161,1.7082031,2.8282075
-38.536514,1.7305233,2.875718
-38.528366,1.7743142,2.946351
-38.556763,1.7995043,2.9969873
-38.54332,1.8451145,3.0693526
-38.56589,1.8726873,3.1225042
-38.583946,1.902262,3.1777859
-38.60484,1.930268,3.2314353
-38.607132,1.9668941,3.2940464
-38.624622,1.996057,3.348878
-38.649166,2.0217443,3.4001513
-38.678337,2.0451653,3.4491644
-38.713875,2.0655944,3.4952254
-38.755016,2.083461,3.538827
-38.81365,2.0935178,3.574779
-38.893364,2.094399,3.6018872
-38.96373,2.0997195,3.6337595
-39.044292,2.1008637,3.6618814
-39.142014,2.0949569,3.683556
-39.24072,2.0891066,3.7057958
-39.36457,2.073103,3.718842
-39.475708,2.063098,3.7382631
-39.6018,2.047458,3.752983
-39.797886,2.0037353,3.7421794
-39.919464,1.9915524,3.7617412
-40.04739,1.9774404,3.7802148
-40.176426,1.9635558,3.7996235
-40.25273,1.9712055,3.839198
-40.39709,1.9524593,3.8555813
-40.56127,1.9267969,3.8666964
-42.003517,1.4106793,3.4488058
-42.014053,1.4500248,3.5226202
-42.022224,1.4900129,3.596942
-41.99928,1.5413609,3.6808643
-42.007996,1.580514,3.754261
-42.031487,1.6140049,3.822896
-42.05358,1.6478631,3.8918862
-42.058846,1.6876247,3.9657187
-42.0508,1.7318676,4.0430765
-42.148815,1.7383788,4.09035
-42.410355,1.688195,4.0938315
-42.76144,1.6085541,4.076327
-42.993256,1.5718312,4.093964
-43.369156,1.487545,4.0774393
-43.644638,1.4391806,4.090171
-44.037247,1.3534346,4.0775557
-44.516193,1.2415779,4.048999
-44.912018,1.1596375,4.0450754
-45.33304,1.0718498,4.0399694
-45.83532,0.96054053,4.0218825
-46.35855,0.8455324,4.0050592
-46.81384,0.75481176,4.0081825
-47.437164,0.61463284,3.9827638
-47.94741,0.5127294,3.9863963
-14.18707,0.98748255,3.9592838
-13.951923,0.8621321,3.810382
-15.685977,1.3620107,4.111973
-16.670095,1.5431464,4.0923967
-17.080505,1.6345718,4.1142244
-17.25588,1.649729,4.0794406
-17.593609,1.7206905,4.0898666
-17.879974,1.7760954,4.0901113
-18.115303,1.8155513,4.0793242
-18.364666,1.8612218,4.075163
-18.720688,1.9458599,4.104965
-18.931261,1.9809963,4.095517
-19.154896,2.0220094,4.0923886
-19.379726,2.0647502,4.092149
-19.563423,2.093752,4.081388
-19.797834,2.1425257,4.089091
-19.9787,2.1727276,4.0817876
-20.13768,2.1957147,4.0691175
-20.330109,2.2323081,4.06968
-20.551239,2.281063,4.0824795
-20.741524,2.319215,4.086849
-20.851812,2.3271909,4.0643225
-21.038456,2.365902,4.071188
-21.266544,2.4222922,4.095834
-21.408957,2.4456263,4.090338
-21.510033,2.4529653,4.070286
-21.697783,2.4964108,4.085703
-21.799135,2.5052252,4.0684223
-21.907215,2.5173776,4.0549517
-22.095001,2.5637958,4.075958
-22.192059,2.5727332,4.0606565
-22.306005,2.5894513,4.053661
-22.40348,2.5996566,4.040678
-22.54482,2.629636,4.048308
-22.685627,2.6602712,4.057357
-22.751005,2.65806,4.0332975
-22.929537,2.7072165,4.062809
-23.047916,2.7301898,4.06595
-23.160877,2.7514033,4.0678463
-23.244434,2.759654,4.056621
-23.367426,2.7868443,4.065907
-23.437302,2.7896867,4.049807
-23.569305,2.8225574,4.066273
-23.633026,2.8233843,4.048799
-23.729977,2.8406837,4.0494857
-23.80799,2.849267,4.041123
-23.895468,2.862977,4.0387383
-23.99709,2.8842978,4.045147
-24.06637,2.8899205,4.034645
-24.145039,2.9006991,4.0301857
-24.221098,2.910589,4.0250826
-24.297722,2.9212093,4.0211368
-24.40311,2.9473944,4.035095
-24.46508,2.9512863,4.0242662
-24.537802,2.9612498,4.020608
-24.635796,2.9853086,4.0333815
-24.693327,2.987967,4.02202
-24.76836,3.0005555,4.0223403
-24.854536,3.0198174,4.0307064
-24.911531,3.023273,4.021074
-24.991026,3.039785,4.0269036
-25.073917,3.0587838,4.0359855
-25.116144,3.0548363,4.0184345
-25.195484,3.07271,4.0267897
-25.270021,3.0883112,4.0327854
-25.296524,3.0758045,4.0056686
-25.39254,3.105084,4.0284786
-25.461842,3.1189117,4.0331984
-25.489704,3.1077838,4.0082145
-25.564362,3.125638,4.018239
-25.632935,3.1402342,4.024626
-25.695513,3.151528,4.0272765
-25.731041,3.145967,4.0096536
-25.782745,3.1509175,4.0049734
-25.869831,3.1792092,4.029066
-25.917572,3.182367,4.0226393
-25.95007,3.17564,4.004202
-26.00179,3.1818688,4.0018644
-26.062174,3.194286,4.0073805
-26.120926,3.2060208,4.012271
-26.157953,3.2031302,3.9991531
-26.224962,3.2213347,4.0125074
-26.279007,3.230928,4.0153246
-26.324278,3.2346287,4.0109315
-26.36356,3.2342534,4.0015554
-26.414469,3.242524,4.003217
-26.470322,3.2547836,4.010103
-26.527172,3.2682147,4.018674
-26.557074,3.261805,4.0022073
-26.608467,3.2717812,4.006711
-26.650246,3.2747383,4.0024185
-26.694405,3.2797735,4.0009193
-26.735344,3.282547,3.9966578
-26.79085,3.2971225,4.0077076
-26.828445,3.2977824,4.001004
-26.873806,3.304924,4.002788
-26.915403,3.3092895,4.0011206
-26.958057,3.3147845,4.001048
-26.9988,3.318952,3.9993792
-27.035345,3.3197968,3.9935043
-27.075872,3.3242378,3.9924285
-27.112835,3.325832,3.9877503
-27.156536,3.3335416,3.9911935
-27.193857,3.3358996,3.9877427
-27.23388,3.3408933,3.987866
-27.275421,3.3475363,3.9902818
-27.31405,3.3518004,3.98968
-27.347134,3.3511314,3.9826622
-27.3861,3.3561516,3.9832718
-27.42227,3.358759,3.98079
-27.457293,3.3604636,3.9772074
-27.487543,3.3576732,3.9677322
-27.516777,3.353945,3.9570794
-27.541443,3.3456674,3.9404173
-27.569275,3.3405457,3.9280272
-27.618246,3.3572242,3.9449234
-27.653936,3.360604,3.9441166
-27.692963,3.3677387,3.9484534
-27.72306,3.3656266,3.9404488
-27.751242,3.3615127,3.9298167
-27.786127,3.3648062,3.9292502
-27.817621,3.3645375,3.9239583
-27.85978,3.3764596,3.9352512
-27.89201,3.3774614,3.9318566
-27.919191,3.3727489,3.9207826
-27.937458,3.3575191,3.895469
-27.963541,3.3513372,3.882493
-27.996288,3.353197,3.8805313
-28.032425,3.3594196,3.8846042
-28.073105,3.3716335,3.8969572
-28.104645,3.372751,3.8942423
-28.137379,3.375571,3.8939342
-28.16756,3.3752677,3.889424
-28.195288,3.3718224,3.8806684
-28.218655,3.3625185,3.8639216
-28.243763,3.3554282,3.8502614
-28.274817,3.356519,3.8479161
-28.31195,3.3663769,3.85773
-28.342812,3.367664,3.855811
-28.381804,3.3810146,3.870628
-28.41023,3.3792305,3.86462
-28.437946,3.3764324,3.8572679
-28.462498,3.3687844,3.843255
-28.492071,3.3688664,3.840007
-28.52437,3.373422,3.8430336
-28.56264,3.3879695,3.8600185
-28.591934,3.3883293,3.8573732
-28.620543,3.3876681,3.8533711
-28.649462,3.3876379,3.8503087
-28.67394,3.3799443,3.8366244
-28.701962,3.3784013,3.8315659
-28.733944,3.3841438,3.836739
-28.770262,3.3983145,3.8537617
-28.802458,3.4053712,3.8609269
-28.831331,3.4063978,3.859728
-28.85988,3.4069471,3.8579223
-28.887573,3.4058995,3.853938
-28.916344,3.4071622,3.853251
-28.947704,3.414102,3.8605914
-28.969105,3.3998377,3.838226
-28.91343,3.2133508,3.5738964
-28.925116,3.171449,3.512587
-28.921558,3.091854,3.3982406
-28.892914,2.947987,3.1933498
-28.914103,2.9194353,3.1507125
-28.920055,2.8508565,3.0516863
-28.920916,2.7652864,2.9286652
-28.953909,2.7610402,2.9203153
-28.904768,2.5299845,2.5918927
-28.918964,2.4650996,2.49788
-28.922134,2.3639202,2.3525743
-28.952301,2.3381195,2.3137608
-28.93113,2.1499865,2.045433
-28.933867,2.026434,1.8683176
-28.966955,1.9960637,1.8230209
-28.943928,1.76827,1.4982438
-28.94597,1.6137276,1.2770591
-28.980938,1.5707958,1.2139459
-38.517822,0.70838475,1.0751009
-38.495094,0.7745013,1.1756377
-38.492817,0.8270645,1.2596331
-38.489655,0.87949085,1.3433323
-38.47468,0.93837667,1.4346142
-38.496777,0.9742849,1.4983397
-38.46308,1.0428996,1.6008687
-38.512585,1.0617151,1.6442332
-38.446484,1.1476858,1.7668366
-38.465664,1.1832669,1.829855
-38.53616,1.1892662,1.8582754
-38.512894,1.2484121,1.9488363
-38.583595,1.2542467,1.9773283
-38.608456,1.2856958,2.035668
-38.64126,1.3125353,2.0887232
-38.435947,1.5958986,2.500588
-39.353115,1.1580458,2.0299196
-39.463364,1.1466024,2.0419297
-39.51837,1.1640835,2.0866823
-38.429256,1.762788,2.7768025
-38.492317,1.7708261,2.80836
-38.516727,1.7983191,2.8615475
-38.51731,1.8373985,2.9274402
-38.536728,1.8668745,2.9827852
-38.549183,1.8995123,3.0415611
-38.56358,1.9309464,3.0990124
-38.57257,1.9647048,3.1589336
-38.578568,1.9995842,3.2199998
-38.586502,2.033249,3.2797189
-38.597237,2.0653322,3.3377204
-38.63833,2.083266,3.3808875
-38.668285,2.1062598,3.4294567
-38.70042,2.1281922,3.4770093
-38.73898,2.147205,3.521658
-38.77388,2.1678262,3.5680804
-38.855194,2.1681533,3.5940504
-38.941654,2.1666064,3.6185265
-39.01791,2.169821,3.6481886
-39.113033,2.1653361,3.6705756
-39.20137,2.164157,3.6967044
-39.31568,2.1525605,3.7130923
-39.406796,2.1511266,3.739953
-39.565815,2.1223695,3.7409697
-39.70262,2.1035323,3.7523623
-39.831867,2.088478,3.7681031
-40.019337,2.0510058,3.7634945
-40.107864,2.0535512,3.7972722
-40.243202,2.0382397,3.8150244
-40.338028,2.0392685,3.8485098
-40.464848,2.028485,3.8717985
-42.005547,1.4834907,3.4158711
-41.99996,1.5287366,3.4951334
-42.003574,1.5702071,3.570921
-42.019157,1.606987,3.6425295
-42.029697,1.6454015,3.7155433
-42.045094,1.681833,3.786827
-42.049988,1.7218182,3.861105
-42.04158,1.7662416,3.9390125
-42.041634,1.8073561,4.0140266
-42.042915,1.8477592,4.0883555
-42.32092,1.7929595,4.0859966
-42.551964,1.755719,4.099446
-42.901207,1.6800063,4.0842834
-43.17957,1.6299522,4.091359
-43.517704,1.561765,4.0865192
-43.8845,1.4861763,4.078477
-44.26525,1.4082007,4.071253
-44.71673,1.309803,4.0518627
-45.134037,1.2248595,4.045373
-45.56826,1.1370094,4.03986
-46.094296,1.0231652,4.019517
-46.628273,0.90993214,4.0034976
-47.159836,0.8005061,3.9940195
-47.74254,0.67873526,3.9804673
-48.31533,0.5632453,3.9753947
-48.792126,0.47926092,3.9945335
-14.049942,1.0380943,3.8844643
-16.597706,1.6431768,4.119041
-16.821062,1.6707499,4.092255
-17.124409,1.725559,4.088487
-17.471231,1.7963998,4.099595
-17.737087,1.842367,4.09281
-17.987621,1.8846984,4.084768
-18.307083,1.9518162,4.0989885
-18.554386,1.99612,4.0960517
-18.727306,2.016112,4.073954
-18.968935,2.0610275,4.074415
-19.169132,2.0927286,4.064864
-19.398659,2.1360066,4.066744
-19.619408,2.1774704,4.068418
-19.821548,2.213463,4.0665164
-20.001621,2.2425287,4.0595355
-20.203562,2.2807236,4.0619926
-20.436068,2.3315523,4.077344
-20.641113,2.3734293,4.085715
-20.830421,2.4105418,4.0907965
-21.000578,2.4414086,4.0910335
-21.156136,2.4675975,4.0877547
-21.27351,2.4796877,4.0717196
-21.47551,2.5259707,4.089644
-21.61918,2.5501676,4.087017
-21.705935,2.552183,4.063221
-21.889643,2.594192,4.0797467
-21.975063,2.596849,4.0577564
-22.138702,2.6324687,4.069541
-22.257128,2.650117,4.0638995
-22.314547,2.642559,4.0330167
-22.520212,2.6986976,4.0681643
-22.578964,2.6927032,4.0398426
-22.744287,2.733451,4.0606756
-22.827183,2.7389607,4.0452843
-22.939308,2.7578979,4.0445085
-23.076979,2.7889838,4.0572333
-23.158283,2.795397,4.0442147
-23.309103,2.8340695,4.0663466
-23.373287,2.8337152,4.04694
-23.490097,2.858207,4.0548935
-23.577747,2.8697093,4.049182
-23.660254,2.879263,4.041729
-23.794561,2.9141588,4.0627155
-23.845654,2.909637,4.0404854
-23.944324,2.9285908,4.0447154
-24.004898,2.9293385,4.0289392
-24.087776,2.941492,4.0262976
-24.203793,2.9708352,4.0435276
-24.247976,2.9644508,4.0205727
-24.348972,2.9873743,4.0313396
-24.425968,2.9985414,4.0290413
-24.49022,3.0034919,4.019894
-24.591633,3.028427,4.034193
-24.641499,3.026563,4.0177264
-24.719053,3.039822,4.0191374
-24.815464,3.0638318,4.033501
-24.86261,3.0614648,4.017185
-24.937044,3.0744185,4.0191765
-25.020996,3.093181,4.0283775
-25.075283,3.0957453,4.018612
-25.135443,3.1019335,4.0133886
-25.223656,3.1246433,4.0282493
-25.278158,3.1283712,4.0205927
-25.33401,3.1331758,4.0144415
-25.405792,3.1477501,4.020361
-25.47289,3.1600096,4.0237455
-25.525986,3.1642253,4.01756
-25.574638,3.1660075,4.0085845
-25.643917,3.180778,4.015757
-25.69583,3.1851943,4.0104203
-25.749723,3.191145,4.007169
-25.80135,3.1959639,4.0027056
-25.877937,3.2171378,4.018791
-25.915955,3.2138531,4.004629
-25.970516,3.221554,4.004343
-26.013931,3.2222009,3.9953904
-26.093323,3.247166,4.017211
-26.123543,3.2395203,3.9981494
-26.17668,3.247582,3.9990597
-26.221613,3.2503154,3.9933884
-26.300222,3.2768154,4.0181217
-26.332224,3.2711358,4.002081
-26.375395,3.273479,3.9963923
-26.422363,3.2787843,3.9946394
-26.475624,3.288958,3.9993012
-26.523521,3.2955685,3.9995518
-26.57188,3.3028307,4.0008
-26.615005,3.306479,3.997526
-26.661768,3.313137,3.998294
-26.708353,3.3199692,3.9994378
-26.75106,3.3240972,3.9972053
-26.793032,3.3278975,3.9946747
-26.839128,3.3352227,3.9968884
-26.88323,3.3412652,3.9975643
-26.924183,3.3450403,3.9953947
-26.967978,3.3513942,3.9967446
-27.008078,3.3549747,3.9945667
-27.048061,3.3586946,3.9926906
-27.077528,3.353706,3.9793887
-27.108768,3.35028,3.9682333
-27.117882,3.3276644,3.9316251
-27.147114,3.3223858,3.9181097
-27.21548,3.3520045,3.9512622
-27.246704,3.348986,3.9409895
-27.284523,3.3520632,3.9389632
-27.327671,3.3602824,3.943944
-27.338863,3.3389797,3.909353
-27.372833,3.3388505,3.9032745
-27.425243,3.3565288,3.9213076
-27.473595,3.3708577,3.9349787
-27.507124,3.3711312,3.929773
-27.516006,3.347042,3.8916264
-27.546646,3.344396,3.882575
-27.577303,3.3418388,3.8737173
-27.630835,3.3629973,3.897226
-27.675045,3.375094,3.9085422
-27.707783,3.3754778,3.9039896
-27.732775,3.3676834,3.8883328
-27.762175,3.3646176,3.8792
-27.803837,3.3751502,3.888783
-27.84013,3.3800974,3.8908103
-27.877665,3.3867292,3.895248
-27.905483,3.3824937,3.8848228
-27.930656,3.3751862,3.870221
-27.955946,3.36794,3.855752
-27.98442,3.364443,3.8465142
-28.019863,3.3694718,3.8491333
-28.067997,3.390486,3.8739858
-28.095821,3.3867602,3.8646653
-28.127441,3.3878908,3.862145
-28.147903,3.3747423,3.8398504
-28.192543,3.3931,3.8614285
-28.217562,3.3859663,3.8476174
-28.235989,3.3697906,3.8212445
-28.265614,3.3686619,3.815897
-28.297152,3.3703027,3.8144846
-28.330137,3.37419,3.8162858
-28.362642,3.3776386,3.8175497
-28.397245,3.3844266,3.8235688
-28.432041,3.3918643,3.8305826
-28.45812,3.3863993,3.8195624
-28.484634,3.3815432,3.8094473
-28.50606,3.3685942,3.7879992
-28.547367,3.387288,3.811134
-28.584265,3.3995755,3.825349
-28.61466,3.4015985,3.8251789
-28.641773,3.3982344,3.8174715
-28.66388,3.38617,3.7975261
-28.688383,3.3779936,3.783112
-28.722773,3.3874676,3.7937121
-28.75455,3.3926435,3.798308
-28.78942,3.4039783,3.8116999
-28.820295,3.4082456,3.8151534
-28.850216,3.410944,3.8164475
-28.87703,3.407638,3.80928
-28.906315,3.4093893,3.8093493
-28.92288,3.384586,3.7717252
-28.962135,3.40758,3.8021126
-28.926994,3.267726,3.6007795
-28.924335,3.1944523,3.4940987
-28.919828,3.1132882,3.3761106
-28.893782,2.9767747,3.17912
-28.91794,2.955708,3.146698
-28.916,2.868129,3.0193563
-28.92326,2.799496,2.9190097
-28.940811,2.7543552,2.8522024
-28.916412,2.5919828,2.617785
-28.916935,2.49004,2.4696565
-28.923843,2.400375,2.3390336
-28.938805,2.329215,2.2348652
-28.956339,2.261414,2.1354947
-28.934383,2.0623367,1.8480039
-28.956295,1.994988,1.7492003
-28.941484,1.7961748,1.4618678
-28.945358,1.6491327,1.2486777
-38.555588,0.6444435,0.8472719
-38.581787,0.68120956,0.91290474
-38.51976,0.7723856,1.0455599
-38.476173,0.8507798,1.1620989
-38.480927,0.8985565,1.2408342
-38.479805,0.94929004,1.3230824
-38.492393,0.9911978,1.3944774
-38.505756,1.0321817,1.4646988
-38.45948,1.1076062,1.576457
-38.425232,1.174947,1.678143
-38.453133,1.2056711,1.7356462
-38.46707,1.2440817,1.8023591
-38.481888,1.2816033,1.8679729
-38.500633,1.3165596,1.9305096
-38.53175,1.344368,1.9845891
-38.59224,1.3559389,2.019618
-38.571175,1.4117725,2.1067095
-38.644115,1.4165056,2.1339545
-38.511497,1.5306075,2.2885647
-39.32904,1.2352905,2.0160809
-39.410004,1.2391553,2.0447555
-39.46477,1.2565799,2.0891633
-38.475445,1.797214,2.7257843
-38.485065,1.8321717,2.787496
-38.511833,1.8583837,2.8393574
-38.539818,1.8838525,2.8904366
-38.53415,1.9254153,2.9594274
-38.543297,1.9594612,3.01999
-38.537186,2.000431,3.0881095
-38.569035,2.0231838,3.1361985
-38.584873,2.0532866,3.1923542
-38.619297,2.0746255,3.2390351
-38.563618,2.1369472,3.3298388
-38.62795,2.1443036,3.3615289
-38.657013,2.1676295,3.4104466
-38.685734,2.1910212,3.459507
-38.721703,2.2111475,3.5052152
-38.759926,2.230273,3.5499969
-38.82338,2.238544,3.5836692
-38.903805,2.239791,3.6103964
-38.9911,2.2384825,3.6348968
-39.06127,2.2447243,3.6674833
-39.177937,2.2319772,3.6812673
-39.270626,2.2296822,3.7061138
-39.376404,2.2224994,3.7265754
-39.487556,2.2136817,3.7459774
-39.645187,2.1869168,3.7484198
-39.770847,2.1736753,3.7648592
-39.90114,2.1592863,3.78088
-40.082832,2.1257017,3.779306
-40.16955,2.1295762,3.8142161
-40.29438,2.1193438,3.8363495
-40.42028,2.109342,3.8593988
-40.570442,2.0909455,3.8754296
-41.9952,1.6036656,3.464666
-42.020294,1.6370957,3.533421
-42.037697,1.6731699,3.6045952
-42.04374,1.7131228,3.6792078
-42.02115,1.7629597,3.7624102
-42.03048,1.8011432,3.8352575
-42.04107,1.8386621,3.9074926
-42.047462,1.8774099,3.9807353
-42.047806,1.91798,4.055444
-42.155666,1.922035,4.099857
-42.459076,1.8612949,4.092009
-42.7173,1.8172457,4.0996404
-43.00934,1.7635884,4.1013484
-43.34094,1.6987853,4.0962896
-43.674324,1.6353154,4.094535
-44.03641,1.5646472,4.0895996
-44.49622,1.4653771,4.065726
-44.974106,1.3631787,4.042961
-45.36636,1.2900894,4.0447874
-45.855988,1.189584,4.029834
-46.359993,1.0875616,4.017392
-46.868057,0.9872112,4.0098157
-47.466805,0.8630061,3.98987
-48.074577,0.73959684,3.9749599
-48.649742,0.629055,3.9730406
-49.393803,0.47351432,3.946869
-14.187839,1.2330754,3.965786
-13.919996,1.1022379,3.8097925
-15.59522,1.5581722,4.097274
-15.999491,1.6353371,4.1045775
-16.362698,1.7021165,4.10652
-16.475176,1.6925685,4.0503063
-17.549599,1.9043624,4.084566
-17.763983,1.9322985,4.064935
-18.102821,2.0023673,4.0823903
-18.356367,2.0460763,4.0794005
-18.620224,2.0946965,4.0822716
-18.88061,2.1436687,4.0871034
-19.112068,2.1842432,4.0860963
-19.309353,2.214315,4.0770807
-19.528767,2.2532344,4.0772734
-19.764698,2.299261,4.0852957
-19.947731,2.3278117,4.0785685
-20.097115,2.3452692,4.0625525
-20.27034,2.3722107,4.0563273
-20.452927,2.403576,4.055303
-20.6501,2.4414184,4.06154
-20.84309,2.4788713,4.068529
-21.037216,2.5179129,4.078164
-21.222746,2.5548468,4.086819
-21.355812,2.5726476,4.077533
-21.498182,2.594817,4.07333
-21.67419,2.6310515,4.084061
-21.78257,2.6414802,4.0695634
-21.884663,2.6499574,4.0536294
-22.067818,2.6918283,4.0725904
-22.173565,2.7031837,4.0609
-22.275642,2.7135923,4.048754
-22.371513,2.7219558,4.0349674
-22.530273,2.7573256,4.050207
-22.622982,2.765609,4.037444
-22.732426,2.7815714,4.0333486
-22.925022,2.8342378,4.0693326
-22.987297,2.831159,4.0458994
-23.127403,2.8627505,4.060528
-23.198553,2.8644671,4.043102
-23.355148,2.9050417,4.0688286
-23.405117,2.8981564,4.0427284
-23.520231,2.9213715,4.0503693
-23.593864,2.9260712,4.0378156
-23.688604,2.9410346,4.0371394
-23.796043,2.962574,4.0443387
-23.864965,2.966405,4.0318975
-23.969263,2.9876432,4.0396395
-24.023323,2.985094,4.0205464
-24.12376,3.0055623,4.0282154
-24.210238,3.0197566,4.0290656
-24.300367,3.036313,4.033043
-24.369627,3.0428803,4.0257354
-24.426147,3.0433123,4.01151
-24.513872,3.0601027,4.016791
-24.61913,3.0865989,4.0339394
-24.673515,3.0870862,4.020631
-24.73246,3.0902405,4.010712
-24.83653,3.1178994,4.030382
-24.89273,3.1203988,4.020239
-24.947313,3.1222878,4.009571
-25.040321,3.1456676,4.0251493
-25.090763,3.1459837,4.0130663
-25.156841,3.1553338,4.0121913
-25.250935,3.1810293,4.0315933
-25.28608,3.173572,4.0106373
-25.352932,3.1845808,4.0125604
-25.415867,3.1937215,4.0124283
-25.48148,3.2048395,4.014987
-25.534536,3.2088757,4.008975
-25.591774,3.2157223,4.0066624
-25.666702,3.2336984,4.018505
-25.700012,3.2265902,3.9991035
-25.767315,3.240695,4.006542
-25.802692,3.235207,3.9894555
-25.887682,3.261313,4.0125413
-25.92841,3.2597415,4.000755
-25.973251,3.2609942,3.9926972
-26.028294,3.2691402,3.9936016
-26.085167,3.278853,3.996704
-26.13842,3.2865293,3.9973872
-26.194159,3.296227,4.0008583
-26.244316,3.3024988,4.0000916
-26.290321,3.3062165,3.9961824
-26.32962,3.305513,3.9866762
-26.385885,3.3169236,3.9930623
-26.430836,3.320695,3.9896672
-26.48856,3.3339117,3.9987714
-26.528044,3.3343165,3.99127
-26.577007,3.341868,3.993279
-26.605577,3.3345954,3.9759152
-26.655542,3.3434048,3.979852
-26.675442,3.3297355,3.9542058
-26.694332,3.315154,3.927379
-26.734282,3.3167672,3.9220972
-26.813034,3.3490424,3.9577618
-26.852516,3.3510287,3.9532895
-26.882942,3.3459492,3.9394825
-26.893852,3.3250651,3.9045775
-26.940432,3.333158,3.9085565
-26.981552,3.3370597,3.9070415
-27.035275,3.3517985,3.9202447
-27.057678,3.3404148,3.898356
-27.100172,3.3461962,3.8997188
-27.1177,3.3305445,3.872167
-27.167908,3.3434486,3.8833873
-27.211166,3.3506215,3.8869684
-27.241611,3.3465667,3.8753848
-27.276447,3.3465703,3.869407
-27.311777,3.3471818,3.8643482
-27.335314,3.3369286,3.8445115
-27.37857,3.3452406,3.850164
-27.421091,3.3532035,3.8554592
-27.459263,3.3572922,3.855545
-27.4891,3.353438,3.8447952
-27.520498,3.3511853,3.83632
-27.546371,3.3434486,3.8203433
-27.578833,3.3423834,3.813644
-27.633427,3.364344,3.8389144
-27.661716,3.3594437,3.8270926
-27.700186,3.3653727,3.8303714
-27.733728,3.366297,3.8267894
-27.763916,3.3637238,3.8184168
-27.792723,3.3596892,3.8080728
-27.829403,3.3645205,3.810169
-27.861395,3.3642902,3.8052804
-27.8992,3.3709044,3.8100462
-27.921726,3.3599515,3.7902875
-27.946638,3.3516526,3.7742882
-27.972553,3.3444571,3.7598858
-28.008429,3.3493712,3.7625594
-28.055578,3.3685691,3.785431
-28.091448,3.3742654,3.7894025
-28.125517,3.3779688,3.790648
-28.157444,3.379137,3.788393
-28.183306,3.3724642,3.7751222
-28.210064,3.3669152,3.7634892
-28.231842,3.3545294,3.7422218
-28.261528,3.3528278,3.7361374
-28.291597,3.351741,3.7309885
-28.330233,3.3630214,3.743476
-28.369701,3.3760338,3.7585216
-28.405973,3.3848917,3.7677522
-28.429928,3.3756135,3.751226
-28.456852,3.3706899,3.7409506
-28.48454,3.366913,3.7323618
-28.515669,3.3686023,3.731636
-28.556732,3.386593,3.754284
-28.58527,3.3846984,3.7485795
-28.61382,3.3828804,3.743042
-28.646809,3.3887396,3.7485638
-28.664747,3.3686013,3.7168708
-28.692532,3.3653643,3.709453
-28.72514,3.3709235,3.7147226
-28.76728,3.3945975,3.7461014
-28.794815,3.3916261,3.7392602
-28.828583,3.4007707,3.7499099
-28.857447,3.4006987,3.7473602
-28.885479,3.3990588,3.742607
-28.910885,3.391997,3.7300892
-28.939,3.3904986,3.7256436
-28.963844,3.3819127,3.711018
-28.915369,3.2090201,3.4590526
-28.919174,3.147354,3.3676438
-28.893974,3.0143223,3.1729774
-28.916689,2.990106,3.1356344
-28.917591,2.9105296,3.0181618
-28.92364,2.8397508,2.913381
-28.918285,2.7350616,2.7594151
-28.956009,2.74083,2.7655382
-28.915806,2.5298085,2.4572382
-28.924202,2.4454138,2.3325105
-28.927622,2.3409126,2.1785545
-28.955774,2.3054798,2.1248722
-28.937225,2.119414,1.8523245
-28.93994,1.9901261,1.6621823
-28.95964,1.9093776,1.5425687
-28.945383,1.7022095,1.2390318
-38.66846,0.5891621,0.6348653
-38.495228,0.7516341,0.8598485
-38.538074,0.7775309,0.91200686
-38.559837,0.81618786,0.9802604
-38.50563,0.9005034,1.1056123
-38.487434,0.9618881,1.2019973
-38.496468,1.0062337,1.276998
-38.463882,1.0745504,1.381628
-38.480003,1.1135044,1.449728
-38.443825,1.1822181,1.55442
-38.454666,1.2230814,1.6246653
-38.485706,1.2520738,1.6803436
-38.451813,1.3172231,1.7801023
-38.46955,1.3528247,1.8437262
-38.467766,1.3988068,1.9198799
-38.532974,1.4078143,1.9513798
-38.544537,1.4458964,2.0179896
-38.610077,1.4548078,2.0496793
-38.652348,1.4761937,2.096447
-38.614326,1.5395274,2.1930666
-39.455555,1.2845714,1.9838257
-39.51343,1.3456197,2.1030207
-38.44507,1.9122493,2.7793417
-38.506298,1.9215252,2.811823
-38.525368,1.951191,2.8677635
-38.52204,1.9912772,2.935525
-38.546623,2.017825,2.9878983
-38.548687,2.0547106,3.0519123
-38.57566,2.0797536,3.1026192
-38.58491,2.1127698,3.1622338
-38.597794,2.14387,3.2196884
-38.59771,2.180546,3.283248
-38.622116,2.2060068,3.3344617
-38.651173,2.2292953,3.383359
-38.680725,2.2522836,3.432004
-38.71247,2.2742467,3.4796238
-38.75068,2.293393,3.5243282
-38.790318,2.3119345,3.5685196
-38.862152,2.3169985,3.598652
-38.93566,2.321641,3.6286678
-39.007423,2.3272896,3.6600676
-39.115387,2.3184738,3.676865
-39.230465,2.307344,3.6918354
-39.339687,2.2991548,3.710391
-39.45083,2.2907617,3.7293005
-39.576134,2.2773845,3.7437882
-39.70433,2.2635543,3.7584915
-39.88119,2.2317245,3.7561135
-40.032993,2.21046,3.7650719
-40.104584,2.2202303,3.805009
-40.241776,2.2057948,3.82199
-40.36764,2.1962624,3.8444157
-40.5053,2.1830564,3.8640642
-42.02554,1.6703067,3.4162865
-42.032753,1.7102015,3.4912148
-42.042076,1.7490885,3.565154
-42.023724,1.7974555,3.647677
-42.030014,1.8368263,3.7218685
-42.047527,1.8720849,3.7923293
-42.057243,1.9098341,3.8649988
-42.061836,1.949094,3.9389482
-42.051212,1.9931872,4.016994
-42.06196,2.0298724,4.0885534
-42.302025,1.9913312,4.0967617
-42.5537,1.9503696,4.104511
-42.889084,1.8839806,4.0930395
-43.140217,1.8462644,4.107026
-43.47444,1.7838368,4.1029477
-43.83834,1.7140968,4.095382
-44.27213,1.6249485,4.0752635
-44.70804,1.5376713,4.059602
-45.088936,1.4694653,4.061348
-45.538216,1.383028,4.052295
-46.0459,1.2819312,4.035797
-46.522835,1.1927006,4.031461
-47.153656,1.0617647,4.00134
-47.724655,0.9515219,3.990149
-48.363228,0.82542825,3.9725218
-49.04596,0.6906202,3.9539561
-49.714104,0.56370115,3.9457111
-50.40271,0.43493533,3.941444
-14.048059,1.2776341,3.8972454
-15.518207,1.6597178,4.133133
-15.763176,1.6861937,4.1016955
-16.217857,1.7770393,4.122912
-17.434889,1.9782621,4.101856
-17.64498,2.003005,4.079795
-17.946821,2.0582666,4.0852757
-18.113667,2.0715675,4.0561748
-18.499407,2.1573184,4.0918384
-18.717403,2.1899724,4.0826817
-18.941275,2.2258048,4.0777097
-19.158209,2.2605646,4.073118
-19.383663,2.299458,4.073624
-19.544224,2.3173146,4.055947
-19.783016,2.3632317,4.065501
-19.98415,2.3973374,4.0652847
-20.194588,2.4359071,4.0704985
-20.418705,2.480618,4.082847
-20.60458,2.512837,4.084334
-20.76587,2.5371528,4.079115
-20.907204,2.5550175,4.068405
-21.065903,2.5801349,4.0656977
-21.257671,2.6186216,4.0772963
-21.43821,2.654008,4.0868096
-21.541859,2.6609528,4.068263
-21.675056,2.6798863,4.062575
-21.862762,2.7209315,4.080494
-21.912579,2.7086,4.0437145
-22.112228,2.7562623,4.0701866
-22.185995,2.7544293,4.0453553
-22.28982,2.7651606,4.0342445
-22.463625,2.8052468,4.055107
-22.53174,2.8025465,4.030711
-22.695923,2.8404374,4.050676
-22.788239,2.8489528,4.039395
-22.946184,2.8860366,4.059928
-23.016823,2.8864474,4.040733
-23.154411,2.916384,4.0546536
-23.228003,2.9190242,4.0387464
-23.361338,2.948591,4.0534105
-23.42786,2.949027,4.035815
-23.561111,2.9800258,4.0531974
-23.623123,2.9792988,4.0350103
-23.719444,2.9947047,4.0355806
-23.8024,3.0044515,4.0300612
-23.911888,3.0271735,4.0399275
-24.000717,3.0407789,4.0396824
-24.057882,3.0396972,4.0226603
-24.139828,3.050887,4.0202684
-24.22231,3.0628195,4.019101
-24.314827,3.0802116,4.0247507
-24.411705,3.100378,4.0340977
-24.4657,3.0995512,4.0187845
-24.536087,3.1073065,4.013969
-24.641315,3.1333895,4.0315075
-24.697174,3.134571,4.019391
-24.759893,3.1396146,4.0121713
-24.857765,3.1636202,4.0282974
-24.904726,3.161088,4.0123777
-24.97599,3.1718698,4.0129642
-25.068918,3.1949139,4.0289373
-25.110966,3.1905947,4.0114613
-25.184456,3.2039154,4.0160065
-25.2688,3.2238204,4.0290356
-25.298677,3.2134113,4.0045357
-25.356668,3.2191315,4.000328
-25.45183,3.2467074,4.0238094
-25.490349,3.241908,4.006837
-25.548449,3.2487905,4.0047626
-25.602041,3.2533255,3.999917
-25.665508,3.2641091,4.0032125
-25.715195,3.2669182,3.996556
-25.771135,3.2738314,3.9953218
-25.83462,3.2857714,4.000736
-25.885239,3.2900715,3.9965415
-25.930164,3.29104,3.9882123
-25.983986,3.297923,3.9876845
-26.038305,3.3054585,3.9881864
-26.086971,3.3096392,3.9845033
-26.122637,3.3054976,3.970116
-26.187254,3.3207936,3.9812636
-26.238152,3.327333,3.9811497
-26.274263,3.3241053,3.9683576
-26.303797,3.3164515,3.949831
-26.346523,3.3180048,3.943543
-26.409971,3.3343606,3.956988
-26.460773,3.3422444,3.9594033
-26.478039,3.3263412,3.9303298
-26.494295,3.3095343,3.9000697
-26.564535,3.3322186,3.9226012
-26.614202,3.3402827,3.9257925
-26.648096,3.3368413,3.913697
-26.679539,3.3316302,3.8993077
-26.701843,3.3194504,3.8756034
-26.734684,3.315347,3.8628445
-26.819447,3.3521035,3.9054568
-26.846552,3.344054,3.8876178
-26.879707,3.3408463,3.8764138
-26.899336,3.326734,3.8504515
-26.93322,3.3241754,3.8402686
-26.99317,3.343391,3.8599148
-27.035454,3.3483548,3.8602471
-27.071325,3.3481371,3.853595
-27.104332,3.3456054,3.843857
-27.118885,3.3270903,3.8122108
-27.164265,3.335467,3.817626
-27.232496,3.3645973,3.851815
-27.262526,3.3600836,3.8397117
-27.285595,3.349247,3.8189192
-27.305101,3.3349981,3.7934341
-27.337557,3.3326802,3.784545
-27.38102,3.340899,3.7903905
-27.427898,3.3527603,3.8014297
-27.465755,3.356296,3.8009837
-27.493328,3.3499336,3.7868028
-27.51294,3.335605,3.76153
-27.552727,3.3414555,3.7645588
-27.588902,3.343906,3.7629185
-27.642536,3.3646965,3.787137
-27.68605,3.3755422,3.797519
-27.70211,3.3575442,3.7673807
-27.729826,3.3517985,3.754537
-27.763218,3.3522587,3.750514
-27.797945,3.3543577,3.7488842
-27.848082,3.374024,3.772211
-27.873001,3.36557,3.7558122
-27.909628,3.3705862,3.758576
-27.933807,3.361245,3.7410269
-27.960318,3.3545485,3.7272806
-27.985645,3.3463612,3.7114596
-28.033533,3.365808,3.7350836
-28.077635,3.381259,3.7531328
-28.109425,3.3817148,3.7498727
-28.137104,3.3770292,3.739327
-28.17648,3.3876276,3.750718
-28.197796,3.3747077,3.7284994
-28.218573,3.360774,3.7048564
-28.249224,3.360067,3.7002325
-28.280613,3.3605032,3.6973152
-28.30823,3.3557348,3.686976
-28.346209,3.3658895,3.6981788
-28.385027,3.3777628,3.7119474
-28.418575,3.3823116,3.7152433
-28.447435,3.3800302,3.7087522
-28.464582,3.3596668,3.6761885
-28.503513,3.3730264,3.6924071
-28.525448,3.3597207,3.6701255
-28.577484,3.395298,3.7186794
-28.608109,3.396668,3.7177863
