x,y,z
-24.627241,1.4711204,2.8248348
-24.717623,1.500561,2.8390832
-24.792084,1.5175731,2.8408966
-24.865593,1.5343368,2.8427768
-24.933731,1.547091,2.8408003
-25.015448,1.5719371,2.851738
-25.060543,1.5658054,2.8305826
-25.129856,1.5809207,2.831912
-25.198269,1.5957537,2.8332343
-25.263353,1.6081202,2.8322315
-25.323353,1.6163583,2.8271155
-25.386787,1.6280942,2.8259554
-25.459528,1.6488464,2.8346686
-25.58984,1.7238374,2.9017215
-25.626144,1.7121651,2.8764138
-25.682407,1.7194102,2.871563
-25.718891,1.7079761,2.8467722
-25.779009,1.7194562,2.8468714
-25.848549,1.7406383,2.8577256
-25.906439,1.7508926,2.8569822
-25.957983,1.7551799,2.8499508
-26.011635,1.7618876,2.8457499
-26.077202,1.7811813,2.8555331
-26.139688,1.7978911,2.8627381
-26.186777,1.7989633,2.8529706
-26.233286,1.7996168,2.842898
-25.550966,1.015306,1.9647431
-25.595886,1.005255,1.9411368
-26.416111,1.8504987,2.867957
-26.515936,1.9120445,2.9264197
-26.527706,1.8757424,2.87613
-26.56878,1.8722394,2.8624887
-26.613377,1.8728957,2.853632
-26.659904,1.876003,2.8476706
-26.710255,1.883894,2.8472443
-26.758987,1.8902082,2.8452115
-26.810926,1.9007549,2.8481245
-26.859343,1.9073908,2.8467917
-26.914156,1.9223685,2.8550787
-26.959892,1.926403,2.8511271
-27.008274,1.9341023,2.8514943
-27.054684,1.939604,2.849516
-27.105879,1.9517355,2.8552594
-27.153744,1.9599035,2.8566422
-27.199692,1.9658575,2.8556442
-27.246367,1.9731412,2.856319
-27.297565,1.9871054,2.8648272
-27.473644,2.178538,3.0779228
-27.503616,2.1657436,3.056229
-27.541983,2.164958,3.0484786
-27.588013,2.1756456,3.0541153
-27.644188,2.20206,3.0781283
-27.660162,2.1680553,3.032217
-27.71743,2.1971712,3.0596685
-27.763828,2.2102334,3.0686402
-27.79716,2.2029393,3.0540342
-27.86884,2.2579517,3.1122384
-27.902922,2.252738,3.1003284
-27.9396,2.2518547,3.0935764
-27.978046,2.2541077,3.090601
-28.01678,2.2570791,3.0885782
-28.057503,2.263815,3.0910883
-28.096392,2.2676244,3.0902777
-28.134857,2.270937,3.088994
-28.174551,2.2768047,3.0908322
-28.213797,2.2821777,3.0922027
-28.251345,2.2846007,3.0902
-28.28852,2.286516,3.0877004
-28.326252,2.2897646,3.086884
-28.366,2.297428,3.0914044
-28.404413,2.3027434,3.0932555
-28.441273,2.305086,3.091682
-28.47751,2.3062963,3.0888643
-28.513708,2.3076055,3.0862617
-28.549866,2.309015,3.0838747
-28.587833,2.314861,3.086875
-28.625158,2.3195746,3.0886292
-28.661116,2.3212876,3.0869021
-28.697271,2.3237214,3.0861316
-28.731192,2.3206532,3.078874
-28.766335,2.3207881,3.0755386
-28.80215,2.3228867,3.074647
-28.836342,2.3207145,3.068728
-28.866402,2.3067632,3.048758
-28.89479,2.2872536,3.0221796
-28.914198,2.2396452,2.9618893
-28.935886,2.1964335,2.9068985
-28.966387,2.1789427,2.8828835
-29.001373,2.1753192,2.8756313
-29.03844,2.17869,2.876893
-29.076145,2.1846735,2.8814006
-29.112003,2.1844738,2.8785486
-29.149185,2.1894002,2.8819742
-29.18514,2.1900213,2.8802972
-29.221848,2.1938856,2.8826294
-29.258026,2.195958,2.8828897
-29.294441,2.199387,2.884882
-29.33051,2.2016509,2.8855577
-29.367577,2.2090604,2.8925533
-29.405249,2.220361,2.9043565
-29.45083,2.2747428,2.968449
-29.48073,2.247697,2.9339957
-29.401981,1.579879,2.1227808
-29.433249,1.5178854,2.0458126
-29.465378,1.4540489,1.9666638
-29.501572,1.4105413,1.91224
-29.504166,1.1079688,1.5434351
-29.538677,1.0182681,1.4329991
-29.58505,1.0180249,1.4312615
-29.632946,1.0324869,1.4475017
-29.680687,1.0483449,1.4655576
-29.726326,1.0433908,1.4584441
-29.77254,1.0448995,1.4592967
-29.818335,1.0408146,1.453464
-29.86398,1.0330389,1.4432554
-29.910847,1.0476007,1.4603162
-29.956913,1.0489507,1.4614291
-30.038864,2.2551224,2.927723
-30.073627,2.257422,2.9302897
-30.108326,2.2579057,2.9307332
-30.142977,2.2375188,2.905881
-30.177635,2.2661262,2.9406962
-30.231043,1.1554344,1.5901127
-30.247002,2.2607307,2.9344397
-30.282629,2.2337186,2.9018745
-30.316708,2.2525182,2.925099
-30.35178,2.246642,2.918405
-30.38753,2.2319705,2.9011083
-30.420912,2.2535703,2.9279852
-30.457605,2.2301981,2.900288
-30.4927,2.2291305,2.8997874
-30.527946,2.2268844,2.8979416
-30.563448,2.2228284,2.8939838
-30.59865,2.2220345,2.8940759
-30.63346,2.2244992,2.898212
-30.668755,2.223253,2.8979278
-30.704264,2.2208312,2.896306
-30.739824,2.218503,2.894885
-30.774483,2.2219615,2.90057
-30.809305,2.2242434,2.904914
-30.844679,2.2234547,2.905621
-30.880318,2.2214937,2.9049973
-30.915615,2.2215207,2.90687
-30.950916,2.2216396,2.9089422
-30.986506,2.2205887,2.909687
-31.02183,2.220892,2.9121575
-31.05685,2.2225473,2.9163518
-31.092482,2.2217739,2.9176989
-31.130108,2.213543,2.9101324
-31.172659,2.1878102,2.8815494
-31.202148,2.210591,2.9115925
-31.231588,2.2321773,2.9402552
-31.269268,2.2249627,2.934287
-24.19314,1.3955362,2.7669978
-24.333427,1.459631,2.815363
-24.439383,1.4983289,2.838274
-24.514944,1.5139818,2.8378654
-24.569221,1.513166,2.8207002
-24.672354,1.5519421,2.8449636
-24.777393,1.5932593,2.8723693
-24.833496,1.5953634,2.8591642
-24.910597,1.615164,2.864789
-25.001911,1.6475034,2.883978
-25.029713,1.6268489,2.8474874
-25.09407,1.6372902,2.8440714
-25.162561,1.651726,2.845169
-25.227697,1.6637259,2.843947
-25.28954,1.6732657,2.8403506
-25.343304,1.6759877,2.8296714
-25.418652,1.6984453,2.8404636
-25.525232,1.7500641,2.8830976
-25.55032,1.7278476,2.8461795
-25.61396,1.7412703,2.848043
-25.675005,1.7527292,2.8480163
-25.732927,1.7616534,2.8454556
-25.792385,1.7724383,2.845152
-25.841389,1.773468,2.8343573
-25.89034,1.774656,2.823904
-25.166172,1.0062351,1.9637852
-25.236153,1.020268,1.9657865
-25.269053,0.9970665,1.9267344
-25.31593,0.9879446,1.9034023
-25.368866,0.9851358,1.8872461
-25.422878,0.98361397,1.8726954
-25.473179,0.9783025,1.8540726
-26.454502,1.9783871,2.9642115
-26.463295,1.9399841,2.9111476
-26.502064,1.9339695,2.8945546
-26.526136,1.9115238,2.859507
-26.57882,1.9211211,2.860774
-26.631304,1.930896,2.8624268
-26.675676,1.9316611,2.8540182
-26.726364,1.9400423,2.854426
-26.778326,1.9503214,2.857171
-26.830551,1.9613535,2.8609557
-26.880657,1.9702437,2.8624668
-26.929638,1.9781389,2.8630033
-26.978912,1.9867749,2.8645544
-27.025255,1.9920752,2.8624258
-27.07057,1.9963536,2.8592672
-27.119804,2.006038,2.8624997
-27.16663,2.0129528,2.862687
-27.215921,2.0235403,2.8672853
-27.26068,2.0284038,2.865395
-27.316404,2.0487342,2.8816423
-27.481573,2.2234223,3.0780063
-27.51807,2.2201588,3.0673776
-27.564854,2.2318153,3.0742946
-27.600475,2.2275918,3.062767
-27.641338,2.2311964,3.0605154
-27.65139,2.1884434,3.0039425
-27.715416,2.2274313,3.043469
-27.725851,2.1841495,2.9863415
-27.775185,2.2013202,3.0004764
-27.8692,2.291235,3.1006799
-27.909126,2.29563,3.1001415
-27.944979,2.2935252,3.0920248
-27.984049,2.2969415,3.0905495
-28.024084,2.3022826,3.0914698
-28.064344,2.3083472,3.0933676
-28.102777,2.3115048,3.0919237
-28.140465,2.3135612,3.0892768
-28.178095,2.3157244,3.0868611
-28.217918,2.3222497,3.0897574
-28.257603,2.3288927,3.0929093
-28.29559,2.3326054,3.092669
-28.3341,2.337648,3.0941262
-28.371,2.3397462,3.0921621
-28.40696,2.3401122,3.0882182
-28.444338,2.3436394,3.0881681
-28.481066,2.3460453,3.0868707
-28.51718,2.3473263,3.0843177
-28.554878,2.3523943,3.0864239
-28.591402,2.3551078,3.0857925
-28.62812,2.3585386,3.0861254
-28.664251,2.3608384,3.0851908
-28.700073,2.3626199,3.0837226
-28.736332,2.365735,3.0839639
-28.771336,2.3658574,3.080676
-28.805626,2.3642154,3.0753388
-28.838808,2.359564,3.0664387
-28.867674,2.3425891,3.0426612
-28.894705,2.3194668,3.011477
-28.918205,2.2845879,2.9660559
-28.93184,2.2173982,2.881371
-28.969282,2.2217832,2.8837724
-29.004917,2.220663,2.8795667
-29.04185,2.2240007,2.8808818
-29.079065,2.2286859,2.8839335
-29.115318,2.2303495,2.8833952
-29.151192,2.2308602,2.8815417
-29.18769,2.2339656,2.8829465
-29.22412,2.2371693,2.8845615
-29.25988,2.237965,2.883328
-29.295473,2.2382288,2.8815293
-29.331463,2.2404656,2.8822346
-29.36806,2.2459333,2.886983
-29.40933,2.2753437,2.9211416
-29.451717,2.3136659,2.9663305
-29.48539,2.3081467,2.9579172
-29.403286,1.6296871,2.1246734
-29.444296,1.6290777,2.1221676
-29.473166,1.5493288,2.022688
-29.496292,1.4192917,1.8615475
-29.484495,1.0110745,1.3590078
-29.531782,1.0144618,1.3616142
-29.578491,1.0135622,1.3590727
-29.626278,1.0228631,1.3691716
-29.67309,1.0240974,1.3694801
-29.720478,1.0323863,1.3785682
-29.768095,1.0458424,1.3941236
-29.813734,1.0342011,1.3789492
-29.864443,1.1052907,1.4655766
-29.911068,1.1210151,1.4842725
-29.956766,1.1210902,1.4838438
-30.002495,1.1225452,1.4852214
-30.049047,1.1644957,1.5365019
-30.094284,1.1617706,1.5329618
-30.139427,1.0960672,1.4520922
-30.184298,1.2412155,1.6305981
-30.229038,1.2293737,1.6161737
-30.264154,1.5961802,2.06742
-30.304724,1.6141901,2.0898886
-30.315186,2.2958758,2.9283514
-30.35023,2.2881455,2.919289
-30.38578,2.274832,2.90345
-30.418865,2.2988102,2.933529
-30.456495,2.2623546,2.8894248
-30.491451,2.2625563,2.8904552
-30.526663,2.2603288,2.8885865
-30.56164,2.260712,2.8900084
-30.596613,2.2611845,2.8916254
-30.631254,2.2642655,2.8965297
-30.666193,2.2649179,2.8985362
-30.701405,2.2637734,2.8984222
-30.736444,2.263977,2.9000487
-30.77159,2.2636435,2.901103
-30.806637,2.2640293,2.903123
-30.841799,2.2638774,2.9045696
-30.877094,2.2631896,2.905447
-30.91241,2.2625933,2.9065242
-30.947474,2.2633433,2.9093337
-30.982954,2.262304,2.9100413
-31.018167,2.2626104,2.9124827
-31.053535,2.2623825,2.9143572
-31.08971,2.25912,2.912613
-31.126282,2.2547038,2.9095516
-31.163795,2.247263,2.9028935
-31.20234,2.2368045,2.892654
-31.235636,2.2451673,2.905456
-31.284544,2.201257,2.8546643
-24.298546,1.5264616,2.8248105
-24.402817,1.5628316,2.8459044
-24.481812,1.5805752,2.8479843
-24.561134,1.5991459,2.8512797
-24.639454,1.6175101,2.8547058
-24.740923,1.6549156,2.878622
-24.806072,1.6640329,2.8729753
-24.887125,1.6864848,2.8817983
-24.940912,1.687192,2.8677359
-25.019413,1.7086356,2.8761048
-25.048977,1.689683,2.8413658
-25.106993,1.6946502,2.8324957
-25.172342,1.706203,2.830974
-25.238077,1.7185304,2.8305535
-25.304787,1.732171,2.8318248
-25.357258,1.7337179,2.8201613
-25.497665,1.8140104,2.894896
-25.563683,1.8290856,2.8987002
-25.55642,1.7778368,2.8297505
-25.625362,1.7959294,2.8372097
-25.779785,1.8942869,2.933784
-25.942001,1.9136832,2.9203854
-25.998037,1.9227204,2.919186
-25.099367,0.9914813,1.8641624
-25.132246,0.9674978,1.8237152
-25.305775,1.0849555,1.9426413
-25.373604,1.0975759,1.9440107
-25.414158,1.0825706,1.9143643
-25.447445,1.0598419,1.8760595
-25.46201,1.0170133,1.8149691
-26.436998,1.9997497,2.922151
-26.509405,2.030205,2.9471712
-26.525589,2.0000255,2.9031096
-26.542793,1.9704044,2.8596807
-26.587269,1.9708138,2.850748
-26.634705,1.974767,2.846034
-26.68303,1.9800103,2.8429608
-26.735146,1.9899731,2.8455005
-26.78802,2.0012543,2.8497438
-26.837784,2.0092769,2.850387
-26.886423,2.0163145,2.85005
-26.935844,2.024661,2.8513947
-26.985085,2.0331688,2.8530903
-27.032305,2.0395265,2.8524337
-27.079834,2.0466137,2.8527822
-27.126308,2.052693,2.8521
-27.1753,2.0624065,2.8558326
-27.221899,2.0693684,2.8564844
-27.265316,2.072393,2.852645
-27.351334,2.1340115,2.9180846
-27.4834,2.26158,3.061821
-27.5382,2.284111,3.081789
-27.542454,2.2351165,3.0171504
-27.597843,2.259083,3.0390768
-27.663961,2.2997632,3.081069
-27.706032,2.3058279,3.0820885
-27.733963,2.2907114,3.0579767
-27.767517,2.2839534,3.0439024
-27.828772,2.3206382,3.0818515
-27.873302,2.3319683,3.089666
-27.910625,2.3321195,3.0842185
-27.949371,2.3347628,3.0818624
-27.988398,2.338117,3.0804696
-28.02769,2.3421826,3.0800438
-28.067577,2.3475633,3.0813117
-28.105644,2.3500602,3.0792165
-28.144646,2.3544698,3.0795355
-28.18223,2.3565853,3.07719
-28.221367,2.361822,3.078724
-28.259434,2.3653615,3.0783114
-28.297415,2.3690104,3.0781355
-28.335308,2.372768,3.078196
-28.372812,2.3760269,3.0777545
-28.409645,2.378179,3.076066
-28.446133,2.3798265,3.0738611
-28.482569,2.3815753,3.071876
-28.519232,2.384033,3.0708523
-28.556917,2.3890328,3.073028
-28.595022,2.3953607,3.0769286
-28.63221,2.3999646,3.0788226
-28.667007,2.3991659,3.074204
-28.701801,2.3984609,3.0697865
-28.738293,2.4021394,3.0708313
-28.773512,2.4028509,3.0683298
-28.808474,2.4030426,3.065281
-28.840483,2.3953342,3.0526104
-28.870865,2.3827796,3.0340538
-28.892056,2.343188,2.9822936
-28.918556,2.3171854,2.9472866
-28.936028,2.262226,2.876647
-28.970633,2.2579165,2.8684568
-29.007023,2.2592573,2.8673224
-29.044111,2.2631702,2.8694515
-29.080936,2.266564,2.8710341
-29.116991,2.2675788,2.8697681
-29.153515,2.2705495,2.8710098
-29.189487,2.2717557,2.87016
-29.225582,2.273678,2.8702846
-29.26148,2.2750745,2.8698463
-29.297626,2.2778087,2.8711534
-29.333712,2.2806385,2.8726678
-29.375143,2.3090777,2.9060254
-29.41943,2.35445,2.9604998
-29.454437,2.356354,2.961163
-29.342148,1.5550025,1.9647927
-29.409819,1.7013779,2.1446848
-29.447563,1.6826854,2.119752
-29.485268,1.661587,2.0919142
-29.494478,1.4414315,1.8167491
-29.482813,1.0363677,1.3116508
-29.531403,1.0484571,1.3251548
-29.578081,1.0463026,1.3210607
-29.624458,1.041143,1.3133383
-29.67038,1.0304732,1.2988701
-29.718256,1.0399327,1.3095603
-29.765945,1.0495176,1.3205223
-29.812973,1.0523446,1.3231859
-29.86725,1.1785688,1.4796019
-29.912552,1.1728938,1.4719191
-29.958107,1.1710906,1.4691639
-30.004522,1.196321,1.5001855
-30.050068,1.2035174,1.5088573
-30.095161,1.1839116,1.4842553
-30.140654,1.1775687,1.4762783
-30.186132,1.189498,1.491169
-30.230583,1.2491229,1.5655708
-30.267195,1.5636401,1.9575286
-30.30352,1.7192311,2.1516232
-30.316198,2.3311677,2.914063
-30.350683,2.3335166,2.9174232
-30.385204,2.3347025,2.919417
-30.419798,2.3347256,2.920045
-30.457262,2.300437,2.878049
-30.492067,2.3018966,2.8806353
-30.52717,2.3003197,2.8795266
-30.562304,2.2988338,2.8786159
-30.597395,2.2980635,2.8786793
-30.63226,2.2992585,2.8812695
-30.667192,2.2999177,2.883277
-30.702213,2.3000436,2.884705
-30.736937,2.3021314,2.8886542
-30.772154,2.3011901,2.8889236
-30.807507,2.299717,2.888617
-30.842543,2.3002048,2.8908305
-30.877575,2.3007839,2.8932414
-30.91325,2.2983415,2.8919878
-30.948439,2.2984812,2.8940244
-30.983774,2.2980907,2.8954883
-31.018976,2.2984138,2.8979216
-31.054184,2.2988286,2.9005547
-31.090025,2.2968526,2.900313
-31.125914,2.2949717,2.9002786
-31.161167,2.2956648,2.9035153
-31.19677,2.2952116,2.9054198
-31.232756,2.2936146,2.906001
-31.282877,2.245736,2.8495574
-24.170673,1.523968,2.764351
-24.250149,1.5400839,2.7643576
-24.42324,1.6277311,2.8405719
-24.50815,1.6498132,2.84788
-24.586025,1.6671152,2.8504581
-24.693829,1.7083585,2.879027
-24.768871,1.7247996,2.8814297
-24.841,1.7394631,2.8822327
-24.90575,1.748697,2.877459
-24.950462,1.7420335,2.8556871
-25.020676,1.7563927,2.8569565
-25.077984,1.7605422,2.8473592
-25.137062,1.7664692,2.8399253
-25.199736,1.7757678,2.8364205
-25.265911,1.7884655,2.8369045
-25.328156,1.798228,2.8344069
-25.402353,1.818852,2.8441868
-25.542534,1.8984249,2.9197984
-25.542364,1.8545401,2.8584566
-24.466553,0.72606564,1.5538778
-24.855,0.91990757,1.7284899
-24.90501,0.9112661,1.7046814
-26.077816,1.9979284,2.9270563
-25.128706,1.0161073,1.796763
-25.241285,1.0714123,1.8468051
-25.382303,1.1569371,1.9319386
-25.428177,1.1475022,1.9086657
-26.346605,2.0397878,2.9231524
-26.37347,2.0211766,2.8918147
-26.433243,2.0371175,2.9004593
-26.511448,2.0733578,2.9328299
-26.51881,2.033855,2.8776078
-26.55137,2.021206,2.8535638
-26.602333,2.0288594,2.8532534
-26.651121,2.0344293,2.8506804
-26.705225,2.046367,2.8557153
-26.755646,2.0545309,2.8565106
-26.806372,2.0634284,2.8583355
-26.854023,2.0690858,2.856515
-26.901066,2.0743272,2.8543553
-26.950798,2.0831418,2.856563
-26.99848,2.0898328,2.8564215
-27.048302,2.0995429,2.8600063
-27.096102,2.1071205,2.8612213
-27.142385,2.1131258,2.8607192
-27.189857,2.1210072,2.8625941
-27.234528,2.1255755,2.8606658
-27.282978,2.1354902,2.8652587
-27.422653,2.2696464,3.0186472
-27.49653,2.3172886,3.0689774
-27.534924,2.316915,3.0619688
-27.55973,2.297411,3.0320768
-27.647762,2.3684847,3.1112366
-27.6744,2.3521507,3.0853992
-27.703289,2.3387973,3.063209
-27.734348,2.3284426,3.0447035
-27.75137,2.2963986,3.0000186
-27.829895,2.35921,3.0702777
-27.880743,2.3804357,3.0903802
-27.916103,2.3776026,3.0814204
-27.959818,2.3884814,3.0892296
-28.001879,2.3971264,3.09445
-28.040598,2.4005563,3.0934353
-28.079227,2.4040992,3.0926647
-28.11811,2.4083507,3.092867
-28.155888,2.410926,3.0911264
-28.19655,2.4189858,3.0962048
-28.235102,2.4235795,3.0971494
-28.272278,2.4258888,3.0953946
-28.3097,2.4289038,3.0946069
-28.347351,2.4326255,3.0947876
-28.38461,2.435854,3.0944614
-28.42061,2.436779,3.0913968
-28.45773,2.440215,3.0915208
-28.493916,2.4419456,3.0896382
-28.528938,2.441358,3.0849848
-28.566671,2.446916,3.0880194
-28.603218,2.4501586,3.0882878
-28.637863,2.4492586,3.083519
-28.67327,2.450272,3.0812092
-28.708641,2.451382,3.0791073
-28.745674,2.4568462,3.0825024
-28.77998,2.4557157,3.0777984
-28.813131,2.4516284,3.0694995
-28.845217,2.444575,3.0575867
-28.875004,2.4308827,3.0374784
-28.898827,2.39953,2.9954205
-28.916985,2.3498588,2.9305487
-28.940327,2.3130553,2.8817425
-28.975363,2.3106039,2.8758645
-29.01291,2.3162174,2.8801475
-29.049229,2.3182507,2.8800478
-29.085136,2.3191526,2.8786225
-29.12136,2.321379,2.878941
-29.158533,2.3273935,2.8840938
-29.19477,2.3304307,2.8856082
-29.230473,2.331717,2.885015
-29.265541,2.3306315,2.881535
-29.300905,2.3308702,2.8797984
-29.33653,2.332436,2.8798127
-29.373566,2.340888,2.8885584
-29.420135,2.3970149,2.9572868
-29.272234,1.4580472,1.7756591
-29.324677,1.5059428,1.8338642
-29.41138,1.7550895,2.1452885
-29.448372,1.732815,2.1155891
-29.486261,1.7137249,2.0899749
-29.508947,1.5881681,1.9304404
-29.478065,1.0523577,1.2544188
-29.52465,1.0463519,1.2453413
-29.570763,1.0355034,1.2302718
-29.616741,1.0216691,1.2115464
-29.665226,1.0309081,1.2219992
-29.712978,1.0340674,1.2249041
-29.7612,1.044179,1.2366867
-29.811325,1.0848398,1.2870936
-29.867167,1.2349303,1.4755936
-29.912779,1.237989,1.4788432
-29.960232,1.2883718,1.5418782
-30.005493,1.2991235,1.555047
-30.050404,1.3031583,1.5598512
-30.095146,1.2998538,1.5555034
-30.139936,1.2885869,1.5412173
-30.184975,1.2730868,1.521697
-30.226557,1.4745228,1.7758827
-30.268152,1.5319276,1.8485065
-30.30624,1.6552782,2.004386
-30.34202,1.7774706,2.1588793
-30.349508,2.3655064,2.900803
-30.38404,2.3666844,2.902794
-30.41697,2.3890595,2.9315848
-30.454298,2.35441,2.888577
-30.489023,2.3546157,2.889587
-30.523426,2.3580132,2.8946986
-30.55819,2.3577774,2.8953137
-30.59319,2.3557699,2.8937798
-30.627739,2.3575733,2.8971262
-30.662434,2.3582258,2.8991046
-30.697216,2.3583488,2.900497
-30.732203,2.357323,2.900528
-30.767426,2.3551507,2.899198
-30.802809,2.3524516,2.8972898
-30.837896,2.3517005,2.8979158
-30.872759,2.352277,2.9002924
-30.907228,2.354796,2.905192
-30.941792,2.3567863,2.9095068
-30.976328,2.3588653,2.9140143
-31.011568,2.357951,2.9148479
-31.047447,2.3546634,2.9127913
-31.082764,2.3539352,2.91403
-31.118267,2.3526847,2.914699
-31.155,2.3472226,2.9101815
-31.190968,2.3449337,2.9097266
-31.227352,2.3415132,2.9079456
-31.275309,2.3007631,2.8595977
-24.169561,1.6075706,2.8071184
-24.246864,1.6218147,2.80545
-24.358368,1.6620045,2.8318992
-24.447645,1.6865242,2.8420296
-24.517109,1.6967254,2.8371139
-24.61885,1.7320812,2.859702
-24.716652,1.7653162,2.8804522
-24.774578,1.7682757,2.8686619
-24.844765,1.7811875,2.8679676
-24.915335,1.7948816,2.8684177
-25.036907,1.8501542,2.9148803
-25.035273,1.8064976,2.852776
-25.094398,1.8121073,2.8450785
-25.159037,1.8226192,2.8430414
-25.220959,1.8312776,2.8391943
-25.289492,1.8459301,2.8422747
-25.351593,1.8555803,2.840026
-25.423836,1.8744254,2.8483348
-25.551908,1.9427626,2.9126391
-25.609177,1.9500988,2.9086828
-25.851635,1.9954135,2.9131427
-25.935543,2.0296288,2.9409828
-25.997103,2.0436723,2.9460526
-24.901157,0.9516938,1.6807847
-26.105883,2.05941,2.9426575
-25.062784,0.9945934,1.7031789
-25.220158,1.092865,1.8036976
-25.374067,1.1901872,1.9038134
-25.409725,1.1702924,1.868403
-26.348341,2.0750992,2.9099174
-26.39857,2.0808055,2.9068413
-26.452873,2.0910988,2.9092965
-26.503826,2.0982573,2.908266
-26.521034,2.0695024,2.8652315
-26.566868,2.0713515,2.8582058
-26.610102,2.070556,2.8482046
-26.661837,2.079394,2.8497133
-26.718834,2.0945704,2.8588943
-26.76717,2.100401,2.8571901
-26.81391,2.1046987,2.8538203
-26.86342,2.1125305,2.8548002
-26.912754,2.120525,2.856134
-26.957674,2.1235824,2.8517284
-27.00576,2.130753,2.8523803
-27.056442,2.1414936,2.8574605
-27.105984,2.1512628,2.861538
-27.15082,2.1554825,2.8591008
-27.19821,2.1632757,2.861102
-27.239285,2.1631916,2.8537478
-27.28423,2.1684003,2.852903
-27.457848,2.3470585,3.0620613
-27.501764,2.354029,3.0639324
-27.53426,2.3455327,3.0471668
-27.547533,2.3099031,2.9975004
-27.630116,2.3722878,3.0671077
-27.667002,2.3705041,3.058827
-27.701126,2.3647485,3.045796
-27.745474,2.3742437,3.0514874
-27.788845,2.3827112,3.0560532
-27.851742,2.4217408,3.0981936
-27.882502,2.411775,3.0804472
-27.920418,2.4130356,3.07656
-27.96082,2.4185205,3.07797
-27.998241,2.419415,3.0738406
-28.039484,2.4269044,3.0779414
-28.078142,2.4303846,3.0772114
-28.118412,2.436935,3.0803785
-28.153849,2.4353118,3.0735488
-28.192585,2.4397178,3.074275
-28.231861,2.445425,3.0767183
-28.271006,2.4512482,3.0794125
-28.309708,2.456591,3.0816169
-28.34614,2.45787,3.078874
-28.38313,2.4604454,3.077838
-28.420343,2.4637237,3.0777726
-28.457188,2.4665082,3.0771885
-28.493673,2.468796,3.0760808
-28.530094,2.471186,3.0751934
-28.566181,2.473076,3.0737753
-28.602478,2.475668,3.0733247
-28.638445,2.477758,3.0723405
-28.676395,2.4847717,3.0776157
-28.711203,2.4846494,3.074041
-28.74575,2.4840167,3.069911
-28.780294,2.483476,3.065978
-28.815063,2.4836323,3.0630078
-28.845972,2.4735763,3.0472746
-28.871548,2.4484265,3.0126061
-28.893518,2.4117835,2.963502
-28.915758,2.373952,2.9129238
-28.942562,2.347707,2.876985
-28.979113,2.3501282,2.8772702
-29.014835,2.350211,2.8746915
-29.0511,2.352217,2.874627
-29.088388,2.3579824,2.8794026
-29.124683,2.3607957,2.880538
-29.160912,2.3637064,2.8818836
-29.196264,2.363656,2.8795667
-29.23098,2.36125,2.87435
-29.266932,2.363832,2.8755345
-29.30239,2.3646715,2.8745966
-29.337957,2.3662167,2.8746371
-29.37666,2.3825808,2.8935642
-29.420216,2.4242218,2.9446788
-29.457058,2.4359024,2.9578657
-29.315792,1.4927804,1.7582455
-29.41011,1.7802474,2.1216645
-29.450237,1.7765532,2.1153092
-29.487623,1.7551177,2.0864887
-29.514166,1.657444,1.9607825
-29.660927,2.4194071,2.9287224
-29.521416,1.059978,1.1977797
-29.565933,1.0337772,1.1630397
-29.613089,1.0274065,1.1536417
-29.662128,1.0390348,1.1672673
-29.71066,1.047709,1.1772466
-29.75799,1.0435572,1.1710038
-29.811165,1.1221921,1.2703266
-29.867268,1.2750185,1.464304
-29.912718,1.2755842,1.464427
-29.959965,1.3207037,1.5214257
-30.005703,1.3455796,1.552741
-30.050716,1.3594637,1.5701537
-30.095228,1.3537102,1.562645
-30.139982,1.4110365,1.6356292
-30.183641,1.4666247,1.7064996
-30.228031,1.4173844,1.6438746
-30.268559,1.5472641,1.8096161
-30.30917,1.6062579,1.8851123
-30.341333,1.8233356,2.1621213
-30.382208,1.8096867,2.1452174
-30.38352,2.4032314,2.901925
-30.416502,2.4236147,2.9284658
-30.454176,2.384257,2.8789926
-30.488876,2.3844666,2.8799987
-30.523579,2.3847654,2.881199
-30.558277,2.3851538,2.8825922
-30.592972,2.3856313,2.88418
-30.627745,2.3855824,2.8851776
-30.662348,2.3868544,2.8879356
-30.697306,2.385754,2.8877559
-30.732794,2.381669,2.883864
-30.767622,2.3819811,2.8856444
-30.801558,2.3873007,2.8938675
-30.836693,2.385948,2.8936925
-30.871119,2.388371,2.898395
-30.906933,2.3841321,2.894721
-30.942022,2.3836682,2.8959217
-30.97628,2.386974,2.9019861
-31.011517,2.3860786,2.9028034
-31.046625,2.3858876,2.9045968
-31.08318,2.3802826,2.8996162
-31.119358,2.376611,2.8971734
-31.15476,2.3760917,2.8988051
-31.189655,2.3774972,2.902956
-31.225996,2.3741128,2.901135
-31.273726,2.334251,2.8533273
-24.196705,1.6755905,2.8063712
-24.314785,1.7193892,2.8373208
-24.391436,1.7338204,2.836873
-24.475872,1.7545471,2.8436208
-24.574615,1.7866449,2.8631864
-24.669437,1.8166394,2.8808832
-24.73005,1.8212807,2.8710423
-24.811512,1.8423488,2.8796058
-24.878895,1.8530698,2.8770304
-24.938292,1.8579259,2.8681931
-25.011686,1.8742473,2.8723817
-25.05479,1.866734,2.8501744
-25.115078,1.8732488,2.8438597
-25.179607,1.8835955,2.8420858
-25.25327,1.9019506,2.849608
-25.304893,1.9024038,2.837143
-25.363846,1.9092841,2.8321571
-25.419582,1.91376,2.8246489
-25.57446,2.0044231,2.9157882
-25.62558,2.006383,2.906052
-24.675644,1.1224253,1.8792009
-25.748875,2.0298607,2.9096189
-25.816593,2.0477717,2.918868
-24.688902,0.97273517,1.6638455
-24.70983,0.9363539,1.6075563
-24.77197,0.9379451,1.5954075
-24.84084,0.9461751,1.5911975
-24.932558,0.9766941,1.6132584
-26.172226,2.1190424,2.9373002
-26.23161,2.132657,2.9431505
-25.34256,1.207519,1.8453035
-26.346806,2.1578107,2.953041
-25.40721,1.1601474,1.7651863
-26.424183,2.1460907,2.9200997
-26.502012,2.1809213,2.9520469
-26.50602,2.1392,2.8933249
-26.532492,2.1205256,2.861979
-26.57618,2.120101,2.8524523
-26.627953,2.1286573,2.8537912
-26.682547,2.1407146,2.8594909
-26.729923,2.1451828,2.856269
-26.775215,2.1475754,2.8506985
-26.8287,2.159597,2.8568606
-26.877111,2.166209,2.8566732
-26.926794,2.1746607,2.858859
-26.973461,2.1799052,2.8573208
-27.02139,2.1869879,2.8581538
-27.067776,2.1925335,2.857267
-27.111746,2.1953995,2.85326
-27.16013,2.2040658,2.85645
-27.206541,2.210619,2.8572116
-27.249283,2.2127693,2.8527293
-27.295856,2.2201784,2.8548064
-27.46313,2.3887634,3.0546489
-27.502768,2.389912,3.0496082
-27.538172,2.385445,3.0377707
-27.588068,2.4011729,3.0508919
-27.62909,2.4049883,3.0494814
-27.668005,2.4060457,3.0447817
-27.700136,2.397401,3.0281906
-27.72342,2.3755324,2.9952989
-27.82605,2.4724715,3.1097302
-27.848219,2.449711,3.0759811
-27.890625,2.4577904,3.0805898
-27.929535,2.460762,3.0789633
-27.965094,2.4585981,3.0710435
-28.009249,2.4705513,3.080822
-28.047169,2.4726982,3.078485
-28.084675,2.4743688,3.0756516
-28.122807,2.4773204,3.0745196
-28.161863,2.4821446,3.0758357
-28.199486,2.4847298,3.0744476
-28.238008,2.4891913,3.075513
-28.277376,2.4955347,3.0790472
-28.314411,2.497858,3.077629
-28.351994,2.5014694,3.0779285
-28.389185,2.5045955,3.0777135
-28.42511,2.505454,3.0747328
-28.461868,2.5081935,3.0742183
-28.49827,2.5104423,3.073176
-28.535164,2.5139832,3.0738606
-28.572243,2.5182245,3.0755258
-28.606016,2.515406,3.0683398
-28.64296,2.5198488,3.0704412
-28.678778,2.5220027,3.0697312
-28.713535,2.5218587,3.0661922
-28.748766,2.523007,3.0643787
-28.785385,2.527852,3.0673528
-28.818642,2.5243878,3.0598416
-28.850817,2.5180025,3.048686
-28.87449,2.4882176,3.0077763
-28.894213,2.4458146,2.9508047
-28.913069,2.3986027,2.8877096
-28.945826,2.3900359,2.8739753
-28.98071,2.3875902,2.868134
-29.018112,2.3930953,2.87254
-29.053724,2.3932564,2.870201
-29.089138,2.3929062,2.86729
-29.125416,2.39568,2.8684607
-29.161625,2.3985498,2.8698425
-29.197279,2.399696,2.869101
-29.233055,2.4015434,2.8693414
-29.269384,2.4059174,2.8729067
-29.305038,2.4079554,2.8735604
-29.339397,2.4046116,2.8673859
-29.379242,2.426318,2.8934698
-29.412958,2.420726,2.884574
-29.461374,2.488968,2.9706726
-29.492044,2.4701679,2.944972
-29.525463,2.46486,2.9366922
-29.55867,2.4578059,2.926238
-29.592588,2.4544985,2.9206815
-29.627108,2.4549425,2.9200306
-29.661442,2.454254,2.9179988
-29.69673,2.4609888,2.9256096
-29.731588,2.4653716,2.9302702
-29.76676,2.4735153,2.939858
-29.80048,2.4689028,2.933085
-29.83561,2.4790645,2.945434
-29.86916,2.472179,2.935885
-29.9034,2.4733377,2.9367838
-29.937801,2.477646,2.9418225
-29.971802,2.4759204,2.9391556
-29.960855,1.3871052,1.5343032
-30.006184,1.4062784,1.55866
-30.051092,1.4237318,1.5809016
-30.09595,1.4651923,1.6342163
-30.139877,1.456533,1.622973
-30.183144,1.5594847,1.7558208
-30.226591,1.5351212,1.7245121
-30.26974,1.5396614,1.7305913
-30.303198,1.8058591,2.074296
-30.341082,1.8651011,2.151102
-30.38363,1.82094,2.0946217
-30.380333,2.484692,2.9511814
-30.416359,2.458392,2.9178271
-30.45269,2.434639,2.8878427
-30.487446,2.432402,2.885682
-30.522057,2.43209,2.8860817
-30.556326,2.434925,2.8906145
-30.590849,2.435402,2.8921866
-30.62586,2.432301,2.8892288
-30.660849,2.429902,2.8872557
-30.695606,2.4294271,2.8878398
-30.73058,2.4278214,2.8870468
-30.765274,2.4281373,2.8888078
-30.799744,2.4297626,2.8923316
-30.834425,2.4302573,2.8944798
-30.869476,2.429014,2.8944736
-30.90391,2.4309072,2.8985786
-30.938452,2.43228,2.9020934
-30.974815,2.425834,2.895648
-31.008366,2.4316459,2.9050212
-31.044111,2.4284277,2.902886
-31.079931,2.4253054,2.9009566
-31.115326,2.424099,2.901569
-31.15161,2.4199548,2.898501
-31.187279,2.4183319,2.8987474
-31.222258,2.4192257,2.9022994
-31.267988,2.385731,2.8619528
-24.166529,1.7424958,2.8212495
-24.267801,1.7731898,2.8385339
-24.338474,1.7826891,2.832924
-24.414362,1.7964017,2.8322582
-24.513548,1.8277307,2.8514423
-24.614147,1.8609643,2.8731837
-24.677544,1.8672149,2.8652477
-24.759283,1.8876977,2.8734956
-24.84062,1.9085071,2.88245
-24.896776,1.9105141,2.870554
-25.003992,1.952615,2.9041839
-25.013353,1.9186614,2.8520555
-25.072422,1.9238079,2.8443456
-25.137697,1.9342644,2.8429084
-25.202112,1.9444523,2.841413
-25.266926,1.9553909,2.841021
-25.32716,1.9629664,2.8370056
-25.417984,1.9965782,2.8632364
-25.524036,2.044031,2.9058495
-25.635857,2.0976505,2.9560685
-25.651657,2.0694199,2.911631
-24.773033,1.2572379,1.9536133
-25.788242,2.104663,2.9298687
-24.609917,1.0069375,1.6331406
-24.681936,1.0170088,1.630867
-24.74968,1.0236325,1.6247897
-24.904287,1.1110697,1.7142639
-24.930628,1.0806348,1.6650462
-24.959728,1.0523539,1.6184039
-24.962513,0.99845195,1.5413661
-25.022102,0.9985776,1.5285368
-25.060259,0.977936,1.4911194
-25.352953,1.2095053,1.7552571
-25.389437,1.1896725,1.719593
-26.457962,2.2177374,2.941805
-26.508076,2.2240376,2.9402666
-26.526646,2.1978524,2.8997393
-26.548775,2.174947,2.8631783
-26.591301,2.173394,2.8524742
-26.64245,2.1812882,2.8533435
-26.6909,2.186607,2.8512483
-26.73822,2.1909823,2.8481555
-26.788376,2.1988215,2.8494296
-26.837862,2.2062738,2.850388
-26.882349,2.2083442,2.8449192
-26.931053,2.2155552,2.8458781
-26.978645,2.2218103,2.8458138
-27.02515,2.2271028,2.8447113
-27.072903,2.2342215,2.8459954
-27.11912,2.2398136,2.84554
-27.165646,2.2461138,2.846098
-27.21202,2.252562,2.8469768
-27.25384,2.2535179,2.841187
-27.313425,2.2777696,2.864418
-27.484098,2.4494674,3.0710707
-27.534088,2.464787,3.083846
-27.567438,2.4581072,3.0693636
-27.609144,2.462904,3.069281
-27.636873,2.4484293,3.0452347
-27.692192,2.4728813,3.0699496
-27.733528,2.4780605,3.0706978
-27.778257,2.48853,3.078197
-27.819672,2.494545,3.080233
-27.85182,2.4868724,3.0651698
-27.890455,2.4890819,3.0626225
-27.930868,2.4942913,3.06396
-27.972244,2.5013587,3.0677524
-28.010593,2.5039167,3.0659614
-28.048162,2.5054264,3.062944
-28.085676,2.5070426,3.0601597
-28.123816,2.50993,3.0590825
-28.16087,2.5111787,3.056025
-28.198862,2.5142837,3.0554204
-28.238718,2.5210066,3.0595136
-28.277782,2.526677,3.0623732
-28.315775,2.530703,3.0632424
-28.35336,2.5342524,3.0635996
-28.390549,2.5373206,3.063439
-28.426474,2.5381398,3.0604982
-28.463522,2.5414157,3.0607877
-28.500769,2.5453866,3.0620604
-28.538198,2.550055,3.0643191
-28.573875,2.5512798,3.0622582
-28.60871,2.5508258,3.0581298
-28.6451,2.5540235,3.058773
-28.682175,2.5591035,3.0619254
-28.716383,2.5577512,3.0568976
-28.751575,2.5588691,3.0551286
-28.78649,2.5594869,3.0527997
-28.81928,2.5548332,3.043757
-28.85192,2.5496664,3.0341268
-28.874918,2.5182996,2.9907513
-28.894426,2.4756062,2.932776
-28.911823,2.4245498,2.864006
-28.947493,2.424407,2.8610764
-28.982557,2.42256,2.8560233
-29.019749,2.4274042,2.8597136
-29.056646,2.4317498,2.8628445
-29.092005,2.4313884,2.8599648
-29.12753,2.4317207,2.8580651
-29.164042,2.4357576,2.8610525
-29.199974,2.438086,2.861909
-29.23585,2.440511,2.8629718
-29.272116,2.4448397,2.8665924
-29.307705,2.4468517,2.8672867
-29.343107,2.4483545,2.8674002
-29.378864,2.4517624,2.8700724
-29.416447,2.4643319,2.884747
-29.45353,2.475797,2.8980737
-29.488655,2.4782865,2.8998036
-29.524374,2.484501,2.906464
-29.558933,2.484754,2.9054403
-29.59319,2.483279,2.9022427
-29.627464,2.4818923,2.8992362
-29.662014,2.482413,2.8987918
-29.69726,2.488482,2.9056616
-29.731281,2.485542,2.9008589
-29.765959,2.4881518,2.9033732
-29.800396,2.4890304,2.9037056
-29.834204,2.4833176,2.8955126
-29.869694,2.4971282,2.912877
-29.904087,2.499489,2.9153757
-29.938652,2.505585,2.9228277
-29.973282,2.5154169,2.935235
-30.007359,2.5168295,2.9367266
-30.041328,2.515899,2.935233
-30.075289,2.5138395,2.9323397
-30.109346,2.516731,2.9359884
-30.143316,2.5075514,2.9239473
-30.177404,2.50697,2.9232106
-30.21147,2.5083,2.925046
-30.245193,2.5212674,2.9421544
-30.279137,2.5215557,2.94278
-30.313532,2.5122068,2.9308963
-30.348183,2.5017326,2.9176197
-30.382553,2.4986405,2.91406
-30.418661,2.4737682,2.8821454
-30.453583,2.4684293,2.875811
-30.48826,2.466825,2.8744292
-30.522781,2.4671319,2.875618
-30.557089,2.4693477,2.8793745
-30.591585,2.4698317,2.8809476
-30.626244,2.4691913,2.8811312
-30.661182,2.4668217,2.8791385
-30.695986,2.4657555,2.8789225
-30.731117,2.462962,2.876536
-30.765673,2.4638944,2.8790812
-30.800106,2.4655209,2.882608
-30.834513,2.4672356,2.8863263
-30.869392,2.4666204,2.8870883
-30.90468,2.4642835,2.8856902
-30.939207,2.4656632,2.8892055
-30.97315,2.4695458,2.896052
-31.008947,2.4656734,2.8928967
-31.044062,2.4649105,2.8938632
-31.07984,2.4618306,2.891902
-31.115688,2.4588466,2.8901482
-31.151094,2.4577627,2.890943
-31.186886,2.4555705,2.8903823
-31.2231,2.452273,2.8884735
-31.268461,2.420263,2.8494706
-24.141508,1.7771771,2.7810297
-24.304193,1.8504398,2.8466444
-24.369202,1.8558846,2.8370519
-24.429316,1.8581548,2.824143
-24.537916,1.8958993,2.8514662
-24.62368,1.9178894,2.861446
-24.710339,1.9412136,2.8732977
-24.781322,1.9535086,2.8729534
-24.852695,1.9665718,2.8737664
-24.910736,1.9699447,2.8637576
-25.031544,2.0220146,2.9099154
-25.022636,1.9742985,2.8416114
-25.110413,2.0019288,2.8602524
-25.165283,2.0041692,2.8498259
-25.226366,2.0116649,2.8456988
-25.293524,2.0244627,2.8479733
-25.34985,2.0288482,2.84067
-25.414677,2.0405884,2.8421803
-25.552013,2.1136007,2.9159136
-25.631538,2.1393824,2.9346218
-24.801338,1.3863547,2.0340233
-24.771673,1.3105607,1.9308233
-25.8101,2.168797,2.9357338
-24.778687,1.2133818,1.7883921
-24.697746,1.0879118,1.6253762
-25.976206,2.1907182,2.929768
-24.919968,1.1808808,1.7097726
-24.956932,1.1606526,1.6725373
-24.926016,1.0766172,1.5586019
-24.942986,1.0362508,1.4970632
-26.257687,2.2390752,2.937818
-25.015793,0.9910958,1.4169908
-25.06335,0.9790292,1.3898077
-26.396376,2.2431781,2.914618
-26.443005,2.2453785,2.9081807
-26.505947,2.2644002,2.922421
-26.521873,2.2356706,2.8784719
-26.561646,2.2312565,2.864315
-26.604029,2.2296653,2.853733
-26.65352,2.235806,2.8527822
-26.702356,2.2415652,2.8515143
-26.752539,2.249122,2.852614
-26.801552,2.255752,2.8527246
-26.85138,2.2636395,2.8545423
-26.899088,2.2694943,2.8539906
-26.946646,2.2755044,2.8537755
-26.993584,2.2811162,2.8532052
-27.04131,2.2879844,2.8543425
-27.088406,2.294454,2.855124
-27.134432,2.2999637,2.8548427
-27.180767,2.306177,2.8555765
-27.225164,2.3103063,2.8538318
-27.269009,2.314015,2.8516822
-27.338854,2.3514645,2.8921242
-27.483147,2.487397,3.0569363
-27.530169,2.4985807,3.0648813
-27.574848,2.5071027,3.0696034
-27.61892,2.515204,3.0739226
-27.659946,2.5194876,3.0735297
-27.700459,2.5233293,3.0726895
-27.73888,2.5244563,3.0685086
-27.7749,2.5222828,3.0602312
-27.818655,2.5316014,3.06668
-27.858776,2.5359235,3.0668812
-27.899158,2.5409377,3.0680728
-27.939415,2.5460744,3.0695305
-27.978453,2.5496118,3.069048
-28.01632,2.5515413,3.0666084
-28.056591,2.5576065,3.06957
-28.095327,2.5614889,3.0698361
-28.133621,2.5649073,3.0696068
-28.173168,2.5707498,3.0725937
-28.21026,2.572658,3.0706182
-28.245668,2.5717735,3.0651336
-28.282343,2.5733075,3.0628557
-28.321472,2.579595,3.0668087
-28.359224,2.5836701,3.0680022
-28.396872,2.5878544,3.0694318
-28.434711,2.59273,3.0718517
-28.470108,2.59304,3.068448
-28.50576,2.5940318,3.0660133
-28.543047,2.5986369,3.068356
-28.580767,2.6045213,3.0724545
-28.615675,2.604642,3.069149
-28.6503,2.6042693,3.0652847
-28.686703,2.60811,3.0669885
-28.72276,2.611463,3.0681458
-28.75653,2.6096077,3.062594
-28.789127,2.6048877,3.0533795
-28.821098,2.598478,3.042029
-28.851364,2.5874126,3.0246615
-28.877182,2.56398,2.991177
-28.894184,2.515102,2.924429
-28.916115,2.477501,2.8724523
-28.950584,2.474374,2.8656726
-28.987473,2.4784698,2.8684392
-29.024647,2.4838555,2.8729844
-29.060211,2.4845805,2.8715
-29.096827,2.488975,2.8749142
-29.132296,2.4898913,2.8738437
-29.168236,2.4926918,2.87533
-29.204432,2.4967825,2.8785954
-29.239595,2.4973848,2.8773537
-29.274733,2.4980793,2.8763127
-29.310713,2.502457,2.8802004
-29.346039,2.5045362,2.8811417
-29.381311,2.5067077,2.8822842
-29.41615,2.5071745,2.881258
-29.450726,2.5065322,2.8788462
-29.486914,2.5143805,2.887712
-29.521847,2.5163226,2.888866
-29.556423,2.5165546,2.8878407
-29.5905,2.5138717,2.8830419
-29.624804,2.5124779,2.8800197
-29.65981,2.5159836,2.883545
-29.694578,2.5183768,2.8856783
-29.729,2.518454,2.8848267
-29.763414,2.5186205,2.8841681
-29.797941,2.5200791,2.8852935
-29.832325,2.5204234,2.8850198
-29.866646,2.520253,2.884142
-29.900965,2.520172,2.8834558
-29.935543,2.5243967,2.8885407
-29.96994,2.5269036,2.891428
-30.003954,2.521662,2.8841395
-30.038572,2.532182,2.897779
-30.072685,2.5295284,2.8940625
-30.10687,2.5287707,2.892929
-30.14107,2.527498,2.8911886
-30.175297,2.52571,2.8888407
-30.209463,2.5294366,2.8938632
-30.243654,2.5296333,2.89429
-30.27789,2.528712,2.893312
-30.312027,2.5302904,2.8957148
-30.346273,2.5295453,2.8951182
-30.38062,2.5276833,2.8931189
-30.414957,2.5265126,2.8921084
-30.449371,2.5248282,2.8904943
-30.483824,2.5232325,2.8890734
-30.518055,2.5241344,2.891029
-30.552198,2.5257256,2.8939695
-30.586548,2.5256004,2.8947158
-30.620985,2.5249617,2.8948593
-30.655704,2.5226083,2.8928142
-30.690195,2.5221488,2.8933468
-30.7243,2.5241818,2.8972445
-30.75869,2.5245004,2.8989544
-30.79353,2.522508,2.8976908
-30.828653,2.5194058,2.8950405
-30.863226,2.5193949,2.8965454
-30.897417,2.521272,2.9006147
-30.931988,2.521439,2.9025068
-30.96699,2.5199018,2.9022293
-31.002033,2.5184557,2.902151
-31.037117,2.5171018,2.9022737
-31.071917,2.5170362,2.9041686
-31.107723,2.5134792,2.9015503
-31.143785,2.5094218,2.8983579
-31.179228,2.507847,2.898509
-31.214716,2.5063663,2.8988657
-31.258762,2.4781973,2.8642821
-24.19476,1.8563197,2.8034434
-24.315971,1.9001155,2.8372393
-24.388466,1.9107082,2.8338523
-24.460722,1.9215801,2.8310714
-24.553001,1.9472911,2.8455458
-24.724686,1.9915421,2.8674006
-24.79959,2.006586,2.8706822
-24.86891,2.017985,2.870038
-24.938631,2.0301423,2.8705397
-25.008083,2.0425653,2.8716192
-25.054062,2.037353,2.8523617
-25.110966,2.0407667,2.8433533
-25.176655,2.0513873,2.8430119
-25.24652,2.0657692,2.847342
-25.307932,2.073868,2.8445153
-25.359201,2.0741048,2.8325982
-25.501118,2.1490362,2.9095368
-25.536901,2.137643,2.884338
-25.59047,2.1411366,2.876995
-24.753433,1.3890898,1.9659343
-24.765923,1.3496158,1.9052091
-24.772558,1.3044357,1.8375826
-24.776447,1.2560825,1.7660608
-24.74557,1.1760561,1.6561956
-24.901405,1.2619224,1.7468991
-26.03164,2.233727,2.9131594
-26.090473,2.2451205,2.9169798
-26.154692,2.2619638,2.9276419
-24.932869,1.0723491,1.4651542
-26.268187,2.2832048,2.9344134
-26.319897,2.2896402,2.932953
-26.361095,2.2861946,2.9195142
-25.740742,1.6321633,2.1051116
-26.470291,2.3062773,2.9262624
-26.481646,2.2733912,2.8768392
-26.515087,2.262405,2.8545098
-26.568436,2.271876,2.8576398
-26.613846,2.2734673,2.8511467
-26.66275,2.2789738,2.84966
-26.710503,2.2835615,2.8471751
-26.76162,2.292093,2.849762
-26.812532,2.300798,2.8527231
-26.861774,2.3080409,2.8540072
-26.907455,2.311631,2.8508515
-26.954462,2.3170042,2.8500714
-27.002274,2.3236246,2.8510013
-27.049452,2.3298519,2.8515735
-27.095087,2.3345807,2.8503895
-27.140137,2.3389027,2.8488216
-27.187325,2.3461285,2.8510628
-27.231657,2.350185,2.8494158
-27.272348,2.3499417,2.842424
-27.357014,2.405959,2.9071937
-27.486605,2.5219147,3.0487165
-27.530203,2.5285068,3.0510755
-27.571962,2.533,3.0508733
-27.613188,2.537062,3.0502324
-27.65226,2.538444,3.0462666
-27.691673,2.540503,3.043272
-27.736588,2.550565,3.0506697
-27.772642,2.548356,3.0424004
-27.813353,2.553032,3.0430894
-27.855465,2.560096,3.0469694
-27.89816,2.5684252,3.0525975
-27.936224,2.5700688,3.0496964
-27.975319,2.57353,3.0492454
-28.016111,2.579958,3.0527396
-28.05357,2.5813692,3.0498338
-28.091322,2.58346,3.0479026
-28.130032,2.5873785,3.048442
-28.166618,2.5879676,3.0447464
-28.206474,2.5944052,3.04876
-28.244555,2.5980842,3.0492787
-28.280935,2.5989928,3.046276
-28.317589,2.60058,3.0442476
-28.35542,2.604582,3.0454664
-28.394054,2.6104286,3.049192
-28.431658,2.6146502,3.050887
-28.468283,2.6172392,3.0505333
-28.504547,2.61935,3.0496407
-28.540468,2.6209805,3.0482035
-28.576061,2.6221285,3.0462165
-28.613218,2.6268718,3.0490432
-28.649473,2.62997,3.0497928
-28.684107,2.629663,3.046144
-28.719477,2.6312037,3.0450096
-28.754063,2.6310844,3.0417671
-28.789349,2.6328163,3.0410476
-28.817585,2.617037,3.0172772
-28.850208,2.6118932,3.0076156
-28.870283,2.5733106,2.9537964
-28.894777,2.5447526,2.9132595
-28.917723,2.510343,2.8650074
-28.952967,2.5095797,2.8613625
-28.988008,2.5083182,2.8571362
-29.023443,2.50833,2.8546758
-29.060167,2.5125744,2.8579116
-29.096972,2.5175102,2.8621488
-29.132788,2.5195856,2.862671
-29.169054,2.5235343,2.8657627
-29.204576,2.525209,2.865913
-29.239897,2.5263844,2.865478
-29.275932,2.5306215,2.8691955
-29.310856,2.5307968,2.8675857
-29.346043,2.5322518,2.8677578
-29.381454,2.5349894,2.8697147
-29.415527,2.531868,2.8639417
-29.45038,2.5324068,2.863121
-29.485327,2.5336328,2.8632932
-29.520456,2.5361419,2.865253
-29.555424,2.5381472,2.8666167
-29.590342,2.5402434,2.8681784
-29.625208,2.542431,2.8699374
-29.659939,2.544112,2.871097
-29.69431,2.5434942,2.8692598
-29.72876,2.5435624,2.8684134
-29.76347,2.5461109,2.8709545
-29.79794,2.546955,2.8712935
-29.832388,2.5478895,2.8718276
-29.866959,2.550706,2.8749514
-29.901077,2.5482273,2.8710694
-29.93539,2.5482304,2.8705783
-29.969732,2.54892,2.8710785
-30.003931,2.5467045,2.8677678
-30.038265,2.5475707,2.868651
-30.072771,2.5569074,2.8809376
-30.106968,2.5567527,2.8806028
-30.141163,2.5560873,2.8796573
-30.17538,2.5543125,2.8773012
-30.209654,2.5514276,2.8735337
-30.24382,2.5546188,2.8779645
-30.278013,2.5555024,2.879384
-30.312246,2.5552769,2.8793912
-30.346416,2.556336,2.8811908
-30.38073,2.5550895,2.8799806
-30.415115,2.5533335,2.878162
-30.449646,2.5504694,2.874936
-30.483885,2.5512838,2.8767018
-30.518305,2.550392,2.8762598
-30.552393,2.552578,2.8800044
-30.586367,2.5554488,2.8847365
-30.62103,2.55303,2.8824768
-30.655748,2.550702,2.8804126
-30.69033,2.5496588,2.8801389
-30.724838,2.5493011,2.880856
-30.759682,2.5472445,2.8793797
-30.793898,2.5488555,2.8828726
-30.827736,2.552341,2.888939
-30.862133,2.552936,2.8912225
-30.896528,2.5536196,2.8936996
-30.931326,2.5526085,2.893993
-30.965586,2.5540655,2.8976493
-30.999828,2.5556111,2.9014988
-31.036358,2.5483408,2.8936906
-31.071766,2.5459166,2.8924117
-31.107565,2.5424008,2.889762
-31.143446,2.5389817,2.8873215
-31.179586,2.5350673,2.8843036
-31.215816,2.531251,2.8814993
-31.259333,2.5050755,2.849111
-24.152859,1.9130564,2.807477
-24.241232,1.9332018,2.8149033
-24.347797,1.9665396,2.837882
-24.445492,1.9946067,2.8552322
-24.517448,2.0053682,2.8529458
-24.593893,2.0197709,2.8551707
-24.672714,2.0364022,2.8602953
-24.749844,2.0523782,2.8649654
-24.832602,2.07303,2.875421
-24.909662,2.090115,2.8820128
-25.002712,2.1197317,2.9036894
-25.01851,2.091827,2.857688
-25.076706,2.0959203,2.8496451
-25.146309,2.1091132,2.852631
-25.211163,2.119102,2.8520536
-25.270102,2.1248567,2.8466449
-25.321987,2.1253345,2.8351135
-25.395594,2.1435058,2.845028
-25.526867,2.2091653,2.9124646
-25.585155,2.2164707,2.9099364
-24.781427,1.507992,2.0404043
-24.783272,1.4607973,1.9699812
-24.764389,1.3952036,1.8770661
-24.766277,1.3462338,1.804245
-24.775513,1.3027909,1.7380881
-24.761543,1.2382534,1.6460142
-26.007513,2.2909107,2.926324
-26.066929,2.302495,2.930655
-26.116392,2.305499,2.9246001
-26.169142,2.3117814,2.9227538
-26.228449,2.324489,2.9290376
-26.274147,2.3248906,2.92024
-26.326946,2.3322387,2.9202213
-25.232632,1.2360868,1.544642
-25.742258,1.6758318,2.082384
-26.489573,2.3606465,2.9291258
-26.509762,2.337009,2.8909273
-26.535608,2.3186877,2.8594208
-26.576323,2.31529,2.846736
-26.624266,2.3194697,2.8437152
-26.679222,2.3312821,2.8504739
-26.726341,2.3352559,2.8474898
-26.77484,2.3409925,2.8468757
-26.82368,2.347425,2.8472896
-26.869911,2.3513236,2.8446236
-26.914574,2.3537478,2.8402133
-26.965849,2.3638952,2.845779
-27.01168,2.368244,2.8440905
-27.059263,2.3749144,2.8455029
-27.101122,2.375196,2.8388624
-27.153458,2.3881724,2.848628
-27.195105,2.3887312,2.8425903
-27.242512,2.396549,2.846006
-27.285755,2.3995712,2.8433743
-27.393875,2.4848359,2.9470363
-27.49297,2.5611775,3.0395684
-27.532272,2.5621386,3.0348845
-27.575722,2.568759,3.0376382
-27.61652,2.5721846,3.036365
-27.657219,2.5757337,3.0353594
-27.697815,2.5794065,3.0346212
-27.7395,2.5848775,3.036333
-27.781044,2.5904775,3.0383239
-27.820126,2.5928411,3.0361981
-27.859892,2.5964437,3.0357914
-27.901436,2.6029773,3.0393229
-27.94208,2.6085117,3.041656
-27.98003,2.6102185,3.039072
-28.018635,2.6131651,3.0382109
-28.057154,2.6162255,3.0375953
-28.096626,2.6211,3.0394626
-28.134605,2.6238189,3.0385904
-28.172165,2.6260784,3.0372076
-28.210316,2.6295862,3.037561
-28.247393,2.631492,3.0358925
-28.285044,2.6346464,3.0359645
-28.322607,2.6379085,3.0362706
-28.359772,2.6407053,3.0360513
-28.396553,2.6430345,3.0352998
-28.433857,2.646616,3.0362992
-28.470482,2.6491537,3.0359998
-28.506462,2.650642,3.0343928
-28.54295,2.653383,3.0345364
-28.57881,2.6550722,3.0333643
-28.614346,2.6562817,3.0316362
-28.650887,2.6599045,3.033208
-28.685793,2.6601522,3.0303612
-28.72042,2.6599135,3.0269437
-28.75479,2.6591876,3.022952
-28.788914,2.6579704,3.0183806
-28.817907,2.644037,2.99687
-28.851486,2.6412387,2.9903202
-28.871357,2.6023614,2.935513
-28.890049,2.5582454,2.8736992
-28.921576,2.5474544,2.8565845
-28.958809,2.5525312,2.8608255
-28.995132,2.5553694,2.8621445
-29.031187,2.5577192,2.8628902
-29.066248,2.5572345,2.8599048
-29.10148,2.557428,2.8579078
-29.13687,2.5583022,2.856903
-29.173069,2.5622094,2.8600569
-29.20885,2.5650373,2.8618383
-29.244873,2.5691383,2.8654122
-29.280195,2.5709798,2.8660216
-29.315033,2.5711462,2.86445
-29.35055,2.5743532,2.867052
-29.385458,2.5752938,2.866675
-29.420715,2.5780966,2.868885
-29.455784,2.5804026,2.870501
-29.491026,2.5839827,2.8739128
-29.525969,2.586473,2.8759289
-29.560642,2.5878718,2.876545
-29.594793,2.5864012,2.8733559
-29.629238,2.586795,2.8727593
-29.663668,2.5872777,2.8723564
-29.698317,2.5896275,2.8745508
-29.732985,2.5926607,2.8777432
-29.767248,2.592819,2.87712
-29.801378,2.591879,2.8750825
-29.835577,2.5916204,2.8740382
-29.86958,2.589076,2.8699713
-29.90419,2.5943346,2.8765402
-29.93843,2.5955281,2.877677
-29.97258,2.5956218,2.8773975
-30.006596,2.5928345,2.8732867
-30.040705,2.591322,2.8709745
-30.075083,2.6005876,2.8833308
-30.10916,2.6010334,2.8838134
-30.143225,2.6003778,2.8828754
-30.177315,2.598029,2.879715
-30.211401,2.5987365,2.880766
-30.245504,2.5983446,2.8803997
-30.279684,2.5962577,2.877809
-30.313793,2.5966349,2.8786268
-30.347895,2.5970998,2.8796344
-30.381948,2.5982463,2.8816361
-30.416029,2.598886,2.8830233
-30.449942,2.6013935,2.88701
-30.4841,2.6010218,2.8871703
-30.518204,2.601331,2.8883243
-30.55238,2.601135,2.8888664
-30.586792,2.5992486,2.8871937
-30.620918,2.5998228,2.8889217
-30.655214,2.5993,2.8892379
-30.689814,2.5970898,2.8873458
-30.723959,2.5979283,2.8896484
-30.758202,2.598264,2.8913436
-30.792334,2.5992799,2.8940277
-30.827877,2.5932915,2.8873286
-30.862677,2.5915337,2.8864174
-30.897522,2.589867,2.885704
-30.931318,2.5930114,2.8915553
-30.96492,2.5968318,2.8983884
-31.00053,2.5924883,2.894288
-31.035624,2.590596,2.8935676
-31.070766,2.5887961,2.8930497
-31.106789,2.5841496,2.8887763
-31.141884,2.583127,2.8894582
-31.177725,2.5798478,2.8871832
-31.213646,2.576666,2.8851175
-31.258945,2.5448573,2.8446703
-24.133474,1.9858518,2.8306909
