x,y,z
-38.53025,3.1725204,3.3378358
-38.68447,3.1531117,3.3245845
-38.734425,3.1685877,3.3627439
-38.886772,3.151185,3.353241
-38.951538,3.1625588,3.3859105
-39.028458,3.170329,3.4135685
-39.135216,3.1691227,3.4285717
-39.3091,3.1477811,3.415134
-39.365143,3.1632905,3.4547663
-39.531837,3.1456838,3.4476256
-39.612774,3.1545005,3.4783535
-39.733818,3.1518652,3.4932613
-39.883698,3.1414661,3.4977427
-39.99355,3.143347,3.5198402
-40.15122,3.132197,3.5242934
-40.214466,3.1483283,3.5668783
-40.377125,3.1371562,3.5722866
-40.554676,3.1227765,3.5739436
-40.621597,3.1392272,3.618019
-40.788746,3.1291642,3.6266327
-40.95258,3.120852,3.6382432
-41.034126,3.1348007,3.680097
-41.22687,3.120488,3.6849027
-41.395134,3.113414,3.6999974
-41.60344,3.097171,3.7038207
-41.662033,3.1190734,3.757916
-41.856003,3.1080756,3.7699084
-42.044735,3.0993514,3.7856288
-42.12735,3.116849,3.8353791
-42.306137,3.1120682,3.8574471
-42.502964,3.1040082,3.8762093
-42.69444,3.0981793,3.8986087
-42.87485,3.0958152,3.9261177
-43.075253,3.0898988,3.9501276
-43.260757,3.088266,3.980223
-43.435043,3.0899806,4.0151734
-43.61797,3.090698,4.0497637
-44.009342,3.0484173,4.034973
-44.378716,3.0128317,4.029893
-44.743107,2.9802504,4.0301256
-45.15889,2.939248,4.0227103
-45.588913,2.8976483,4.016804
-45.99673,2.8627048,4.0205235
-46.42929,2.82515,4.023587
-46.99166,2.7652154,4.004955
-47.48182,2.7218313,4.0069914
-48.10324,2.656848,3.9892254
-48.822594,2.5774245,3.9601727
-49.038387,2.5918508,4.0302925
0.40630913,0.29487276,1.0273604
-0.7433624,0.42350245,1.0945024
-1.4461117,0.4728775,1.0755811
-2.708397,0.5545349,1.0277257
-2.728035,0.4779656,0.86763954
-2.6459217,0.38047433,0.6821976
-2.6804142,0.30613804,0.5245428
-15.571128,2.5182126,2.8708572
-15.686538,2.500149,2.8155746
-15.96513,2.522169,2.8145957
-16.247688,2.5466666,2.8180618
-16.54152,2.5755107,2.8285441
-16.765602,2.588375,2.818272
-17.027725,2.6121445,2.8238645
-17.239765,2.6243885,2.8144717
-17.471413,2.6428921,2.8145752
-17.677002,2.655737,2.8075972
-17.907516,2.6763744,2.812326
-18.153679,2.702535,2.825697
-18.355793,2.7179496,2.8246608
-18.578966,2.7403302,2.8342814
-18.751255,2.749601,2.8258524
-18.94818,2.7668176,2.829464
-19.145428,2.7852147,2.8354506
-19.300331,2.7923226,2.825667
-19.455776,2.8004012,2.8178015
-19.65676,2.8229408,2.8316588
-19.816584,2.8341572,2.829485
-19.967205,2.8434174,2.824923
-20.106945,2.850109,2.8170166
-20.278587,2.8675492,2.8255591
-20.542564,2.9152822,2.8799586
-20.709267,2.933434,2.8907862
-20.816765,2.933308,2.87458
-20.941265,2.9392943,2.8679223
-21.047482,2.9398592,2.8534002
-21.186764,2.9520664,2.856896
-21.289913,2.9527678,2.843226
-21.380178,2.9495468,2.8238292
-21.509125,2.960194,2.8259797
-21.587265,2.9536903,2.8020601
-21.658684,2.9451208,2.7751431
-21.740128,2.9404285,2.7544103
-21.779177,2.9206717,2.710462
-21.808586,2.8973796,2.6610732
-21.83259,2.8720083,2.6084723
-21.853718,2.845439,2.5540147
-21.879353,2.82044,2.5020356
-21.8802,2.7857976,2.4348903
-21.842834,2.735971,2.3437157
-21.907906,2.7257504,2.315073
-21.73412,2.6208103,2.1362672
-21.727764,2.5812726,2.060916
-21.75153,2.553546,2.0043206
-21.732265,2.5079787,1.9192314
-21.725672,2.467115,1.8415627
-21.83105,2.4728112,1.8385372
-21.840252,2.4382508,1.7710147
-19.705677,1.4833136,0.22019291
-21.91221,2.391399,1.6718402
-21.896137,2.345021,1.5851789
-21.896238,2.3052316,1.5090966
-21.91608,2.2738528,1.446621
-21.867678,2.2112834,1.3333755
-21.891235,2.1807506,1.2721767
-21.920559,2.1526527,1.214961
-21.936218,2.1179714,1.1469913
-21.881485,2.0496209,1.0238047
-21.867897,1.999897,0.93100166
-22.049877,2.0441926,0.99276876
-21.88222,1.9187624,0.7752805
-21.88366,1.8746715,0.69154024
-21.885231,1.830107,0.6069579
-21.892668,1.7879581,0.5263176
-32.12254,2.07096,0.5165224
-32.14843,2.119795,0.60536146
-32.13022,2.2492833,0.8375759
-32.137783,2.325492,0.97502136
-32.16967,2.354785,1.0290852
-32.146828,2.4785995,1.2510366
-32.14056,2.5686886,1.4130192
-32.15128,2.6266055,1.5178447
-32.162914,2.680705,1.6158752
-32.15269,2.76762,1.7720861
-32.16073,2.8225014,1.8714414
-32.17784,2.8614106,1.9424644
-32.19248,2.9026418,2.0175962
-32.224533,2.9168003,2.0447736
-32.25274,2.9361453,2.08116
-32.28939,2.9429917,2.0954475
-32.333282,2.939725,2.0918856
-32.38343,2.9282541,2.0738697
-32.169678,3.2699742,2.6800952
-32.21015,3.265984,2.675149
-32.243988,3.270861,2.6859078
-32.278122,3.2753665,2.6960464
-32.313305,3.278586,2.7039542
-32.48624,3.1135585,2.415247
-32.51623,3.1259985,2.4396248
-32.458424,3.2418995,2.6462722
-32.492123,3.247875,2.6592283
-32.52851,3.250763,2.6667862
-32.566902,3.251489,2.6705832
-32.60044,3.2577431,2.684143
-32.63347,3.2645338,2.6986814
-32.650043,3.2889302,2.7441669
-32.792614,3.304185,2.7818727
-32.82271,3.3136806,2.8013496
-33.4171,2.770917,1.8546343
-33.464184,2.7718596,1.8598275
-32.91709,3.3377442,2.8522267
-32.936733,3.3567498,2.888433
-32.979206,3.354321,2.8872418
-33.015575,3.3577037,2.8962436
-33.05824,3.355531,2.8956084
-33.102985,3.35176,2.8922482
-33.146904,3.3490014,2.8907142
-33.188465,3.3485448,2.8932438
-33.226067,3.351662,2.9020395
-33.267754,3.3514576,2.9051175
-33.545536,3.15596,2.569427
-33.432236,3.2853713,2.797585
-33.50184,3.264102,2.7644377
-33.53906,3.2693694,2.77734
-33.584827,3.2679877,2.7787905
-33.639393,3.2600238,2.7689338
-33.682194,3.2614841,2.7754345
-33.728916,3.2601533,2.7771807
-33.775196,3.259395,2.779982
-33.82046,3.2596197,2.784546
-33.873188,3.2546158,2.7801795
-33.920975,3.2535079,2.7825947
-33.98563,3.2406495,2.7649045
-34.01631,3.252186,2.789177
-34.06973,3.2478929,2.7863517
-34.1026,3.2580082,2.8082838
-34.168186,3.2459488,2.7923265
-34.217896,3.2450285,2.7955184
-34.275013,3.2394602,2.7908554
-34.331753,3.2345011,2.7873278
-34.37822,3.2365234,2.7957892
-34.417282,3.243463,2.8126874
-34.45377,3.2520995,2.8325243
-34.50278,3.2529664,2.839221
-34.54424,3.258706,2.8542585
-34.586308,3.2641845,2.868915
-34.63222,3.2674632,2.8799148
-34.67686,3.271669,2.8925538
-34.69139,3.2937493,2.9354253
-34.72133,3.3066123,2.962759
-35.31463,2.995225,2.4443455
-35.344017,3.0119658,2.4789743
-35.36371,3.0340652,2.5226297
-35.367416,3.0648432,2.5808396
-35.38006,3.090298,2.6301022
-35.392906,3.115356,2.6786885
-35.41564,3.1348176,2.7179208
-35.429005,3.159116,2.7652316
-35.451702,3.1782446,2.803927
-35.48111,3.1937425,2.8366027
-35.518772,3.2049341,2.862165
-35.637512,3.174905,2.8194728
-35.658173,3.1951814,2.8602853
-35.710926,3.1993303,2.8744678
-35.79924,3.186173,2.8602066
-35.866108,3.1840417,2.8642921
-35.914814,3.1910014,2.8834572
-36.011433,3.175289,2.865508
-36.095936,3.1659315,2.8581867
-36.113663,3.1882045,2.9027739
-36.165497,3.1945856,2.9214253
-36.233147,3.193932,2.9287152
-36.335808,3.1778233,2.9110174
-36.410786,3.1747322,2.9146905
-36.473717,3.1773496,2.927775
-36.528255,3.1839015,2.9473538
-36.60908,3.1792994,2.9490466
-36.670715,3.1833274,2.9648209
-36.76599,3.1734052,2.958313
-36.81924,3.1815956,2.9810734
-36.86771,3.1919327,3.0073752
-37.0088,3.1645496,2.9735699
-37.029644,3.1867218,3.0190492
-37.094112,3.1913333,3.0366426
-37.189156,3.184123,3.0356455
-37.2385,3.1953099,3.0639763
-37.335564,3.1881714,3.0635042
-37.43293,3.1814513,3.0639405
-37.479084,3.19464,3.09587
-37.6302,3.1686587,3.066586
-37.67072,3.184566,3.1031132
-37.759056,3.1830263,3.1125584
-37.866703,3.1749418,3.1120725
-37.90122,3.1936178,3.1533065
-38.044426,3.1738362,3.1352415
-38.099873,3.1856258,3.1661754
-38.215183,3.176871,3.1657186
-38.29692,3.1802328,3.184124
-38.39832,3.177314,3.193171
-38.490536,3.1779804,3.2079544
-38.655777,3.154945,3.1870947
-38.708942,3.1695294,3.2235336
-38.811176,3.168401,3.236463
-38.895386,3.173533,3.259077
-38.959644,3.185336,3.291893
-39.104958,3.1720605,3.287562
-39.214817,3.1705296,3.3011022
-39.340683,3.1646652,3.30858
-39.49239,3.1516666,3.3059626
-39.58087,3.1583328,3.3326435
-39.710175,3.1533675,3.3426256
-39.81839,3.1552007,3.3629026
-39.974922,3.1436617,3.364192
-40.100525,3.1417494,3.3798676
-40.188614,3.1509855,3.4119344
-40.344215,3.141879,3.4181256
-40.484814,3.1377006,3.4318523
-40.62566,3.1341686,3.4469814
-40.754936,3.1344392,3.4679475
-40.888916,3.134098,3.488512
-41.042248,3.129374,3.5034637
-41.1821,3.1288977,3.524846
-41.35701,3.1202023,3.53545
-41.48255,3.1247985,3.5648675
-41.685673,3.110773,3.569471
-41.807823,3.117617,3.6030202
-41.938347,3.1230001,3.6350718
-42.081005,3.1261046,3.6645885
-42.244255,3.1250517,3.689168
-42.463722,3.111772,3.6983528
-42.659264,3.105117,3.7170858
-42.841953,3.1023605,3.7416759
-43.050232,3.094819,3.7608938
-43.197563,3.1017275,3.7993994
-43.410065,3.095211,3.821581
-43.62094,3.0901208,3.8464851
-43.830162,3.0864441,3.8740826
-44.036743,3.0843644,3.9045873
-44.264446,3.0789933,3.9320302
-44.456146,3.0820308,3.9706657
-44.724358,3.0707967,3.9931784
-45.028316,3.05394,4.010355
-45.42379,3.0210094,4.01028
-45.819984,2.9900455,4.014468
-46.241867,2.9563704,4.0175953
-46.770462,2.9052694,4.003318
-47.297173,2.8573427,3.995369
-47.806454,2.8153348,3.9967318
-48.44049,2.7541068,3.9801345
-48.926353,2.7218783,3.9978838
11.435923,1.0122628,3.8621655
11.591261,0.8824365,3.6132073
11.452349,0.7881236,3.390839
11.268618,0.69995785,3.1743064
10.984018,0.6255746,2.9704561
10.927839,0.5221367,2.7432904
10.869165,0.41902113,2.516653
10.747293,0.21338868,2.0646758
4.3624516,0.25276852,1.1115875
3.662363,0.27350163,1.0424418
2.9445324,0.30085087,0.98440504
1.9955692,0.37212515,0.9807329
1.5161724,0.36536312,0.89046097
0.23934937,0.5043082,0.97510004
0.22234726,0.42013025,0.7985487
-1.4836712,0.6490114,1.001379
-0.93096924,0.46183205,0.70266056
-2.9328918,0.75981736,1.001678
-2.7649708,0.64764714,0.79730225
-2.5674324,0.52828693,0.58295727
-2.7952023,0.49250174,0.47403336
-2.6444988,0.38081622,0.26849365
-15.593498,2.612425,2.8357558
-15.741401,2.6015313,2.79136
-16.058882,2.63145,2.8042874
-16.29971,2.6447277,2.7950997
-16.556633,2.6631875,2.794083
-16.839615,2.6894455,2.8050346
-17.07962,2.7065415,2.8039556
-17.325447,2.7263997,2.8076725
-17.558765,2.7443962,2.8095675
-17.794212,2.7642102,2.8148928
-18.009052,2.7799053,2.815033
-18.215195,2.7944508,2.8142128
-18.420807,2.809967,2.8154984
-18.62767,2.8269417,2.8196058
-18.815115,2.839694,2.8181338
-18.992231,2.8505738,2.814476
-19.168013,2.8620238,2.8122249
-19.339777,2.873273,2.8102174
-19.498684,2.881723,2.8045268
-19.685461,2.8991873,2.8129315
-19.842598,2.9089046,2.8101583
-20.005459,2.921186,2.8117533
-20.146858,2.9278398,2.805233
-20.287037,2.9348652,2.7996898
-20.531956,2.9752145,2.8457923
-20.649406,2.9769635,2.833065
-20.76059,2.977308,2.8184853
-20.887043,2.9831197,2.812694
-21.008888,2.9880998,2.805951
-21.12617,2.992213,2.79818
-21.232117,2.9931574,2.7857528
-21.348866,2.9982727,2.7801542
-21.44085,2.9955552,2.7625113
-21.56548,3.0045307,2.7635798
-21.647038,2.9991627,2.7422342
-21.696033,2.9826512,2.7033691
-21.764317,2.9731214,2.675725
-21.796263,2.9507203,2.627667
-21.821133,2.9256897,2.575439
-21.843124,2.899487,2.5213523
-21.865538,2.8733077,2.4673157
-21.88675,2.8465395,2.4123425
-21.897072,2.815462,2.3504114
-21.884571,2.7753234,2.2737722
-21.896881,2.744423,2.2120528
-21.924099,2.719164,2.1595016
-21.718096,2.6006742,1.9548769
-21.704504,2.5576632,1.8730311
-21.725578,2.528299,1.8134527
-21.871716,2.550353,1.8382788
-19.676754,1.5963457,0.25806713
-19.729004,1.569824,0.20039463
-21.916754,2.4543934,1.6470809
-21.903713,2.409765,1.5624094
-21.915987,2.375629,1.4950395
-21.912914,2.334409,1.4158845
-21.905334,2.2907045,1.3325348
-21.893335,2.2444768,1.2449079
-21.969776,2.237981,1.2235012
-21.907032,2.1676276,1.0954857
-21.86575,2.1061509,0.9821186
-21.86916,2.064808,0.90235615
-22.032875,2.0993743,0.95005465
-21.88417,1.9846289,0.7469063
-21.88559,1.9408944,0.66298103
-21.887857,1.8970456,0.57880926
-21.895267,1.8552217,0.4980054
-32.147144,2.0683577,0.40580225
-32.15881,2.144919,0.5459156
-32.15317,2.2500124,0.73750305
-32.152443,2.3413713,0.90425014
-32.164284,2.4064214,1.0234914
-32.143963,2.524166,1.237742
-32.188465,2.5274816,1.2456112
-32.167427,2.638894,1.4483447
-32.15805,2.7268484,1.6087322
-32.173275,2.7724247,1.6927338
-32.17601,2.835574,1.8083653
-32.191578,2.8768992,1.8846817
-32.192448,2.938512,1.9974942
-32.225468,2.9511828,2.022241
-32.25305,2.9712849,2.0603766
-32.30256,2.960209,2.042492
-32.32562,2.9859538,2.090818
-32.38827,2.9577432,2.042255
-32.38244,3.0210686,2.1580977
-32.391945,3.1145842,2.330202
-32.386665,3.1716719,2.4347348
-32.421356,3.1779177,2.4481063
-32.47169,3.165271,2.427669
-32.51251,3.1645186,2.4285913
-32.482758,3.2462273,2.5771403
-32.52701,3.2405934,2.5693526
-32.560745,3.2471938,2.5834932
-32.585106,3.2641587,2.6161885
-32.61728,3.2722435,2.6330366
-32.692383,3.2341456,2.5674639
-33.079483,2.8675365,1.915812
-34.23691,1.9007628,0.20642376
-34.30014,1.8990622,0.20750427
-34.35718,1.9036741,0.21988821
-33.430584,2.8442075,1.8958836
-32.964638,3.326033,2.7551117
-32.964207,3.3640842,2.825522
-32.98899,3.3782737,2.8535633
-33.024532,3.3825943,2.8641214
-33.065376,3.3822863,2.8665195
-33.106304,3.382106,2.8691936
-33.14979,3.3799176,2.8683653
-33.192406,3.3787217,2.86935
-33.234623,3.378088,2.8713813
-33.268238,3.3847864,2.8864145
-33.451653,3.2691774,2.6856518
-33.50436,3.2621381,2.676691
-33.547836,3.262833,2.6814332
-33.60363,3.2540517,2.6695457
-33.646824,3.2554705,2.6756873
-33.69604,3.2524576,2.6740932
-33.747616,3.2479565,2.6699538
-33.78446,3.2547703,2.685749
-33.832947,3.2530563,2.6866302
-33.886642,3.247819,2.681407
-33.93715,3.2452211,2.680883
-33.9838,3.2456439,2.6857162
-34.032272,3.2450051,2.688758
-34.073864,3.2493732,2.7006135
-34.109562,3.2578912,2.7197633
-34.171837,3.2484767,2.7076964
-34.20574,3.2584562,2.729504
-34.270855,3.24785,2.7155328
-34.31202,3.2533345,2.729638
-34.39052,3.2348833,2.7022343
-34.429443,3.2422874,2.719821
-34.483227,3.2404156,2.7213821
-34.52337,3.2473075,2.7381988
-34.565346,3.2531567,2.7532635
-34.58565,3.272274,2.7913084
-34.641502,3.2698631,2.7922115
-34.682026,3.27685,2.8094034
-34.702324,3.2957864,2.8472257
-34.70721,3.323478,2.9001126
-35.34748,2.9866214,2.3267636
-35.367622,3.0090582,2.371323
-35.381325,3.034877,2.4216833
-35.375004,3.0714896,2.4905076
-35.39707,3.0920155,2.5317755
-35.42014,3.1118252,2.5718312
-35.433926,3.1364448,2.6201015
-35.44794,3.16068,2.6677089
-35.476105,3.177251,2.7022758
-35.497704,3.197142,2.742508
-35.585155,3.183164,2.7253127
-35.657482,3.1774426,2.7222748
-35.67375,3.200205,2.767541
-35.736946,3.1995287,2.7732272
-35.859444,3.1701274,2.7305965
-35.873924,3.1939785,2.7778816
-35.966064,3.1804202,2.762279
-36.03738,3.1773326,2.7644396
-36.115543,3.1714141,2.7619963
-36.14203,3.189882,2.8005047
-36.22867,3.1807044,2.7928677
-36.281895,3.1871881,2.8115234
-36.383392,3.1722243,2.7945762
-36.420918,3.1862688,2.8260489
-36.50857,3.1783662,2.8211756
-36.585823,3.1754808,2.8247967
-36.630173,3.1871083,2.8525624
-36.722385,3.1785285,2.8470726
-36.8235,3.1667502,2.8365207
-36.84609,3.1881576,2.8807216
-36.920956,3.1880062,2.8895898
-37.012547,3.1814322,2.8881092
-37.04655,3.1984735,2.9253979
-37.131298,3.1953726,2.9299145
-37.250687,3.1791198,2.913238
-37.30548,3.1886723,2.9387178
-37.397354,3.1841657,2.9415474
-37.486244,3.1812806,2.9472136
-37.555805,3.1861088,2.9655156
-37.665504,3.1763318,2.9604955
-37.718063,3.1881468,2.9903698
-37.82745,3.1794875,2.9876022
-37.88168,3.19123,3.0176606
-37.9982,3.1810293,3.0129137
-38.07919,3.1839485,3.0292907
-38.18628,3.1781838,3.0321188
-38.289448,3.1743326,3.0382438
-38.355682,3.1835406,3.0651903
-38.49569,3.1682649,3.0538673
-38.570625,3.1753585,3.0779338
-38.70627,3.1628757,3.0716443
-38.751408,3.1804593,3.1124926
-38.900513,3.164843,3.101966
-38.974094,3.1739743,3.1301074
-39.07539,3.1747253,3.1455302
-39.165527,3.1794138,3.1672754
-39.327335,3.1626163,3.1564007
-39.439747,3.1616464,3.170134
-39.55323,3.1609118,3.1845503
-39.69512,3.1523643,3.1874747
-39.801987,3.1547732,3.2073436
-39.915188,3.1558654,3.2255502
-40.03032,3.1569548,3.2440886
-40.149178,3.1575537,3.2622476
-40.26193,3.1604254,3.284141
-40.478115,3.1354847,3.2653165
-40.591385,3.1396267,3.2899642
-40.78066,3.12398,3.2860122
-40.822723,3.1482277,3.3407989
-41.027126,3.1302042,3.3344178
-41.182877,3.125823,3.3484192
-41.323368,3.1261132,3.3696547
-41.46128,3.1277392,3.3932738
-41.64068,3.119758,3.403728
-41.83792,3.1083453,3.4099774
-41.9534,3.1176994,3.446097
-42.106815,3.1185338,3.470725
-42.23534,3.1259682,3.505066
-42.42621,3.1195402,3.52076
-42.67239,3.1014357,3.5211868
-42.846226,3.1009703,3.5465736
-42.995895,3.1067443,3.58106
-43.12967,3.1167157,3.6217537
-43.381947,3.101644,3.6296062
-43.5819,3.0990644,3.6550064
-43.791527,3.0954518,3.679871
-43.983402,3.0965748,3.7117677
-44.20673,3.092213,3.7373915
-44.45787,3.0833745,3.7582479
-44.714108,3.074811,3.780552
-44.978302,3.0660012,3.8036828
-45.15775,3.0748658,3.8499808
-45.434864,3.066052,3.875318
-45.703667,3.060206,3.905558
-45.96792,3.0565555,3.9397063
-46.23528,3.0536723,3.9760287
-46.581894,3.038007,3.9986024
-47.04868,3.0030606,4.0004883
-47.562653,2.962439,3.9982433
-48.095882,2.9212694,3.9980454
-48.818176,2.8513741,3.9686022
-49.127922,2.8530097,4.021706
11.163904,1.2685695,3.7955542
11.308741,1.1417248,3.5487165
11.2046795,1.0434616,3.3247042
11.08338,0.94756794,3.1033258
10.98337,0.84938383,2.880581
10.897692,0.7496147,2.6569052
10.87541,0.53077555,2.192132
10.776384,0.4328413,1.9710255
10.847658,0.31161857,1.7268267
9.297972,0.30962634,1.4899893
9.008966,0.24346733,1.3080273
7.861677,0.30634546,1.2683649
6.5948505,0.39333248,1.2615604
6.232729,0.34725523,1.1113949
5.97806,0.28593683,0.9455662
4.3483143,0.4457276,1.0375814
3.5849667,0.47320914,0.98208237
2.9783688,0.4786563,0.90401745
1.460474,0.6407027,1.0178347
1.5233212,0.540184,0.81821156
0.27005768,0.66817474,0.90046597
-1.0111866,0.8079212,1.0031986
-2.8107338,0.9689927,1.074975
-2.7686558,0.88191366,0.90104675
-2.5817719,0.76692486,0.6905627
-2.8259125,0.7330389,0.585464
-2.6696644,0.6223526,0.3797655
-2.6463394,0.5366106,0.20654583
-15.344051,2.685849,2.815617
-15.584438,2.6940992,2.798902
-15.908048,2.7225475,2.8118868
-16.136238,2.7307336,2.7969117
-16.4491,2.7599175,2.8130574
-16.732492,2.7838361,2.8226404
-16.950718,2.7936382,2.8125772
-17.188684,2.8093915,2.811974
-17.419664,2.8246982,2.8114967
-17.630905,2.83631,2.8062973
-17.862597,2.854223,2.8111577
-18.083677,2.8706753,2.8145757
-18.277908,2.8813539,2.8100133
-18.477095,2.8943675,2.809577
-18.63976,2.8987212,2.7966251
-18.865822,2.9210205,2.8114657
-19.032108,2.9282548,2.803978
-19.20604,2.938478,2.8015604
-19.36618,2.9457703,2.7951384
-19.545444,2.9593294,2.7988577
-19.711813,2.97017,2.7988768
-19.870674,2.9797318,2.7973733
-20.020329,2.9874399,2.793418
-20.158218,2.9924445,2.785636
-20.334154,3.0096288,2.7973723
-20.466038,3.0143838,2.7899885
-20.594141,3.0186605,2.7821946
-20.709862,3.019738,2.7696557
-20.83567,3.0245817,2.7634044
-20.961164,3.029985,2.7583652
-21.075237,3.0323582,2.7487926
-21.182251,3.033005,2.7367291
-21.30515,3.0394413,2.7342434
-21.38888,3.0334246,2.7119603
-21.494411,3.0351534,2.7023993
-21.597198,3.0364761,2.6924286
-21.676407,3.030147,2.6702504
-21.730652,3.0154028,2.6345248
-21.775127,2.9973302,2.593461
-21.80995,2.9758527,2.546894
-21.83032,2.94911,2.4917302
-21.850313,2.9220824,2.4361053
-21.869938,2.8947654,2.3800087
-21.893257,2.8686728,2.325941
-21.899267,2.8358788,2.260787
-21.881786,2.7937837,2.1801643
-21.880291,2.757394,2.1089382
-21.877876,2.7202773,2.036448
-21.665628,2.5995054,1.8242292
-21.690796,2.5717478,1.7670197
-21.866932,2.6050966,1.8122392
-19.705654,1.6804335,0.2492714
-21.83427,2.5156991,1.6412702
-21.888765,2.499893,1.6043363
-21.910393,2.4702368,1.5441098
-21.911125,2.4314005,1.46836
-21.88369,2.379919,1.3711443
-21.885288,2.3404725,1.294229
-21.89592,2.3045967,1.2233338
-21.871279,2.252543,1.1248779
-21.925877,2.2357163,1.0863595
-21.862938,2.1650465,0.9559946
-21.856003,2.1192153,0.86789846
-21.875603,2.085253,0.800056
-21.872524,2.0402205,0.7132225
-21.87685,1.998178,0.63146067
-21.889908,1.9598751,0.55608606
-21.888672,1.9141469,0.46790028
-32.144608,2.113273,0.38856983
-32.17923,2.1458664,0.4499998
-32.15496,2.2851944,0.7068367
-32.157707,2.3696122,0.86309433
-32.15518,2.4594712,1.0292692
-32.151505,2.5473487,1.1917763
-32.193993,2.5543926,1.2064228
-32.162422,2.6821692,1.4418149
-32.15934,2.759104,1.5841961
-32.192562,2.7762525,1.6173062
-32.172943,2.8736444,1.7969966
-32.197353,2.9013052,1.849298
-32.19215,2.9714532,1.979157
-32.23344,2.9721923,1.9823251
-32.250214,3.0076227,2.0488105
-32.28456,3.0176096,2.0688982
-32.296963,3.0571387,2.142861
-32.365936,3.0201776,2.0774407
-32.36288,3.078749,2.1861129
-32.38268,3.1061125,2.2379265
-32.35321,3.1946442,2.4010696
-32.396393,3.190478,2.3954806
-32.422768,3.2070446,2.4276419
-32.470886,3.197289,2.4119706
-32.46113,3.2559173,2.5206108
-32.507454,3.2481074,2.5085316
-32.539555,3.2568738,2.5265985
-32.575073,3.2617302,2.5375972
-32.5916,3.2874496,2.586472
-32.62265,3.296854,2.6057663
-32.69038,3.2671878,2.5542855
-32.741264,3.3391154,2.6916041
-33.144318,2.9765744,2.0383296
-32.832043,3.3677063,2.750619
-34.41138,1.9577603,0.21109867
-34.467937,1.9631903,0.22490883
-32.952255,3.4053743,2.828845
-32.9883,3.4091995,2.8383899
-33.031044,3.4071622,2.837418
-33.07003,3.4086611,2.8428593
-33.112,3.4077356,2.843985
-33.152092,3.4086328,2.8484354
-33.194744,3.4075487,2.8493733
-33.238007,3.4061816,2.849854
-33.364773,3.3367603,2.728303
-33.501114,3.2616544,2.5967765
-33.54911,3.2590857,2.5954342
-33.599373,3.255019,2.5914707
-33.6445,3.2552538,2.5952682
-33.698856,3.248636,2.5868692
-33.740444,3.2520564,2.596477
-33.776012,3.2601004,2.6143875
-33.831383,3.2535722,2.606341
-33.883663,3.2496784,2.603065
-33.92375,3.2548668,2.616037
-33.967785,3.2573526,2.6242442
-34.042236,3.238691,2.5948997
-34.063477,3.2575402,2.6323237
-34.092518,3.2708297,2.659885
-34.156616,3.2603526,2.64531
-34.208626,3.258427,2.64599
-34.257797,3.2586536,2.6505518
-34.328773,3.2449138,2.6304693
-34.386826,3.2400553,2.6261983
-34.43041,3.244756,2.638895
-34.475834,3.2484295,2.6498356
-34.5219,3.2518642,2.6604128
-34.56298,3.2585263,2.6767368
-34.626747,3.2515237,2.6690698
-34.643707,3.2729883,2.7115378
-34.692947,3.2750847,2.7199974
-34.731922,3.283399,2.7394333
-34.72332,3.3193095,2.807273
-35.335663,2.999423,2.252274
-35.355633,3.0221233,2.2975783
-35.371193,3.0470605,2.3467927
-35.382256,3.0742023,2.399847
-35.397503,3.0987325,2.4483356
-35.413635,3.1225169,2.4955196
-35.434776,3.1433778,2.5376182
-35.44455,3.1700606,2.5898342
-35.468323,3.1891248,2.62882
-35.52098,3.1931386,2.6417503
-35.598877,3.1844704,2.632821
-35.66021,3.18465,2.639316
-35.70041,3.1956701,2.6646194
-35.759735,3.197308,2.6738076
-35.858604,3.1799104,2.6503348
-35.90392,3.1890526,2.6726608
-35.979633,3.1837924,2.670339
-36.05489,3.1791809,2.6692643
-36.12966,3.1752124,2.6694283
-36.16407,3.1902816,2.7022576
-36.22944,3.1912103,2.7110043
-36.318817,3.1816084,2.7019281
-36.41758,3.1683602,2.6868267
-36.451164,3.18451,2.7218418
-36.515614,3.1871705,2.7340302
-36.61293,3.175923,2.722796
-36.67005,3.1824312,2.7417612
-36.762604,3.174188,2.7359452
-36.82144,3.1805575,2.7549214
-36.894287,3.1813614,2.7646503
-36.971962,3.1805396,2.7717934
-37.04903,3.1803489,2.7801485
-37.115208,3.1848829,2.796555
-37.20999,3.178398,2.7947078
-37.259666,3.1900501,2.8232589
-37.343655,3.1885824,2.8300986
-37.46322,3.1739545,2.8152924
-37.496056,3.1927905,2.8561325
-37.64301,3.1690087,2.8266463
-37.686386,3.1843965,2.8620453
-37.774582,3.1834962,2.870741
-37.862965,3.182966,2.8802385
-37.903664,3.1998844,2.9184866
-38.064304,3.1745424,2.8878102
-38.13417,3.1818643,2.9107308
-38.249157,3.1739082,2.9089823
-38.330948,3.177896,2.9268656
-38.448196,3.1703043,2.92622
-38.531975,3.174496,2.944859
-38.67269,3.1603165,2.9341574
-38.754288,3.1661825,2.9559574
-38.86756,3.16221,2.9622192
-38.926186,3.1761966,2.9973993
-39.0019,3.184991,3.0244513
-39.138966,3.1750374,3.0219731
-39.30593,3.156659,3.0065513
-39.364693,3.1720476,3.0447698
-39.531593,3.1552086,3.0325294
-39.600033,3.1684623,3.067842
-39.745735,3.1593547,3.0684505
-39.93329,3.1389356,3.0518923
-39.98432,3.1585596,3.097886
-40.175373,3.1388073,3.083242
-40.26999,3.146998,3.1121187
-40.39945,3.1460085,3.1271963
-40.537186,3.1434128,3.1402016
-40.679672,3.1402397,3.1527371
-40.80259,3.1429746,3.1746378
-40.969032,3.1349075,3.180633
-41.08236,3.141436,3.2090368
-41.267555,3.130149,3.211183
-41.44043,3.1229494,3.219998
-41.615486,3.116105,3.2298975
-41.771645,3.1148038,3.2485285
-41.89678,3.1217923,3.2798076
-42.05882,3.1205401,3.2994828
-42.22847,3.1183014,3.3182716
-42.42151,3.1114721,3.3310227
-42.62325,3.1036417,3.3430114
-42.75836,3.1119356,3.3786874
-42.914948,3.1160576,3.4089189
-43.10623,3.1132927,3.4300117
-43.25749,3.1201828,3.4653049
-43.497055,3.1088798,3.475872
-43.748344,3.0963502,3.4856572
-43.969902,3.091315,3.5066833
-44.178528,3.090057,3.5337033
-44.382637,3.0907526,3.56418
-44.626778,3.084491,3.5861464
-44.90071,3.073631,3.6029963
-45.14551,3.0698094,3.6302538
-45.370537,3.0709853,3.6650581
-45.689426,3.0556953,3.6795053
-45.92642,3.0571613,3.7168179
-46.21922,3.0496726,3.7437959
-46.514267,3.0432734,3.77345
-46.780724,3.0433965,3.8125477
-47.072426,3.0404823,3.8491325
-47.40976,3.0312777,3.879435
-47.72904,3.0268106,3.917036
-48.030155,3.0269415,3.9616318
-48.54201,2.9945266,3.9696383
-48.93992,2.9828825,4.0042048
11.218428,1.5000253,3.678195
11.372171,1.3730736,3.4297047
11.047571,1.2992232,3.228095
10.976725,1.197407,3.0023832
10.966574,1.0884886,2.7701955
10.723833,0.78717184,2.0996122
10.857847,0.6591685,1.8477101
10.853479,0.54839635,1.6134834
10.835707,0.4391172,1.380796
8.739199,0.5090008,1.2431598
6.719988,0.5892451,1.1386065
6.6644917,0.4954276,0.93434525
6.6796246,0.39086962,0.7172756
3.388754,0.7955322,1.1226864
3.599615,0.6685946,0.8854141
2.982111,0.67247105,0.81097984
0.5592823,0.97299767,1.1153598
1.5351982,0.72465277,0.7271471
-0.87454224,1.0400944,1.0647144
1.0296383,0.6307471,0.4644947
-2.9003162,1.1467786,1.0190473
-2.7910366,1.0484171,0.8291464
-2.535221,0.92231417,0.6010475
-2.751871,0.8820381,0.48922443
-2.6452103,0.78172636,0.2953782
-15.552681,2.8206286,2.8382554
-15.752597,2.8194141,2.8104167
-15.99504,2.828619,2.798655
-16.303795,2.8539903,2.81175
-16.525686,2.8612518,2.798748
-16.803453,2.8825717,2.807589
-16.998562,2.8860428,2.7903357
-17.287907,2.9128785,2.8091536
-17.467428,2.914896,2.7910123
-17.694141,2.929327,2.7924228
-17.933031,2.9479845,2.8010144
-18.133106,2.9582343,2.7973242
-18.320929,2.9664383,2.7910395
-18.510128,2.9759848,2.7873821
-18.68626,2.9831357,2.7805123
-18.8979,3.0005689,2.7902737
-19.056093,3.0049055,2.7799926
-19.221981,3.012139,2.7747192
-19.393696,3.0218427,2.7738094
-19.571163,3.0340621,2.7773628
-19.735737,3.0436325,2.7771564
-19.884007,3.0494556,2.7713733
-20.019613,3.0524178,2.7613692
-20.148802,3.054206,2.7498116
-20.29081,3.0604265,2.7457404
-20.418541,3.063141,2.736333
-20.545986,3.0664246,2.728159
-20.661915,3.0668468,2.7156215
-20.786219,3.0704372,2.7085376
-20.905937,3.0732374,2.700448
-21.01769,3.0741317,2.6895018
-21.124104,3.073877,2.6769133
-21.226078,3.072708,2.6630497
-21.337997,3.0752978,2.6556373
-21.427784,3.0711174,2.637228
-21.519978,3.0681548,2.6210337
-21.619543,3.0681276,2.6099296
-21.670715,3.0519614,2.5720463
-21.735306,3.0405724,2.542255
-21.781841,3.0230503,2.5022817
-21.818747,3.0021744,2.4567366
-21.837158,2.9746354,2.4
-21.855217,2.9468048,2.3427734
-21.876986,2.9201672,2.287568
-21.893549,2.8914468,2.2288375
-21.921038,2.8666482,2.1767693
-21.909771,2.8269808,2.099401
-21.85551,2.7703037,1.9929414
-21.86655,2.7382398,1.9283786
-21.858465,2.698372,1.8504338
-21.871532,2.6664882,1.7861185
-19.733643,1.7673283,0.23180294
-21.910244,2.6070516,1.6648974
-21.888657,2.5601273,1.574626
-21.911825,2.5312572,1.5154305
-21.900307,2.4875655,1.4306111
-21.885845,2.442085,1.3426223
-21.88516,2.4019713,1.2638617
-21.890518,2.364042,1.1888456
-21.860653,2.310175,1.086072
-21.852009,2.265012,0.9983463
-21.867228,2.2300472,0.9283428
-21.86689,2.1876523,0.84534407
-21.870317,2.1464906,0.76445246
-21.885468,2.1103234,0.69226694
-21.886095,2.0669396,0.6074066
-21.899097,2.028933,0.5319419
-32.166775,2.1205468,0.2924509
-32.171047,2.2102401,0.46086597
-32.16269,2.318614,0.6639786
-32.15263,2.424987,0.8633189
-32.15258,2.5092487,1.0215149
-32.171246,2.5582554,1.1141758
-32.177643,2.6254656,1.2406416
-32.159496,2.729437,1.4353414
-32.171005,2.782339,1.5351734
-32.192673,2.817509,1.6020818
-32.166405,2.923745,1.8008413
-32.198296,2.939821,1.8322997
-32.204906,2.992044,1.9308009
-32.21531,3.0369954,2.015802
-32.24659,3.05134,2.0440707
-32.287754,3.051842,2.0467167
-32.291477,3.1026037,2.1424756
-32.31404,3.1269226,2.1892557
-32.34262,3.1427882,2.220398
-32.349026,3.1863015,2.3027062
-32.378345,3.199994,2.329844
-32.401558,3.2208357,2.3702192
-32.446815,3.2147255,2.3607945
-32.431576,3.2802546,2.483756
-32.498043,3.249171,2.4282565
-32.528687,3.260083,2.450358
-32.562256,3.2675555,2.466135
-32.60603,3.26374,2.4611182
-32.61692,3.2958403,2.5223627
-32.61276,3.3431427,2.6116114
-32.6439,3.35212,2.630227
-33.07616,2.9939466,1.9752827
-32.88542,3.3905518,2.7163854
-34.466545,2.0188518,0.2050662
-33.44923,2.9925115,1.9938369
-33.000805,3.4332602,2.8043118
-33.03744,3.4368439,2.813356
-33.083282,3.432568,2.8080497
-33.11901,3.4372218,2.8191314
-33.163136,3.4348922,2.8174791
-33.209404,3.4310458,2.8131042
-33.353107,3.347844,2.6638618
-33.50413,3.2611728,2.5085125
-33.537495,3.2706597,2.528798
-33.59578,3.260542,2.5133753
-33.63806,3.2633092,2.5214992
-33.690487,3.258464,2.5158086
-33.724846,3.2676067,2.5356317
-33.766132,3.2715771,2.54608
-33.813988,3.270832,2.5480046
-33.86805,3.265825,2.5422463
-33.91564,3.2658134,2.5456204
-33.96615,3.2639635,2.5457153
-34.034428,3.2499623,2.5238557
-34.068184,3.260385,2.5463119
-34.097736,3.273655,2.5739498
-34.14106,3.277554,2.5846696
-34.20028,3.2710156,2.576583
-34.27401,3.2553334,2.5520678
-34.335087,3.2484913,2.5436049
-34.37654,3.2546463,2.558649
-34.426468,3.25553,2.564248
-34.477715,3.2558157,2.5688314
-34.52783,3.257041,2.575171
-34.56807,3.2645285,2.5928206
-34.611378,3.2702396,2.6073265
-34.65213,3.2775962,2.6248345
-34.688362,3.2877057,2.6473203
-34.755894,3.2795792,2.6372056
-34.743626,3.3179092,2.710258
-35.336403,3.010803,2.1661777
-35.360863,3.0311933,2.2076974
-35.36977,3.0600667,2.2643528
-35.384743,3.085233,2.3143864
-35.397217,3.1114748,2.3663263
-35.416584,3.133702,2.411121
-35.437572,3.154855,2.4540095
-35.45408,3.1781776,2.5007544
-35.4777,3.1975665,2.5405278
-35.55838,3.1874938,2.5281749
-35.627617,3.1837583,2.5271559
-35.675377,3.1911955,2.5459719
-35.728027,3.19634,2.5608077
-35.818268,3.1832144,2.5435367
-35.85548,3.1964402,2.5727782
-35.930546,3.191511,2.5701613
-36.020313,3.180027,2.5561657
-36.122128,3.1634645,2.5334249
-36.136143,3.1883454,2.583407
-36.20257,3.1889439,2.5909348
-36.25068,3.1981745,2.6136389
-36.375946,3.1729093,2.5762763
-36.423576,3.1829891,2.6006799
-36.48088,3.1889439,2.617981
-36.596313,3.1698923,2.5919666
-36.63498,3.184549,2.6245947
-36.71234,3.182815,2.6289077
-36.81368,3.1714234,2.6166687
-36.86228,3.182519,2.643416
-36.900715,3.197906,2.677628
-37.005875,3.1862597,2.6654038
-37.066116,3.193258,2.685392
-37.14758,3.192066,2.6914458
-37.226078,3.192445,2.7003388
-37.278557,3.2032914,2.7272534
-37.390728,3.191408,2.7155075
-37.489746,3.1851752,2.7136045
-37.56093,3.189914,2.730536
-37.65399,3.1868525,2.7343755
-37.72945,3.190723,2.7501307
-37.83597,3.1836796,2.7476044
-37.89126,3.195562,2.7771902
-38.006462,3.1864038,2.7714949
-38.08987,3.189018,2.7858005
-38.19495,3.184522,2.788371
-38.295326,3.1821885,2.7947826
-38.42771,3.1695552,2.7842426
-38.506027,3.1757362,2.8052897
-38.62399,3.1691635,2.8053403
-38.717766,3.1711147,2.819767
-38.81169,3.173464,2.8350563
-38.90831,3.1753972,2.8498678
-38.96573,3.1901348,2.8859282
-39.12001,3.1748922,2.8729868
-39.227455,3.1749334,2.885396
-39.35412,3.169663,2.8894048
-39.502792,3.158448,2.8840628
-39.55963,3.1752927,2.92455
-39.731613,3.1585476,2.9109006
-39.852463,3.1575787,2.9231024
-39.962097,3.1604187,2.94172
-40.123062,3.1492808,2.9382458
-40.18267,3.1672943,2.9816918
-40.381516,3.147109,2.964548
-40.451843,3.1630187,3.0051322
-40.682884,3.1359806,2.9780865
-40.782074,3.1452506,3.0088062
-40.93522,3.1408162,3.0183082
-41.04449,3.148516,3.0471797
-41.218914,3.1400702,3.0512414
-41.41823,3.126269,3.047515
-41.6026,3.1172583,3.0517673
-41.764595,3.1147113,3.066495
-41.833595,3.135516,3.1174083
-42.024296,3.127439,3.1245356
-42.189655,3.126335,3.1428146
-42.32116,3.1339364,3.1747313
-42.582993,3.1122265,3.1630616
-42.72233,3.1196785,3.195787
-42.915577,3.1157408,3.21203
-43.06167,3.123171,3.245698
-43.257263,3.120537,3.2650518
-43.46436,3.1164284,3.282907
-43.71769,3.103617,3.2888303
-43.93112,3.1004298,3.309533
-44.10907,3.1055937,3.3429613
-44.33713,3.101498,3.3638177
-44.550377,3.101507,3.3913083
-44.89647,3.0765448,3.384482
-45.09616,3.0816839,3.4209714
-45.310238,3.0850616,3.4557657
-45.63882,3.0680647,3.4633775
-45.90399,3.0644653,3.49055
-46.202938,3.0560846,3.512311
-46.45531,3.0575423,3.5484653
-46.75107,3.0526404,3.5772038
-47.029823,3.0521739,3.613008
-47.359848,3.0443978,3.6404705
-47.68927,3.0384064,3.6716604
-48.03254,3.0318155,3.7035336
-48.3471,3.0316,3.7449808
-48.69579,3.0275521,3.7830753
-48.940872,3.0413961,3.8448105
10.874952,1.1023326,2.207818
10.756716,1.0061467,1.9894562
10.860262,0.8828027,1.7411437
10.814642,0.77747107,1.5127668
9.1737995,0.7712488,1.298274
8.108801,0.8073263,1.2440677
6.751726,0.8890829,1.2506638
6.70743,0.69199944,0.8303633
6.782854,0.57889223,0.60169697
3.3216572,0.99066067,1.0474858
1.897398,1.1129391,1.131999
3.0071392,0.85205746,0.7186737
1.5810204,0.98281217,0.8210554
-0.6611519,1.251708,1.1148653
0.269804,1.0167356,0.7347746
1.086626,0.79502964,0.36891842
-2.7729683,1.3557398,1.0799007
-2.7824173,1.2788742,0.9183397
-2.553587,1.1602407,0.6980853
-2.73312,1.1122341,0.57679176
-2.573492,1.0038986,0.37007046
-15.045436,2.889592,2.826222
-15.603494,2.9148216,2.814136
-15.854627,2.923702,2.8036928
-16.096903,2.9319792,2.7930884
-16.374891,2.949336,2.7971997
-16.618889,2.9606342,2.7927628
-16.84943,2.9701881,2.7863297
-17.09697,2.9848347,2.7885146
-17.313593,2.9936485,2.7822604
-17.5444,3.006928,2.783649
-17.762753,3.0184803,2.78295
-17.96782,3.0279918,2.7796106
-18.15605,3.0344734,2.7719955
-18.35202,3.0438545,2.7695203
-18.533054,3.0505278,2.7632136
-18.72629,3.0612504,2.7639027
-18.89477,3.0666337,2.756455
-19.068241,3.074197,2.7529702
-19.207363,3.0735998,2.7366362
-19.372946,3.0807772,2.733333
-19.516823,3.0829453,2.72223
-19.655094,3.0843098,2.7101483
-19.813362,3.0919328,2.7087045
-19.941338,3.0918732,2.6949377
-20.068197,3.0921345,2.681993
-20.19656,3.0934634,2.6711092
-20.315086,3.0925698,2.656808
-20.4152,3.0868158,2.6346455
-20.589481,3.103718,2.6506438
-20.661594,3.0906634,2.6167316
-20.811806,3.1018171,2.6237082
-20.90942,3.0974817,2.604876
-21.004356,3.0927575,2.5855832
-21.17548,3.112686,2.6082706
-21.222603,3.0937414,2.5652847
-21.256504,3.0705705,2.5151734
-17.775759,1.8897474,0.48975992
-21.504757,3.0842826,2.517755
-21.642845,3.0968647,2.5292296
-21.664528,3.0705287,2.4741683
-21.72456,3.0573037,2.44167
-21.774849,3.0408561,2.403716
-21.831867,3.026887,2.3701143
-21.841816,2.9962502,2.3077664
-21.862837,2.9693804,2.2519302
-21.881079,2.941346,2.1940784
-21.898193,2.9127173,2.1351924
-21.915,2.8837821,2.0757704
-21.91719,2.8491154,2.0063424
-21.863007,2.792531,1.8985705
-21.865177,2.7569385,1.8273902
-19.670055,1.8602843,0.24641848
-21.902113,2.66022,1.6313267
-21.90374,2.6231003,1.557344
-21.903769,2.5849378,1.4814844
-21.904526,2.5466704,1.4053969
-21.882427,2.4984047,1.3115826
-21.885544,2.4601934,1.2354889
-21.881859,2.4186575,1.1534619
-21.872253,2.3740656,1.0659566
-21.869503,2.3319275,0.9827509
-21.865362,2.288674,0.8975096
-21.871666,2.2495837,0.8196373
-21.875063,2.2087443,0.73861027
-21.883633,2.169811,0.6609521
-21.895855,2.1321468,0.5855341
-21.88792,2.0846152,0.49241972
-32.16939,2.2595618,0.45048332
-32.165493,2.3585958,0.63882256
-32.142754,2.485983,0.8806062
-32.151432,2.5539517,1.0102577
-32.17734,2.590274,1.0802159
-32.167786,2.6829052,1.2563295
-32.158417,2.7713242,1.4244571
-32.191486,2.7900057,1.4611387
-32.18029,2.875521,1.623735
-32.20323,2.9067378,1.6840258
-32.211956,2.9576178,1.7813416
-32.210686,3.0209203,1.9020233
-32.220524,3.0663145,1.9889736
-32.25802,3.0721278,2.001451
-32.292458,3.082027,2.0216393
-32.33876,3.076077,2.0120525
-32.34576,3.1214943,2.0990543
-32.356144,3.1611207,2.1751556
-32.37577,3.187948,2.2272053
-32.398346,3.210393,2.2710266
-32.436398,3.2135892,2.2787209
-32.42938,3.2702081,2.386695
-32.48095,3.256923,2.3634987
-32.50819,3.2720957,2.3937197
-32.55906,3.2604015,2.37359
-32.586777,3.274867,2.402532
-32.618965,3.2841992,2.421873
-32.675575,3.2673101,2.392138
-32.612915,3.3766255,2.5986905
-32.644043,3.385572,2.6173234
-32.708187,3.360787,2.5728893
-33.079407,3.0289302,1.9544415
-32.775593,3.4521458,2.7515974
-32.82561,3.442464,2.7355752
-34.449104,2.0859501,0.21362877
-34.51337,2.084534,0.21438265
-34.574474,2.0862339,0.2210002
-34.63662,2.0872884,0.22647333
-33.20267,3.3643174,2.6056523
-33.461548,3.18278,2.2705507
-33.26925,3.3805907,2.640809
-33.416935,3.2951372,2.484591
-33.48381,3.2774112,2.4543152
-33.525124,3.2807252,2.4631572
-33.573174,3.2788818,2.4624739
-33.621365,3.277196,2.462134
-33.667057,3.2776875,2.4658756
-33.712303,3.2787263,2.4706774
-33.759773,3.2783067,2.472826
-33.81442,3.2728498,2.4657106
-33.86492,3.2707694,2.4648967
-33.9106,3.2724285,2.471043
-33.983707,3.2548718,2.441771
-34.019047,3.2643747,2.462503
-34.05027,3.2767155,2.4884949
-34.083008,3.2879555,2.5124831
-34.149128,3.276695,2.4950776
-34.18997,3.2827501,2.5096083
-34.2755,3.2595673,2.4704337
-34.323753,3.2613635,2.4772596
-34.356514,3.2732837,2.5027213
-34.434338,3.2566543,2.4758434
-34.473778,3.2646677,2.494238
-34.53275,3.26068,2.4906898
-34.565372,3.2731183,2.5172758
-34.60403,3.281881,2.537168
-34.663292,3.2784188,2.5347595
-34.69242,3.2930386,2.5654378
-34.766525,3.281411,2.548256
-34.789715,3.2995899,2.5855045
-35.34389,3.0159137,2.0730505
-35.36373,3.0391803,2.1200547
-35.370014,3.0697305,2.1803017
-35.383587,3.0958698,2.2325153
-35.3993,3.1205423,2.2820578
-35.409843,3.1477132,2.336125
-35.427937,3.1705596,2.382347
-35.444237,3.194118,2.4298573
-35.483303,3.2056465,2.455618
-35.594402,3.1803443,2.4149055
-35.63018,3.1940303,2.444707
-35.674812,3.2032824,2.4665518
-35.73197,3.2064378,2.4774714
-35.846302,3.1818795,2.4386268
-35.881954,3.19622,2.4698477
-35.953083,3.193602,2.4706721
-36.049557,3.1793897,2.450818
-36.108265,3.183463,2.4638567
-36.15105,3.1951294,2.490553
-36.225117,3.192581,2.4919105
-36.3141,3.18369,2.4820652
-36.39829,3.177477,2.4771333
-36.444164,3.18866,2.5032916
-36.517567,3.1879268,2.5083294
-36.621193,3.1745188,2.4909854
-36.67095,3.1847503,2.5157185
-36.740364,3.1868234,2.5260754
-36.823627,3.183436,2.526888
-36.8757,3.1933553,2.5513277
-36.957764,3.191197,2.5545492
-37.012165,3.2006154,2.5782843
-37.095314,3.1987429,2.5822544
-37.190426,3.1925867,2.578848
-37.241047,3.2042906,2.6069012
-37.3674,3.1869566,2.5842304
-37.43007,3.1946669,2.605537
-37.48715,3.2047138,2.6310158
-37.62908,3.183363,2.6019306
-37.66791,3.2008502,2.6406112
-37.80431,3.1828742,2.6178226
-37.86014,3.1947064,2.6469178
-37.93137,3.2012312,2.6669278
-38.05832,3.1884694,2.6537886
-38.109283,3.2028375,2.6876178
-38.263336,3.1819425,2.6609225
-38.351738,3.1842644,2.6743698
-38.466095,3.1782985,2.6737971
-38.542336,3.1855805,2.6960864
-38.676525,3.1741967,2.686699
-38.765682,3.1781478,2.7036781
-38.89048,3.1711054,2.7021737
-38.96045,3.1820667,2.7314215
-39.06446,3.1826525,2.74327
-39.1584,3.1868556,2.7614331
-39.324593,3.1694613,2.7434745
-39.423313,3.1733484,2.7615895
-39.53859,3.1727667,2.772437
-39.711388,3.1558504,2.7562795
-39.776787,3.171104,2.7940688
-39.915466,3.1655493,2.7974463
-40.017662,3.171058,2.81946
-40.157784,3.1664202,2.8249555
-40.33531,3.1521735,2.814969
-40.41332,3.1660657,2.8515887
-40.597847,3.1515458,2.8419027
-40.766,3.1423967,2.8414402
-40.829998,3.161502,2.8873243
-41.013046,3.1499274,2.8836412
-41.195694,3.139441,2.8821907
-41.371597,3.1316338,2.885529
-41.563293,3.120813,2.8845005
-41.74005,3.11469,2.89149
-41.845314,3.1268437,2.9280386
-42.0144,3.1241558,2.9413285
-42.201168,3.118146,2.949839
-42.316772,3.1296947,2.9864774
-42.521557,3.1212401,2.9921079
-42.72954,3.1131287,2.9988656
-42.873253,3.1204782,3.0302238
-43.06986,3.1168349,3.045011
-43.21199,3.126039,3.0801349
-43.393272,3.127509,3.1038427
-43.6457,3.1148417,3.1065855
-43.883682,3.1065097,3.1166878
-44.15491,3.092586,3.1191278
-44.325207,3.100497,3.1551447
-44.555855,3.0971975,3.1750126
-44.832123,3.086117,3.1841264
-45.03984,3.0897171,3.215767
-45.29512,3.085291,3.2363768
-45.57828,3.07694,3.2521744
-45.879948,3.066634,3.2661543
-46.20401,3.0538223,3.2776341
-46.42639,3.060844,3.3184767
-46.729256,3.054813,3.3417263
-47.00374,3.0552301,3.3751316
-47.32264,3.049477,3.4010234
-47.656326,3.0428767,3.4269886
-47.998108,3.0366497,3.4547853
-48.3364,3.0327272,3.4870658
-48.66244,3.03246,3.5256162
-48.963554,3.037713,3.5728216
11.170538,1.6451607,2.7623415
10.966677,1.5568128,2.5519629
10.789732,1.025552,1.4041319
8.519297,1.0896411,1.2944293
7.0642567,1.1716795,1.3111634
6.4481106,1.1509671,1.2010365
6.1874294,1.0855656,1.0348053
6.788782,0.90310526,0.71394444
5.8749447,0.9288721,0.670527
3.548563,1.1608,0.91116905
2.9749393,1.1504822,0.8282871
1.5650864,1.2669461,0.92358255
0.24723625,1.3770804,1.0154638
0.21160507,1.2970943,0.8434968
0.98999405,1.0894938,0.48952866
-2.3971958,1.5413554,1.0811834
-2.9195213,1.5471814,1.0384588
-2.8701515,1.4612546,0.8634734
-2.5395126,1.3274655,0.61776924
-2.7181435,1.278476,0.49653673
-2.5718327,1.1737065,0.29257345
-15.114118,2.998332,2.805585
-15.413011,3.0128748,2.8054042
-15.592545,3.0047138,2.7702284
-15.899708,3.0237718,2.778716
-16.11309,3.0248227,2.7593684
-16.391102,3.0406985,2.764318
-16.640669,3.0519233,2.762545
-16.876743,3.061513,2.7587967
-17.127949,3.0757048,2.7631207
-17.325245,3.0791023,2.7505417
-17.5579,3.091586,2.7532916
-17.762554,3.098831,2.7480445
-17.948524,3.1027627,2.737855
-18.115028,3.1030219,2.7220564
-18.292118,3.1066718,2.7122655
-18.468842,3.1111453,2.704259
-18.612741,3.1084027,2.6846418
-18.775295,3.1110482,2.6743536
-18.941992,3.1155813,2.6675963
-19.065445,3.1098354,2.6439333
-19.244844,3.1192794,2.6461434
-19.388256,3.120168,2.6342869
-19.497765,3.1127002,2.6085706
-19.64246,3.115277,2.6001496
-19.773647,3.1148853,2.5869746
-19.90546,3.115323,2.5754843
-19.854572,3.0649307,2.4772072
-16.297249,2.0132086,0.6596961
-16.478975,2.016247,0.6490264
-16.56353,1.9917908,0.5912943
-20.547346,3.1224785,2.530488
-16.681944,1.9283824,0.45112467
-20.803719,3.1298394,2.522019
-16.630135,1.8128643,0.22060776
-21.617598,3.1160107,2.420992
-21.641535,3.090227,2.3666563
-21.69627,3.074868,2.3307776
-21.767513,3.0653574,2.3053384
-21.798882,3.0421524,2.2556977
-21.850868,3.026194,2.2189689
-21.87076,2.9988396,2.162013
-21.88549,2.9694548,2.101439
-21.901533,2.9403431,2.041346
-21.91729,2.9109235,1.9806957
-21.92802,2.8794048,1.9162807
-21.910149,2.8367624,1.831892
-19.65765,1.9349201,0.20386696
-21.88712,2.754853,1.6689796
-21.891193,2.719312,1.5971861
-21.913723,2.6907604,1.537971
-21.913671,2.6529343,1.4620099
-21.902107,2.6100194,1.3768067
-21.891407,2.5669382,1.2912426
-21.889904,2.527163,1.2116141
-21.902742,2.4929814,1.1420975
-21.87426,2.4408765,1.0399942
-21.872957,2.3997538,0.95778036
-21.872475,2.3585095,0.8753047
-21.885344,2.3226726,0.80264664
-21.884968,2.2805731,0.7185397
-21.87815,2.235067,0.62816525
-21.899075,2.2016375,0.5598316
-21.89685,2.1572223,0.47137642
-32.174927,2.2934804,0.40160656
-32.178524,2.37837,0.5657153
-32.164917,2.4890573,0.7792587
-32.163006,2.5750191,0.9453559
-32.18813,2.6127574,1.0189986
-32.153652,2.7447634,1.2732735
-32.183567,2.769942,1.3228226
-32.16614,2.8669538,1.5099654
-32.191833,2.8951924,1.5653639
-32.206936,2.938031,1.6487203
-32.190666,3.024486,1.8155503
-32.210533,3.0566242,1.8783965
-32.229298,3.0892022,1.9420838
-32.25211,3.115201,1.993187
-32.28846,3.1224015,2.0083508
-32.315304,3.141921,2.0470872
-32.323288,3.1850183,2.1308913
-32.356888,3.1945655,2.1505833
-32.38713,3.2080975,2.1779056
-32.434624,3.2004647,2.1648302
-32.447834,3.2340465,2.2304692
-32.463547,3.26372,2.2886434
-32.496555,3.2727234,2.3073807
-32.542725,3.2667768,2.2976246
-32.57714,3.2742565,2.3135056
-32.625942,3.2660081,2.2994323
-33.68216,2.1783361,0.22871399
-33.73325,2.186201,0.24610233
-32.632973,3.388613,2.5380301
-32.64741,3.4149296,2.5898228
-32.682236,3.4201243,2.6014218
-32.739986,3.4026732,2.5699716
-32.7103,3.4711099,2.701882
-32.731743,3.4886224,2.7369375
-32.75545,3.5036535,2.7672873
-32.785557,3.5124736,2.7858505
-32.82095,3.5163798,2.795104
-32.862278,3.5149996,2.794353
-34.630985,2.1448908,0.20651197
-34.69271,2.1466737,0.21306705
-34.75747,2.1462035,0.21540976
-33.422222,3.2903497,2.3833604
-33.483833,3.2773712,2.3611603
-33.52661,3.279937,2.368404
-33.577106,3.2766063,2.364544
-33.626755,3.2742457,2.3625627
-33.678654,3.2704535,2.3579264
-33.73128,3.26644,2.352923
-33.779324,3.2661746,2.3550372
-33.823708,3.2688308,2.3627014
-33.87791,3.2645392,2.3573189
-33.929592,3.262397,2.3560362
-33.967594,3.2702012,2.373517
-34.004387,3.278889,2.3926892
-34.036556,3.290779,2.4179087
-34.111763,3.2733696,2.3881187
-34.149654,3.2816708,2.4066768
-34.2245,3.2655292,2.3794112
-34.251415,3.2813935,2.412239
-34.323383,3.2680037,2.3902674
-34.38097,3.2643704,2.3866482
-34.43937,3.260566,2.3827696
-34.493767,3.2596035,2.3842683
-34.512413,3.28092,2.4274607
-34.58583,3.2686875,2.407998
-34.633728,3.2723358,2.4182615
-34.67045,3.282794,2.4412727
-34.690075,3.3032885,2.4830189
-34.754845,3.2974114,2.4756556
-34.73578,3.339932,2.558435
-35.353832,3.0212953,1.9695477
-35.364655,3.0498996,2.0268607
-35.377495,3.0770223,2.081409
-35.399624,3.098741,2.1259222
-35.416718,3.1229725,2.1750984
-35.436665,3.1454234,2.2209735
-35.46154,3.1650574,2.261639
-35.470554,3.1928058,2.3173199
-35.543484,3.1872983,2.311541
-35.612606,3.184161,2.3102307
-35.675774,3.1844025,2.315237
-35.723167,3.1927962,2.3353405
-35.795578,3.189011,2.3330731
-35.87665,3.181419,2.323896
-35.917175,3.1938093,2.3515444
-35.99373,3.1891246,2.3478866
-36.102684,3.1696565,2.3172188
-36.136177,3.186,2.3523183
-36.19832,3.1891615,2.363318
-36.23947,3.2021127,2.392295
-36.395195,3.1637154,2.3275323
-36.39258,3.196759,2.3933506
-36.470596,3.1940517,2.3939795
-36.591213,3.1732929,2.361858
-36.633324,3.1870096,2.3926063
-36.67526,3.200851,2.423626
-36.80011,3.180017,2.391788
-36.83834,3.1958942,2.4266615
-36.92673,3.1912546,2.4244456
-37.017723,3.1860478,2.4213376
-37.059673,3.2009654,2.4546895
-37.157238,3.1939378,2.4485288
-37.229458,3.197372,2.4613533
-37.29552,3.2035084,2.4791403
-37.413532,3.190061,2.461863
-37.45936,3.2045927,2.4949393
-37.575687,3.1928864,2.4810991
-37.66059,3.193466,2.4894161
-37.72404,3.202287,2.5125751
-37.839798,3.1924763,2.5026212
-37.884834,3.2085352,2.538897
-38.03689,3.1869667,2.5083814
-38.12197,3.189669,2.5211883
-38.23095,3.1845431,2.5202713
-38.32052,3.1866057,2.5322514
-38.457336,3.1732101,2.5171027
-38.531647,3.181375,2.5401845
-38.657616,3.1728795,2.534091
-38.738007,3.1798654,2.5554008
-38.873024,3.169681,2.5467668
-38.921677,3.1876037,2.5875301
-39.05136,3.1802647,2.5842814
-39.13981,3.1863747,2.6047006
-39.298267,3.1714952,2.5888
-39.40253,3.1738718,2.6031418
-39.537888,3.1674793,2.6025043
-39.690018,3.156873,2.5948591
-39.75783,3.1716197,2.6312032
-39.941883,3.1532092,2.6106725
-39.986324,3.1754508,2.6602407
-40.17386,3.1576672,2.6414056
-40.320827,3.1521673,2.6439362
-40.401276,3.1656067,2.6790137
-40.58496,3.1515107,2.6675014
-40.746197,3.1444058,2.6682334
-40.81275,3.1630373,2.7127752
-40.99323,3.1523175,2.708023
-41.191204,3.1380897,2.697793
-41.33684,3.1381695,2.7119727
-41.49983,3.1346486,2.7204752
-41.717293,3.118555,2.7084422
-41.843094,3.1259093,2.7358174
-41.96535,3.1346943,2.7658467
-42.19596,3.1184263,2.7548904
-42.375202,3.1153858,2.7662272
-42.49896,3.1260152,2.8003688
