x,y,z
-40.07704,1.6888499,3.5590525
-39.83468,1.8318057,3.7201777
-39.882404,1.8497398,3.7679825
-39.942955,1.86235,3.8112855
-40.00595,1.8741009,3.854135
-40.074043,1.8839283,3.8956308
-40.174572,1.8807402,3.9262767
-40.231873,1.8954773,3.9727836
-40.335014,1.891993,4.0041976
-40.466633,1.8776891,4.027175
-41.66219,1.446058,3.7058854
-41.664944,1.487159,3.7795072
-41.653664,1.5333719,3.8571692
-41.64351,1.5787587,3.933978
-41.65612,1.6151505,4.003492
-41.66369,1.6532207,4.0742974
-41.690624,1.6838558,4.139311
-41.89955,1.6474497,4.1533356
-42.21267,1.5742512,4.141109
-42.413624,1.5434046,4.1624923
-42.831646,1.436059,4.1292825
-43.126392,1.3749161,4.1323957
-43.43934,1.3090916,4.1342797
-43.799118,1.2288129,4.1282988
-44.168167,1.1474504,4.124192
-44.590893,1.0499525,4.1118646
-44.981407,0.9658046,4.1115785
-45.48619,0.845736,4.090688
-45.90116,0.758353,4.094657
-46.408485,0.6430881,4.0841823
-21.367195,1.5798063,2.8542333
-21.497814,1.6044977,2.855063
-21.62555,1.6285374,2.8558416
-21.713627,1.6329918,2.836421
-21.93219,1.705569,2.8901863
-21.97819,1.6894801,2.8498507
-22.072563,1.6989884,2.837297
-22.180073,1.7160149,2.833321
-22.236397,1.7061133,2.8004942
-22.452421,1.7831876,2.8631005
-22.46948,1.7528203,2.8086185
-22.804688,1.8984952,2.948629
-21.536663,1.150321,2.0984187
-21.689709,1.1907706,2.1202383
-21.721937,1.1634512,2.0669127
-23.075163,1.8963981,2.8682036
-23.27671,1.9744227,2.9374142
-23.294262,1.9462681,2.8872757
-23.37775,1.9569166,2.8812828
-23.459513,1.9670148,2.8750076
-23.516737,1.9627647,2.8526163
-23.589357,1.9680953,2.8414574
-23.685131,1.988059,2.8474836
-23.77107,2.0025678,2.8475895
-23.85813,2.0183284,2.849502
-23.937683,2.029904,2.8468833
-24.01056,2.037692,2.8401432
-24.32176,2.2000177,3.015346
-24.443478,2.2420678,3.0501766
-24.56437,2.2846537,3.0861692
-24.582237,2.2596908,3.0424953
-24.675125,2.2849443,3.0586295
-24.790834,2.3264544,3.094561
-24.846365,2.3277156,3.0827565
-24.899105,2.3272948,3.0691218
-24.969313,2.3393288,3.0706778
-25.038572,2.3511624,3.0722542
-25.103569,2.3604128,3.0709553
-25.167017,2.3689563,3.0690322
-25.226973,2.375344,3.0647078
-25.295223,2.3881996,3.0684996
-25.358006,2.3974621,3.0681362
-25.414135,2.4021225,3.0623388
-25.470125,2.4069848,3.0569782
-25.531036,2.4159448,3.0568666
-25.590467,2.4241533,3.056035
-25.65094,2.4335606,3.0568953
-25.703129,2.4367983,3.050284
-25.74722,2.4338028,3.0360641
-25.773632,2.4165912,3.004199
-25.790642,2.3914835,2.962484
-25.80808,2.3663766,2.9207697
-25.809275,2.3272812,2.8614488
-25.866108,2.3347154,2.860756
-25.92333,2.342855,2.861137
-25.978603,2.349685,2.860044
-26.03081,2.3541813,2.856162
-26.085735,2.3613915,2.8558917
-26.140472,2.3687942,2.8560395
-26.194456,2.3758783,2.8559504
-26.249363,2.3841727,2.8575768
-26.305164,2.3936849,2.860937
-26.34051,2.3843637,2.8402715
-26.41606,2.4133003,2.8689342
-26.480268,2.432192,2.8849044
-26.52227,2.4300647,2.8739314
-26.561634,2.4254656,2.859871
-26.620852,2.4407861,2.8717322
-26.666819,2.4432576,2.867095
-26.714224,2.4474473,2.86482
-26.762007,2.4523163,2.8635645
-26.812153,2.4599757,2.8660846
-26.861607,2.4672747,2.86828
-26.907932,2.471565,2.8666773
-26.957039,2.4791856,2.8695698
-27.00451,2.4853754,2.8707228
-27.048023,2.4874582,2.8666053
-27.094734,2.4934134,2.8677044
-27.138968,2.4968448,2.865602
-27.185843,2.503632,2.86805
-27.230274,2.5078843,2.8672733
-27.27503,2.5128143,2.8675117
-27.319647,2.5178862,2.8680582
-27.364561,2.5236392,2.869628
-27.409319,2.5295343,2.8715053
-27.453495,2.535028,2.8729663
-27.497524,2.5406601,2.8747272
-27.54348,2.5491571,2.8804278
-27.585127,2.5523374,2.8791447
-27.627079,2.5561917,2.8788686
-27.668516,2.5596244,2.8781319
-27.710245,2.5637314,2.878405
-27.75108,2.566864,2.877472
-27.794493,2.5739784,2.8819928
-27.836597,2.5795705,2.8845763
-27.8767,2.5825238,2.8837094
-27.915611,2.5839326,2.880857
-27.9541,2.5848975,2.8774977
-27.994312,2.5887544,2.8781352
-28.030575,2.586601,2.8707404
-28.067879,2.5862205,2.8658252
-28.104149,2.584267,2.8588638
-28.13478,2.5728965,2.8392086
-28.165615,2.5615957,2.8197045
-28.15208,2.4723277,2.6943111
-28.172768,2.4408145,2.6473384
-28.081812,2.2049346,2.3221989
-28.095478,2.1539989,2.2485657
-28.114319,2.110941,2.1856508
-28.129333,2.058836,2.1103892
-28.073524,1.8646176,1.8410482
-28.201447,2.0333505,2.0674014
-28.215183,1.973911,1.9821448
-28.258879,1.9752417,1.980032
-28.255516,1.777767,1.7018118
-28.265873,1.6993918,1.5904942
-28.272888,1.6095443,1.4633899
-28.265404,1.4807613,1.2827616
-28.263332,1.3586934,1.1112418
-28.232018,1.1568942,0.8300066
-38.434006,0.74265814,1.3549299
-38.404633,0.8118348,1.4567556
-38.398056,0.8659098,1.5408301
-38.442444,0.88806033,1.5879478
-38.386612,0.9709201,1.7048998
-38.474854,0.965966,1.7209673
-38.382824,1.0687072,1.8601236
-38.37935,1.1176322,1.9375772
-38.43285,1.1327043,1.9766169
-38.45598,1.1653817,2.035653
-38.52938,1.1689837,2.0620928
-38.56698,1.1931643,2.1117935
-38.650913,1.1911898,2.1325026
-38.682625,1.2186556,2.1861463
-38.726288,1.2393572,2.2323952
-38.532417,1.5173745,2.6298122
-38.571312,1.5385494,2.676178
-38.357933,1.6911013,2.8633575
-38.407074,1.705648,2.9021673
-38.431152,1.7330642,2.954795
-38.458843,1.7584705,3.0053372
-38.45623,1.798945,3.0717363
-38.4944,1.8187201,3.1164312
-38.4858,1.8614991,3.1851015
-38.59117,1.8481991,3.1957946
-38.617874,1.8735123,3.2465892
-38.659058,1.8917589,3.2902393
-38.702465,1.9089496,3.3329644
-38.788055,1.9063308,3.3559103
-38.841156,1.919236,3.3947968
-38.906654,1.9265265,3.4283237
-39.01834,1.9129131,3.4415169
-39.093967,1.9162371,3.471898
-39.194992,1.9084573,3.4918318
-39.24089,1.925693,3.5364714
-39.36933,1.9066119,3.546444
-39.27113,1.9871576,3.6520176
-39.700226,1.8386073,3.5403047
-39.88935,1.7959709,3.5305557
-40.01081,1.7832277,3.549724
-39.822613,1.9012933,3.6903043
-39.86686,1.9207504,3.7393055
-39.92393,1.9349489,3.7837205
-39.979923,1.9497182,3.8289204
-40.062073,1.9540195,3.8650527
-40.1327,1.963263,3.905995
-40.217346,1.9671688,3.942634
-40.30194,1.9714336,3.980051
-40.38291,1.9774442,4.0194364
-41.66174,1.521081,3.666523
-41.6457,1.5691869,3.7462888
-41.653175,1.6079483,3.8180628
-41.667282,1.6439645,3.8875194
-41.671844,1.6833258,3.9596848
-41.66951,1.7249622,4.0336027
-41.683792,1.760225,4.1023345
-41.738457,1.7807093,4.1594696
-42.058838,1.7062068,4.1433315
-42.35098,1.643635,4.138521
-42.648514,1.580884,4.135595
-43.001907,1.5004518,4.121592
-43.21193,1.4714656,4.1478
-43.552265,1.3991773,4.1441865
-43.95724,1.3070455,4.1289
-44.365204,1.2163007,4.117529
-44.7455,1.1370959,4.117094
-45.16392,1.047581,4.112479
-45.675632,0.9302101,4.092449
-46.105625,0.84208393,4.0953884
-46.607704,0.7334769,4.0884542
-47.150368,0.6149769,4.079152
-21.3126,1.645231,2.8685107
-21.44346,1.6690278,2.868825
-21.538319,1.6756878,2.8514352
-21.68528,1.7090445,2.863192
-21.795578,1.7247579,2.8565898
-21.916708,1.7466664,2.8572311
-22.012005,1.7559566,2.8446598
-22.11182,1.7681193,2.8356638
-22.194063,1.7715731,2.817512
-22.446068,1.8658247,2.900292
-22.517141,1.864924,2.8784456
-22.7425,1.9480579,2.9508257
-22.807337,1.945138,2.9276953
-21.683212,1.2847464,2.1633978
-21.690441,1.2438333,2.0945854
-21.702894,1.2054243,2.0285482
-23.1725,1.9961784,2.9092722
-23.274355,2.0163703,2.9141493
-23.357811,2.0265627,2.9079552
-23.363546,1.9916916,2.850031
-23.475079,2.0190198,2.8641915
-23.530037,2.013362,2.8404288
-23.641483,2.041947,2.856872
-23.721,2.051914,2.8519573
-23.806797,2.0662117,2.8524542
-23.886505,2.0772758,2.8494759
-23.967382,2.0895557,2.84825
-24.040846,2.0976446,2.842358
-24.402443,2.2905352,3.0572195
-24.454762,2.287643,3.0394545
-24.536474,2.3041258,3.0451307
-24.632437,2.3305738,3.0631294
-24.749977,2.3721652,3.099814
-24.793839,2.3652658,3.0782247
-24.850063,2.3668597,3.0670905
-24.915022,2.3747113,3.0637789
-24.986519,2.387486,3.066719
-25.049015,2.3944395,3.0627866
-25.120634,2.4082227,3.0674715
-25.180042,2.4137764,3.0622725
-25.247166,2.425243,3.0645876
-25.308151,2.4326823,3.06215
-25.37088,2.4417822,3.0619864
-25.429523,2.4482412,3.0587497
-25.49118,2.45732,3.0589833
-25.548174,2.4632506,3.0554852
-25.600595,2.4659977,3.0481777
-25.66415,2.4776747,3.0522752
-25.711933,2.4774034,3.0415187
-25.747368,2.4675083,3.0187387
-25.772562,2.449368,2.9855971
-25.79018,2.4248714,2.9444199
-25.80822,2.4003785,2.9032512
-25.812372,2.364003,2.8469276
-25.883402,2.3832095,2.8616052
-25.93465,2.3862443,2.8558068
-25.989279,2.3924527,2.854237
-26.048923,2.403364,2.8588853
-26.106014,2.4124813,2.861411
-26.158907,2.4182713,2.859819
-26.209385,2.422221,2.8560028
-26.265863,2.4319196,2.8597908
-26.320446,2.440293,2.8620315
-26.370981,2.4452877,2.8600392
-26.422453,2.4514751,2.8597507
-26.474829,2.4588637,2.8611808
-26.524347,2.4638608,2.8596387
-26.575829,2.4710863,2.8611565
-26.625551,2.4769359,2.86102
-26.673044,2.480879,2.8585167
-26.728086,2.492771,2.8666167
-26.778793,2.5006886,2.869638
-26.825285,2.5046017,2.8675122
-26.871159,2.508141,2.8650184
-26.91201,2.5065804,2.855888
-26.969353,2.5230238,2.8707628
-27.012396,2.5243843,2.8657537
-27.058218,2.529048,2.8652558
-27.104372,2.5343878,2.8657818
-27.14759,2.5366917,2.8623767
-27.19531,2.5444493,2.8663769
-27.24011,2.549164,2.8664308
-27.287912,2.5577614,2.8718085
-27.333727,2.5643735,2.874651
-27.372805,2.5630836,2.866991
-27.417055,2.5683587,2.8682609
-27.463291,2.576468,2.873465
-27.508062,2.5831065,2.8768063
-27.55058,2.5871818,2.876801
-27.592978,2.5913875,2.8770776
-27.634441,2.5946364,2.876165
-27.676601,2.5990999,2.8769994
-27.720211,2.6058722,2.881073
-27.762093,2.6105957,2.882473
-27.80231,2.6132576,2.8811722
-27.842062,2.615491,2.8793836
-27.881363,2.6172917,2.8770976
-27.920593,2.6192064,2.87506
-27.959389,2.6206844,2.8725166
-27.99954,2.6244814,2.8732347
-28.035042,2.62121,2.8643742
-28.071953,2.620249,2.8587527
-28.109188,2.6199439,2.854113
-28.132442,2.5964131,2.8176823
-28.164314,2.5868223,2.800424
-28.14789,2.4931781,2.6676793
-28.180006,2.481941,2.648178
-28.11421,2.2936506,2.384935
-28.101154,2.1950226,2.2449198
-28.120487,2.153386,2.1833797
-28.12954,2.0904293,2.0924144
-28.045874,1.8431411,1.746789
-28.195787,2.053247,2.0330162
-28.254559,1.9977283,1.9484515
-28.265923,1.9296691,1.8503995
-28.253937,1.8072941,1.677022
-28.26458,1.7300315,1.5660906
-28.274082,1.6464827,1.4463925
-28.25671,1.4953711,1.2328138
-28.256714,1.3786991,1.0669389
-28.241514,1.2181408,0.839952
-38.407097,0.7651408,1.2693357
-38.41517,0.81109715,1.3446627
-38.404396,0.8681421,1.4329791
-38.44285,0.8943083,1.4848495
-38.36315,0.99188566,1.6203752
-38.378826,1.0306978,1.6868424
-38.46632,1.0264235,1.7032166
-38.39193,1.1178327,1.8306742
-38.38172,1.1704221,1.9128675
-38.408195,1.2011697,1.9698071
-38.44551,1.2254677,2.0193954
-38.50067,1.2395368,2.0574136
-38.644157,1.249464,2.1134214
-38.702003,1.2624471,2.1508546
-39.40267,1.1129901,2.105318
-39.369473,1.1759357,2.1997962
-38.506157,1.6654849,2.758576
-38.401707,1.7591562,2.8834233
-38.420124,1.7893307,2.9391208
-38.452587,1.8122432,2.9870315
-38.46123,1.8468723,3.0475245
-38.47909,1.8766623,3.1028295
-38.461395,1.9235349,3.1761642
-38.551155,1.9180675,3.1943731
-38.60484,1.930268,3.2314353
-38.64514,1.9489117,3.2753944
-38.6885,1.9661205,3.3180103
-38.730774,1.9838524,3.361319
-38.81376,1.9828753,3.3857255
-38.88841,1.9860642,3.414744
-38.96641,1.9880319,3.4428825
-39.0664,1.9804881,3.461893
-39.147026,1.9820197,3.4904127
-39.211487,1.9909823,3.5266452
-39.356148,1.9652753,3.5292625
-39.388077,1.9889746,3.580647
-39.493645,1.981188,3.6017828
-39.844505,1.8702443,3.5248075
-39.971092,1.8556726,3.5414
-40.10575,1.8384249,3.5561695
-39.846703,1.9836783,3.7234488
-39.895855,2.0011625,3.7706413
-39.958794,2.0131612,3.813014
-40.025963,2.0236475,3.8543177
-40.09475,2.0337036,3.8955712
-40.19084,2.0332818,3.927814
-40.257645,2.04465,3.9710298
-40.364357,2.0408814,4.00132
-40.488087,2.0311255,4.0270276
-41.64705,1.6315198,3.718522
-41.67874,1.6611063,3.78267
-41.69739,1.6954372,3.850916
-41.665894,1.7479768,3.9343271
-41.665306,1.7887776,4.007759
-41.671387,1.8268878,4.078895
-41.69238,1.8594477,4.1455116
-41.930855,1.8152095,4.1512747
-42.17266,1.7711662,4.1587863
-42.423294,1.7254418,4.166631
-42.888542,1.6076741,4.1212807
-43.124256,1.5705495,4.1398134
-43.453625,1.503284,4.1376476
-43.790318,1.4354851,4.1374187
-44.204777,1.3440332,4.122599
-44.583214,1.2667375,4.120789
-45.008194,1.1766028,4.112805
-45.45105,1.0832167,4.1057277
-45.963226,0.9704685,4.0889435
-46.509502,0.85002136,4.070938
-46.91738,0.7755947,4.086843
-47.494324,0.65160894,4.0744276
-21.359869,1.7265825,2.8644285
-21.48577,1.7475443,2.862782
-21.578094,1.752758,2.844543
-21.71777,1.7819316,2.852993
-21.9218,1.8442669,2.898662
-21.941921,1.8150926,2.8439708
-22.046711,1.8289459,2.8371863
-22.150402,1.8428357,2.8309097
-22.254572,1.8575745,2.8260446
-22.514376,1.9547219,2.9146538
-22.526672,1.9227281,2.8581314
-21.431627,1.2972085,2.1257124
-22.888884,2.0404444,2.9528027
-21.70086,1.3538043,2.145237
-21.685787,1.3009279,2.0622754
-21.699001,1.2631257,1.9965825
-21.690857,1.2129369,1.9164505
-23.37685,2.123645,2.9576545
-23.40886,2.104566,2.9180002
-23.433697,2.081246,2.8734322
-23.491535,2.0770357,2.851459
-23.576689,2.0891402,2.8490176
-23.66669,2.104651,2.8509645
-23.750504,2.1170185,2.849522
-23.825314,2.1244335,2.8424783
-23.90786,2.1370122,2.8419223
-23.991543,2.150813,2.8431578
-24.064203,2.1582532,2.8370256
-24.430275,2.3516073,3.0567327
-24.483162,2.3491077,3.039752
-24.559158,2.3617086,3.0413842
-24.70103,2.4177241,3.0964732
-24.730331,2.401031,3.062848
-24.80598,2.4150457,3.0671172
-24.870367,2.4220166,3.0629635
-24.941353,2.4338398,3.065051
-25.003284,2.4399276,3.060267
-25.067049,2.4476402,3.057723
-25.131939,2.456526,3.0568657
-25.198587,2.467062,3.0583014
-25.25906,2.4736283,3.054985
-25.319351,2.4804194,3.0521555
-25.380098,2.487907,3.050407
-25.436783,2.492773,3.0455441
-25.49715,2.5007014,3.0447516
-25.559212,2.5102866,3.0462675
-25.615362,2.51579,3.0427861
-25.670725,2.5210145,3.0391278
-25.715382,2.5182328,3.025391
-25.74526,2.5039752,2.997046
-25.770473,2.485898,2.9638462
-25.792345,2.4649405,2.92697
-25.80194,2.433742,2.8768806
-25.841927,2.4270267,2.8584666
-25.893234,2.4297745,2.8524365
-25.946781,2.434671,2.849351
-26.00192,2.4412377,2.8486042
-26.058033,2.448991,2.8495731
-26.113937,2.456943,2.8509736
-26.168495,2.4640942,2.8514934
-26.22342,2.4719381,2.8530855
-26.279808,2.481481,2.857079
-26.33264,2.488202,2.857523
-26.38145,2.49157,2.8536925
-26.43394,2.4986453,2.8549037
-26.484629,2.5043771,2.8544874
-26.534084,2.509262,2.8530912
-26.58761,2.5183978,2.8574848
-26.638292,2.5251594,2.8588724
-26.689825,2.5331192,2.862002
-26.736029,2.5361083,2.858636
-26.785164,2.5423422,2.8597355
-26.83262,2.5471883,2.8591104
-26.880428,2.5527084,2.8595185
-26.926605,2.5568259,2.85817
-26.975569,2.5642185,2.8613544
-27.021933,2.5691624,2.8613706
-27.068626,2.5747802,2.8624182
-27.11375,2.578975,2.8616657
-27.16014,2.5848916,2.8633618
-27.204987,2.5893764,2.8632383
-27.25333,2.5982301,2.869162
-27.300106,2.605656,2.8732738
-27.342255,2.607927,2.8704925
-27.38563,2.6119227,2.870164
-27.431477,2.6192503,2.8744907
-27.472433,2.6208515,2.8711128
-27.517534,2.6279263,2.8753195
-27.557457,2.6287115,2.871028
-27.601019,2.6344485,2.87362
-27.64159,2.6365542,2.8713346
-27.683277,2.6403983,2.8715343
-27.724453,2.643829,2.871266
-27.7663,2.6484656,2.8727565
-27.806864,2.651603,2.8722806
-27.847706,2.6554048,2.8728166
-27.88769,2.65824,2.8721137
-27.927212,2.660648,2.870912
-27.965569,2.6615334,2.8676934
-28.004938,2.6641693,2.8669868
-28.040722,2.6614406,2.8589287
-28.076874,2.659357,2.8518429
-28.11236,2.6562722,2.843441
-28.144218,2.6472254,2.8268242
-28.175251,2.6366005,2.8080692
-28.15668,2.5404441,2.6702304
-28.178246,2.511031,2.6252956
-28.087929,2.280573,2.29988
-28.11121,2.248143,2.2505465
-28.12827,2.2029598,2.1834083
-28.124584,2.1166062,2.0586882
-28.04006,1.8697298,1.7092352
-28.207642,2.1125364,2.0451546
-28.243818,2.0997784,2.0234876
-28.273764,2.0736852,1.9831834
-28.271267,1.9776688,1.8447914
-28.256302,1.8501527,1.6620798
-28.276463,1.7948401,1.5806866
-28.27264,1.6822236,1.4187193
-28.255756,1.5334859,1.2058372
-28.256472,1.4194565,1.0416622
-28.244678,1.2686813,0.82564735
-28.269623,1.2029178,0.729301
-38.535156,0.6447239,0.97731924
-38.39969,0.78264165,1.165029
-38.396313,0.83597946,1.2498493
-38.39203,0.8891752,1.3343592
-38.430283,0.9157181,1.3867698
-38.352364,1.0122845,1.5229297
-38.38476,1.0413072,1.5781488
-38.366646,1.1000378,1.6686659
-38.357895,1.1524775,1.7515378
-38.379513,1.1865978,1.8126726
-38.392357,1.2254505,1.8793578
-38.409832,1.2612572,1.9424343
-38.410103,1.306427,2.0163937
-38.445335,1.3315296,2.0669684
-38.509964,1.3402207,2.0986567
-38.572205,1.3503988,2.1322842
-39.308323,1.1814575,2.0562763
-39.451523,1.1527331,2.048799
-38.508064,1.6821845,2.6645508
-38.519268,1.7170646,2.7260475
-38.3507,1.842083,2.887073
-38.409046,1.8519888,2.9205394
-38.43418,1.878439,2.9723225
-38.485664,1.891846,3.0099545
-38.466164,1.939729,3.0850863
-38.453247,1.9838915,3.1560063
-38.497894,2.0002022,3.1969366
-38.595043,1.9918246,3.2117395
-38.63365,2.0112555,3.2564378
-38.67198,2.0307972,3.3013768
-38.71503,2.048161,3.3441625
-38.798,2.047448,3.3683052
-38.868427,2.0527365,3.3990388
-38.94893,2.0538018,3.4257526
-39.037067,2.051841,3.4497585
-39.119335,2.0528452,3.4771981
-39.25106,2.032812,3.4838562
-39.33097,2.0357244,3.5141468
-39.46237,2.017114,3.5234609
-39.569126,2.0095942,3.5444064
-39.797016,1.9521766,3.517105
-39.90967,1.9437585,3.5386705
-39.999004,1.9454298,3.5705543
-39.82043,2.0558689,3.7068205
-39.878265,2.0698848,3.7504816
-39.93591,2.0841186,3.7946162
-40.000397,2.0958,3.8366413
-40.067375,2.1067028,3.8782616
-40.14661,2.1130888,3.9160838
-40.223984,2.1204844,3.9552393
-40.331566,2.1167374,3.9847927
-40.391834,2.1312182,4.0311747
-41.6737,1.6926033,3.6787372
-41.68388,1.7301855,3.7499452
-41.628613,1.7913516,3.8414617
-41.643845,1.8264253,3.9102292
-41.657654,1.8618214,3.9792671
-41.670948,1.8972104,4.0482893
-41.678257,1.9345028,4.1188707
-41.76172,1.9451861,4.167723
-42.12415,1.8604633,4.1403046
-42.396923,1.808382,4.141271
-42.67683,1.7554649,4.1434226
-43.018272,1.6836581,4.132876
-43.29969,1.6336315,4.1412945
-43.66137,1.5589926,4.1331706
-44.016582,1.4885366,4.13069
-44.43963,1.3984203,4.116411
-44.855423,1.3130589,4.1085877
-45.245186,1.2382433,4.1112123
-45.73689,1.1340146,4.096305
-46.211098,1.0379927,4.0906267
-46.764397,0.9206443,4.074248
-47.249424,0.82700014,4.0775795
-47.85147,0.7012644,4.0639944
-48.525776,0.5576861,4.043833
-21.312523,1.8021,2.879282
-21.421474,1.8139994,2.868218
-21.560223,1.840812,2.8741622
-21.644207,1.8419433,2.8521776
-21.755508,1.8568304,2.8459344
-21.92987,1.903533,2.8759499
-22.002674,1.9007964,2.850964
-22.112843,1.9171782,2.8479605
-22.195732,1.9203372,2.8303723
-22.405386,1.9890103,2.888142
-22.533718,2.0171647,2.9003086
-21.381668,1.375725,2.1395636
-21.425526,1.3544779,2.0922527
-21.48825,1.3432589,2.056744
-21.700417,1.4127378,2.115847
-21.702913,1.3698184,2.0439162
-21.711449,1.3297377,1.9752393
-21.690313,1.2727637,1.8865023
-23.299553,2.1285925,2.8821983
-23.40026,2.1479764,2.8881903
-23.455002,2.141766,2.8639555
-23.520931,2.1421738,2.847856
-23.611156,2.157031,2.849419
-23.688547,2.1649113,2.8428955
-23.764263,2.17223,2.8359823
-23.849216,2.1855147,2.8366194
-23.93602,2.2004578,2.83961
-24.015293,2.2113578,2.837976
-24.152134,2.2583408,2.8810267
-24.477573,2.424322,3.071494
-24.552792,2.436056,3.0724964
-24.612993,2.438702,3.0624943
-24.670292,2.439776,3.0507388
-24.753145,2.4577308,3.0602593
-24.814243,2.4619997,3.052948
-24.877935,2.4683132,3.0484114
-24.948242,2.4794273,3.0501413
-25.009491,2.4848657,3.0449505
-25.073929,2.4928298,3.0431652
-25.137482,2.500577,3.0413232
-25.203474,2.5104163,3.0423603
-25.26461,2.5172563,3.0397944
-25.326206,2.5247908,3.038319
-25.385647,2.5311515,3.035542
-25.448124,2.5400789,3.0362592
-25.50845,2.5478282,3.0356636
-25.57174,2.5581646,3.0386086
-25.62468,2.5611496,3.032239
-25.672497,2.5605118,3.0213304
-25.7153,2.5562136,3.005797
-25.75998,2.553486,2.9924283
-25.771626,2.5249386,2.9454436
-25.793488,2.5040832,2.9085093
-25.804865,2.474542,2.860199
-25.851416,2.4731295,2.8488526
-25.900898,2.4743023,2.8410406
-25.960876,2.4844341,2.8451967
-26.016516,2.4913538,2.8452883
-26.072538,2.4989617,2.846459
-26.130644,2.5087404,2.8506784
-26.18452,2.5152678,2.850747
-26.236523,2.5204942,2.8492398
-26.29004,2.5273921,2.850111
-26.34281,2.5339768,2.8507195
-26.394844,2.5402431,2.8510523
-26.443983,2.5441806,2.8484054
-26.499447,2.5543175,2.85423
-26.554121,2.5641465,2.8598008
-26.601152,2.5670874,2.856236
-26.646503,2.56866,2.8509479
-26.695396,2.5739365,2.8507905
-26.744644,2.5798855,2.851676
-26.796764,2.5890653,2.8570824
-26.841618,2.5912511,2.8531241
-26.890354,2.5976884,2.8550692
-26.937435,2.6027431,2.8552594
-26.98485,2.6084673,2.8564873
-27.030659,2.612795,2.855929
-27.079185,2.6203818,2.8599524
-27.122805,2.6229315,2.8571959
-27.167257,2.6266592,2.8561664
-27.213886,2.6331382,2.8590307
-27.259428,2.638722,2.8607821
-27.304811,2.6444519,2.8628507
-27.350033,2.6503272,2.8652344
-27.393774,2.6547663,2.865746
-27.436083,2.6577587,2.8643641
-27.479141,2.6619394,2.86473
-27.522495,2.666783,2.8661194
-27.565708,2.6717622,2.8678026
-27.607132,2.674746,2.8668165
-27.648857,2.678389,2.8668456
-27.68887,2.6800208,2.864171
-27.729992,2.683378,2.8639932
-27.771008,2.6868582,2.8640842
-27.811527,2.6899242,2.8636904
-27.85308,2.694727,2.865818
-27.89524,2.700734,2.86973
-27.933207,2.7009265,2.8655915
-27.971493,2.7017682,2.8624463
-28.010082,2.7032619,2.8602996
-28.045456,2.6999784,2.8515239
-28.082241,2.6989655,2.846014
-28.115965,2.6931508,2.8338213
-28.151442,2.69015,2.8256583
-28.157824,2.6386,2.7490973
-28.148209,2.5579855,2.6314707
-28.160772,2.5128672,2.5638833
-28.076569,2.2947834,2.2517514
-28.10798,2.276858,2.2224135
-28.123013,2.2281647,2.149559
-28.12029,2.1441638,2.0266628
-28.137093,2.0942807,1.9520574
-28.224943,2.182033,2.0727334
-28.255825,2.1594238,2.0369673
-28.294971,2.1529448,2.0241628
-28.25137,1.9723198,1.7638397
-28.25488,1.884712,1.6356072
-28.281637,1.8442979,1.5744901
-28.269058,1.7131393,1.3841405
-28.25704,1.5767901,1.186265
-28.25185,1.4497564,1.001545
-28.24747,1.3181114,0.81013966
-28.273243,1.2551181,0.7166376
-38.456318,0.70732284,0.92520237
-38.496803,0.73450685,0.9787574
-38.356617,0.8736763,1.1703224
-38.3823,0.9084821,1.2329473
-38.42183,0.9345238,1.2848535
-38.363834,1.0191741,1.4083295
-38.39764,1.0477352,1.4632139
-38.376026,1.1088276,1.5575662
-38.348938,1.172277,1.6545439
-38.352615,1.2170122,1.7287564
-38.363743,1.2569509,1.7971253
-38.379456,1.2938552,1.8618135
-38.38177,1.3379266,1.9350014
-38.403027,1.3709388,1.9949803
-38.443527,1.3930407,2.0420732
-38.49211,1.4106486,2.0839777
-38.547363,1.4246581,2.1218066
-38.59085,1.4450498,2.1672635
-38.722153,1.4624221,2.2314382
-39.504047,1.1911209,1.9898996
-39.555275,1.2107968,2.037115
-38.531265,1.7692444,2.6941357
-38.35531,1.8965688,2.8600197
-38.40323,1.9117699,2.89919
-38.427513,1.9385321,2.951417
-38.437595,1.9719803,3.0110974
-38.415375,2.0205674,3.0874481
-38.45373,2.0399165,3.1314716
-38.500027,2.0555246,3.1715255
-38.591473,2.0502236,3.1890268
-38.62178,2.0734835,3.2378006
-38.659225,2.093404,3.2830634
-38.69889,2.1123018,3.327351
-38.7676,2.1182163,3.3579845
-38.83038,2.127005,3.3919525
-38.913315,2.1271527,3.4171243
-39.003914,2.124333,3.439591
-39.083557,2.12665,3.4678097
-39.189655,2.118026,3.4851475
-39.31563,2.1015563,3.4950004
-39.392944,2.10612,3.5268488
-39.55299,2.0767415,3.5248666
-39.68587,2.0594525,3.5358434
-39.837296,2.035365,3.5407782
-39.746185,2.1096764,3.6434956
-39.79108,2.12881,3.6916075
-39.853226,2.1411803,3.7333393
-39.912567,2.1548219,3.7765841
-39.97613,2.166984,3.8186936
-40.03776,2.1800735,3.8619862
-40.11074,2.1890264,3.9016929
-40.19517,2.1939316,3.9380107
-40.274193,2.2011886,3.9769397
-40.379963,2.1988835,4.007564
-40.47232,2.2019606,4.043643
-41.620167,1.824039,3.7395134
-41.6341,1.8596892,3.8089404
-41.655655,1.8924463,3.8758206
-41.667656,1.9284163,3.9455261
-41.671852,1.9668968,4.0173607
-41.669106,2.0075164,4.0909333
-41.6877,2.0405784,4.1580606
-41.953186,1.9902824,4.15629
-42.292847,1.9167631,4.137303
-42.474274,1.8975261,4.1643515
-42.86171,1.8118639,4.1397467
-43.147655,1.7613493,4.14537
-43.48339,1.696491,4.1418486
-43.812553,1.6356425,4.1437063
-44.268158,1.5369647,4.1194606
-44.630825,1.4698253,4.1217623
-44.970963,1.4116602,4.1331654
-45.529102,1.2890475,4.1009316
-45.96771,1.205683,4.100362
-46.501343,1.0964789,4.0851874
-46.947723,1.0160494,4.093466
-47.529995,0.898463,4.0804143
-48.159958,0.77041936,4.064985
-48.805595,0.6414776,4.053821
-21.345047,1.8824434,2.8687387
-21.458012,1.8958502,2.8603
-21.544632,1.8974271,2.8389797
-21.676525,1.9210286,2.843069
-21.841,1.9611683,2.8666563
-21.941223,1.9711556,2.85639
-22.032398,1.9772403,2.8420506
-22.137722,1.9908159,2.836771
-22.247482,2.007224,2.835238
-22.44445,2.068432,2.886551
-22.516926,2.0675411,2.8658643
-21.305805,1.4045475,2.0648022
-21.41614,1.4175484,2.0578785
-21.474272,1.4037132,2.0195007
-21.688984,1.4731739,2.0807257
-21.68688,1.4280365,2.0056038
-21.688578,1.3844354,1.9322166
-21.688725,1.3394902,1.8571119
-23.406883,2.2432082,2.9315224
-21.655212,1.2291584,1.681735
-23.469355,2.2045193,2.8516283
-23.535965,2.2051623,2.8362646
-23.626892,2.2200792,2.8386812
-23.72261,2.2383592,2.8455968
-23.80621,2.2501805,2.844892
-23.885876,2.2601876,2.8422494
-23.968172,2.2722428,2.842452
-24.042255,2.2798529,2.8374052
-24.272684,2.3832626,2.9526858
-24.4641,2.4649909,3.0417042
-24.529533,2.470212,3.0350695
-24.601822,2.480099,3.0345597
-24.680834,2.4947035,3.0402908
-24.749783,2.503396,3.038787
-24.811604,2.5078862,3.0321631
-24.88149,2.5179925,3.0329275
-24.953838,2.5301733,3.0365934
-25.017765,2.537212,3.0338998
-25.083508,2.5458553,3.0334878
-25.143005,2.5506496,3.0283208
-25.206326,2.5584073,3.0271854
-25.264158,2.5627315,3.0217972
-25.327728,2.5714138,3.0222673
-25.387817,2.5780241,3.0202408
-25.447067,2.5843925,3.0180883
-25.497803,2.5849252,3.0084696
-25.551643,2.5879693,3.0023012
-25.60915,2.594018,3.0002542
-25.660835,2.59604,2.9930663
-25.706823,2.5939913,2.9806437
-25.741684,2.5835638,2.9572382
-25.773018,2.5703773,2.9302425
-25.782078,2.5396168,2.879908
-25.810982,2.5241294,2.8499198
-25.859266,2.5240648,2.8406024
-25.91639,2.5313833,2.841309
-25.97213,2.5379405,2.8411603
-26.029425,2.5461488,2.8433971
-26.080133,2.549215,2.8388724
-26.138176,2.558792,2.843278
-26.193125,2.5661335,2.84483
-26.249557,2.5751398,2.848796
-26.301838,2.5809028,2.8485231
-26.351173,2.5843797,2.8452883
-26.40203,2.5895057,2.8444324
-26.453272,2.5953004,2.8446279
-26.512417,2.6087348,2.8554006
-26.56163,2.6134024,2.8543477
-26.610163,2.6177342,2.8529668
-26.660126,2.623732,2.8540015
-26.706284,2.6263778,2.8505607
-26.755924,2.6327033,2.8523045
-26.804878,2.638689,2.853712
-26.855665,2.6468668,2.8582754
-26.90524,2.6542008,2.8618069
-26.95018,2.6571162,2.8593493
-27.000856,2.6663036,2.865703
-27.045513,2.6695194,2.8638968
-27.091005,2.6739032,2.8638263
-27.13636,2.6784334,2.8640723
-27.181107,2.682593,2.863914
-27.223417,2.6843114,2.860457
-27.271109,2.6923757,2.865972
-27.315437,2.696963,2.8667402
-27.363178,2.7058535,2.8736472
-27.406301,2.709687,2.8735795
-27.449299,2.7136545,2.8738027
-27.491743,2.7172322,2.8735795
-27.533224,2.7198915,2.8721623
-27.57586,2.7242541,2.8732424
-27.61877,2.7292755,2.875352
-27.658693,2.7307343,2.8725295
-27.698143,2.7317822,2.869216
-27.737926,2.7334762,2.8669024
-27.778414,2.7363493,2.8663492
-27.82072,2.742004,2.869831
-27.861357,2.745657,2.8705688
-27.900387,2.747295,2.8685346
-27.937508,2.7463715,2.8629417
-27.976782,2.7487683,2.8621526
-28.0149,2.749669,2.8593173
-28.051563,2.7485273,2.85365
-28.086489,2.744794,2.8443594
-28.122139,2.7422326,2.8368096
-28.149143,2.7257173,2.8093815
-28.146324,2.659461,2.7108145
-28.159998,2.6185808,2.6485138
-28.17703,2.5820255,2.5923991
-28.058538,2.3067915,2.1939526
-28.089626,2.2878551,2.16287
-28.119884,2.266798,2.1287856
-28.09955,2.1507916,1.9582629
-28.08566,2.0422382,1.7983136
-28.228043,2.2329855,2.0690422
-28.265148,2.2231634,2.0513363
-28.29784,2.2040992,2.0203757
-28.244541,2.0053864,1.7303829
-28.255348,1.9339626,1.6238041
-28.277737,1.8845243,1.5489335
-28.264156,1.7523592,1.354548
-28.257687,1.6299553,1.1741447
-28.260834,1.5239902,1.0174131
-28.24628,1.369781,0.7907934
-28.27156,1.3062305,0.6953006
-38.576683,0.64710236,0.7082195
-38.44589,0.7824683,0.89877033
-38.446606,0.83411956,0.9832282
-38.491364,0.8581245,1.0328808
-38.41954,0.9527037,1.1709113
-38.348175,1.0454869,1.3062444
-38.382538,1.073947,1.3611679
-38.401855,1.1110513,1.4268527
-38.368465,1.1784911,1.5299807
-38.3907,1.2128646,1.5921392
-38.364906,1.2743554,1.6875563
-38.36936,1.3178811,1.7607789
-38.368595,1.3638344,1.8368716
-38.398705,1.3921163,1.8914084
-38.434433,1.4171131,1.9420147
-38.439323,1.4587476,2.0127344
-38.44965,1.4970007,2.0793147
-38.563164,1.4798269,2.079587
-38.601345,1.503134,2.1285229
-38.65082,1.5204368,2.1704283
-39.658733,1.2739029,2.0201478
-38.509224,1.8808899,2.74327
-38.356495,1.9940515,2.894856
-38.42102,2.0012233,2.9247708
-38.449745,2.0256102,2.9744534
-38.49442,2.04238,3.0156012
-38.533943,2.0615788,3.0596213
-38.50493,2.1123877,3.1390595
-38.519676,2.1425805,3.1953459
-38.612717,2.1371162,3.2122273
-38.64599,2.158907,3.2594728
-38.688965,2.1763315,3.3020406
-38.738403,2.190941,3.3416977
-38.803642,2.1987553,3.3742008
-38.887398,2.1988025,3.398643
-38.96272,2.2028203,3.4277048
-39.074623,2.1916595,3.4410114
-39.1526,2.1953073,3.4704685
-39.247707,2.1921606,3.4931722
-39.367863,2.1791697,3.5061035
-39.51417,2.1561766,3.5093188
-39.641853,2.1415348,3.521863
-39.79589,2.117063,3.525064
-39.86842,2.1256955,3.5625353
-39.782543,2.196587,3.6627722
-39.83155,2.2142386,3.709422
-39.905834,2.222265,3.7467756
-39.957954,2.2389848,3.7930026
-40.019577,2.2522283,3.8360815
-40.0899,2.262402,3.876494
-40.162766,2.271875,3.9165845
-40.244442,2.278382,3.9542356
-40.35202,2.2758343,3.9838233
-40.418335,2.2885711,4.028197
-41.616863,1.8999116,3.7038317
-41.672337,1.9208548,3.760013
-41.69852,1.952079,3.8257174
-41.66613,2.0033636,3.909378
-41.665756,2.0432336,3.9826584
-41.660233,2.0845644,4.057108
-41.6907,2.1135702,4.1207943
-41.72074,2.1426573,4.184659
-42.125492,2.04909,4.1453824
-42.397026,2.0011077,4.146688
-42.704338,1.9431983,4.1416316
-42.993935,1.8926711,4.144601
-43.317627,1.8330717,4.142265
-43.631893,1.7782421,4.1458797
-43.992554,1.7109134,4.1419477
-44.44188,1.6186552,4.121471
-44.84001,1.544411,4.117707
-45.257847,1.4665518,4.1140847
-45.721756,1.3774726,4.105288
-46.133114,1.3063498,4.1126804
-46.707546,1.190465,4.0916514
-47.146385,1.1165583,4.103782
-47.78202,0.98951197,4.083291
-48.438126,0.86035895,4.066213
-49.14416,0.7211187,4.047614
-49.84037,0.5885484,4.0386868
-21.302555,1.9557829,2.8904505
-21.383577,1.9537764,2.8648548
-21.486645,1.9623036,2.8516698
-21.595995,1.9743104,2.842939
-21.722084,1.9948161,2.844522
-21.938173,2.0589325,2.8974009
-21.947178,2.0251203,2.8368363
-22.087212,2.0546005,2.8505392
-22.170835,2.0573635,2.833353
-22.240847,2.053789,2.8089943
-22.48381,2.1369207,2.8880363
-22.52312,2.1192484,2.8477888
-20.614315,1.10883,1.6169028
-22.86182,2.217688,2.9287324
-21.45596,1.4503078,1.9829926
-21.666306,1.5162506,2.0417614
-21.677309,1.4782343,1.9747863
-21.686646,1.438942,1.9062033
-21.682957,1.3921986,1.8284173
-21.70878,1.3610058,1.769671
-23.437698,2.2682981,2.87121
-23.481045,2.2556748,2.839591
-23.569202,2.2682853,2.839507
-23.64594,2.2749543,2.832336
-23.741615,2.2929025,2.8395767
-23.818567,2.3006504,2.8343582
-23.898937,2.3108325,2.8324862
-23.983376,2.323903,2.8345604
-24.063171,2.334739,2.8341055
-24.363804,2.4792256,3.0040712
-24.47588,2.512065,3.032784
-24.540567,2.5166733,3.0257788
-24.612125,2.5258968,3.0249186
-24.684132,2.5358405,3.0252333
-24.748234,2.5412211,3.019905
-24.816994,2.5499418,3.019112
-24.877968,2.554044,3.0125551
-24.953102,2.5677357,3.0186796
-25.015034,2.573223,3.0143528
-25.076117,2.5784924,3.0099416
-25.132349,2.5808325,3.0018816
-25.19776,2.589714,3.0025978
-25.258312,2.5956635,2.9996605
-25.31868,2.6018384,2.9972115
-25.380808,2.6096106,2.9970665
-25.433033,2.6107228,2.988277
-25.48645,2.6129398,2.9811091
-25.53912,2.6148822,2.973733
-25.59295,2.6179376,2.9679966
-25.651045,2.6244452,2.967042
-25.693382,2.6194744,2.9508562
-25.730818,2.6108801,2.929905
-25.756716,2.5934463,2.8971272
-25.776821,2.571335,2.8580709
-25.817223,2.5648801,2.8402128
-25.869064,2.567579,2.8348622
-25.921383,2.5709329,2.830546
-25.985346,2.5840375,2.8396459
-26.031462,2.5829802,2.829628
-26.10128,2.6018145,2.846902
-26.153427,2.6064281,2.8449297
-26.20314,2.6092827,2.8406906
-26.260637,2.619108,2.8461561
-26.310041,2.622317,2.8426843
-26.362648,2.6286242,2.8436127
-26.41177,2.6321719,2.8408756
-26.46675,2.6412916,2.845971
-26.517168,2.6466622,2.8460264
-26.564749,2.6497307,2.8430228
-26.616972,2.6574175,2.8465576
-26.66898,2.665285,2.850482
-26.717659,2.6703413,2.850628
-26.766691,2.6760588,2.8518233
-26.814533,2.680938,2.851973
-26.857693,2.6814537,2.846139
-26.909752,2.6911702,2.8533
-26.954166,2.693492,2.850222
-27.008718,2.7065847,2.8623867
-27.054266,2.7107356,2.8621159
-27.09872,2.7140152,2.8607292
-27.144474,2.7189662,2.8618064
-27.188675,2.7225313,2.8610377
-27.23183,2.7252111,2.8591237
-27.276705,2.7300801,2.8604093
-27.32233,2.7361212,2.8634653
-27.364668,2.738699,2.861714
-27.409101,2.743992,2.8639202
-27.454247,2.7504618,2.8679047
-27.501352,2.7596724,2.8759012
-27.54145,2.7607138,2.872364
-27.58023,2.7603097,2.8668542
-27.61815,2.7589734,2.8600936
-27.65931,2.7619336,2.8595586
-27.698357,2.7623951,2.8555374
-27.737354,2.7629704,2.8517632
-27.779028,2.7673445,2.8535223
-27.820183,2.7713187,2.8548002
-27.86235,2.7770028,2.858626
-27.903612,2.7817569,2.861209
-27.945103,2.787167,2.8648272
-27.981733,2.785795,2.8587627
-28.01978,2.786654,2.85599
-28.056019,2.784956,2.8496037
-28.088806,2.778016,2.8357158
-28.111183,2.7545726,2.7980194
-28.148375,2.7542,2.7937355
-28.150114,2.6959662,2.7057142
-28.157896,2.6457176,2.6292138
-28.127777,2.5292022,2.4565454
-28.050694,2.3267152,2.158893
-28.081915,2.307871,2.1276927
-28.11889,2.298822,2.1107755
-28.089397,2.1669412,1.9152226
-28.194752,2.2837036,2.0814738
-28.226526,2.2640693,2.0493321
-28.262554,2.2521093,2.0284219
-28.248528,2.1389744,1.8599935
-28.235306,2.022398,1.6864204
-28.25377,1.9673216,1.6025429
-28.270855,1.9067695,1.5106544
-28.260809,1.7832849,1.3267388
-28.25169,1.6558063,1.1368675
-28.254679,1.5501006,0.9787526
-28.248898,1.4179475,0.78183556
-28.265358,1.333451,0.6546416
-38.487083,0.7089002,0.6640315
-38.564163,0.71419406,0.6898012
-38.429626,0.8505347,0.8838229
-38.428085,0.90313196,0.97005224
-38.472027,0.92749476,1.0201707
-38.469643,0.9795058,1.1055145
-38.373207,1.0866678,1.2606068
-38.39173,1.1245034,1.3275762
-38.392097,1.1725094,1.4073267
-38.385765,1.2237816,1.4910684
-38.40661,1.2589002,1.5544653
-38.39421,1.3124537,1.6408362
-38.37417,1.3695827,1.731482
-38.38015,1.4115412,1.8031416
-38.373356,1.4600325,1.8827858
-38.379387,1.5009708,1.9530063
-38.43655,1.5139823,1.9889431
-38.484364,1.5320709,2.0312514
-38.538086,1.5470524,2.0699139
-38.588516,1.5638182,2.1109009
-38.624733,1.587966,2.1609397
-38.597843,1.8497927,2.6003838
-38.549385,1.9130025,2.696103
-38.371696,2.0371351,2.8624964
-38.41932,2.0525596,2.9017344
-38.443157,2.0791922,2.95407
-38.454338,2.111543,3.01301
-38.43714,2.156678,3.086536
-38.48341,2.172395,3.1264067
-38.452602,2.222928,3.2058425
-38.603516,2.1916788,3.1929379
-38.635918,2.2138143,3.2405453
-38.673847,2.2334657,3.285472
-38.723248,2.2481294,3.3249888
-38.782562,2.2586176,3.3600912
-38.854443,2.2639303,3.3897638
-38.929684,2.2680986,3.4185014
-39.029613,2.2622623,3.4367485
-39.07242,2.2805293,3.4813757
-39.136414,2.290157,3.5169296
-39.26056,2.2756107,3.5271063
-39.32972,2.2838097,3.5618806
-39.57475,2.2223606,3.524055
-39.710403,2.2055545,3.5339684
-39.859474,2.1842656,3.539958
-39.76472,2.257892,3.643969
-39.822475,2.27224,3.6870508
-39.87739,2.2878046,3.731615
-39.94005,2.300596,3.7736406
-40.001648,2.3139606,3.8165226
-40.073734,2.3236485,3.8560681
-40.142136,2.3349276,3.897519
-40.21665,2.3442302,3.937389
-40.32332,2.3423388,3.9668937
-40.39319,2.3539276,4.009788
-40.495354,2.354466,4.0426292
-41.67429,1.9831796,3.7293348
-41.643375,2.0339313,3.813108
-41.655323,2.0696647,3.8828583
-41.654903,2.1093533,3.9561648
-41.673992,2.142293,4.023333
-41.688934,2.176458,4.0916133
-41.69419,2.2136097,4.1625104
-41.985096,2.1586099,4.153733
-42.305397,2.0959263,4.140271
-42.4944,2.0764918,4.165345
-42.893097,1.9926337,4.138032
-43.16667,1.9497396,4.1470056
-43.57021,1.8686652,4.1268888
-43.83309,1.8324392,4.1452975
-44.325447,1.7290182,4.112652
-44.681515,1.6687856,4.116865
-45.01772,1.6163526,4.12949
-45.54078,1.5116663,4.1053033
-46.007713,1.4260552,4.098911
-46.542744,1.3237832,4.083821
-46.999607,1.2464428,4.0903416
-47.504765,1.1582472,4.0926375
-48.15428,1.033294,4.0735636
-48.849968,0.89949155,4.053458
-49.5196,0.7765882,4.045783
-50.29174,0.63025355,4.0282464
-21.079441,1.953223,2.815833
-21.317932,2.02033,2.8701239
-21.431824,2.032922,2.862059
-21.52412,2.0363061,2.843709
-21.660295,2.060333,2.8500133
-21.76997,2.0728939,2.84337
-21.90601,2.0984445,2.8526049
-22.031834,2.1200244,2.857699
-22.12112,2.1249022,2.8433318
-22.200663,2.1255198,2.8241963
-22.379375,2.1749039,2.8642597
-22.484358,2.1892679,2.8626413
-20.502193,1.1654084,1.5972619
-20.551212,1.1426413,1.5460386
-22.87433,2.2742121,2.9116788
-22.941023,2.2718644,2.891325
-23.134285,2.3353157,2.9525805
-23.185682,2.3261669,2.9245539
-23.24711,2.3224409,2.9034457
-23.309292,2.3193471,2.883336
-23.38507,2.3238184,2.8729277
-23.441864,2.3183532,2.8502817
-23.517403,2.3233745,2.841066
-23.609152,2.3377867,2.8440208
-23.69239,2.3480124,2.8419929
-23.778301,2.3602438,2.842826
-23.859495,2.370312,2.8412023
-23.944057,2.3828115,2.842989
-24.018156,2.389737,2.8379006
-24.086275,2.3935564,2.8290567
-24.377,2.5302632,2.992557
-24.47555,2.5544457,3.0111122
-24.543818,2.5609822,3.0070415
-24.614697,2.5695102,3.0058017
-24.681137,2.575714,3.0017557
-24.742516,2.579124,2.994258
-24.814116,2.5893226,2.995895
-24.872398,2.59146,2.9871268
-24.942158,2.601305,2.9887414
-25.006231,2.6078808,2.986246
-25.065386,2.6115892,2.9801402
-25.12239,2.614177,2.9727216
-25.179935,2.6174195,2.9663491
-25.235367,2.619522,2.9586234
-25.291992,2.6227257,2.9525394
-25.353043,2.629303,2.9511647
-25.400318,2.6265633,2.9374065
-25.450148,2.625805,2.9264536
-25.505655,2.6293347,2.9214506
-25.561024,2.633063,2.9168773
-25.611855,2.6337616,2.908341
-25.664473,2.6360226,2.9020734
-25.712032,2.634752,2.891129
-25.74544,2.6229253,2.8658586
-25.774153,2.6074438,2.8356423
-25.841164,2.6215656,2.846158
-25.892841,2.6241808,2.8410325
-25.949749,2.6312222,2.8421516
-26.00409,2.6365728,2.841096
-26.060009,2.6435397,2.8424273
-26.11456,2.6497529,2.8428679
-26.16892,2.6561575,2.8437243
-26.220236,2.660355,2.841659
-26.272533,2.6656916,2.8413153
-26.325779,2.6721728,2.8427105
-26.378273,2.6783564,2.8438315
-26.428928,2.6832647,2.8433065
-26.4816,2.6902933,2.8458872
-26.532988,2.6965275,2.8474917
-26.58472,2.7034283,2.8501673
-26.632015,2.70658,2.8476944
-26.678663,2.709395,2.844863
-26.727272,2.7143362,2.8451529
-26.776234,2.7199342,2.8464942
-26.825533,2.7261922,2.8488946
-26.869104,2.7271442,2.843885
-26.92257,2.7382073,2.853352
-26.978216,2.751957,2.8667846
-27.01839,2.750366,2.8584952
-27.06096,2.7514074,2.8540516
-27.107754,2.757114,2.8563728
-27.154375,2.7629738,2.8590264
-27.193354,2.7608867,2.8504071
-27.236938,2.763987,2.8493109
-27.281776,2.7687502,2.8507023
-27.327366,2.7746751,2.8538704
-27.372782,2.7807474,2.8573565
-27.416702,2.78543,2.8589463
-27.469162,2.8005133,2.8756428
-27.540129,2.838406,2.9254112
-27.61702,2.884821,2.9877024
-27.674488,2.908822,3.0177765
-27.7149,2.9123344,3.0183187
-27.75275,2.9128594,3.014617
-27.79015,2.9129755,3.0104017
-27.826712,2.912159,3.0049086
-27.861298,2.9088385,2.9958472
-27.895529,2.9050891,2.9862294
-27.930561,2.9024792,2.9783368
-27.963366,2.8968177,2.966062
-27.997358,2.8928173,2.9562712
-28.028135,2.8841689,2.9397535
-28.052284,2.8655744,2.9087443
-28.069775,2.8364534,2.8623595
-28.094759,2.8179216,2.8314853
-28.121464,2.8015528,2.803812
-28.14715,2.7831106,2.7731333
-28.15711,2.738657,2.7042985
-28.158316,2.6781893,2.6119108
-28.115166,2.540827,2.4064121
-28.086142,2.4223878,2.2285385
-28.077034,2.3342044,2.095045
-28.11502,2.3267846,2.0804462
-28.038862,2.110736,1.7583218
-28.194529,2.318139,2.060585
-28.228867,2.3034801,2.0355024
-28.26459,2.2910514,2.0137668
-28.248878,2.175667,1.8399105
-28.237747,2.0644243,1.6720567
-28.257978,2.0135946,1.593492
-28.274216,1.9519312,1.4988866
-28.255426,1.8105516,1.2861643
-28.250763,1.6939337,1.1100063
-28.249063,1.5782661,0.935164
-28.25397,1.4722655,0.77458
-28.267845,1.3825066,0.6380439
-38.478455,0.7267575,0.553864
-38.440872,0.8038416,0.6733432
-38.54646,0.7914624,0.6755419
-38.366432,0.9540043,0.90622425
-38.413464,0.97647,0.9538164
-38.437294,1.0127218,1.0193863
-38.37068,1.1021433,1.1537042
-38.39351,1.1377294,1.218204
-38.41429,1.1741555,1.2837782
-38.38256,1.2403715,1.3875132
-38.4261,1.2628405,1.4351125
-38.388737,1.3307614,1.5406818
-38.404415,1.3681421,1.6072111
-38.3724,1.4314563,1.7065139
-38.36931,1.4780798,1.7845197
-38.359383,1.5278411,1.8663521
-38.363777,1.5693126,1.9376554
-38.41476,1.5856211,1.9774818
-38.454796,1.6077182,2.0246482
-38.44674,1.6547453,2.102786
-38.559433,1.6390569,2.1033916
-38.58849,1.6666679,2.1576738
-38.565857,1.9235425,2.5936308
-38.564564,1.9635684,2.6625443
-38.51985,2.023643,2.7551966
-38.450615,2.0943587,2.8601227
-38.402138,2.1544702,2.9521112
-38.455612,2.16712,2.9881
-38.44328,2.2097044,3.0592103
-38.450027,2.2432623,3.1196852
-38.45128,2.278973,3.1825924
-38.539997,2.27586,3.200786
-38.62217,2.2760246,3.2231083
-38.665066,2.2935047,3.2654753
-38.697636,2.3154287,3.3130102
-38.74675,2.3302987,3.3526955
-38.83038,2.3307939,3.3764787
-38.88262,2.3446808,3.4155226
-38.984146,2.338434,3.4325047
-39.06102,2.342724,3.4615374
-39.18168,2.3296847,3.471982
-39.28194,2.325435,3.4925504
-39.398758,2.3151312,3.5070662
-39.501926,2.3107767,3.5285244
-39.65049,2.2893455,3.5323148
-39.733967,2.29371,3.5641155
-39.745575,2.325696,3.625276
-39.789223,2.3454394,3.673667
-39.843166,2.361392,3.7183065
-39.900433,2.3762405,3.7620416
-39.966373,2.388071,3.802956
-40.033936,2.3995225,3.8437915
-40.102253,2.4109263,3.8848972
-40.205322,2.4102573,3.9143472
-40.256386,2.4282765,3.9627213
-40.348595,2.4321299,3.9975085
-40.439873,2.4366941,4.033465
-41.60801,2.0758533,3.720172
-41.637638,2.1056428,3.784388
-41.648636,2.1415606,3.8544455
-41.663666,2.175955,3.923061
-41.6727,2.2121377,3.993322
-41.665615,2.253318,4.068089
-41.679054,2.287641,4.136551
-41.81358,2.2835512,4.170869
-42.151295,2.216591,4.1507726
-42.378956,2.1856437,4.164086
-42.737854,2.1157734,4.1454997
-42.99551,2.078639,4.1569366
-43.33568,2.018199,4.150606
-43.74019,1.9406228,4.1324368
-44.095257,1.879865,4.1306286
-44.479282,1.8127041,4.1261053
-44.86234,1.7479827,4.1261287
-45.367676,1.6507106,4.103598
-45.8328,1.5676055,4.0954037
-46.30373,1.4855049,4.0912504
-46.746353,1.4138036,4.098102
-47.29418,1.3159952,4.089303
-47.90306,1.20487,4.075082
-48.53328,1.091496,4.063804
-49.215378,0.9680357,4.0503864
-49.897972,0.84825015,4.0445657
-50.80094,0.675771,4.0097466
-51.425247,0.5789416,4.029872
-21.127586,2.0376017,2.8120794
-21.32148,2.083871,2.8441248
-21.456005,2.1050909,2.847239
-21.59415,2.1287475,2.8538494
-21.75462,2.1633744,2.874236
-21.893229,2.1890666,2.8845444
-21.96006,2.1824756,2.8563137
-22.059158,2.1911764,2.8469396
-22.149982,2.1965148,2.8338494
-22.273361,2.2178133,2.8407078
-22.482903,2.2813077,2.900093
-22.585901,2.2946894,2.8983665
-22.66729,2.2980824,2.884632
-22.782242,2.3184981,2.892437
-22.839754,2.3109262,2.8656545
-22.920622,2.3153276,2.8541074
-23.010593,2.3247855,2.8492346
-23.106447,2.3377845,2.8491793
-23.193548,2.3468056,2.8444319
-23.284956,2.3585851,2.8435197
-23.366201,2.3655162,2.8367438
-23.448734,2.373583,2.8317137
-23.534025,2.3836071,2.8294992
-23.619034,2.3939793,2.8280382
-23.711168,2.4087958,2.8326397
-23.79334,2.418644,2.8311133
-23.878168,2.4304771,2.8324647
-23.958303,2.4401646,2.831306
-24.037437,2.4497561,2.8302965
-24.10548,2.4533758,2.8217025
-24.242207,2.4976773,2.8669977
-24.37797,2.5425904,2.913618
-24.478031,2.5673003,2.93395
-24.56132,2.5826247,2.9421554
-24.63862,2.5948632,2.9465284
-24.684284,2.5880556,2.9256916
-24.79432,2.6215644,2.959024
-24.86512,2.6312635,2.960751
-24.919262,2.6307888,2.948998
-24.969267,2.6278825,2.9341178
-25.017235,2.6238306,2.9178252
-25.071234,2.6239033,2.90726
-25.12848,2.6263783,2.9001155
-25.19485,2.6352775,2.901895
-25.245876,2.6341767,2.890215
-25.302063,2.6368313,2.8838167
-25.362648,2.6428308,2.8821688
-25.414047,2.6427426,2.8723269
-25.466652,2.6437356,2.8641138
-25.518528,2.6444578,2.8556705
-25.567806,2.6435356,2.8450928
-25.63387,2.6551254,2.8519912
-25.6891,2.6591656,2.848597
-25.737423,2.6583364,2.8385777
-25.794224,2.6641362,2.8379269
-25.845394,2.665967,2.8318887
-25.902454,2.672624,2.8327389
-25.95931,2.6794868,2.8340344
-26.016544,2.6870208,2.836429
-26.0718,2.6933522,2.8372884
-26.124535,2.6979942,2.835915
-26.179409,2.7047107,2.8376083
-26.231224,2.7092497,2.836369
-26.282879,2.7139673,2.835516
-26.338295,2.7222018,2.839788
-26.387365,2.72537,2.8370047
-26.439058,2.731102,2.8379946
-26.489477,2.7360492,2.837997
-26.540812,2.7421331,2.8397503
-26.58821,2.745005,2.83704
-26.636017,2.7485175,2.8353624
-26.68789,2.7560833,2.8396134
-26.734344,2.7589467,2.8372416
-26.785313,2.7663662,2.8415332
-26.833519,2.7715065,2.842669
-26.881557,2.776807,2.844153
-26.93442,2.7872007,2.8531055
-26.981571,2.7923374,2.8545914
-27.025627,2.7946534,2.8521066
-27.069096,2.796612,2.8492036
-27.115814,2.802196,2.8516588
-27.160944,2.8064337,2.8522682
-27.297523,2.9089866,2.9959817
-27.36395,2.938349,3.0335493
-27.404587,2.9402893,3.031323
-27.445131,2.9423552,3.0293674
-27.487366,2.946568,3.0306377
-27.52462,2.9453406,3.024045
-27.559677,2.941683,3.013969
-27.596058,2.9396484,3.0063405
-27.638794,2.9453676,3.0101628
-27.678432,2.947645,3.0090237
-27.716324,2.9479938,3.0051327
-27.753757,2.9479403,3.0007272
-27.791952,2.9490242,2.9980721
-27.830082,2.95022,2.9956622
-27.865797,2.948431,2.988923
-27.901508,2.9467413,2.9824
-27.937595,2.9456701,2.976859
-27.970673,2.9405456,2.9653916
-28.004189,2.9360273,2.9548807
-28.039213,2.933682,2.9476514
-28.069252,2.9241235,2.9297857
-28.09559,2.908882,2.903531
-28.118073,2.8874044,2.8680449
-28.128061,2.8460164,2.8029733
-28.132221,2.7940817,2.7221837
-28.15161,2.7647226,2.6749706
-28.173859,2.739066,2.6332831
-28.087818,2.5322793,2.3214808
-28.090034,2.467256,2.220891
-28.090267,2.3963218,2.1114187
-28.106106,2.350228,2.039003
-28.045254,2.163855,1.7568064
-28.196337,2.3606756,2.0477138
-28.22498,2.33546,2.0066257
-28.260777,2.3230953,1.9848213
-28.245878,2.2103834,1.8126483
-28.249311,2.1295893,1.6882305
-28.258106,2.0562067,1.5748792
-28.268473,1.9827642,1.4613967
-28.251947,1.8475275,1.2550421
-28.251156,1.7405846,1.0910883
-28.246305,1.6189959,0.9050293
-28.255116,1.5231247,0.7575741
-28.268454,1.4331105,0.6188855
-38.429775,0.7720008,0.47195673
-38.41036,0.8377342,0.57766104
-38.43512,0.8753371,0.6456075
-38.46697,0.90823245,0.7072797
-38.501102,0.9394586,0.7667613
-38.384724,1.060139,0.9447737
-38.405506,1.0978191,1.0125284
-38.429253,1.1333783,1.0774732
-38.396694,1.2011378,1.184711
-38.412384,1.2402933,1.2542372
-38.376194,1.3084214,1.3615575
-38.39763,1.3432357,1.4252458
-38.37928,1.3998082,1.5171633
-38.39414,1.437365,1.5842953
-38.35154,1.5058048,1.6912189
-38.33853,1.557308,1.7760777
-38.32009,1.6110497,1.863646
-38.3478,1.63972,1.9190154
-38.38345,1.6640337,1.968873
-38.424866,1.6852455,2.014864
-38.4598,1.7097247,2.0650787
-38.530006,1.7161913,2.0926828
-38.611084,1.7174373,2.1139727
-38.63121,1.7493517,2.173874
-38.69091,1.7615197,2.2091923
-38.61339,2.0006895,2.6062202
