x,y,z
-27.770046,3.367716,1.8850989
-27.809887,3.3640215,1.8770237
-27.852549,3.363606,1.8759708
-27.883423,3.3498044,1.8462634
-27.922403,3.345223,1.8362975
-27.987404,3.3718696,1.8931937
-28.0293,3.3715587,1.8923793
-28.062773,3.3609483,1.869515
-28.094896,3.3484056,1.842514
-28.139385,3.351622,1.8492613
-28.195251,3.3702884,1.8890944
-28.235899,3.3693523,1.8869562
-28.276209,3.368124,1.8841953
-28.305035,3.350789,1.8469467
-28.347471,3.3525946,1.850688
-28.40214,3.3728297,1.893899
-28.442455,3.3724613,1.8929925
-28.480616,3.3689377,1.8853316
-28.509573,3.3507938,1.8463607
-28.554295,3.357685,1.8610086
-28.607327,3.3790643,1.9066911
-28.6506,3.3850076,1.9193168
-28.686422,3.3783226,1.9048986
-28.72261,3.3721378,1.8915539
-28.761795,3.3714054,1.8898907
-28.807186,3.3827596,1.9141188
-28.849268,3.3884578,1.9262347
-28.887482,3.3868203,1.9226408
-28.920967,3.3753293,1.8979435
-28.959131,3.373465,1.893868
-29.000635,3.379183,1.9060383
-29.044432,3.3908434,1.9309416
-29.084045,3.3934665,1.9364877
-29.118536,3.3836846,1.9154634
-29.152628,3.3723154,1.8910394
-29.193975,3.3798296,1.9070725
-29.23923,3.399172,1.9484463
-29.277756,3.4006472,1.9515467
-29.31293,3.3921683,1.9333258
-29.34662,3.3783233,1.9036107
-29.38404,3.3758874,1.8983402
-29.424103,3.3827872,1.9130721
-29.465508,3.3956797,1.9406471
-29.502798,3.3939688,1.9369378
-29.536917,3.378887,1.904583
-29.575201,3.3807282,1.9084892
-29.613234,3.3818274,1.9108062
-29.654642,3.4007297,1.951271
-29.691706,3.3986607,1.9468069
-29.726522,3.382764,1.9127183
-29.763556,3.378769,1.9041328
-29.800688,3.3748686,1.8957515
-29.839449,3.383734,1.9147253
-29.879019,3.402842,1.9556446
-29.916588,3.4064198,1.9632936
-29.952835,3.3944542,1.937643
-29.989767,3.3880768,1.9239669
-30.027363,3.3919413,1.9322381
-30.06517,3.4056296,1.9615583
-30.10242,3.41138,1.9738755
-30.13942,3.3994634,1.9483409
-30.17675,3.3889108,1.9257317
-30.214231,3.3847985,1.916924
-30.25175,3.3828974,1.9128566
-30.288198,3.4022346,1.9542947
-30.325611,3.3992548,1.9479213
-30.363604,3.3904552,1.9290805
-30.401653,3.383868,1.9149833
-30.439617,3.3799155,1.9065323
-30.475311,3.395068,1.9390163
-30.51099,3.4073505,1.9653554
-30.549732,3.3977754,1.9448657
-30.584682,3.41235,1.9761186
-30.621168,3.4164662,1.9849682
-30.665684,3.3797936,1.9064293
-30.701654,3.3883278,1.9247494
-30.737877,3.3948452,1.9387507
-30.774033,3.4010322,1.9520464
-30.80808,3.4148777,1.9817505
-30.846441,3.411574,1.9747176
-30.8842,3.4108918,1.9733043
-30.92504,3.400239,1.9505324
-30.962236,3.4022784,1.9549537
-30.99635,3.4136295,1.9793262
-31.032627,3.4179447,1.9886279
-31.071827,3.4139886,1.9802132
-31.114628,3.4009478,1.9523396
-31.150831,3.4059784,1.9631815
-31.182697,3.4215226,1.9965477
-31.218353,3.427139,2.0086498
-31.25479,3.4307637,2.0164871
-31.293032,3.4303262,2.015624
-31.332293,3.4279149,2.0105376
-31.369873,3.4293427,2.0136762
-42.41781,2.6384661,0.3901477
-42.44596,2.675268,0.46969128
-42.50581,2.7035594,0.5311942
-42.531147,2.74093,0.6119499
-42.631252,2.7589383,0.6516781
-42.627243,2.8037126,0.74812746
-42.74839,2.8168519,0.7775693
-42.94323,2.8123515,0.76968575
-43.1317,2.810428,0.767303
-43.219505,2.8336048,0.8180852
-43.261612,2.8678691,0.8923435
-43.335697,2.894667,0.95081425
-43.67202,2.861456,0.88240385
-43.9143,2.8514624,0.8631635
-44.326714,2.804836,0.76656485
-44.30507,2.8559837,0.87665033
-44.269978,2.9096076,0.99195147
-45.043026,2.7904027,0.7423248
-45.080173,2.8304305,0.8290143
-45.23828,2.8453896,0.86281395
-45.187866,2.9035332,0.98774195
-45.597363,2.8688686,0.91695976
-45.674107,2.9021688,0.9895501
-45.944473,2.8980632,0.98334694
-46.242912,2.8899987,0.96888447
-46.369026,2.9159102,1.0260406
-46.47845,2.9454145,1.0907907
-47.306713,2.84454,0.88132
-47.47468,2.8665576,0.9305091
-47.53991,2.9073923,1.0192947
-47.703857,2.9312868,1.0725102
-49.704445,2.7599223,0.72268677
-49.695446,2.8189785,0.8501029
-50.08914,2.8140616,0.8434715
-50.519413,2.8055065,0.8293638
-50.922333,2.8033557,0.8288188
-51.329803,2.8025985,0.8313389
-51.793884,2.7956383,0.8210473
-52.29306,2.7860441,0.8054352
-52.83605,2.77288,0.78257084
-53.342064,2.7676492,0.7764721
-53.82228,2.768514,0.783288
-54.45151,2.7521286,0.7543826
-14.934615,2.9441385,0.818316
-15.028154,2.9148922,0.75515366
-15.364049,2.9356236,0.8015871
-16.233257,3.0692177,1.0954685
-16.350304,3.0491412,1.05232
-16.439873,3.0236464,0.9972806
-16.486279,2.9890485,0.9222803
-16.542889,2.9567242,0.8522606
-16.884064,2.9883509,0.9223771
-17.098398,2.9930577,0.9334712
-17.292856,2.9943087,0.93697214
-17.512894,3.0025702,0.9558115
-17.58294,2.9763443,0.89908504
-18.538692,3.1640205,1.3108315
-18.651804,3.151737,1.2845788
-18.242044,3.010164,0.9752135
-18.662237,3.074341,1.1163778
-18.834663,3.07793,1.1248555
-19.06002,3.0961325,1.1653075
-19.159252,3.0825508,1.1361666
-19.197815,3.0532415,1.0725956
-19.267862,3.0323887,1.0275302
-19.489353,3.0531104,1.0734344
-19.90039,3.1276326,1.2370377
-20.03447,3.1271644,1.2365313
-20.200357,3.1364307,1.2573104
-20.299828,3.1274943,1.238255
-20.44583,3.13258,1.2498646
-20.599447,3.1407187,1.2681384
-20.703775,3.1349502,1.2559843
-20.823252,3.1342692,1.2549477
-20.932735,3.131126,1.2485175
-21.060364,3.134173,1.2556138
-21.204277,3.1430464,1.2754402
-21.31982,3.1436808,1.2772412
-21.446054,3.1483774,1.2879167
-21.592228,3.1603098,1.3143964
-21.743969,3.174962,1.3468113
-21.93072,3.2023153,1.4069753
-22.093897,3.222879,1.4522862
-22.202251,3.2255912,1.45857
-22.286467,3.2204645,1.4477148
-22.445976,3.2423391,1.4958577
-22.540098,3.2418604,1.4951453
-22.645248,3.245862,1.5042152
-22.713238,3.2368119,1.4847631
-22.834915,3.2479649,1.5094442
-22.905529,3.2406602,1.4937944
-23.035099,3.256095,1.5278139
-23.07077,3.236165,1.4845748
-23.209602,3.256467,1.5292125
-23.271418,3.2472813,1.5094337
-23.35847,3.248408,1.5121741
-23.469597,3.2597497,1.5372186
-23.51031,3.2429254,1.5007463
-23.639774,3.2629576,1.5447574
-23.68676,3.2492368,1.5150537
-23.793346,3.2609525,1.5408897
-23.881271,3.265327,1.5506907
-23.919104,3.2483647,1.5139008
-24.015514,3.2572465,1.5335336
-24.114832,3.268043,1.5573406
-24.176355,3.2623916,1.5452337
-24.274807,3.2739043,1.5705943
-24.326595,3.2644353,1.5501466
-24.395687,3.2632332,1.5477419
-24.5061,3.282022,1.5889702
-24.52611,3.2581184,1.5370054
-24.64664,3.2829869,1.5914927
-24.722372,3.2867227,1.5998492
-24.743366,3.2635453,1.5494637
-24.870323,3.293767,1.6156173
-24.90788,3.27928,1.5841932
-24.960062,3.272357,1.5692749
-25.066286,3.2940047,1.6167006
-25.130379,3.2941136,1.6171217
-25.160645,3.27632,1.5784726
-25.280413,3.30727,1.6461821
-25.353348,3.3134413,1.6598196
-25.356087,3.2807722,1.588707
-25.43063,3.2883174,1.6053381
-25.534704,3.313349,1.6601143
-25.566277,3.297134,1.624898
-25.636232,3.3034432,1.6388197
-25.713833,3.3147957,1.6637421
-25.767685,3.312371,1.6586037
-25.780987,3.2853017,1.5997019
-25.872864,3.3066645,1.6464515
-25.940773,3.3137982,1.6621566
-25.98645,3.3072195,1.6479483
-26.00347,3.2822037,1.5935211
-26.098814,3.3081846,1.6503291
-26.171461,3.3200734,1.676394
-26.201017,3.303518,1.6404166
-26.237677,3.2916408,1.6146417
-26.31679,3.309141,1.6529388
-26.381977,3.3176246,1.671566
-26.403866,3.2957578,1.6239996
-26.506163,3.33168,1.7024632
-26.55587,3.3303385,1.699655
-26.603037,3.327334,1.6932182
-26.633234,3.3117006,1.6592402
-26.690527,3.3166263,1.670094
-26.749905,3.3235822,1.6853728
-26.818754,3.3384821,1.7179713
-26.838089,3.3144417,1.6656551
-26.89588,3.3211887,1.6804719
-26.96146,3.3348296,1.7103186
-27.010925,3.3356435,1.712193
-27.041334,3.320513,1.6793003
-27.082926,3.3148274,1.6670012
-27.154583,3.3356185,1.7124281
-27.200115,3.334014,1.7090225
-27.239315,3.3268619,1.6935196
-27.282324,3.3232305,1.6856918
-27.359068,3.3513358,1.7470546
-27.393982,3.3407753,1.7241168
-27.437008,3.3379548,1.7180529
-27.476505,3.3318007,1.7047186
-27.524143,3.3338344,1.7092333
-27.584862,3.3495216,1.7435112
-27.629366,3.3491695,1.7428217
-27.66351,3.338087,1.7187381
-27.704388,3.3340797,1.7100768
-27.760216,3.3465514,1.7373376
-27.806143,3.3486626,1.7420115
-27.857418,3.3571754,1.7606378
-27.886034,3.339954,1.7231655
-27.922384,3.331432,1.7046576
-27.981108,3.3497977,1.7447572
-28.022202,3.3474333,1.7396669
-28.068954,3.3523042,1.7503471
-28.096004,3.3323333,1.7068772
-28.137821,3.3310783,1.7042012
-28.198336,3.3550196,1.7564449
-28.240572,3.3552384,1.756979
-28.276728,3.3471844,1.7394795
-28.31165,3.3372152,1.7178059
-28.3509,3.3333428,1.7094188
-28.405209,3.352071,1.7502904
-28.44841,3.35488,1.7564635
-28.491463,3.3578124,1.7629032
-28.524605,3.345121,1.73529
-28.563921,3.3422065,1.7289848
-28.616133,3.3612657,1.7705688
-28.660053,3.3671074,1.7833457
-28.694687,3.3568285,1.7609863
-28.732872,3.3527315,1.7520976
-28.773912,3.3540266,1.754961
-28.821947,3.3693018,1.7882915
-28.861786,3.3692055,1.7881188
-28.89824,3.362264,1.773027
-28.939037,3.3644185,1.7777586
-28.973269,3.3523378,1.7514653
-29.020296,3.369061,1.7879434
-29.0611,3.3723686,1.7951837
-29.099934,3.3712647,1.792808
-29.134113,3.3583236,1.7646356
-29.172642,3.3561738,1.7599792
-29.213713,3.361136,1.7708206
-29.258434,3.3773565,1.8061953
-29.298836,3.3821385,1.8166413
-29.329973,3.3580832,1.7642422
-29.368223,3.355611,1.7588773
-29.409222,3.3627632,1.7744846
-29.452545,3.3795588,1.8111076
-29.4906,3.3778157,1.8073282
-29.525797,3.364135,1.7775335
-29.56389,3.36175,1.7723522
-29.602379,3.3611236,1.7710042
-29.641512,3.3639228,1.7771192
-29.687061,3.4030073,1.8623052
-29.722427,3.387719,1.8290019
-29.755716,3.3558664,1.7596016
-29.794056,3.3544865,1.7566042
-29.834087,3.36695,1.7837739
-29.873604,3.3782709,1.8084521
-29.912394,3.3855278,1.8242745
-29.950512,3.3870504,1.8275976
-29.986734,3.3590686,1.7666264
-30.025536,3.3682892,1.7867236
-30.064236,3.3830318,1.8188534
-30.102242,3.3836942,1.8202991
-30.140203,3.3781986,1.8083229
-30.178402,3.3661273,1.7820172
-30.216585,3.3683345,1.7868266
-30.254501,3.375644,1.802753
-30.292364,3.3801315,1.8125277
-30.330482,3.379295,1.8107004
-30.369232,3.3714716,1.7936463
-30.40855,3.360416,1.7695475
-30.446392,3.365296,1.7801728
-30.482538,3.382349,1.8173265
-30.518433,3.3978233,1.851038
-30.556595,3.396322,1.8477554
-30.595392,3.3915915,1.8374348
-30.634186,3.3877954,1.8291492
-30.675728,3.3712182,1.7930102
-30.714062,3.371788,1.7942362
-30.750952,3.3786826,1.8092446
-30.786322,3.3910623,1.836205
-30.822767,3.3981354,1.8516011
-30.861097,3.397842,1.8509407
-30.903578,3.3835719,1.8198228
-30.943962,3.3776977,1.8069983
-30.978685,3.39012,1.8340473
-31.01391,3.4001453,1.8558702
-31.054686,3.3937488,1.8419051
-31.095833,3.3870528,1.8272872
-31.138472,3.3771768,1.8057365
-31.175386,3.382646,1.817627
-31.207088,3.400537,1.8565874
-31.245506,3.40166,1.8590035
-31.280296,3.411085,1.8795123
-31.318792,3.4119902,1.8814521
-31.354399,3.4191334,1.896985
-31.396233,3.4132867,1.8842077
-42.47419,2.7115974,0.32451868
-42.513527,2.7455359,0.398149
-42.559135,2.7778063,0.46812534
-42.604263,2.8101883,0.53834486
-42.708904,2.8276966,0.5759945
-42.76189,2.8583353,0.64238787
-42.83517,2.8840961,0.69809484
-43.077976,2.869461,0.66531754
-43.205196,2.8834538,0.69522524
-43.597706,2.8362858,0.59113264
-43.684834,2.8614702,0.64552116
-43.83497,2.872695,0.6693125
-44.143036,2.8494554,0.6175599
-44.384224,2.842616,0.6017175
-44.396408,2.8865373,0.69712067
-44.487926,2.9133594,0.7550373
-44.795204,2.8952625,0.71445274
-45.054314,2.888794,0.69933224
-45.10402,2.9262414,0.78050137
-45.623383,2.8697817,0.6556711
-45.898342,2.8644316,0.6429062
-45.98469,2.897062,0.713449
-46.0625,2.931578,0.78812027
-46.539886,2.8913736,0.6987729
-46.897537,2.8759217,0.6637025
-47.11152,2.8884459,0.6900139
-47.138374,2.9353685,0.79184103
-47.34041,2.951478,0.8259859
-47.600777,2.95849,0.8401165
-47.852333,2.9682941,0.8603473
-48.34926,2.9385417,0.7936015
-49.627438,2.8415127,0.57737637
-49.76216,2.8776486,0.65528965
-50.344383,2.8451817,0.5822687
-50.81938,2.8321006,0.5518117
-53.403793,2.7087874,0.27280903
-53.437454,2.7705603,0.4068122
-53.953293,2.7674909,0.39789677
-54.31955,2.786749,0.4381156
-14.972343,3.0005202,0.69467163
-15.29551,2.9694476,0.63226604
-15.736282,3.0122278,0.7335119
-15.809087,2.9809763,0.66634893
-16.475632,3.07539,0.88449097
-16.537529,3.0440948,0.81701994
-16.891062,3.0764608,0.89392376
-17.12466,3.084341,0.91515064
-17.364468,3.094877,0.9422884
-17.537228,3.0914493,0.93769217
-17.7547,3.0992312,0.9583993
-17.922125,3.0964513,0.95511293
-18.111534,3.0997522,0.96550894
-18.202461,3.0802758,0.9243355
-18.652798,3.1491659,1.0828071
-18.868721,3.16266,1.1159554
-18.973389,3.1493406,1.0884762
-19.121986,3.1476877,1.0872874
-19.193508,3.126824,1.0427036
-19.250956,3.1024706,0.9902272
-19.308699,3.0783014,0.9381509
-19.350082,3.0498233,0.87634754
-19.844563,3.1453178,1.0938039
-20.086372,3.174078,1.1607819
-20.197811,3.167684,1.1485281
-20.30413,3.1603541,1.1341314
-20.392338,3.1482847,1.1090364
-20.492687,3.1401205,1.0926952
-20.529064,3.1134415,1.0346975
-20.61412,3.1013346,1.0094442
-20.644714,3.0729866,0.9476738
-20.706861,3.0542662,0.907526
-20.77554,3.0377347,0.87227774
-20.8325,3.0176969,0.82913876
-20.87319,2.9925513,0.7745228
-20.851715,2.947196,0.67455626
-20.937057,2.9364057,0.65213776
-20.911644,2.8890715,0.5477452
-21.68144,3.1093225,1.0432868
-20.85022,2.7889547,0.32680273
-22.044086,3.1614845,1.1633224
-22.120579,3.1526628,1.1450591
-22.190977,3.141985,1.1226163
-22.42045,3.1887043,1.228684
-22.54297,3.1982129,1.2513714
-22.609232,3.1877396,1.2292962
-22.710194,3.1904378,1.2366796
-22.788757,3.1852312,1.2263494
-22.86791,3.1805997,1.2172856
-22.951988,3.1782339,1.2132673
-23.046665,3.1804335,1.2194357
-23.301632,3.1783388,1.2183642
-23.874489,3.2137477,1.30405
-23.972803,3.222938,1.3255863
-24.063192,3.2291994,1.3405609
-24.15983,3.2388606,1.3630991
-24.248634,3.2455466,1.3789759
-24.320522,3.2448921,1.3784585
-24.419031,3.2571845,1.4067965
-24.496792,3.2602358,1.4145055
-24.583267,3.2679598,1.4326129
-24.681458,3.2819943,1.4647675
-24.7523,3.2831585,1.4682121
-24.816582,3.2814076,1.4651442
-24.889471,3.2843516,1.4725237
-24.962683,3.287887,1.4812055
-25.023863,3.2855697,1.4768329
-25.097755,3.2902663,1.48807
-25.157345,3.2877517,1.4832306
-25.218014,3.2860942,1.4802895
-25.30959,3.3017337,1.5158472
-25.357265,3.293638,1.4985433
-25.405582,3.2860162,1.4822869
-25.499939,3.304861,1.524929
-25.550823,3.2993217,1.5132813
-25.582233,3.2825112,1.4765468
-25.692245,3.3123505,1.543601
-25.750025,3.311796,1.5430121
-25.76976,3.2882822,1.4913397
-25.841915,3.2969089,1.5111551
-25.914188,3.3061457,1.5323138
-25.974094,3.3080668,1.5371885
-25.995682,3.2856185,1.487865
-26.081541,3.3048785,1.5312729
-26.143509,3.3091261,1.5412874
-26.189562,3.3030834,1.5284157
-26.226355,3.2908478,1.5017719
-26.315422,3.3146899,1.5553055
-26.371796,3.3165739,1.5600228
-26.401974,3.3001614,1.5240741
-26.48491,3.321616,1.5722585
-26.55336,3.333369,1.5988722
-26.586481,3.319507,1.5685673
-26.621311,3.3067958,1.5408154
-26.686655,3.3173099,1.5646477
-26.758093,3.3331385,1.6002693
-26.804888,3.3302977,1.5944176
-26.831993,3.3118894,1.5539875
-26.898329,3.3250341,1.5836182
-26.969934,3.3431957,1.6243763
-27.00873,3.3347046,1.605947
-27.032001,3.3129983,1.5581741
-27.090569,3.321359,1.5771451
-27.161896,3.3414524,1.622149
-27.206999,3.3390481,1.6172047
-27.239267,3.3251736,1.5867963
-27.282415,3.321122,1.5781841
-27.359282,3.3488,1.6399775
-27.404343,3.347339,1.6370969
-27.431396,3.3286042,1.5958834
-27.478508,3.3292556,1.5976777
-27.530415,3.3349912,1.6107469
-27.586897,3.3458488,1.6351695
-27.630829,3.3442812,1.6320205
-27.665667,3.33326,1.6078935
-27.712479,3.3349922,1.612052
-27.769648,3.3484132,1.6421294
-27.811512,3.3454335,1.6358218
-27.854725,3.3441155,1.6331944
-27.892227,3.336329,1.6162167
-27.936087,3.336016,1.6158066
-27.999144,3.3591866,1.6674619
-28.044703,3.361902,1.6737518
-28.072449,3.342468,1.6309261
-28.104034,3.3273864,1.5977468
-28.150587,3.3315992,1.6073408
-28.214457,3.3595448,1.6695423
-28.25452,3.3561964,1.6623592
-28.285357,3.3399286,1.6265321
-28.330051,3.343096,1.6337824
-28.38344,3.3594642,1.6702876
-28.428915,3.364895,1.6825423
-28.473904,3.3700616,1.6942043
-28.503376,3.3510733,1.6523247
-28.540447,3.3437016,1.6361885
-28.595108,3.3655765,1.6848626
-28.638344,3.3692305,1.6931496
-28.677324,3.365796,1.6857219
-28.713255,3.3568463,1.6660681
-28.753265,3.3552125,1.6626215
-28.800997,3.3685687,1.6923852
-28.84422,3.3740137,1.7046123
-28.883484,3.3719175,1.7001252
-28.916842,3.3574057,1.6681247
-28.95539,3.3534777,1.6595702
-29.000624,3.3646245,1.6844091
-29.04859,3.383197,1.7256932
-29.087452,3.381227,1.7214608
-29.119902,3.3631155,1.6814632
-29.15718,3.3564537,1.6668277
-29.20086,3.3669722,1.6902461
-29.24632,3.3837228,1.7274661
-29.285654,3.3838959,1.7279558
-29.321165,3.3723414,1.7024636
-29.356617,3.359646,1.674439
-29.395721,3.3584743,1.671937
-29.442339,3.3847985,1.7303348
-29.480831,3.3830295,1.7264991
-29.519247,3.38095,1.721971
-29.553576,3.360943,1.6777301
-29.593733,3.365609,1.6881342
-29.63373,3.3703814,1.6987686
-29.674618,3.3810036,1.7223554
-29.712673,3.3769581,1.7134495
-29.749378,3.3635633,1.6838331
-29.787779,3.3597078,1.6753392
-29.827806,3.3682792,1.6943641
-29.869265,3.3925774,1.7482166
-29.90755,3.3910832,1.7449384
-29.944765,3.3757029,1.7109013
-29.983063,3.3702881,1.6989317
-30.021877,3.3723779,1.703577
-30.06109,3.3881454,1.738512
-30.099516,3.3879664,1.7381239
-30.137943,3.3878863,1.7379503
-30.176525,3.37309,1.7051792
-30.215277,3.3690932,1.6963205
-30.253918,3.370957,1.700438
-30.292028,3.3815582,1.7239037
-30.330578,3.3815618,1.7238913
-30.36976,3.3742614,1.7076993
-30.408798,3.3707638,1.699924
-30.447666,3.3698344,1.6978326
-30.48385,3.3899624,1.7423735
-30.521587,3.395388,1.7543492
-30.559242,3.4004986,1.7656207
-30.59805,3.398316,1.760735
-30.638884,3.385978,1.7333522
-30.681446,3.3671925,1.6916819
-30.719814,3.370247,1.6983819
-30.757534,3.3758564,1.7107363
-30.788567,3.407757,1.7813196
-30.826147,3.4114926,1.7895155
-30.867876,3.4001987,1.7644148
-30.91226,3.3812616,1.7223773
-30.951664,3.3804126,1.7204027
-30.985947,3.3955717,1.7538853
-31.024805,3.39614,1.7550392
-31.063969,3.3959944,1.7546091
-31.105888,3.388631,1.7381835
-31.14665,3.3850424,1.7301149
-31.177282,3.4071367,1.7789397
-31.217443,3.4049602,1.7739902
-31.255606,3.407752,1.7800436
-31.29264,3.4130692,1.791688
-31.33293,3.411206,1.7874174
-31.36694,3.4227705,1.8128939
-42.69075,2.8226495,0.3497653
-42.892624,2.816768,0.33354425
-43.021496,2.8297503,0.35986996
-43.143604,2.8449252,0.39110374
-43.23815,2.8671427,0.43822098
-43.59151,2.8293135,0.3494153
-43.623215,2.8675134,0.4325843
-43.67,2.9021978,0.5077858
-43.858047,2.9053576,0.51153135
-44.31524,2.8502831,0.38314962
-44.439857,2.869954,0.4241128
-44.461037,2.912205,0.5162759
-44.99405,2.846776,0.36389017
-45.082165,2.8765197,0.42749786
-45.094124,2.9220395,0.52693987
-45.548386,2.8786926,0.4242158
-45.82769,2.8724546,0.40572548
-45.824142,2.9225924,0.51550627
-45.94163,2.9493062,0.5719123
-46.37597,2.9169524,0.4935403
-46.515793,2.9414248,0.5446253
-47.15107,2.876474,0.39139843
-47.195255,2.9207141,0.4873762
-47.22962,2.966667,0.5872593
-48.071434,2.8732579,0.3681116
-48.144257,2.915004,0.45808792
-48.292236,2.9443989,0.5197134
-48.413216,2.978824,0.59279966
10.777163,3.6634655,1.055419
-6.975523,3.0257447,0.24799252
-15.131053,2.980895,0.40697384
-15.3452425,2.9760766,0.40287304
-15.808656,3.0234575,0.52146673
-16.172836,3.052867,0.59738207
-16.366547,3.0482826,0.5931134
-16.600132,3.0532427,0.6110916
-17.012115,3.0983727,0.723083
-17.19566,3.095342,0.7218795
-17.46986,3.1136284,0.7704387
-17.616669,3.1043904,0.7543917
-17.820095,3.108965,0.7705207
-18.030567,3.1162844,0.79290485
-18.271076,3.1319141,0.83452225
-18.272808,3.0911343,0.7444172
-18.610664,3.1325629,0.84588623
-18.787714,3.1360238,0.8586898
-19.038301,3.159001,0.9167776
-19.274265,3.1797132,0.9694147
-19.31855,3.152037,0.9094415
-19.401524,3.1345596,0.8731346
-19.67774,3.1689653,0.95718336
-19.867397,3.18166,0.99068165
-20.025799,3.18687,1.0067039
-20.292473,3.2230642,1.0943923
-20.423931,3.2228317,1.097568
-20.50954,3.2101812,1.0719275
-20.557163,3.186865,1.0215778
-20.606714,3.1641564,0.9726114
-20.650959,3.1399257,0.9201088
-20.718666,3.1227748,0.883935
-20.799988,3.1099768,0.8577733
-20.847368,3.0869823,0.80805254
-20.86993,3.0562387,0.7404499
-20.92276,3.0349307,0.6945877
-20.863058,2.9774923,0.5654955
-20.83958,2.9309843,0.46161985
-21.625847,3.1511762,0.97143793
-20.83869,2.8516037,0.28532362
-22.254383,3.1152422,0.9079728
-22.28205,3.0890737,0.8504925
-22.274235,3.0496264,0.76256704
-23.427631,3.1785264,1.0779252
-23.464184,3.1586971,1.034627
-24.141886,3.2112372,1.1675463
-24.258669,3.2304807,1.2131181
-24.327179,3.2279177,1.2089448
-24.36456,3.2108586,1.1717205
-24.45282,3.2182753,1.1902323
-24.529171,3.22045,1.1967688
-24.607746,3.2241566,1.2067642
-24.679092,3.2247093,1.2095485
-24.745222,3.2229981,1.2071548
-24.81118,3.221519,1.2052646
-24.88308,3.2234554,1.2111168
-24.944386,3.2202132,1.2051673
-25.012798,3.2210371,1.2084394
-25.079184,3.221135,1.2100353
-25.141802,3.2195187,1.2077117
-25.206024,3.219095,1.2080755
-25.264816,3.2159443,1.2022238
-25.358715,3.2330637,1.2423797
-25.424423,3.2346892,1.2473211
-25.491592,3.237541,1.255023
-25.578152,3.252303,1.2897301
-25.66129,3.2657278,1.3213692
-25.72065,3.2653456,1.3216538
-25.787495,3.2698913,1.3330965
-25.849144,3.2716215,1.3381305
-25.916468,3.277309,1.3521156
-25.984505,3.2839208,1.3681731
-26.044804,3.2859704,1.3738656
-26.10487,3.2882245,1.3800015
-26.172438,3.295872,1.3983383
-26.232971,3.2992465,1.406971
-26.301323,3.3084054,1.4286847
-26.36524,3.3150108,1.4445944
-26.418415,3.3144665,1.4442911
-26.479279,3.3197308,1.4571218
-26.541283,3.3262644,1.4728079
-26.592896,3.3255599,1.4720898
-26.640125,3.3218124,1.4644713
-26.688728,3.3192763,1.45958
-26.75113,3.3276424,1.4793396
-26.806744,3.33119,1.4881792
-26.844515,3.3208456,1.4655814
-26.894947,3.3207288,1.466105
-26.969898,3.3411067,1.5129538
-27.015411,3.3377216,1.5060525
-27.043732,3.3198514,1.4663954
-27.088142,3.315585,1.4574833
-27.164745,3.339748,1.5128098
-27.218218,3.3442934,1.523778
-27.240105,3.3205428,1.470798
-27.282255,3.3149703,1.4588842
-27.369162,3.351521,1.5421152
-27.414286,3.3496444,1.5385189
-27.435528,3.3247237,1.4828677
-27.482784,3.32492,1.4839334
-27.551186,3.3466716,1.5336599
-27.604494,3.353981,1.5507569
-27.643377,3.3467352,1.5349789
-27.675972,3.3327737,1.5040336
-27.728844,3.340506,1.5220475
-27.783104,3.3503091,1.5447197
-27.830536,3.3530452,1.5514283
-27.867474,3.3440785,1.5317178
-27.90688,3.337881,1.5182467
-27.958265,3.3459828,1.5370274
-28.007738,3.3523228,1.5518193
-28.054764,3.3561168,1.5608568
-28.08853,3.3434465,1.532743
-28.132423,3.343617,1.5335855
-28.193457,3.3667843,1.5862799
-28.233393,3.3625834,1.57724
-28.269735,3.3534281,1.5570183
-28.307373,3.3459182,1.5404978
-28.353756,3.3509982,1.5523562
-28.405422,3.36443,1.5830326
-28.444292,3.3592134,1.5716538
-28.486008,3.3584142,1.5702243
-28.524988,3.3534024,1.5592904
-28.572887,3.3630605,1.5814137
-28.622059,3.3756247,1.6100707
-28.664207,3.3768837,1.6132402
-28.699852,3.366786,1.590807
-28.738537,3.3619213,1.5801582
-28.779818,3.361915,1.5804477
-28.827736,3.3751283,1.6105142
-28.870277,3.3785422,1.6184907
-28.906555,3.3693302,1.5980115
-28.945465,3.365388,1.589396
-28.988018,3.3695288,1.5989804
-29.035582,3.3857756,1.6358275
-29.073938,3.3813615,1.626122
-29.110937,3.37344,1.6085076
-29.14798,3.3652074,1.5901856
-29.18805,3.3646894,1.5892315
-29.236357,3.3875728,1.6409736
-29.275888,3.3868837,1.6396132
-29.314493,3.3834796,1.6321325
-29.348818,3.3660805,1.5931249
-29.390604,3.3725352,1.6078291
-29.433954,3.3855565,1.6373105
-29.473915,3.387399,1.6416078
-29.512495,3.384096,1.6343122
-29.547867,3.3667476,1.5953817
-29.589958,3.3781896,1.6212697
-29.629396,3.378419,1.6219015
-29.669863,3.3844163,1.6355133
-29.70971,3.3880918,1.6438875
-29.746902,3.375668,1.616005
-29.785648,3.3718455,1.60748
-29.825106,3.3729866,1.6101236
-29.866215,3.389639,1.6476808
-29.905107,3.3885543,1.6452951
-29.944118,3.388786,1.6458659
-29.982298,3.3765395,1.6183333
-30.021444,3.3765645,1.6184216
-30.061132,3.3925202,1.654367
-30.099993,3.391124,1.6512375
-30.1389,3.3922632,1.6538095
-30.177902,3.381325,1.6291814
-30.217287,3.3684573,1.6002016
-30.256117,3.378828,1.6235309
-30.294682,3.388485,1.6452451
-30.333303,3.3933697,1.6562085
-30.373219,3.3817203,1.6299376
-30.412876,3.3762608,1.6175938
-30.452518,3.3725264,1.6091256
-30.48871,3.3960528,1.6620255
-30.52682,3.4018354,1.6749687
-30.565556,3.4028537,1.677176
-30.60456,3.4023523,1.6759534
-30.646715,3.3857648,1.638504
-30.688633,3.372935,1.6095057
-30.727173,3.3771994,1.618988
-30.765318,3.382773,1.6314096
-30.80117,3.3969204,1.6631293
-30.839437,3.4006608,1.6714087
-30.881624,3.390387,1.6481204
-30.923668,3.3818424,1.6287165
-30.960806,3.3899188,1.6467342
-30.995472,3.404924,1.6803479
-31.033327,3.409558,1.6905975
-31.074121,3.405855,1.6820626
-31.12397,3.3785954,1.620461
-31.158346,3.3931706,1.6530757
-31.1933,3.4054196,1.6804433
-31.229614,3.4137487,1.6989756
-31.268698,3.4153748,1.7023993
-31.3085,3.415506,1.7024484
-31.348345,3.415743,1.7027249
-31.388615,3.4152894,1.7014384
-43.811638,2.9120183,0.29590893
-45.913513,2.9535644,0.32391453
-46.586975,2.9276762,0.24611378
-47.20659,2.9186234,0.20697641
-47.3355,2.9482856,0.26828527
-47.93891,2.9505587,0.25444555
-48.271988,2.9487958,0.24012661
-48.466866,2.9713488,0.28362465
-0.70075226,3.4465811,0.5439129
-1.8157597,3.4652958,0.6369338
-2.6963482,3.4685163,0.6849599
-2.91284,3.4141169,0.5754676
-15.882182,3.0298266,0.31163788
-16.036709,3.0155709,0.2865243
-16.223377,3.0088484,0.27950144
-16.498444,3.0221052,0.32064295
-16.910423,3.066848,0.4376049
-17.11022,3.0668938,0.4461112
-17.454166,3.1004975,0.5353594
-17.662523,3.1050823,0.5542779
-17.834238,3.10227,0.5551629
-18.182724,3.142022,0.658216
-18.23227,3.112342,0.5941024
-18.321129,3.0922458,0.5529537
-18.565933,3.1108756,0.6045575
-18.580564,3.0734081,0.52156305
-18.610918,3.0397115,0.44760084
-19.32098,3.1806383,0.7910147
-19.425098,3.1684246,0.76795435
-19.503542,3.1498678,0.72966623
-19.636349,3.1461406,0.72666836
-19.803177,3.1523235,0.7471514
-19.829998,3.1208513,0.6778693
-19.873589,3.0939353,0.61941576
-19.92889,3.0703294,0.56880474
-20.622145,3.2298973,0.9530163
-20.658325,3.2033727,0.8950782
-20.722023,3.184909,0.8562336
-20.78668,3.1668978,0.8184171
-20.82782,3.1419368,0.76410675
-20.86541,3.1158683,0.70715857
-20.837757,3.0694666,0.6021347
-20.885063,3.0460844,0.55153275
-20.814285,2.985037,0.4119978
-20.791233,2.9384482,0.30666304
-20.8382,2.914208,0.25405836
-22.230816,3.1617718,0.8611717
-22.297733,3.149676,0.8364191
-22.39624,3.1492665,0.839046
-22.486397,3.146298,0.8356018
-22.549475,3.133684,0.80948734
-22.697708,3.1533751,0.85902214
-22.804857,3.1583781,0.8740492
-22.88588,3.1538932,0.866797
-22.982306,3.1558177,0.8744836
-23.068508,3.154213,0.8738551
-23.152357,3.1520946,0.8719702
-23.226933,3.1466165,0.8621826
-23.325554,3.1513724,0.876246
-23.406576,3.1493597,0.8744478
-23.495552,3.1511087,0.8813758
-23.89299,3.1459825,0.8828964
-23.95263,3.1371233,0.86482954
-24.02267,3.1332617,0.8583565
-24.561932,3.24697,1.1321149
-24.752928,3.2714758,1.1933713
-24.632648,3.1757133,0.97324705
-24.734707,3.1916535,1.0123701
-24.600597,3.0858917,0.7691884
-25.32404,3.2198899,1.0934472
-25.39777,3.2255166,1.1082602
-25.41436,3.198259,1.0469756
-25.546324,3.2388942,1.1426797
-25.623302,3.2479777,1.1653671
-25.711288,3.264331,1.204814
-25.768791,3.2626615,1.2025719
-25.822407,3.258833,1.1953163
-25.888706,3.263253,1.2070842
-25.937859,3.2570882,1.1943831
-26.005247,3.2629473,1.209414
-26.056814,3.258823,1.201374
-26.113947,3.2586186,1.2023568
-26.172432,3.2596304,1.2061181
-26.228218,3.259112,1.2063241
-26.28336,3.2584267,1.2061205
-26.334446,3.25514,1.1998973
-26.386442,3.2527046,1.1956153
-26.440266,3.2518284,1.1949024
-26.494434,3.2514713,1.1953635
-26.546589,3.249877,1.1929517
-26.593557,3.2445567,1.1819382
-26.659716,3.2542574,1.2054887
-26.711445,3.253165,1.2041659
-26.768852,3.2568693,1.2138605
-26.822924,3.2582557,1.2181964
-26.87464,3.2580173,1.2187715
-26.930515,3.261538,1.2279735
-26.994194,3.272103,1.2533503
-27.05156,3.2778149,1.267539
-27.105734,3.2811706,1.2762876
-27.164557,3.2890716,1.2954607
-27.221807,3.2960713,1.3125381
-27.272388,3.2973957,1.3165488
-27.325148,3.3010788,1.3259602
-27.37729,3.304559,1.3348827
-27.42921,3.3082008,1.3441572
-27.47941,3.3105233,1.35038
-27.533833,3.3174548,1.3671656
-27.585762,3.3223262,1.3792014
-27.634943,3.3247473,1.3855901
-27.683945,3.3273163,1.3923001
-27.733795,3.331158,1.4019122
-27.790533,3.3430455,1.4299669
-27.841484,3.3490918,1.4445963
-27.886265,3.348498,1.4439745
-27.929688,3.3465166,1.4401536
-27.980326,3.3533797,1.4566011
-28.023237,3.3512766,1.4524689
-28.071587,3.3561468,1.4643106
-28.112255,3.3516204,1.4545918
-28.154146,3.3487296,1.4486094
-28.210915,3.3658757,1.4885402
-28.255308,3.3670862,1.4919243
-28.286694,3.3503456,1.454155
-28.328175,3.3475354,1.4482999
-28.37124,3.3471508,1.4479895
-28.432714,3.374724,1.5117145
-28.473972,3.3726852,1.5075798
-28.501522,3.3490326,1.4539208
-28.546438,3.352619,1.462647
-28.594898,3.3625596,1.4859104
-28.647978,3.3812206,1.5291252
-28.690483,3.3824856,1.532486
-28.712269,3.3463418,1.4501767
-28.763918,3.3642278,1.4915695
-28.813541,3.3795311,1.5270305
-28.857716,3.3851745,1.540359
-28.896513,3.3803327,1.5296707
-28.930601,3.3653584,1.495779
-28.972425,3.366609,1.499013
-29.022966,3.3880854,1.5485225
-29.063805,3.3883982,1.549581
-29.101374,3.3809152,1.5327859
-29.1382,3.3711498,1.5107574
-29.176472,3.3646405,1.4961696
-29.224155,3.383992,1.5407395
-29.2678,3.393566,1.562923
-29.306293,3.3885698,1.5517583
-29.340061,3.3681705,1.5053439
-29.379614,3.365345,1.4991226
-29.424595,3.381726,1.5368247
-29.465868,3.3862855,1.5474706
-29.503777,3.378201,1.5291815
-29.542843,3.3741984,1.5202184
-29.581743,3.3690972,1.5087314
-29.623135,3.375674,1.5239406
-29.665133,3.3867548,1.549438
-29.704622,3.3855593,1.5468459
-29.743938,3.3832662,1.5417309
-29.78177,3.3702738,1.5121365
-29.823034,3.3813822,1.5376468
-29.864613,3.3986044,1.5771246
-29.904299,3.4019248,1.5847993
-29.942446,3.3877287,1.5524044
-29.98157,3.3820395,1.5394516
-30.021284,3.3848622,1.5459514
-30.061155,3.3949983,1.5691633
-30.100658,3.402433,1.5861859
-30.139902,3.403959,1.5896854
-30.179424,3.3755362,1.5246868
-30.219072,3.3756628,1.524961
-30.2583,3.3859067,1.5483594
-30.297697,3.387838,1.5527363
-30.337067,3.3894699,1.556417
-30.3772,3.381993,1.5392551
-30.41765,3.3738208,1.5204916
-30.4568,3.3789616,1.5321608
-30.493721,3.3998048,1.5797267
-30.53204,3.4071372,1.5963855
-30.570478,3.4125667,1.6086798
-30.61056,3.4081028,1.5983367
-30.654457,3.384974,1.5452914
-30.694796,3.382329,1.5390825
-30.735598,3.3781946,1.5294523
-30.77087,3.397693,1.5738659
-30.807411,3.4100976,1.6020436
-30.846962,3.4102442,1.6021719
-30.892488,3.3898027,1.555191
-30.933846,3.3853996,1.5448842
-30.969032,3.4009726,1.5802641
-31.004438,3.4146395,1.6112742
-31.044182,3.4149027,1.6116076
-31.09265,3.3914952,1.5577674
-31.134922,3.3864465,1.545919
-31.16875,3.403265,1.584095
-31.202267,3.4197605,1.6215229
-31.238365,3.4292235,1.6428475
-31.279125,3.4277344,1.6390963
-31.32106,3.4239926,1.6301756
-31.361097,3.4246926,1.6314077
-3.231886,3.6147032,0.5730758
-3.171671,3.5361254,0.39575577
-4.938116,3.6264622,0.7056098
-5.205,3.5830107,0.6261902
-5.643656,3.5576806,0.59747267
-17.514515,3.0756505,0.23620892
-17.839855,3.1076643,0.3264675
-18.013062,3.1057692,0.33185768
-18.084698,3.0804799,0.27887392
-18.200214,3.0660195,0.25268602
-18.586315,3.1186686,0.3926568
-18.635641,3.0896351,0.32989883
-18.67627,3.0584264,0.26172352
-18.860138,3.0639935,0.28431273
-19.461533,3.1794038,0.57751083
-19.528437,3.1576188,0.53193426
-19.586597,3.1336582,0.4809394
-19.851059,3.165881,0.5679531
-19.892735,3.13836,0.50796413
-19.91634,3.10577,0.43551826
-20.001352,3.090412,0.40527964
-20.62482,3.2300034,0.75409365
-20.761276,3.2323532,0.7665849
-20.761509,3.1952453,0.6825576
-20.824549,3.1765769,0.643548
-20.911991,3.1654603,0.6228876
-20.860178,3.111921,0.498837
-20.796526,3.0539064,0.3639984
-20.839024,3.028473,0.3084712
-22.252136,3.1634734,0.6857734
-22.34018,3.158699,0.679183
-22.438171,3.1579566,0.6822276
-22.535118,3.1573362,0.6854725
-22.650368,3.1640573,0.7062926
-22.747969,3.1647859,0.7125902
-22.857952,3.1707845,0.73146105
-22.9449,3.1684916,0.7303152
-23.030197,3.1659803,0.7285676
-23.149998,3.1776297,0.7607107
-23.284296,3.1959064,0.80862474
-23.381344,3.1999016,0.82219696
-23.444567,3.1904616,0.803514
-23.533516,3.192017,0.8110943
-23.686005,3.2210407,0.8842864
-23.727734,3.203624,0.8463321
-23.798922,3.1990235,0.8389721
-23.877876,3.198164,0.840487
-23.959848,3.1990583,0.8461242
-24.022682,3.191734,0.8320918
-24.115135,3.198221,0.8509383
-24.169348,3.1875262,0.8287697
-24.240154,3.1847703,0.82547235
-24.339165,3.1957922,0.8549161
-24.405645,3.1917958,0.848546
-24.481314,3.1925852,0.8535085
-24.55486,3.1927335,0.8568907
-24.618977,3.188542,0.84990644
-24.686018,3.1861095,0.84705496
-24.755901,3.1854587,0.8483858
-24.818405,3.1813145,0.8413758
-24.887316,3.180823,0.842988
-24.967747,3.1868658,0.8600421
-25.028553,3.1827736,0.8530197
-25.494179,3.2600815,1.0485592
-25.556719,3.2598693,1.050394
-25.649118,3.2778168,1.0951085
-25.722347,3.2849855,1.1142855
-25.779074,3.2825477,1.1107206
-25.829844,3.2766573,1.0989695
-25.896908,3.2812064,1.1118298
-25.93866,3.2699978,1.0874639
-26.0084,3.2769594,1.1059365
-26.068563,3.2781255,1.1106949
-26.12649,3.2781422,1.1127081
-26.149282,3.2546577,1.0593038
-26.201298,3.2508857,1.0523362
-26.23664,3.2356787,1.0184088
-26.277609,3.2243083,0.9935007
-26.308727,3.2058258,0.95183325
-26.336952,3.1849804,0.9045963
-26.367067,3.1652062,0.8598747
-26.403183,3.1496413,0.8250427
-26.41635,3.1163871,0.74860764
-26.44032,3.0907764,0.69014645
-26.454689,3.0571113,0.6127553
-26.461159,3.0163708,0.51874924
-26.82621,3.2659338,1.1066384
-26.835512,3.2301924,1.0242367
-26.910975,3.2490683,1.0700712
-26.99197,3.2735624,1.129044
-27.043621,3.2737164,1.1308441
-27.098385,3.2768934,1.139708
-27.158129,3.2849133,1.1599021
-27.221048,3.2963746,1.1881309
-27.278805,3.3037155,1.2066603
-27.320848,3.2967527,1.191628
-27.364876,3.2917156,1.1810889
-27.416395,3.2940824,1.1878781
-27.465885,3.2947805,1.1907306
-27.511988,3.29233,1.1861825
-27.556984,3.2889075,1.1793365
-27.603724,3.2874491,1.1770668
-27.649021,3.2846482,1.1716309
-27.69802,3.286039,1.1759858
-27.746536,3.2872036,1.1797853
-27.792297,3.285538,1.1769395
-27.83833,3.2843726,1.175241
-27.884298,3.283336,1.1738219
-27.932365,3.2850447,1.1788025
-27.97755,3.2835214,1.1762004
-28.021204,3.2802448,1.1694784
-28.066616,3.2793422,1.1682873
-28.11711,3.2853508,1.1832271
-28.160608,3.2824464,1.1773124
-28.20329,3.2785227,1.1689968
-28.251104,3.281914,1.1777515
-28.298992,3.2858222,1.1876922
-28.34591,3.2887275,1.1952667
-28.394157,3.294053,1.2084699
-28.444609,3.3033366,1.2308931
-28.491594,3.3078008,1.2420392
-28.539764,3.314698,1.2588415
-28.584024,3.315599,1.2616243
-28.633041,3.325071,1.2843933
-28.679335,3.330458,1.2976022
-28.724146,3.3336647,1.3057036
-28.76859,3.3366108,1.3131742
-28.811508,3.3369763,1.3146033
-28.854929,3.3386166,1.3189893
-28.897871,3.3396006,1.3218246
-28.9418,3.3430264,1.3303356
-28.985395,3.346184,1.338202
-29.029173,3.3502383,1.3481398
-29.07358,3.3563573,1.3628726
-29.118055,3.363378,1.3796897
-29.160044,3.3646767,1.3831425
-29.203653,3.370768,1.3977518
-29.243767,3.3676069,1.3907704
-29.286537,3.3723657,1.402236
-29.330484,3.3815432,1.4239831
-29.371283,3.3814464,1.4240923
-29.412607,3.3834147,1.4289975
-29.453417,3.3839238,1.4304838
-29.494675,3.3865013,1.4367738
-29.534424,3.3832984,1.429574
-29.57468,3.3821611,1.4271712
-29.614946,3.381127,1.424993
-29.656946,3.3892415,1.4441166
-29.6975,3.3907797,1.4478993
-29.737608,3.3900623,1.4464064
-29.777039,3.3847225,1.4341278
-29.817123,3.3834221,1.4312439
-29.857012,3.3802543,1.4239931
-29.897482,3.3823113,1.4289002
-29.937716,3.3825023,1.4294415
-29.977854,3.3816142,1.4274526
-30.01807,3.3820121,1.428443
-30.058613,3.3923733,1.4526281
-30.098621,3.39219,1.4522309
-30.138617,3.388559,1.4437852
-30.178774,3.3806934,1.4254556
-30.218939,3.3816075,1.4275656
-30.259111,3.3818362,1.428061
-30.299255,3.3825629,1.4296994
-30.339674,3.3794496,1.4223762
-30.37956,3.3835363,1.4318104
-30.419867,3.3826015,1.4295287
-30.460258,3.3813765,1.4265547
-30.498287,3.3979783,1.4651003
-30.53904,3.3934135,1.4543099
-30.578564,3.397219,1.4630075
-30.619644,3.3920784,1.4508414
-30.662308,3.3799703,1.4224205
-30.702335,3.382124,1.4272184
-30.742138,3.3851655,1.4340682
-30.782736,3.384777,1.4329066
-30.819784,3.3982208,1.4639678
-30.86024,3.3980339,1.463243
-30.904291,3.3858104,1.4344463
-30.945368,3.3846698,1.4314623
-30.984608,3.389502,1.4423866
-31.021072,3.4022477,1.4717422
-31.061346,3.4033666,1.4739766
-31.107574,3.3886,1.4391556
-31.154602,3.3731906,1.402813
-31.184536,3.4015117,1.4684253
-31.224901,3.4030552,1.471581
-31.263739,3.408199,1.4831166
-31.301407,3.4157674,1.5002909
-31.345058,3.4102533,1.4869323
-31.385742,3.4114404,1.4891872
-3.2493553,3.6923578,0.35602045
-3.345234,3.6276488,0.21974945
-18.632366,3.121605,0.2045002
-18.925762,3.1127696,0.20394373
-19.333672,3.176792,0.37685442
-19.492043,3.178239,0.39060926
-19.536282,3.1502647,0.32972336
-19.57529,3.1208777,0.2652321
-19.887291,3.1658993,0.38834333
-19.96521,3.1482172,0.35302877
-20.113323,3.1504724,0.36776066
-20.26801,3.1553965,0.38897562
-20.635101,3.2224045,0.56572485
-20.777256,3.2262359,0.58356476
-20.778162,3.1890137,0.4984417
-20.81485,3.1621866,0.4393468
-20.788534,3.1161215,0.3321848
-20.801794,3.081676,0.25409174
-22.269554,3.1547174,0.51126623
-22.371075,3.15458,0.5169358
-22.478683,3.1572068,0.5292969
-22.57801,3.1573625,0.53544617
-22.6791,3.1587079,0.54440784
-22.78402,3.162062,0.55818987
-22.890581,3.166645,0.5748687
-23.00152,3.1735578,0.59714174
-23.08704,3.171089,0.59628344
-23.175055,3.1700416,0.5988178
-23.277094,3.1751406,0.6163049
-23.364428,3.174799,0.6203699
-23.452803,3.17535,0.6265235
-23.548199,3.1793387,0.64098454
-23.631214,3.178596,0.6437917
-23.735699,3.187579,0.6702428
-23.80557,3.182058,0.6612177
-23.897415,3.1865954,0.6766348
-23.971413,3.183649,0.67373466
-24.052904,3.1844716,0.67993546
-24.129004,3.1832476,0.6810789
-24.218111,3.1884995,0.6978898
-24.301144,3.1914208,0.70895195
-24.376978,3.1913707,0.712718
-24.459332,3.1948953,0.72508764
-24.539474,3.1978226,0.7359295
-24.61866,3.200744,0.74668026
-24.689072,3.1996903,0.74772835
-24.775982,3.2074602,0.7700763
-24.862396,3.2155612,0.79314375
-24.92072,3.2094538,0.78176117
-24.999369,3.214411,0.79708195
-25.08628,3.2243423,0.8243499
-25.359425,3.2649908,0.9318571
-25.428364,3.26737,0.9405799
-25.36515,3.193615,0.7657099
-25.521091,3.246856,0.89695454
-25.579273,3.2437203,0.8922491
-25.605171,3.2213464,0.8411803
-25.589626,3.1733084,0.7283459
-25.67744,3.1884186,0.7674632
-25.80726,3.230747,0.87194777
-25.807188,3.1916637,0.7806215
-25.931631,3.232447,0.8812127
-26.028324,3.2565007,0.9415026
-26.131554,3.2859335,1.0146184
-26.172373,3.274325,0.9891381
-26.226583,3.271877,0.9856143
-26.27296,3.2642078,0.9695282
-26.303629,3.2455091,0.92697096
-26.330938,3.224143,0.87801075
-26.360628,3.2041688,0.8323784
-26.388016,3.1821845,0.7819233
-26.417305,3.161258,0.73399353
-26.44484,3.138648,0.6820259
-26.452435,3.1001852,0.5921216
-26.45933,3.060261,0.4987402
-26.759346,3.253771,0.96356106
-26.817513,3.2573142,0.97395515
-26.917763,3.296014,1.068326
-26.962307,3.2895164,1.054625
-27.026297,3.2996752,1.0806808
-27.072332,3.2948785,1.0709777
-27.130016,3.3004732,1.0860538
-27.177498,3.2973807,1.0803561
-27.228846,3.2979841,1.0834465
-27.282347,3.3008833,1.0919805
-27.31746,3.2867675,1.0599022
-27.384586,3.3032303,1.1007118
-27.43528,3.3044546,1.1051483
-27.476414,3.2964506,1.0875621
-27.53618,3.3073583,1.1150088
-27.574486,3.2967062,1.0910606
-27.604752,3.277419,1.0465307
-27.647364,3.270933,1.0324678
-27.684082,3.2579818,1.0029922
-27.74006,3.2663443,1.0242224
-27.797594,3.2770846,1.0510755
-27.777752,3.1982794,0.86486673
-27.87573,3.2567365,1.0051742
-27.926212,3.2601807,1.0145793
-27.968742,3.2541504,1.0014277
-27.867163,3.0650184,0.5529952
-28.072676,3.266572,1.0332417
-28.119583,3.2668736,1.0350585
-28.16447,3.2646952,1.0309548
-28.21739,3.2738502,1.0537491
-28.275705,3.2914042,1.0964603
-28.333126,3.3087728,1.1386905
-28.385906,3.3203156,1.1670489
-28.432613,3.323363,1.1752067
-28.476048,3.3216429,1.1720185
-28.519459,3.3200378,1.1690817
-28.568745,3.328382,1.1897311
-28.601799,3.3095999,1.1459856
-28.647192,3.3117445,1.151875
-28.690779,3.3109758,1.1508279
-28.735138,3.3118443,1.1536417
-28.780586,3.3151188,1.1621361
-28.825296,3.317375,1.1681905
-28.869322,3.3186073,1.1717925
-28.910927,3.3149877,1.1638665
-28.95311,3.3126228,1.1588941
-28.997147,3.314583,1.1641517
-29.039623,3.313209,1.1614823
-29.081785,3.3111773,1.1572328
-29.124706,3.3111773,1.1577754
-29.167294,3.3105204,1.1567383
-29.210405,3.3115158,1.159594
-29.253702,3.3133965,1.1645241
-29.295906,3.3123047,1.1623888
-29.338104,3.3113215,1.1604905
-29.380747,3.3119946,1.1624918
-29.423119,3.3120053,1.1629024
-29.465359,3.3117392,1.1626358
-29.50692,3.3088717,1.1561861
-29.548803,3.3072727,1.152719
-29.591118,3.3077204,1.154077
-29.634373,3.3133206,1.1676149
-29.676456,3.313602,1.1685343
-29.718573,3.31438,1.1706085
-29.759731,3.3090522,1.1582046
-29.801447,3.3069372,1.1533866
-29.844242,3.3138695,1.1699662
-29.886261,3.31547,1.173903
-29.928902,3.3253467,1.1974092
-29.97003,3.31783,1.1797166
-30.011711,3.3166428,1.1769881
-30.05376,3.3249016,1.1965985
-30.095505,3.3313224,1.2118378
-30.137022,3.3335705,1.2171769
-30.178452,3.3370926,1.2255111
-30.219782,3.3403318,1.2331538
-30.261143,3.3405643,1.2336583
-30.302227,3.3455706,1.2454433
-30.343737,3.3429036,1.2390404
-30.38474,3.3469548,1.2485209
-30.425135,3.355775,1.2692719
-30.46493,3.367417,1.2966843
-30.503197,3.3877053,1.3445482
-30.541967,3.400705,1.3751364
-30.583296,3.3963296,1.3645635
-30.624634,3.3928382,1.3560643
-30.671856,3.3607547,1.2798367
-30.712645,3.3633115,1.2856121
-30.753376,3.3659723,1.291614
-30.794144,3.36835,1.2969241
-30.834759,3.3712184,1.3033762
-30.87748,3.366458,1.2917371
-30.917864,3.3703117,1.3004799
-30.959723,3.3692486,1.2975559
-31.00089,3.370611,1.3003545
-31.042713,3.3701522,1.2988167
-31.084171,3.3709588,1.3002558
-31.123325,3.3780282,1.3165135
-31.164864,3.3786602,1.3174973
-31.206738,3.3786335,1.3168955
-31.234802,3.4113164,1.3938022
-31.27253,3.419902,1.41358
-31.32019,3.406384,1.380939
-31.359089,3.4125006,1.3948207
-20.141235,3.1897526,0.2671156
-20.281658,3.1902657,0.2790928
-20.405857,3.1869009,0.28082085
-20.710182,3.2362223,0.41804934
-20.810974,3.1902413,0.31927633
-23.251358,3.1116238,0.30930328
-23.50756,3.18151,0.4898324
-23.588514,3.1793203,0.4899645
-23.687546,3.1853056,0.51039934
-23.762035,3.1812098,0.5055704
-23.847961,3.1825023,0.514081
-23.94379,3.1886992,0.53469896
-24.03848,3.1949823,0.5554118
-24.119429,3.1955528,0.5618038
-24.189428,3.1914704,0.5565438
-24.270462,3.1929014,0.5648947
-24.343773,3.1910985,0.5651288
-24.439493,3.2005057,0.59307575
-24.496416,3.1915421,0.5753913
-24.590073,3.2009993,0.603261
-24.649136,3.1936839,0.5895181
-24.737774,3.2016635,0.61354065
-24.800657,3.1969237,0.6060262
-24.893707,3.2082596,0.63815403
-24.965942,3.2092233,0.64457035
-25.036186,3.2095172,0.6492591
-25.232037,3.2043633,0.6480298
-25.448065,3.2518444,0.7721529
-25.506931,3.2483697,0.7671051
-25.536736,3.2279058,0.7202501
-25.570177,3.2093983,0.67818975
-25.676584,3.2352252,0.7449589
-25.699675,3.2105768,0.68774176
-25.723877,3.1862574,0.63132954
-25.774174,3.178189,0.61475754
-25.81443,3.1637406,0.5825095
-25.955873,3.2155244,0.71246386
-26.003008,3.2064471,0.693243
-26.145098,3.261512,0.8309555
-26.239754,3.2860544,0.8938365
-26.288479,3.2797184,0.8811116
-26.327776,3.2668478,0.8523774
-26.362175,3.250384,0.8148389
-26.390001,3.2289433,0.7651291
-26.428394,3.2149534,0.73359966
-26.444065,3.1837873,0.66013336
-26.438297,3.135609,0.5451784
-26.4392,3.0913763,0.43988323
-26.473959,3.0726705,0.39683914
-26.812054,3.2961476,0.9438944
-26.87172,3.3010428,0.95809937
-26.91095,3.2449486,0.82598066
-26.967089,3.2470987,0.833405
-27.031837,3.2570863,0.85984755
-27.087814,3.259958,0.86892796
-27.143559,3.2630045,0.87838745
-27.196758,3.2641172,0.8831024
-27.252058,3.2675052,0.8933015
-27.304504,3.268592,0.89786816
-27.346504,3.2599185,0.8786936
-27.390463,3.2531254,0.8640566
-27.455149,3.2670975,0.8997836
-27.53396,3.2962828,0.97236156
-27.583479,3.2964141,0.9743967
-27.632875,3.2966905,0.9767442
-27.686808,3.3021438,0.9916067
-27.716581,3.2814505,0.94305754
-27.745628,3.2593558,0.89110136
-27.782528,3.245629,0.85940504
-27.875164,3.2969406,0.9852047
-27.822708,3.1769493,0.6961322
-27.85055,3.1502516,0.63299847
-27.853159,3.0910773,0.49125624
-28.017214,3.2360132,0.8434367
-28.10393,3.2866936,0.96740675
-28.164232,3.3046372,1.0121131
-28.219303,3.316522,1.0421166
-28.272854,3.3271043,1.0689278
-28.319563,3.3286152,1.0737696
-28.3699,3.3358095,1.0923133
-28.410868,3.3294353,1.078033
-28.456022,3.3294764,1.0792274
-28.502258,3.3315012,1.0851822
-28.548584,3.334027,1.0923166
-28.595415,3.3378017,1.1024346
-28.632814,3.32564,1.074039
-28.676592,3.3244152,1.0720282
-28.7244,3.3308017,1.0883613
-28.770756,3.3350735,1.0995564
-28.813475,3.33271,1.0947094
-28.856762,3.3315873,1.0928268
-28.893766,3.317393,1.0593815
-28.933414,3.308184,1.0379415
-28.972803,3.2979379,1.0139761
-29.008448,3.2783334,0.96741915
-29.04281,3.254262,0.9100728
-29.079975,3.2355614,0.86565876
-29.116405,3.213528,0.81319094
-29.145853,3.1703148,0.70964575
-29.158907,3.0754728,0.48163748
-29.886173,3.3530035,1.1560187
-30.303467,3.360793,1.1751175
-30.345154,3.3604743,1.1742415
-30.387764,3.3502991,1.1496019
-30.42944,3.3521132,1.1538115
-30.468903,3.3716528,1.2006888
-30.50818,3.3882246,1.2403941
-30.548483,3.3949392,1.2563338
-30.590157,3.3925726,1.2503738
-30.632998,3.3845787,1.2308321
-30.683567,3.340006,1.1231413
-31.214447,3.3971877,1.254487
-31.254221,3.402999,1.2678237
-31.29369,3.4092865,1.2822843
-31.33353,3.4145405,1.2942281
-31.374157,3.418011,1.3018456
-24.478086,3.1172867,0.25809908
-24.7262,3.2048326,0.48410273
-24.789055,3.199651,0.4759364
-24.867392,3.2028122,0.4887166
-24.941368,3.204138,0.49677467
-25.008247,3.202072,0.49621153
-25.041252,3.1818838,0.45000648
-25.262777,3.265595,0.66483784
-25.493498,3.2456899,0.6316266
-25.534828,3.2315814,0.6002965
-25.571674,3.21473,0.5620661
-25.622387,3.2061923,0.5446129
-25.72571,3.2302604,0.6086483
-25.747974,3.2045677,0.5481806
-25.78299,3.186576,0.506948
-25.847847,3.1876543,0.5133076
-26.01669,3.2571943,0.6904297
-26.008596,3.211562,0.58006334
-26.058838,3.204237,0.5652394
-26.216654,3.270671,0.7341466
-26.277115,3.2717853,0.74016094
-26.324741,3.2641976,0.72444916
-26.4006,3.2769191,0.7592268
-26.429783,3.256385,0.7112136
-26.437828,3.2198966,0.62352896
-26.44378,3.180996,0.52987385
-26.446884,3.138992,0.42853928
-26.678312,3.2729125,0.7639785
-26.722958,3.2643852,0.74559546
-26.87778,3.2562056,0.7333627
-26.938463,3.2615323,0.74914455
-27.005634,3.272887,0.77979565
-27.05608,3.2703679,0.7760258
-27.070229,3.2359056,0.6931596
-27.078835,3.1955225,0.595654
-27.159739,3.2203064,0.6593375
-27.225155,3.2318187,0.6901164
-27.301798,3.254716,0.7489691
-27.359497,3.2603989,0.7652044
-27.416164,3.2655616,0.7801013
-27.468689,3.2670329,0.7858324
-27.517256,3.264783,0.7823291
-27.56374,3.260548,0.7738867
-27.652464,3.3014364,0.8767204
-27.706087,3.3060844,0.8900776
-27.749815,3.300216,0.8774595
-27.786692,3.2866106,0.8457384
-27.818027,3.2662888,0.7974448
-27.838387,3.2323973,0.71570873
-27.852304,3.189519,0.61184216
-27.875391,3.156318,0.5318141
-28.038364,3.2984076,0.8832731
-28.096943,3.3125522,0.9196558
-28.160168,3.3337657,0.97337437
-28.188015,3.3083901,0.9124303
-28.197191,3.25615,0.7854085
-28.264627,3.2843266,0.85612917
-28.315031,3.289387,0.8699584
-28.365183,3.2945948,0.88410616
-28.411503,3.2944565,0.88507605
-28.457514,3.2940779,0.88541937
