x,y,z
-43.4412,3.0353603,2.706458
-43.619125,3.038213,2.730124
-43.885323,3.0230298,2.7253313
-44.05459,3.0297282,2.7562156
-44.20722,3.040699,2.7943459
-44.3991,3.0443296,2.8212676
-44.718452,3.0231597,2.8096561
-44.849113,3.0412357,2.8605032
-45.140396,3.028406,2.863501
-45.266453,3.0489774,2.919198
-45.61137,3.028509,2.911909
-45.888916,3.0224667,2.9278321
-46.115696,3.0271893,2.9610438
-46.35311,3.0311024,2.993733
-46.562187,3.0412402,3.0365562
-46.852394,3.0381646,3.0602546
-47.151558,3.0350165,3.084806
-47.44439,3.0344615,3.1141934
-47.651215,3.0497088,3.1677594
-47.976173,3.0465915,3.1952906
-48.31207,3.0433617,3.2238102
-48.597237,3.0498548,3.2674713
-48.96946,3.044246,3.294979
-49.363354,3.0372303,3.3219013
-49.69085,3.0421596,3.366992
-50.104866,3.036021,3.3980565
-50.494034,3.0355716,3.4385438
-50.874733,3.038283,3.4848762
-51.28975,3.0381536,3.5289702
-51.680656,3.0433931,3.581904
-52.13034,3.0427737,3.6288576
-52.570515,3.0456657,3.6823049
-53.045174,3.0463765,3.7349458
-53.404358,3.0638938,3.8108015
3.3324223,2.020349,2.2309742
3.2955418,1.9340014,2.0440507
3.277956,1.8452072,1.8538799
3.2756596,1.7543054,1.6608028
3.2602978,1.6648169,1.4696159
3.3089466,1.5667048,1.2662907
1.8523769,1.6700873,1.3486776
3.2451038,1.3908453,0.88803387
3.0077877,1.3314211,0.7401972
1.6750813,1.429152,0.82256746
-0.258049,1.6212683,1.0485888
-1.3783379,1.7034693,1.1181412
-1.3401699,1.6167698,0.9387779
-3.1290321,1.8105283,1.1819682
-3.7233257,1.8270118,1.161902
-4.381048,1.8566883,1.1638808
-4.8468685,1.8586662,1.125288
-5.377163,1.8736658,1.1082702
-6.12908,1.9286644,1.1551661
-6.633358,1.9453683,1.1442904
-9.900782,2.3266518,1.6478
-9.851831,2.0769093,1.1294198
-10.170109,2.0778759,1.1030259
-10.463589,2.0755558,1.072051
-10.317308,1.9864647,0.8990545
-10.270172,1.8554037,0.6298704
-10.350571,1.8109863,0.5302372
-10.146124,1.7060695,0.3296833
-19.538765,3.004389,2.2183976
-19.123554,2.7301664,1.6883545
-20.352207,3.0548928,2.2563305
-23.323824,3.1405313,2.2064528
-25.71151,3.1218276,2.0198274
-25.734592,3.101033,1.9771891
-26.332493,3.221917,2.1868095
-26.37267,3.214886,2.1708808
-26.409733,3.2056177,2.1506877
-26.454807,3.2023432,2.1420202
-26.497776,3.1976278,2.130622
-26.54127,3.1934347,2.1202583
-26.574566,3.1814282,2.0949116
-26.61463,3.1746783,2.0796895
-26.628302,3.1468542,2.0239635
-26.645569,3.1214116,1.9728131
-26.657055,3.0907326,1.9115834
-26.67988,3.068894,1.8673654
-26.691233,3.036956,1.8036985
-26.663168,2.970472,1.6734524
-26.668997,2.9318397,1.5968385
-26.686367,2.902528,1.5381808
-26.673843,2.8457642,1.4265618
-26.673096,2.7982783,1.3328071
-26.667274,2.7449176,1.2276855
-26.667606,2.6959627,1.1310396
-26.664795,2.6427596,1.0261617
-26.661581,2.587771,0.91780376
-26.66523,2.538065,0.81962776
-26.67135,2.489516,0.7236662
-26.678661,2.4408822,0.6275201
-26.679035,2.383778,0.51496744
-36.557007,2.2633023,0.41695833
-36.541046,2.3166683,0.5226784
-36.551277,2.3543663,0.5986376
-36.599873,2.370161,0.6330805
-36.55706,2.4363122,0.7628989
-36.549183,2.4822652,0.85440683
-36.584244,2.5044153,0.9008646
-36.575977,2.5494547,0.9905882
-36.609295,2.5719666,1.037734
-36.639534,2.5959263,1.0876265
-36.55134,2.6804843,1.2517734
-36.55616,2.7162712,1.323883
-36.565704,2.7492309,1.390646
-36.573887,2.782471,1.4579186
-36.58347,2.8146274,1.5231361
-36.59728,2.8443651,1.5837951
-36.613308,2.872726,1.6418595
-36.635136,2.8980622,1.6942458
-36.653652,2.9247332,1.7491369
-36.67881,2.9480975,1.7978358
-36.707855,2.9695194,1.8429122
-36.745926,2.9867482,1.8801694
-36.797546,2.9979088,1.9061294
-36.87246,2.998913,1.9132023
-36.91299,3.015276,1.9489737
-36.983597,3.0186782,1.9606586
-37.029037,3.0331202,1.992949
-36.994328,3.0813978,2.0881267
-37.00817,3.1087382,2.144371
-37.149933,3.0831668,2.1025372
-37.019897,3.1692166,2.2675686
-37.040535,3.1930616,2.3173103
-37.059227,3.21753,2.368208
-37.079025,3.2413962,2.417996
-37.10538,3.2625613,2.4628081
-37.13217,3.2834725,2.5071683
-37.17193,3.2993789,2.5423417
-37.19732,3.3207154,2.5875263
-37.21287,3.3456135,2.639257
-38.139668,3.036228,2.078598
-38.21525,3.0429296,2.0978274
-38.325344,3.0375798,2.0951376
-38.416473,3.039541,2.1059484
-38.513443,3.0398943,2.1139603
-38.658554,3.0240805,2.0926943
-38.76922,3.020905,2.0946202
-38.87445,3.0201397,2.1010866
-38.96595,3.0244875,2.1169753
-39.01047,3.0447383,2.1617641
-39.11281,3.0462017,2.1726704
-39.72279,2.884781,1.8900394
-39.78658,2.90145,1.9291186
-39.800655,2.9339166,1.9966722
-39.80658,2.968711,2.0683918
-39.882156,2.9818954,2.1013842
-40.00949,2.9796739,2.1069455
-40.094498,2.9907694,2.136485
-40.225708,2.9885461,2.1424332
-40.36669,2.9841433,2.1447344
-40.485626,2.9868333,2.1598673
-40.54764,3.0062978,2.2049088
-40.770985,2.9805818,2.1702013
-40.84097,2.9987323,2.2132745
-40.997356,2.9934242,2.215179
-41.143616,2.991675,2.2236242
-41.218006,3.0098634,2.2672696
-41.383205,3.0043569,2.2696242
-41.465523,3.021281,2.311409
-41.627712,3.0179875,2.3181715
-41.765297,3.0217648,2.337521
-41.905758,3.0254855,2.3570433
-42.054493,3.0278437,2.3744931
-42.207054,3.0299983,2.391891
-42.413105,3.0200558,2.3888378
-42.528275,3.032743,2.424961
-42.752354,3.0204737,2.4187236
-42.891464,3.028988,2.4483447
-43.098213,3.0227745,2.453279
-43.260567,3.027584,2.4773154
-43.444218,3.0284753,2.4951077
-43.604233,3.0354304,2.5235033
-43.870472,3.0203462,2.5153704
-44.01438,3.0325637,2.5534124
-44.231556,3.0301623,2.567493
-44.438877,3.0308893,2.5872798
-44.622276,3.0374937,2.6172647
-44.885216,3.0291352,2.623127
-45.090637,3.0334299,2.6503553
-45.245625,3.0484824,2.6956215
-45.601784,3.0259652,2.6803808
-45.7939,3.0360723,2.7187428
-46.208008,3.0061831,2.6933918
-46.280586,3.0404572,2.771719
-46.545204,3.0406759,2.796082
-46.8263,3.0393355,2.818727
-47.16297,3.0298257,2.8293405
-47.38192,3.0420308,2.8748946
-47.56557,3.061174,2.9318676
-47.948273,3.048536,2.9402995
-48.305687,3.041953,2.959216
-48.604015,3.0465496,2.9963007
-48.91124,3.0512505,3.034494
-49.323795,3.0414205,3.0518527
-49.59493,3.054882,3.1053195
-50.055702,3.0418072,3.1204395
-50.4144,3.0458179,3.1622272
-50.85,3.040761,3.1920886
-51.29673,3.0363832,3.2244992
-51.67868,3.0430744,3.2743502
-52.130993,3.0423183,3.3151026
-52.535835,3.0500374,3.3694334
-53.089363,3.0408216,3.4019284
3.2899303,2.026794,1.7648482
3.2905636,1.9357264,1.571084
3.2829838,1.845392,1.3783207
3.7998219,1.6887493,1.0869308
3.4410496,1.6416891,0.95809793
3.0420055,1.6015964,0.8409376
-0.15416718,1.8556857,1.1243649
2.8758793,1.3485732,0.29091644
-1.203188,1.8379633,1.0031996
-1.9278297,1.8621571,0.9968662
-3.2015266,1.971504,1.1273422
-3.4533634,1.933403,1.0268116
-3.2762432,1.8304274,0.8230548
-4.687376,1.9750581,1.0175533
-4.7339306,1.9096832,0.8758092
-9.842529,2.5492702,1.8256459
-7.4068203,2.0733566,1.0121903
-8.294502,2.0972862,0.99372816
-8.910711,2.1437333,1.0438519
-9.561054,2.1997705,1.1115847
-9.8393955,2.190226,1.0701218
-10.279621,2.2126234,1.0834265
-10.259626,2.1490567,0.95146513
-10.245348,2.0861807,0.82058334
-10.167883,2.0104017,0.66750336
-10.372187,1.9904661,0.6102109
-10.159655,1.8864014,0.4081955
-10.167227,1.8262897,0.2817154
-19.627556,2.9814043,1.9982443
-19.271818,2.8017056,1.6510015
-20.347248,3.0785692,2.149539
-24.256939,3.14312,2.0360003
-25.698532,3.1534574,1.9833775
-25.787682,3.1034453,1.8785439
-26.355616,3.2396045,2.127617
-26.380646,3.221398,2.089984
-26.419714,3.2133102,2.072114
-26.463043,3.208442,2.0605521
-26.507933,3.2048721,2.051557
-26.549742,3.1990871,2.03826
-26.586544,3.1894898,2.0175357
-26.618498,3.1760416,1.9892988
-26.635387,3.1503956,1.937211
-26.649925,3.1223586,1.8804412
-26.666073,3.0950952,1.8251829
-26.67998,3.0654213,1.7651987
-26.680874,3.0241008,1.6823916
-26.677633,2.9782643,1.5907154
-26.67783,2.9343266,1.5027361
-26.671349,2.8834145,1.4010606
-26.672443,2.838042,1.3102212
-26.670647,2.78891,1.2119856
-26.666988,2.7368078,1.1078963
-26.668537,2.6882572,1.0107541
-26.667002,2.6355054,0.90533924
-26.648582,2.5649586,0.7649436
-26.679995,2.541596,0.7172203
-26.680195,2.4864635,0.6070628
-26.64113,2.3897915,0.41521645
-36.528038,2.335625,0.42531538
-36.537132,2.374139,0.50362873
-36.54285,2.4139924,0.5845084
-36.58752,2.431892,0.62298346
-36.54652,2.4962184,0.75106525
-36.56721,2.5263362,0.8130994
-36.594513,2.5526178,0.8677373
-36.547302,2.6176581,0.99703217
-36.58307,2.6386292,1.0414124
-36.604404,2.666861,1.0997767
-36.554367,2.7308633,1.2269044
-36.563942,2.7639868,1.2946181
-36.574883,2.7960365,1.3602543
-36.582417,2.8293748,1.42835
-36.60173,2.8566363,1.4847779
-36.61982,2.8842218,1.5418248
-36.639477,2.910804,1.5969467
-36.664272,2.9347548,1.6470351
-36.69431,2.9561176,1.6921806
-36.72184,2.978506,1.7392983
-36.761906,2.9951222,1.7754087
-36.831364,2.998684,1.7866483
-36.881294,3.0111175,1.8148632
-36.926716,3.025611,1.8470402
-37.000633,3.0279393,1.8561087
-37.064335,3.0349367,1.8741274
-37.139214,3.0374894,1.8837657
-37.20526,3.0440435,1.9010758
-37.267582,3.0523772,1.9218245
-37.024605,3.1844606,2.177051
-37.038948,3.2109847,2.2321305
-37.05891,3.2350736,2.2826004
-37.083054,3.2573726,2.3296928
-37.10527,3.2802994,2.3779783
-37.1302,3.3020656,2.4240818
-37.164116,3.3203418,2.463625
-37.211067,3.3337407,2.4940152
-38.085648,3.0423143,1.9515924
-38.16948,3.0460596,1.96457
-38.259003,3.0481381,1.9745202
-38.36786,3.043768,1.9724979
-38.477066,3.0398607,1.9714794
-38.58661,3.036418,1.9714684
-38.73208,3.0212264,1.9496689
-38.794483,3.0350647,1.9821844
-38.91717,3.0288923,1.9775114
-38.993546,3.0387192,2.0027537
-39.06498,3.0504563,2.0316358
-39.18596,3.0464387,2.031383
-39.753025,2.9006634,1.7687454
-39.790688,2.9259176,1.8233347
-39.8104,2.9567387,1.8882332
-39.830433,2.987301,1.9526558
-39.959602,2.9845407,1.9557147
-40.076416,2.9861596,1.9670129
-40.18071,2.992061,1.98634
-40.289394,2.9971523,2.0043302
-40.478725,2.9794283,1.9807239
-40.56393,2.9925222,2.0137196
-40.727585,2.983825,2.00709
-40.812096,2.998043,2.0424395
-40.97386,2.9913497,2.0399017
-41.05414,3.007624,2.0792909
-41.19378,3.0082836,2.0905194
-41.3574,3.003301,2.091776
-41.45451,3.0165265,2.126145
-41.578983,3.0231023,2.1486936
-41.73461,3.022341,2.1582642
-41.83455,3.03633,2.1945415
-42.03434,3.0260248,2.187523
-42.154175,3.036306,2.2176023
-42.328808,3.0339296,2.225346
-42.47411,3.0394106,2.247363
-42.65119,3.038145,2.2576842
-42.83948,3.0351884,2.2653422
-43.04542,3.029178,2.2679715
-43.213593,3.0327196,2.2877932
-43.379265,3.0376403,2.3103528
-43.539658,3.044518,2.3366547
-43.82872,3.0244937,2.3163514
-43.97504,3.0362883,2.3519745
-44.17308,3.037954,2.370325
-44.341824,3.0466356,2.4012074
-44.62291,3.033357,2.3946095
-44.778233,3.0466635,2.4342632
-45.12554,3.0229526,2.4109087
-45.23093,3.0479283,2.4713411
-45.55046,3.032517,2.4633856
-45.814423,3.0292149,2.4766588
-46.089165,3.0252707,2.4894629
-46.30122,3.0341125,2.5243778
-46.567272,3.0343413,2.5453906
-46.83085,3.0363476,2.5700068
-47.066296,3.0445342,2.6055107
-47.40551,3.0362544,2.614441
-47.543427,3.0633214,2.6822538
-47.84901,3.063471,2.7064462
-48.266804,3.0470865,2.704587
-48.570435,3.0509496,2.7365794
-48.922333,3.0488336,2.7597942
-49.29869,3.0447748,2.780892
-49.588882,3.0555396,2.8265915
-50.04895,3.0427768,2.8360176
-50.44111,3.0421772,2.8658705
-50.83367,3.0435097,2.8999133
-51.16749,3.054963,2.950791
-51.653824,3.0473685,2.9735174
-52.116417,3.0454226,3.0063963
-52.504494,3.0555303,3.0589623
-53.044807,3.048172,3.0867238
3.3578892,2.2101557,1.6691484
3.3887959,2.1156788,1.4694934
3.1915874,2.0475688,1.3109598
3.561369,1.9120889,1.0466118
3.452303,1.8331838,0.8711052
2.9704876,1.8014445,0.77144146
1.0119762,1.9617739,0.98307943
-0.22904587,2.038468,1.0642204
-0.5406399,1.9971995,0.9557924
-0.83511734,1.9550338,0.8466625
-0.6365547,1.8453939,0.6265826
-1.7343559,1.9189372,0.710783
-7.8622856,2.28249,1.0831256
-9.866175,2.4953165,1.4047132
-8.248079,2.1542177,0.7868867
-8.53459,2.140321,0.7391887
-8.930811,2.1475556,0.72921324
-10.321976,2.3388069,1.0447621
-10.282211,2.272087,0.9063964
-10.189459,2.1948237,0.7491827
-10.207977,2.13805,0.62823105
-10.362984,2.1076865,0.55444336
-10.137426,2.0025988,0.34706926
-10.139486,1.9415708,0.2183466
-19.280407,2.8750944,1.6239624
-19.114826,2.7878537,1.4515471
-19.468073,2.8503716,1.5617123
-20.304628,3.057895,1.9465723
-24.841862,3.1498728,1.9057789
-25.788998,3.0357146,1.6348152
-26.292248,3.2699542,2.0937867
-26.364439,3.2491732,2.0489368
-26.392096,3.2326107,2.0142717
-26.435701,3.2276058,2.0025897
-26.480867,3.2238836,1.9934826
-26.524485,3.2191386,1.9823642
-26.569626,3.2156842,1.9738369
-26.60525,3.2049758,1.9508967
-26.62573,3.1822584,1.9040613
-26.638893,3.1532865,1.8447723
-26.654669,3.1258552,1.788549
-26.666298,3.0944676,1.7244377
-26.673,3.0582995,1.6507912
-26.685253,3.0260293,1.5849042
-26.67287,2.971855,1.4753299
-26.675552,2.929477,1.3892579
-26.667105,2.8762114,1.281446
-26.666687,2.8288128,1.1853175
-26.671852,2.7853272,1.0969825
-26.651592,2.7171562,0.95934343
-26.666979,2.6807215,0.88504934
-26.656996,2.6191094,0.7604561
-26.681181,2.589048,0.6988745
-26.681341,2.5345333,0.5884228
-36.534176,2.431354,0.48035812
-36.53987,2.4708402,0.56140614
-36.56975,2.4966936,0.6155939
-36.535095,2.5567794,0.73715496
-36.564827,2.581842,0.78976536
-36.617706,2.5946229,0.8182378
-36.532333,2.6787043,0.98684597
-36.58397,2.6914372,1.0152135
-36.62809,2.7080286,1.0511861
-36.613964,2.7535655,1.14397
-36.56826,2.8139253,1.2657785
-36.57923,2.8457348,1.3315663
-36.60881,2.8682513,1.3791409
-36.62968,2.89475,1.4345202
-36.64098,2.9254928,1.4982014
-36.661476,2.9516413,1.5528898
-36.694878,2.9716558,1.5955925
-36.727943,2.991737,1.6384397
-36.77282,3.0064576,1.6708417
-36.83619,3.0130553,1.687429
-36.88079,3.0280802,1.72049
-36.94265,3.0357046,1.7391648
-37.012558,3.0401165,1.7516356
-37.085495,3.0435472,1.7622561
-37.161514,3.0460207,1.7710767
-37.23099,3.0515394,1.7858782
-37.30278,3.0564024,1.7994661
-37.396458,3.05277,1.796639
-37.459465,3.0618322,1.8185005
-37.05294,3.2555082,2.1978912
-37.074505,3.2789257,2.2473512
-37.103336,3.299416,2.2911553
-37.13029,3.3205483,2.3362122
-37.172405,3.3359172,2.3701577
-37.207314,3.3540084,2.4093828
-38.15038,3.039885,1.8085413
-38.23952,3.0422895,1.818182
-38.343075,3.039969,1.8188224
-38.45488,3.035278,1.8150148
-38.55189,3.0363512,1.8223915
-38.691624,3.0231805,1.8025498
-38.774765,3.0300992,1.8213544
-38.867695,3.0340793,1.8346186
-38.954277,3.0405986,1.8528342
-39.02136,3.0538945,1.8840828
-39.140816,3.0504208,1.883399
-39.719177,2.9005506,1.6038284
-39.780094,2.918653,1.6448064
-39.79018,2.9527946,1.716341
-39.81716,2.9814801,1.7774982
-39.92151,2.9864657,1.7937031
-40.033577,2.9896097,1.8065386
-40.18634,2.981187,1.7976131
-40.232063,3.0050387,1.8498816
-40.46108,2.9757702,1.8019161
-40.494896,3.0037842,1.8622394
-40.657608,2.9953046,1.8538837
-40.789898,2.9962013,1.8633671
-40.919018,2.9986303,1.8758955
-41.0328,3.005863,1.8975954
-41.173637,3.0063503,1.9068141
-41.31652,3.007001,1.9165244
-41.40721,3.022017,1.9532318
-41.582108,3.0156515,1.9502196
-41.656204,3.035882,1.9969196
-41.81581,3.0348585,2.0042448
-41.982864,3.0328004,2.009881
-42.117397,3.0395515,2.0320578
-42.297585,3.0359232,2.0352573
-42.47104,3.0348282,2.043397
-42.644867,3.0345287,2.0532608
-42.848747,3.0281537,2.0522351
-43.036884,3.0264392,2.0600672
-43.217266,3.027428,2.0731406
-43.335323,3.0431402,2.1133628
-43.54622,3.0390668,2.117742
-43.750275,3.0375564,2.1271253
-43.934586,3.0412748,2.1463223
-44.15222,3.0389364,2.1548786
-44.357403,3.0402765,2.1704407
-44.53708,3.0478187,2.197514
-44.797436,3.04011,2.1975403
-45.022198,3.0407634,2.212997
-45.268707,3.0383358,2.2233663
-45.467205,3.0463219,2.2527156
-45.803223,3.029471,2.2383823
-46.074505,3.0263546,2.2489862
-46.202682,3.0506203,2.3083768
-46.49997,3.045204,2.3158622
-46.85058,3.0319498,2.310226
-47.12069,3.0344415,2.3327813
-47.382633,3.039676,2.360662
-47.500687,3.070232,2.432931
-47.870304,3.0599923,2.4350758
-48.273926,3.046193,2.4319239
-48.54185,3.0559707,2.4700007
-48.8855,3.0553012,2.4908895
-49.272705,3.0497346,2.5042748
-49.612507,3.0532515,2.533894
-50.038216,3.0458632,2.5460262
-50.44143,3.0439038,2.5682688
-50.79596,3.0508752,2.6063466
-51.20198,3.0524933,2.6364841
-51.678093,3.0466626,2.6554513
-52.10634,3.04963,2.6900368
-52.581573,3.0486515,2.719386
-53.08063,3.04706,2.7490664
3.5759602,2.1134024,0.9512596
3.4317951,2.03819,0.7828107
2.7767353,2.0246382,0.7198863
-0.20883942,2.2997737,1.1539311
-0.28298378,2.226532,0.99351835
-0.5276928,2.175252,0.8713136
-0.72260094,2.1185358,0.74011946
-0.6274948,2.02389,0.54286575
-0.64772034,1.9441416,0.37157154
-0.6932144,1.8677208,0.20614624
-5.1512203,2.4176052,1.1518226
-5.3550625,2.3764653,1.0537024
-5.515234,2.3297603,0.94598675
-6.862171,2.3956444,1.0181499
-8.215448,2.3495207,0.8518672
-8.272278,2.2949543,0.73296595
-8.324236,2.2395968,0.6126733
-10.271656,2.5134764,1.0978556
-10.344404,2.4674191,0.99638224
-10.286787,2.3980932,0.851985
-10.3754425,2.2953773,0.6295471
-10.154846,2.1332388,0.29638815
-25.203678,3.0507226,1.5674496
-25.909676,3.0502675,1.5456071
-26.353882,3.2488618,1.9432421
-26.357227,3.214215,1.8716693
-26.405222,3.211722,1.8652434
-26.456728,3.2120416,1.8645382
-26.501535,3.2075634,1.8541303
-26.543846,3.2013016,1.8401232
-26.598562,3.204769,1.8458676
-26.61199,3.1760228,1.7862821
-26.626099,3.1472476,1.7266345
-26.648058,3.1242688,1.6787472
-26.656826,3.090011,1.607964
-26.671572,3.059994,1.545785
-26.673635,3.0185895,1.4604745
-26.663494,2.965698,1.3518167
-26.665985,2.922503,1.2628398
-26.665993,2.876053,1.1672344
-26.667616,2.8298922,1.0722027
-26.66215,2.7760777,0.9615979
-26.655489,2.7197328,0.8458295
-26.657053,2.669637,0.7427497
-26.67285,2.6318607,0.66471386
-26.673086,2.5779734,0.55389786
-36.543163,2.484146,0.44039106
-36.55149,2.521899,0.51891327
-36.563484,2.5571818,0.59245586
-36.587017,2.5859509,0.6528964
-36.588463,2.6258724,0.735744
-36.62906,2.6451674,0.7771492
-36.631668,2.683625,0.85703754
-36.590836,2.7432823,0.9794512
-36.62966,2.7625403,1.0207763
-36.65333,2.7891319,1.0768185
-36.627586,2.8393264,1.1801662
-36.623238,2.8785186,1.2614331
-36.632477,2.9107692,1.3287778
-36.665977,2.9313514,1.3727584
-36.717945,2.9433408,1.3995585
-36.73824,2.9698372,1.4553947
-36.7806,2.9861865,1.4909511
-36.833385,2.9979198,1.5173044
-36.888203,3.0088794,1.5421419
-36.94366,3.0197055,1.5667434
-36.99615,3.0319512,1.5942078
-37.088516,3.0274327,1.5882812
-37.146122,3.0379725,1.612423
-37.21985,3.0420158,1.6236625
-37.299606,3.0439184,1.6306901
-37.363182,3.0527341,1.6515245
-37.467125,3.045664,1.6408181
-37.542175,3.0505874,1.6540189
-37.612034,3.0578556,1.6719284
-37.737404,3.044026,1.6480169
-37.10564,3.3189926,2.1969428
-37.167664,3.327101,2.216351
-37.19959,3.3466146,2.258391
-38.120052,3.039999,1.6549287
-38.207233,3.0432909,1.6653442
-38.309464,3.0415964,1.6659713
-38.4238,3.036147,1.6592627
-38.5251,3.0358863,1.66289
-38.656868,3.0256119,1.6468482
-38.762833,3.0249062,1.6497798
-38.844223,3.033027,1.6701827
-38.915195,3.0449536,1.6981382
-39.012016,3.0486214,1.7099066
-39.104954,3.054007,1.725131
-39.71969,2.892267,1.4123464
-39.774963,2.9124923,1.4571118
-39.788826,2.9457912,1.5275359
-39.807884,2.977264,1.594377
-39.87123,2.995032,1.6344061
-40.034447,2.9828389,1.6159248
-40.13719,2.989588,1.6345897
-40.262753,2.9900873,1.6411552
-40.40042,2.9876993,1.6422124
-40.499508,2.99709,1.6663365
-40.633522,2.9970186,1.6721473
-40.790894,2.9910944,1.6667209
-40.923058,2.9929674,1.6765876
-41.00047,3.0104022,1.7167544
-41.176975,3.0014634,1.7059207
-41.28045,3.0128558,1.7345977
-41.438705,3.0103478,1.736525
-41.554638,3.0195892,1.7612925
-41.70217,3.021299,1.7716646
-41.864048,3.0201354,1.7766676
-42.013096,3.0229812,1.7895565
-42.196884,3.0180616,1.7877054
-42.265907,3.041797,1.8409953
-42.486755,3.0295968,1.8255634
-42.651184,3.0318322,1.8379889
-42.812347,3.0356421,1.8536129
-43.01777,3.0301485,1.8517003
-43.193092,3.032496,1.8649597
-43.355194,3.0386472,1.8856621
-43.569145,3.0342593,1.8865762
-43.737274,3.040842,1.9085355
-43.951164,3.0385346,1.9139066
-44.202957,3.029407,1.9066939
-44.33817,3.045596,1.9474921
-44.601917,3.0363305,1.9406276
-44.79083,3.043389,1.9647474
-45.05658,3.0362701,1.9625888
-45.33496,3.0280938,1.958837
-45.536987,3.035909,1.9852958
-45.831303,3.0274198,1.9817247
-46.074074,3.0299685,1.9990764
-46.339645,3.0296025,2.0113988
-46.590683,3.0331774,2.031406
-46.823315,3.0412388,2.0600653
-47.140858,3.0358033,2.064299
-47.39112,3.0434084,2.0929356
-47.594418,3.0600712,2.138524
-47.958717,3.0513496,2.1382127
-48.31612,3.0456269,2.1439729
-48.62471,3.0494485,2.167633
-48.94703,3.0526965,2.1908011
-49.328926,3.0485096,2.201182
-49.634933,3.0576067,2.236065
-50.00444,3.0589297,2.257638
-50.455036,3.0504875,2.2625551
-50.873665,3.0488691,2.2804408
-51.27648,3.0515687,2.3067737
-51.716415,3.0512938,2.3287005
-52.181046,3.0499935,2.3497472
-52.703342,3.0435925,2.362906
-53.178837,3.045807,2.3921118
3.6900997,2.1071248,0.44216633
2.7892475,2.1196232,0.43495083
1.0329075,2.2390175,0.62491703
-0.3628769,2.323715,0.7540693
-0.62674713,2.2743185,0.63819504
-0.63126564,2.192956,0.4635496
-2.4437485,2.3474426,0.72686005
-3.2301655,2.3748994,0.7563081
-8.243601,2.5451994,0.9350991
-8.308947,2.4921212,0.81919384
-8.336327,2.4329948,0.6917815
-8.376852,2.3759105,0.5682874
-10.288649,2.632792,1.0475745
-10.141924,2.54914,0.8741932
-10.328981,2.5223258,0.81014013
-10.165144,2.4343343,0.6281738
-10.219101,2.3842092,0.5192189
-10.059179,2.2950308,0.33463955
-10.138266,2.2489724,0.23352289
-18.661983,2.9342153,1.395658
-20.34311,3.0927641,1.6768236
-26.286526,3.240356,1.8248682
-26.32284,3.2289872,1.8003755
-26.372225,3.2270496,1.795352
-26.422552,3.226017,1.7922115
-26.472776,3.2251432,1.7894168
-26.521896,3.2236733,1.7854071
-26.563517,3.2166731,1.7699943
-26.593472,3.2006626,1.7359862
-26.616499,3.1789858,1.6902804
-26.623278,3.1439354,1.6169481
-26.63092,3.1088195,1.5434747
-26.653454,3.0851943,1.4937401
-26.664059,3.0511532,1.4224782
-26.65861,3.0027266,1.3214765
-26.659369,2.9584427,1.2290258
-26.65457,2.9082103,1.1242657
-26.66383,2.8691826,1.0426621
-26.65408,2.8120584,0.9236264
-26.651398,2.7598848,0.8148141
-26.661924,2.718624,0.72856474
-26.66597,2.6701863,0.6274605
-26.67415,2.6244278,0.53189135
-36.55505,2.534592,0.4033084
-36.54814,2.5801318,0.49867773
-36.573586,2.608051,0.5578799
-36.59135,2.6396542,0.6246381
-36.59085,2.6802034,0.7097349
-36.66362,2.683253,0.7179532
-36.698845,2.705316,0.76516247
-36.56193,2.811903,0.98552895
-36.631382,2.8160625,0.99603605
-36.67664,2.8321273,1.0309458
-36.72439,2.8470228,1.0634761
-36.61399,2.9360712,1.2477355
-36.666515,2.9479563,1.2740932
-36.695374,2.9707782,1.3228292
-36.73567,2.988283,1.360704
-36.776398,3.0055733,1.3981538
-36.83946,3.0129986,1.4154677
-36.891174,3.0255969,1.4433703
-36.962055,3.0300434,1.4546556
-37.028725,3.036585,1.4702501
-37.107014,3.038498,1.4764342
-37.177483,3.0440345,1.4900451
-37.24437,3.051331,1.5072742
-37.323803,3.053792,1.5146861
-37.394524,3.0601172,1.5300059
-37.517384,3.0460703,1.5038981
-37.5945,3.0507069,1.515871
-37.68753,3.0495276,1.5160561
-37.784626,3.0472782,1.5141168
-37.873672,3.0485818,1.5194492
-37.9553,3.0530896,1.5313382
-38.0839,3.0406456,1.508862
-38.166798,3.045626,1.5218148
-38.269993,3.0436711,1.52075
-38.39378,3.0349386,1.5060077
-38.49222,3.035818,1.5108132
-38.597214,3.0349147,1.5120659
-38.708042,3.0325508,1.5104265
-38.802532,3.0363016,1.5212235
-38.889217,3.0431046,1.5382442
-38.982414,3.0481308,1.5517263
-39.041927,3.0645714,1.5883131
-39.13446,3.0705233,1.603764
-40.23599,2.7558084,0.9725647
-39.78695,2.936771,1.3412638
-39.820362,2.964135,1.4002018
-39.842636,2.994844,1.4658842
-40.568985,2.8123357,1.1026464
-40.657074,2.825767,1.133883
-40.41912,2.9357247,1.3590903
-40.438858,2.9685085,1.4291515
-40.500904,2.9889598,1.474473
-40.56273,3.0096238,1.520256
-40.829323,2.9730604,1.451438
-40.950146,2.9784505,1.4668078
-41.041294,2.9925117,1.4996052
-41.147827,3.0027816,1.5248885
-41.2424,3.0166957,1.5575242
-41.387,3.0178623,1.5647936
-41.534527,3.0189972,1.5721111
-41.704983,3.0150177,1.5693579
-41.8576,3.0164242,1.5774612
-41.99042,3.0235145,1.5969863
-42.1805,3.0171976,1.5899882
-42.29272,3.0307062,1.6224885
-42.4633,3.0307856,1.628458
-42.65643,3.0264294,1.6257901
-42.82071,3.0297668,1.6385102
-42.971027,3.037108,1.6592836
-43.163612,3.035648,1.6628165
-43.341385,3.038464,1.6749544
-43.55821,3.0336256,1.6721807
-43.73223,3.0391417,1.6899757
-43.967213,3.0325692,1.6841869
-44.15556,3.0369804,1.7001753
-44.326004,3.0460105,1.7253947
-44.5551,3.0439608,1.7290974
-44.819496,3.0360389,1.7215576
-45.06894,3.032445,1.7227349
-45.313408,3.0311022,1.7285595
-45.54176,3.034081,1.7430477
-45.79178,3.0341442,1.7521148
-46.062683,3.0316296,1.7564559
-46.340637,3.0292275,1.7613144
-46.574394,3.0361354,1.7844787
-46.838364,3.0389013,1.7999153
-47.114,3.0409875,1.8143487
-47.375053,3.0469363,1.8365302
-47.648697,3.052092,1.857501
-47.997208,3.0463724,1.8579874
-48.305756,3.0488737,1.8746128
-48.589207,3.0568955,1.9021516
-48.937504,3.056286,1.9136386
-49.331993,3.050434,1.9156389
-49.63954,3.0595806,1.9465556
-50.06768,3.0526228,1.9474916
-50.448746,3.0546267,1.9658966
-50.84279,3.0567412,1.9850535
-51.22488,3.0625038,2.0116096
-51.745872,3.0514517,2.0073504
-52.174316,3.055328,2.0316572
-52.69782,3.0490813,2.037856
-53.13995,3.055827,2.068893
0.10308647,2.2742188,0.2128048
-0.62800217,2.2814808,0.21119165
-8.312132,2.6215675,0.7632494
-8.364035,2.566391,0.64346886
-8.393181,2.5076199,0.51651096
-8.395966,2.4444675,0.38076544
-8.426031,2.3855348,0.25348043
-10.093668,2.6011574,0.6784773
-10.185213,2.557325,0.5822611
-10.115236,2.4856982,0.43005896
-10.153425,2.4324684,0.31491852
-18.887398,3.1058242,1.5659075
-18.669668,2.9701931,1.2803917
-18.864204,2.981009,1.2994666
-19.087013,3.0004807,1.3364725
-19.313122,3.0221415,1.3781004
-19.501865,3.0348468,1.4013696
-19.642689,3.0352576,1.3993592
-20.14383,3.1010892,1.5297995
-20.39269,3.0990613,1.5204368
-20.490223,3.0909882,1.5012364
-20.617233,3.0922318,1.5013518
-20.728317,3.0892754,1.4928274
-20.875826,3.098124,1.5087914
-20.974876,3.0926356,1.495122
-21.184433,3.1226435,1.5550456
-21.25127,3.1081762,1.5228662
-21.386253,3.1160727,1.5370865
-21.48404,3.112491,1.5275502
-21.584791,3.1103654,1.5210719
-21.75003,3.1304982,1.5608397
-21.84683,3.1282904,1.5542822
-26.237167,3.2468295,1.734314
-26.271362,3.2335222,1.7056837
-26.32694,3.2353866,1.7089386
-26.382835,3.2378054,1.7133713
-26.433474,3.2367027,1.7104158
-26.482008,3.234272,1.7046776
-26.528503,3.2304962,1.6961222
-26.579865,3.2306056,1.695745
-26.596745,3.2041905,1.6396036
-26.60421,3.1698434,1.566781
-26.62057,3.141866,1.5073495
-26.635265,3.1119726,1.4438887
-26.646069,3.0782447,1.3723593
-26.652687,3.0402675,1.2918859
-26.647633,2.9914927,1.1886911
-26.652765,2.9502711,1.1013794
-26.662914,2.9124358,1.0211906
-26.645763,2.8494198,0.8880043
-26.642738,2.7974474,0.77804756
-26.666916,2.7690568,0.71772146
-26.669624,2.7200162,0.61392593
-26.658762,2.6568036,0.4802866
-36.55466,2.6319745,0.4652481
-36.57374,2.6630263,0.5314932
-36.583744,2.6983268,0.6066289
-36.600143,2.7299604,0.67408514
-36.62244,2.7583055,0.7346573
-36.662003,2.7779095,0.77693987
-36.68194,2.8069339,0.83893585
-36.63426,2.867961,0.9678602
-36.67684,2.8853178,1.0054436
-36.721878,2.9015136,1.0406084
-36.698997,2.949008,1.1411991
-36.739002,2.9671462,1.1804266
-36.76418,2.9919183,1.2335229
-36.823036,3.0015388,1.2549715
-36.87274,3.015355,1.2851987
-36.951927,3.0164664,1.2889113
-37.007175,3.0282202,1.3148618
-37.07733,3.0338004,1.3279448
-37.142544,3.0417383,1.3459673
-37.216446,3.0463212,1.3570089
-37.294827,3.049396,1.3649302
-37.37995,3.050114,1.3679619
-37.46972,3.0494053,1.3680477
-37.67885,3.0021749,1.2712259
-37.79585,2.9923623,1.2524333
-37.87151,2.9991345,1.2682233
-37.96379,2.999909,1.2715497
-38.05178,3.0027514,1.279213
-38.169605,2.9949589,1.2647753
-38.282574,2.9896226,1.2554917
-38.401352,2.9828162,1.2431931
-38.59084,2.9514315,1.1798415
-38.853638,2.8954663,1.0654817
-38.814278,2.9466822,1.1739206
-38.88032,2.9609137,1.2055154
-38.95335,2.9729674,1.2326078
-39.02001,2.987412,1.264688
-39.06909,3.007888,1.3093057
-39.152237,3.0172646,1.330914
-39.04934,3.087151,1.478014
-39.899582,2.8514144,0.99160624
-40.033195,2.8481877,0.98733854
-40.214394,2.8308496,0.9539013
-40.353146,2.8276403,0.94979525
-40.378353,2.8596447,1.0186214
-40.48207,2.8679624,1.0384498
-40.54456,2.8889399,1.0844979
-40.631725,2.902847,1.1159544
-40.637146,2.9406624,1.1968374
-40.537216,3.0081892,1.3390689
-40.939236,2.9336011,1.1878963
-41.339478,2.8621461,1.0433941
-41.476097,2.8654506,1.0532632
-41.27882,2.9596164,1.2504725
-41.359264,2.9780316,1.2915068
-41.632343,2.9460588,1.2288218
-41.76052,2.953311,1.247004
-41.901825,2.9578001,1.2595649
-42.047733,2.9618144,1.2712202
-42.173943,2.9714491,1.2944946
-42.398838,2.9574206,1.2692413
-42.530018,2.9673333,1.2932415
-42.755295,2.9553742,1.27245
-42.91084,2.961062,1.2879543
-43.118805,2.9553363,1.2801623
-43.320267,2.9521968,1.27778
-43.484,2.9586115,1.2950568
-43.67745,2.959216,1.3005481
-43.84716,2.9660015,1.3187757
-44.003674,2.9764576,1.3445935
-44.174763,2.9845493,1.3656774
-44.356934,2.9911442,1.3838124
-44.5412,2.9981973,1.4029884
-44.691227,3.0131004,1.438251
-44.931503,3.0106404,1.4383025
-45.13762,3.0161428,1.4546824
-45.29645,3.031825,1.4918566
-45.52055,3.0357912,1.5053725
-45.75609,3.0387325,1.5169625
-46.04006,3.033925,1.51303
-46.253414,3.0434065,1.5381846
-46.60991,3.0283844,1.513998
-46.872482,3.0317364,1.527142
-47.08982,3.0442142,1.5588665
-47.383057,3.0448756,1.5669651
-47.677765,3.046787,1.5777955
-48.028366,3.0410502,1.5734949
-48.32419,3.045932,1.5907674
-48.631767,3.0504477,1.6075406
-48.965324,3.052492,1.6196194
-49.350555,3.0483804,1.619679
-49.658695,3.0577457,1.6469421
-50.10126,3.0489943,1.6383929
-50.420834,3.0601692,1.6698508
-50.85338,3.0570621,1.673243
-51.257954,3.0600276,1.689064
-51.75605,3.0524406,1.684392
-52.15134,3.061001,1.7120733
-52.709587,3.0504937,1.7025676
-53.07038,3.0678434,1.7483969
-0.43224144,2.6653624,0.62324905
-6.31468,2.5169818,0.24160576
-7.1646404,2.5738885,0.35582304
-7.6193123,2.5759525,0.3556385
-8.395321,2.6296272,0.4636507
-8.423466,2.5706978,0.33611012
-10.093088,2.7728806,0.75575304
-10.159414,2.6657164,0.52370596
-10.116562,2.5395436,0.2517557
-19.136526,3.2738886,1.7478237
-18.889103,3.174701,1.5363545
-18.987158,3.160321,1.5044503
-19.038845,3.1345296,1.4483895
-18.676779,3.0019672,1.1660738
-18.758808,2.9828014,1.124022
-19.134777,3.041908,1.2479272
-19.198177,3.0193427,1.1987305
-19.396643,3.0337408,1.2279434
-19.615273,3.054844,1.2714248
-19.684103,3.0353131,1.2287307
-20.352379,3.11233,1.3886299
-20.4512,3.1041791,1.3701997
-20.56709,3.1015677,1.3635521
-20.670471,3.0957444,1.350102
-20.806946,3.1005466,1.3592463
-20.942932,3.1059425,1.3696775
-21.080029,3.112436,1.3824677
-21.186974,3.1100922,1.3764968
-21.31517,3.1151319,1.3862429
-21.41116,3.1103594,1.3751478
-21.536179,3.1156366,1.3854413
-21.666224,3.1232915,1.400814
-21.773834,3.1240826,1.401609
-21.887335,3.1274588,1.4079208
-21.993462,3.128889,1.4101119
-22.107718,3.1337419,1.4196043
-22.202374,3.1322472,1.4156046
-22.30745,3.134984,1.4206295
-22.410637,3.1376019,1.4254165
-22.502897,3.136738,1.4228063
-22.601654,3.1387708,1.4263802
-22.710518,3.1451654,1.439259
-22.791454,3.1414778,1.4306779
-22.89732,3.147848,1.4435358
-23.004934,3.1555214,1.459188
-23.093082,3.1560915,1.4597187
-23.174421,3.1543784,1.4553976
-23.264927,3.1568027,1.4599066
-23.362995,3.1628432,1.4721375
-23.45208,3.1657088,1.477613
-23.528786,3.163833,1.4729929
-23.60319,3.1613412,1.467071
-23.691416,3.1651943,1.474688
-23.766077,3.1635988,1.4706984
-23.857128,3.1696477,1.4830227
-23.944338,3.1745167,1.4928422
-24.01276,3.1713479,1.4855275
-24.093239,3.1740456,1.490737
-24.162645,3.1720304,1.4859018
-24.247932,3.177842,1.4977765
-24.32287,3.1792274,1.5002165
-24.394913,3.179618,1.5005431
-24.467384,3.180595,1.5021315
-24.548714,3.1863549,1.5139365
-24.618698,3.1869185,1.5146604
-24.691662,3.1893668,1.5194159
-24.764986,3.1924136,1.5254588
-24.830448,3.191786,1.5236645
-24.895102,3.1910605,1.5216689
-24.95585,3.1885703,1.5159125
-25.022648,3.189627,1.5177374
-25.095951,3.1946118,1.5279608
-25.178028,3.204924,1.5495715
-25.232521,3.2003217,1.5393329
-25.286366,3.195557,1.5287528
-25.373339,3.210093,1.5594134
-25.42623,3.2054167,1.549036
-25.486069,3.2050443,1.5478597
-25.561335,3.2142203,1.5670934
-25.598385,3.2007413,1.5379238
-25.663456,3.2044528,1.5454936
-25.701826,3.1919231,1.5183601
-26.043652,3.228664,1.5952144
-26.116842,3.2407722,1.6207852
-26.175322,3.2434278,1.626152
-26.23097,3.2444737,1.6280842
-26.282314,3.2428007,1.6242075
-26.334583,3.2420182,1.6222401
-26.392292,3.2454238,1.6292338
-26.442259,3.2435217,1.6248822
-26.49907,3.246928,1.6318889
-26.542921,3.2409213,1.6187673
-26.578587,3.2287374,1.5924363
-26.597248,3.203248,1.5376487
-26.611786,3.1740222,1.4748673
-26.623299,3.1417744,1.4056206
-26.631918,3.1064792,1.3298521
-26.653767,3.0812945,1.2757134
-26.635143,3.0217319,1.1480231
-26.6471,2.9866025,1.0726051
-26.65114,2.9438238,0.9808173
-26.650639,2.896,0.878232
-26.647533,2.844621,0.7680354
-26.667826,2.8130531,0.7002306
-26.667158,2.7614787,0.58961105
-26.569246,2.6176205,0.28149462
-36.54369,2.689709,0.4523654
-36.565903,2.7188797,0.51518965
-36.591393,2.7461019,0.5738549
-36.611763,2.7755866,0.63734865
-36.607895,2.816579,0.7254038
-36.667854,2.8262277,0.74656296
-36.69449,2.8519037,0.80192995
-36.652943,2.9094129,0.9252224
-36.674744,2.936519,0.98363495
-36.738785,2.943997,1.0001731
-36.796013,2.9547896,1.0237908
-36.861427,2.9620688,1.0399194
-37.048073,2.9159813,0.9422369
-37.179836,2.895404,0.8989873
-37.245113,2.9044473,0.9189191
-37.32238,2.9085977,0.92842674
-37.373516,2.9240954,0.9621382
-37.407322,2.9468763,1.0113788
-37.445045,2.9679446,1.0569725
-37.47809,2.9908566,1.1064973
-37.534733,3.0042026,1.1356397
-37.580288,3.0220761,1.1744347
-37.627804,3.0392098,1.2116599
-37.69211,3.0499012,1.2351656
-37.774227,3.053997,1.2446313
-37.86099,3.0567148,1.2511735
-37.95246,3.0580888,1.2548685
-38.066093,3.0517554,1.2421656
-38.150555,3.056677,1.2534432
-38.277176,3.046834,1.233304
-38.62935,2.9577153,1.0444565
-38.85241,2.9165478,0.9577236
-38.924152,2.9293036,0.9857707
-39.014557,2.9359207,1.0007668
-39.107437,2.9420965,1.0148406
-39.163464,2.9609728,1.0559402
-39.356102,2.9349756,1.0016217
-39.43061,2.9486136,1.0316133
-39.615242,2.9271502,0.9869957
-39.743073,2.924833,0.9831085
-39.86084,2.92634,0.9873729
-40.01371,2.917585,0.9698534
-40.14604,2.915953,0.96749544
-40.190605,2.941452,1.0227928
-40.359436,2.9300022,0.99962616
-40.468014,2.9371984,1.0160842
-40.527966,2.958978,1.0635228
-40.611748,2.9740665,1.0967684
-40.68463,2.9925344,1.1371999
-40.814285,2.9954097,1.1445599
-40.94928,2.9974556,1.150188
-41.16814,2.977428,1.1090293
-41.62768,2.8942611,0.93404007
-41.69375,2.9179761,0.9857397
-41.760406,2.9416945,1.0374584
-41.81737,2.9680653,1.0948067
-41.906673,2.9863355,1.135006
-42.031254,2.99611,1.157228
-42.18196,3.000011,1.1670399
-42.421627,2.9830294,1.1326809
-43.628807,2.916062,0.99972725
-43.87448,2.9056752,0.9796767
-44.072773,2.9522943,1.0821095
-45.404327,2.9554114,1.1017714
-45.5036,2.983698,1.1637735
-47.19377,2.708254,0.5861101
-46.263702,2.9357176,1.0677395
-46.34713,2.9697075,1.1419125
-46.56827,2.9788888,1.1639204
-46.826653,2.9824908,1.1742663
-47.133633,2.978849,1.1694684
-47.368935,2.9891872,1.194138
-47.65941,2.9913049,1.2016215
-47.995186,2.987338,1.1964335
-48.344772,2.982845,1.1902566
-48.64827,2.9875815,1.2035494
-49.01987,2.983086,1.1976047
-49.447754,2.9717798,1.1775341
-49.80401,2.9736202,1.1851315
-49.99646,3.001742,1.2478266
-50.378193,3.0030022,1.2544503
-50.677074,3.0181103,1.290143
-51.180664,3.0058753,1.2688808
-51.307083,3.0482812,1.3617878
-51.863537,3.033081,1.334683
-52.388634,3.0249374,1.3225083
-52.737457,3.0423312,1.3636994
-53.1595,3.0521746,1.3893409
-19.186836,3.2826843,1.571342
-19.008629,3.2004406,1.3918595
-19.153164,3.1979103,1.3869286
-19.186573,3.1677458,1.321485
-18.938553,3.0246518,1.0094357
-19.111057,3.030169,1.022099
-19.218363,3.0190449,0.9983282
-19.36986,3.0204613,1.0019898
-19.627419,3.052042,1.0716405
-19.766762,3.052037,1.0721622
-20.36972,3.1103582,1.2012577
-20.460926,3.0997417,1.178514
-20.56586,3.093618,1.1655893
-20.67949,3.0906215,1.1594958
-20.833036,3.100463,1.1814666
-20.96032,3.1030052,1.1874638
-21.100708,3.110365,1.2039852
-21.204845,3.1069324,1.1969004
-21.348194,3.1166995,1.2186637
-21.453997,3.1149914,1.2153311
-21.566545,3.116054,1.2180481
-21.673283,3.1157553,1.2177811
-21.788212,3.1187944,1.224802
-21.903496,3.1225817,1.233449
-22.010689,3.124178,1.2372994
-22.115227,3.125408,1.2403421
-22.228516,3.130324,1.251431
-22.334562,3.1332533,1.258172
-22.44247,3.1374447,1.2676635
-22.543983,3.1398659,1.2732792
-22.645874,3.1429796,1.2804012
-22.73336,3.1411698,1.2767625
-22.837488,3.146209,1.2880774
-22.928051,3.1465495,1.289123
-23.02485,3.1498272,1.2965779
-23.109741,3.1488795,1.2947984
-23.205853,3.1529064,1.3038769
-23.28804,3.151768,1.3016701
-23.378492,3.1544733,1.3078523
-23.474232,3.1599023,1.3199763
-23.555565,3.159764,1.3199377
-23.636644,3.1599364,1.3205724
-23.72299,3.1628287,1.3271408
-23.812433,3.1675723,1.3377471
-23.8899,3.1674883,1.3378081
-23.96442,3.1664703,1.3358259
-24.05958,3.1752827,1.355299
-24.141552,3.178589,1.3627477
-24.20594,3.174108,1.3531928
-24.285385,3.1770585,1.3598557
-24.35863,3.177476,1.3609848
-24.435534,3.1800637,1.3668475
-24.50827,3.1810308,1.3691692
-24.5814,3.182585,1.3727679
-24.646006,3.1802282,1.3678274
-24.721823,3.1839163,1.3760762
-24.79231,3.185289,1.3792677
-24.861311,3.1862648,1.3815904
-24.926994,3.1858492,1.3808727
-24.99738,3.1883032,1.3864126
-25.070526,3.192669,1.396121
-25.135525,3.1929786,1.3969774
-25.20032,3.1935172,1.3983274
-25.2655,3.194619,1.4009042
-25.328697,3.1949387,1.401772
-25.39286,3.196155,1.404593
-25.45796,3.1982775,1.4093862
-25.522814,3.2006283,1.4146762
-25.580051,3.1987445,1.4107251
-25.649525,3.2046347,1.423729
-25.707518,3.2038522,1.4221754
-25.77143,3.2070875,1.4293818
-25.83125,3.2081025,1.4317431
-25.894121,3.2114227,1.4391294
-25.950296,3.21074,1.4377823
-26.007921,3.2113006,1.4391446
-26.07168,3.216307,1.450201
-26.131489,3.2190454,1.4563074
-26.190546,3.221629,1.4620748
-26.248352,3.2236953,1.4667101
-26.305948,3.225954,1.4717641
-26.373316,3.2356272,1.4929843
-26.420982,3.2314088,1.4839072
-26.474493,3.2316957,1.4846535
-26.523989,3.2292354,1.4794059
-26.565289,3.2207012,1.4609108
-26.57551,3.1880307,1.389782
-26.608517,3.172632,1.356317
-26.631218,3.148794,1.3044491
-26.627113,3.102712,1.2040763
-26.634598,3.0650613,1.1220908
-26.628365,3.015025,1.0130997
-26.646343,2.9843166,0.9462528
-26.646852,2.9378188,0.8449793
-26.651169,2.8934717,0.74839544
-26.663435,2.8550768,0.6647916
-26.668762,2.809433,0.5653844
-36.690422,2.6767488,0.268898
-36.587048,2.7689252,0.46983433
-36.60034,2.8020346,0.5418596
-36.633774,2.8249855,0.59171295
-36.643135,2.8592958,0.6663604
-36.666283,2.8866625,0.72585106
-36.702858,2.9075055,0.7711015
-36.733032,2.9312003,0.822577
-36.775585,2.9490964,0.8613925
-36.746502,2.9991739,0.9704652
-36.80992,3.0073733,0.9881096
-36.864395,3.0197124,1.0147891
-37.12665,2.9421575,0.8451886
-37.207333,2.9446256,0.8503008
-37.27908,2.9512508,0.8644862
-37.357258,2.955477,0.87343025
-37.38585,2.9805014,0.92778826
-37.421124,3.0026464,0.97585773
-37.45099,3.0268855,1.0284986
-37.492714,3.046278,1.0705543
-37.539963,3.0634892,1.1078439
-37.586987,3.080833,1.1454201
-37.639668,3.0960531,1.1783562
-37.727703,3.097998,1.1822886
-37.794384,3.1083508,1.2045836
-37.873024,3.1145198,1.2177343
-37.99314,3.105904,1.1985784
-38.092632,3.1054227,1.197186
-38.18483,3.1080477,1.2025752
-38.297886,3.1037939,1.192925
-38.74862,2.9830737,0.9287448
-38.897446,2.9692695,0.89819
-38.9306,2.995479,0.95508194
-39.004646,3.0079436,0.98192835
-39.100605,3.013442,0.9935427
-39.22272,3.010861,0.98748875
-39.394314,2.9930272,0.9480791
-39.513508,2.9928699,0.94730234
-39.601906,3.002974,0.96895313
-39.71845,3.0047328,0.9723487
-39.800636,3.0175629,0.99994755
-39.937054,3.0143514,0.9924574
-40.034084,3.0235877,1.0121799
-40.15245,3.0269742,1.0191007
-40.308826,3.0199203,1.0031738
-40.430367,3.0236938,1.01092
-40.52901,3.0345201,1.0340867
-40.64102,3.04204,1.0500112
-40.80325,3.0362687,1.0368423
-40.982796,3.0266783,1.0153008
-41.269806,2.9893293,0.93299294
-41.3186,3.0166252,0.99214745
-41.61784,2.97875,0.9086423
-41.694046,2.9999754,0.95448923
-41.796535,3.0147758,0.98626184
-42.393524,2.9064739,0.74848366
-42.39804,2.9479527,0.83863163
-42.433746,2.9815817,0.9115925
-42.652596,2.9713058,0.8883858
-44.097755,2.9054484,0.73943424
-44.12321,2.9455657,0.8265166
-44.31886,2.9493394,0.83391905
-44.435486,2.970655,0.8797636
-44.75348,2.9508805,0.83548546
-44.93698,2.9601822,0.85494375
-45.204536,2.9535582,0.8394456
-45.43942,2.9547775,0.8411212
-45.69477,2.953229,0.8366957
-45.948017,2.9534,0.8360119
-46.218254,2.9516842,0.8311553
-46.42792,2.962534,0.8538494
-46.700176,2.9630497,0.85382605
-46.976707,2.9641967,0.8551531
-47.26581,2.9645538,0.8547082
-47.38102,2.9963477,0.92329025
-47.88381,2.9629674,0.8486409
-48.078285,2.9835997,0.89263296
-48.39097,2.9858236,0.89613104
-48.731308,2.985207,0.8933358
-48.878876,3.0166833,0.9610729
-49.735428,2.939251,0.78920746
-49.805283,2.9857972,0.8900037
-50.09189,3.0002713,0.9202037
-50.330727,3.0231175,0.9687891
-51.081917,2.9738836,0.8586073
-52.61956,2.818594,0.5146837
-52.57852,2.888374,0.66640043
-52.539146,2.957439,0.8165536
-52.49096,3.0271854,0.9682207
-52.694576,3.0640163,1.0473056
-18.727287,2.964915,0.68002224
-19.161587,3.039125,0.8498359
-19.326775,3.0435305,0.8621669
-19.428375,3.0314279,0.8372488
-19.693378,3.065075,0.91531944
-19.802364,3.0565176,0.89827967
-20.383945,3.108307,1.0211501
-20.505636,3.106496,1.0190835
-20.620556,3.1032672,1.0137877
-20.763206,3.1090431,1.0286884
-20.877407,3.1068418,1.0256214
-21.005573,3.1095746,1.033598
-21.117496,3.1078591,1.0315456
-21.255032,3.1149163,1.0491481
-21.361496,3.112671,1.0458317
-21.49413,3.119558,1.0629683
-21.613037,3.1226325,1.0715137
-21.733047,3.126727,1.0823088
-21.841097,3.127401,1.0853987
-21.957935,3.1316845,1.0965447
-22.080383,3.1385822,1.113514
-22.162312,3.1318154,1.0998387
-22.286139,3.1404545,1.1206398
-22.381777,3.1395752,1.1200948
-22.493452,3.1450915,1.1338372
-22.572178,3.1389592,1.1214805
-22.675003,3.1422687,1.130228
-22.79056,3.1510196,1.1511183
-22.864927,3.1445222,1.1378756
-22.968048,3.1496096,1.1505146
-23.080046,3.1588173,1.1723385
-23.16511,3.1578915,1.1714807
-23.257004,3.160176,1.1777768
-23.339397,3.159053,1.1764345
-23.42715,3.16058,1.1809902
-23.513891,3.162155,1.1856318
-23.613441,3.169681,1.2035413
-23.688478,3.1672056,1.1990938
-23.769468,3.1676986,1.2012563
-23.860348,3.1730113,1.2141538
-23.936012,3.1720264,1.2129779
-24.016132,3.1734524,1.2171617
-24.107912,3.1806884,1.2342882
-24.181433,3.1799815,1.233676
-24.264555,3.1841843,1.2439961
-24.344713,3.187462,1.252234
-24.415506,3.186667,1.2513728
-24.487377,3.1867566,1.2524681
-24.562195,3.1886878,1.2576518
-24.631681,3.1883557,1.2577748
-24.7091,3.1924222,1.2676845
-24.779343,3.1932504,1.2703619
-24.839476,3.189174,1.2620988
-24.910534,3.1911304,1.2672615
-24.99407,3.2001815,1.288208
-25.05846,3.1994145,1.2872739
-25.122076,3.1985433,1.2860928
-25.19203,3.2015233,1.2934742
-25.259933,3.2037609,1.2991886
-25.324081,3.204241,1.3009782
-25.389755,3.2059486,1.3054848
-25.45404,3.2072146,1.3089962
-25.515265,3.2070165,1.3092375
-25.590364,3.2155025,1.3287878
-25.651655,3.2160962,1.3307643
-25.70723,3.2134788,1.3255882
-25.766533,3.213445,1.3261471
-25.826748,3.214299,1.3286691
-25.888372,3.2163947,1.333941
-25.950825,3.2193952,1.3412147
-26.015652,3.224355,1.3528309
-26.075998,3.2267404,1.3587122
-26.135593,3.228979,1.3642554
-26.199047,3.23424,1.3765068
-26.257132,3.236181,1.3813658
-26.310505,3.235115,1.3795342
-26.368208,3.2374294,1.3852043
-26.429604,3.2427988,1.3976507
-26.477627,3.238679,1.3890052
-26.529455,3.2375848,1.387074
-26.551373,3.2138655,1.3348799
-26.579935,3.1948721,1.293181
-26.616783,3.18211,1.2653184
-26.627382,3.1482444,1.1905894
-26.604109,3.0861115,1.0530949
-26.613762,3.0494847,0.9722438
-26.629213,3.0168538,0.9002676
-26.642027,2.981233,0.8216548
-26.6489,2.9396303,0.7297659
-26.65942,2.900181,0.64266205
-26.66137,2.8520896,0.5363784
-36.6031,2.813995,0.42113543
-36.608803,2.8506074,0.5017452
-36.64039,2.8744032,0.5537791
-36.680046,2.8942285,0.5969553
-36.658558,2.9423795,0.7033105
-36.717083,2.9530582,0.7260804
-36.777557,2.963011,0.74721813
-36.80358,2.9885516,0.8031311
-36.81959,3.0183103,0.8684597
-36.87121,3.0322256,0.8984184
-37.010067,3.0086284,0.8446102
-37.09934,3.0071533,0.8401661
-37.18753,3.0066097,0.8377795
-37.264786,3.0110652,0.8465395
-37.337246,3.0178301,0.8604398
-37.39203,3.032043,0.8909688
-37.42524,3.0549967,0.94102335
-37.4602,3.0771554,0.98929787
-37.511414,3.0928946,1.0232124
-37.56826,3.106544,1.0524421
-37.736153,3.0780704,0.98742867
-37.82796,3.0793765,0.9889951
-37.949615,3.0700622,0.96676826
-38.03466,3.0748942,0.976172
-38.146046,3.0705776,0.9650669
-38.47744,2.9882357,0.77919436
-38.582558,2.9883451,0.7778983
-38.47825,3.0619938,0.94133806
-38.552353,3.0729342,0.96429205
-38.690193,3.0624828,0.93927383
-38.75767,3.076457,0.968977
-38.87471,3.0742168,0.9622998
-39.00541,3.0681326,0.9469609
-39.089638,3.0777898,0.96690226
-39.206985,3.077226,0.9638777
-39.334194,3.074167,0.9552145
-39.457085,3.073133,0.951056
-39.60033,3.0664973,0.9342723
-39.734516,3.063401,0.92539215
-39.854668,3.065217,0.9275074
-39.99538,3.061571,0.9173031
-40.134148,3.0592473,0.9100218
-40.284805,3.0542417,0.89665747
-40.432728,3.050829,0.88682365
-40.64127,3.0312533,0.8405471
-41.09229,2.9460158,0.6463051
-41.0605,2.995215,0.7547612
-41.101044,3.02443,0.8182001
-41.429962,2.9772363,0.70935774
-41.49934,2.999913,0.7579689
-41.59717,3.0154386,0.7904234
-41.73565,3.0210204,0.8003979
-42.388027,2.8985033,0.5210538
-42.456455,2.9245296,0.57698536
-42.456047,2.967483,0.6711502
-42.70936,2.9491975,0.6268649
-42.722076,2.989294,0.7145295
-44.081287,2.9476178,0.6003022
-44.250668,2.9570806,0.6181359
-44.477074,2.9553745,0.61052656
-44.685417,2.9585812,0.61397076
-44.86747,2.968192,0.63187695
-45.139324,2.9606817,0.61074305
-45.391346,2.9585273,0.6016617
-45.592712,2.9675143,0.61783123
-45.89918,2.9574125,0.5903888
-46.08793,2.9710608,0.61695147
-46.341385,2.9736462,0.6181674
-46.668285,2.9641793,0.5917187
-46.97603,2.959867,0.57686806
-47.188408,2.9739022,0.60380936
-47.391853,2.9904966,0.6364913
-47.89013,2.9580789,0.55677223
-48.11869,2.9732947,0.585968
-48.436356,2.9750407,0.5841179
-48.57285,3.0074959,0.65260744
-49.130417,2.9741464,0.56973743
-49.45295,2.980166,0.577096
-49.768597,2.9888601,0.5904064
-50.016396,3.009234,0.6304407
-50.60327,2.9813256,0.55886936
-51.00741,2.9826884,0.55452013
-51.069107,3.034102,0.66566706
-52.71764,2.8678393,0.2726512
-52.630676,2.943966,0.44042826
-52.734932,2.994183,0.5481391
0.10119629,3.2977695,0.61218166
-18.58661,2.9199727,0.37482882
-18.97891,2.982389,0.5241995
-19.178902,2.9953024,0.5584755
-19.500504,3.042733,0.6726208
-19.737497,3.0687003,0.7368202
-19.89173,3.0727892,0.75020885
-20.072987,3.0854375,0.78330374
-20.246145,3.0967965,0.81329775
-20.44909,3.1178973,0.86569834
-20.53408,3.1051662,0.8398166
-20.654121,3.1033244,0.83902884
-20.779367,3.1036804,0.8432436
-20.910519,3.1065187,0.85311174
-21.069473,3.1187813,0.88462687
-21.212023,3.1267812,0.90622425
-21.31427,3.1226373,0.89977074
-21.439495,3.1264727,0.9116316
-21.540356,3.1229572,0.9065075
-21.667015,3.128558,0.92229605
-21.783997,3.1315985,0.9321284
-21.880812,3.1283634,0.92747736
-21.990204,3.1299686,0.93389463
-22.094696,3.1304395,0.9376483
-22.21227,3.1361208,0.9533081
-22.32785,3.1417577,0.96880484
-22.431856,3.1438296,0.97606516
-22.518597,3.140077,0.96992016
-22.630669,3.146231,0.9864354
-22.728455,3.1476164,0.991971
-22.823,3.1482837,0.99581385
-22.926538,3.1529527,1.0087729
-23.04317,3.16338,1.0348563
-23.121641,3.1593091,1.0277185
-23.222473,3.1646364,1.042036
