x,y,z
-25.742413,3.3142657,3.1306825
-25.75771,3.2934566,3.0906987
-25.848465,3.3188639,3.1261067
-25.885841,3.31185,3.1087604
-25.953264,3.3238301,3.122542
-25.97219,3.3054209,3.0866923
-26.042984,3.3202384,3.1053424
-26.095873,3.323954,3.1059127
-26.144249,3.3250048,3.102201
-26.169785,3.3110628,3.0738974
-26.22724,3.318562,3.0809593
-26.303766,3.3394885,3.1102877
-26.333546,3.3288155,3.087575
-26.36646,3.3202956,3.06846
-26.41777,3.3248076,3.0709705
-26.466549,3.3278272,3.0710993
-26.522705,3.336483,3.080669
-26.56305,3.3339534,3.0717611
-26.587414,3.3196938,3.0434117
-26.632366,3.3207772,3.0406265
-26.688404,3.3305378,3.0523763
-26.73137,3.330666,3.0481625
-26.786894,3.3408062,3.0607367
-26.802889,3.3201458,3.0219316
-26.849503,3.3236818,3.0236082
-26.931215,3.3559794,3.0735273
-26.963402,3.348617,3.0571365
-26.999878,3.344829,3.0467849
-27.028072,3.3341496,3.0249133
-27.072876,3.3375754,3.0267787
-27.131247,3.3530328,3.0489554
-27.166538,3.3488464,3.038168
-27.19738,3.340777,3.020886
-27.223421,3.3283467,2.9962873
-27.258455,3.3239827,2.9853282
-27.322426,3.346505,3.0198283
-27.378164,3.3621106,3.0427547
-27.413681,3.3590677,3.0342321
-27.460375,3.3669298,3.044219
-27.485186,3.3537397,3.0186162
-27.503883,3.3342628,2.9823766
-27.544102,3.3361225,2.9823442
-27.585987,3.3399267,2.985671
-27.641306,3.3579972,3.013301
-27.684872,3.3643875,3.0211663
-27.707708,3.34893,2.9919305
-27.739717,3.3431537,2.9791923
-27.780548,3.3471267,2.983101
-27.837652,3.3696833,3.018745
-27.87511,3.3707178,3.017778
-27.904896,3.3630576,3.0020266
-27.930084,3.349897,2.9769144
-27.966408,3.349819,2.9741778
-28.01301,3.36244,2.9932008
-28.062649,3.379426,3.019761
-28.100307,3.382065,3.0218463
-28.138584,3.3857555,3.0257835
-28.1688,3.3792162,3.0122461
-28.206211,3.3821752,3.0150266
-28.227814,3.3640015,2.9816122
-28.204895,3.2838964,2.8419423
-28.189604,3.2116506,2.7156758
-28.155146,3.109337,2.5376945
-28.183033,3.094268,2.5095148
-28.183094,3.0373309,2.409381
-28.182293,2.9769657,2.3033118
-28.187843,2.9241543,2.2101994
-28.191,2.8655338,2.107058
-28.158762,2.7473702,1.9013419
-28.183718,2.718768,1.8498082
-28.224133,2.7152088,1.8414502
-28.205435,2.6096172,1.6572175
-28.192814,2.5101035,1.4833808
-28.201813,2.4452128,1.3692112
-28.200584,2.3584878,1.2173266
-37.385918,1.6334796,0.4009142
-37.430862,1.6552799,0.4464712
-37.436367,1.7474427,0.6163478
-37.478355,1.7701046,0.6633439
-37.46277,1.8252552,0.7628131
-37.424126,1.892487,0.88162994
-37.48,1.9062724,0.91429996
-37.525993,1.9255495,0.9558816
-37.45012,2.0108213,1.1033306
-37.5215,2.0156972,1.1218185
-37.440125,2.1018238,1.2702651
-37.50425,2.110166,1.294342
-37.41871,2.1963344,1.442452
-37.478275,2.2065706,1.4695659
-37.422577,2.275457,1.5898309
-37.468925,2.2920058,1.6269951
-37.556076,2.2883067,1.632237
-37.566833,2.3225965,1.6975999
-37.46953,2.4090495,1.8450427
-37.499306,2.4329257,1.893817
-37.551914,2.445807,1.9253817
-37.54489,2.4868493,2.0011058
-37.599167,2.4988554,2.031415
-37.699745,2.4896615,2.028808
-37.747135,2.5052798,2.065024
-37.804993,2.5531385,2.1634436
-38.332275,2.3570523,1.8730574
-37.45084,2.7803226,2.5381517
-37.520733,2.7842338,2.5560446
-37.736443,2.7261577,2.4791107
-37.778633,2.743024,2.5173907
-37.789577,2.7729797,2.5757093
-37.839954,2.7863803,2.608828
-37.898205,2.796665,2.63733
-37.956375,2.8071594,2.6662874
-38.019318,2.815918,2.6927648
-38.049683,2.8377955,2.739129
-38.127907,2.8408592,2.7573223
-38.198822,2.847099,2.7804766
-38.304348,2.840351,2.7844572
-38.365498,2.8509982,2.8146014
-38.85597,2.700799,2.606594
-38.62263,2.8228493,2.8023405
-38.706657,2.8262296,2.8225045
-38.817654,2.820192,2.8290944
-38.896866,2.8261504,2.8535643
-38.98372,2.829723,2.874785
-39.090202,2.8267877,2.8868184
-39.20031,2.8231292,2.8981376
-39.299507,2.8237755,2.9160104
-39.371334,2.8341908,2.9482179
-39.516422,2.8202577,2.9458175
-39.57884,2.8345928,2.9841719
-39.67846,2.8368943,3.0056324
-39.73024,2.8551946,3.0500164
-39.8124,2.8638468,3.0809689
-39.872597,2.8798032,3.1224108
-39.907074,2.904001,3.1755166
-39.980064,2.9162335,3.2120934
-40.975388,2.6458058,2.8584933
-41.01905,2.670704,2.9148307
-41.024025,2.7072308,2.9871817
-41.00159,2.7516446,3.0702157
-40.996353,2.7906046,3.1457024
-40.991383,2.8291924,3.2205987
-41.000225,2.8635442,3.289731
-41.016674,2.8955588,3.3557205
-41.14605,2.8959057,3.3797903
-41.317413,2.885292,3.3899336
-41.47909,2.8782177,3.4053988
-41.544086,2.8980093,3.456439
-41.74549,2.8817022,3.4610825
-41.83609,2.895591,3.5053153
-42.061146,2.8749363,3.5058804
-42.1361,2.8939762,3.557644
-42.35905,2.875802,3.5629473
-42.4794,2.8844664,3.602695
-42.68536,2.8725367,3.6174726
-42.871147,2.8665934,3.640524
-42.970207,2.8824506,3.690948
-43.20499,2.8664742,3.7033682
-43.403564,2.8602157,3.7285175
-43.500717,2.8784187,3.7835994
-43.758015,2.8604476,3.796616
-43.998734,2.8475585,3.8167996
-44.10721,2.8652964,3.8734407
-44.352135,2.853568,3.896996
-44.59737,2.843027,3.9231277
-44.772404,2.8487072,3.9686003
-44.93217,2.8584273,4.019408
-45.33185,2.819148,4.017669
-45.748573,2.7785277,4.016658
-46.221718,2.7287705,4.0082436
-46.720776,2.6764152,3.9997587
-47.300682,2.610924,3.980547
-47.812325,2.5617268,3.9812632
-48.480316,2.4855638,3.9579506
-49.08383,2.4250665,3.9540577
-49.819134,2.343513,3.933392
-50.544136,2.2677798,3.9227762
-51.31698,2.1873758,3.912302
-52.33623,2.0677962,3.8707938
4.584841,0.5808928,2.865158
2.2931194,0.75746536,2.7953215
2.2668858,0.67191076,2.612627
2.3061085,0.39392066,2.0441322
2.3212948,0.30006337,1.8530474
2.2128925,0.22768307,1.683301
-13.721352,2.81865,4.0379305
-13.299097,2.689014,3.850556
-14.842335,2.9447,4.0887947
-15.240582,2.9798124,4.0872416
-15.561618,3.001361,4.072299
-15.919343,3.0321624,4.069608
-16.32875,3.0756865,4.083491
-16.425499,3.05512,4.024084
-16.58984,3.0494704,3.9828048
-17.215527,3.0669699,3.9054255
-17.429214,3.0760884,3.885553
-17.639767,3.0855856,3.867104
-17.789108,3.0818863,3.833056
-18.025288,3.099435,3.8264575
-18.250717,3.1156683,3.819209
-18.43382,3.1228285,3.8012986
-18.621273,3.131999,3.7867455
-18.730629,3.1226954,3.7489557
-18.84925,3.1162114,3.7152767
-19.074705,3.137558,3.7187147
-19.292229,3.158089,3.7219858
-19.346973,3.1371827,3.6708512
-19.508015,3.1445997,3.6579018
-19.689716,3.158399,3.6541862
-19.83007,3.161941,3.6372404
-19.939377,3.1576524,3.6101227
-20.105568,3.1697092,3.605832
-20.22268,3.168828,3.5843005
-20.327965,3.1651423,3.5592914
-20.515621,3.185719,3.568468
-20.553486,3.1636066,3.5185227
-20.75199,3.1889982,3.5355358
-20.789082,3.167274,3.4866323
-20.953056,3.1839614,3.4923816
-21.13329,3.2065473,3.5071154
-21.185364,3.190494,3.467103
-21.375252,3.2177448,3.4895492
-21.437721,3.2057524,3.4559402
-21.57518,3.2180076,3.457685
-21.567312,3.1839125,3.3923707
-21.77534,3.2203052,3.4300323
-21.810959,3.2008219,3.3863878
-21.999676,3.2327054,3.4184775
-22.026726,3.210928,3.3718615
-22.198994,3.2389164,3.3991094
-22.234642,3.2205837,3.3579597
-22.39743,3.2468681,3.3835163
-22.474384,3.243722,3.3654833
-22.59827,3.2577546,3.3734841
-22.61552,3.233838,3.3246317
-22.729752,3.2453556,3.3293834
-22.828653,3.2518473,3.3268414
-22.847979,3.2290466,3.2800074
-23.027235,3.2667458,3.325508
-23.031872,3.2387507,3.2710161
-23.168295,3.261571,3.294467
-23.245604,3.2621145,3.2840333
-23.271019,3.2424893,3.2426834
-23.441612,3.2809134,3.2911568
-23.458168,3.2582,3.2453141
-23.589153,3.282158,3.2720327
-23.640863,3.2742026,3.2493782
-23.668915,3.2565231,3.2116466
-23.793179,3.2794652,3.237564
-23.865133,3.2808936,3.23005
-23.869158,3.2533424,3.1771212
-23.980637,3.2724395,3.1977057
-24.079983,3.2869227,3.2112885
-24.086021,3.260406,3.1602035
-24.207048,3.2854986,3.1909828
-24.265858,3.2830796,3.1783304
-24.28757,3.2638185,3.1389713
-24.42834,3.299924,3.1880236
-24.47472,3.2926545,3.168058
-24.498096,3.2745695,3.130848
-24.592003,3.2903414,3.148026
-24.65528,3.2918434,3.1424737
-24.706701,3.2878354,3.1281781
-24.736288,3.2731633,3.096767
-24.828972,3.2901866,3.1166582
-24.901022,3.2973762,3.1208344
-24.91922,3.2773175,3.0809479
-24.996695,3.2879007,3.0908794
-25.05193,3.287305,3.0827813
-25.125298,3.2966015,3.0909252
-25.136305,3.2728705,3.0452785
-25.230864,3.2942615,3.0734391
-25.304848,3.3050954,3.084515
-25.329926,3.2892666,3.0519977
-25.389225,3.2925615,3.050933
-25.447662,3.2956967,3.0497222
-25.529377,3.3125248,3.0711932
-25.545345,3.2917974,3.0308566
-25.61988,3.3052495,3.0470095
-25.676262,3.3084712,3.0463867
-25.74159,3.3173864,3.055305
-25.752228,3.293508,3.0099397
-25.81924,3.3039765,3.021626
-25.883987,3.313518,3.0319023
-25.957909,3.329286,3.0526762
-25.95467,3.2965539,2.9927187
-26.031332,3.3147285,3.0177093
-26.089514,3.3215218,3.0238295
-26.147434,3.3285327,3.0304213
-26.172186,3.3138175,3.0007186
-26.20747,3.3060832,2.9827476
-26.303411,3.3398042,3.0344386
-26.337784,3.332014,3.0165467
-26.375202,3.326383,3.002336
-26.416172,3.3233473,2.9925504
-26.469885,3.3295827,2.9984617
-26.526808,3.3385139,3.0090165
-26.571457,3.3388686,3.0051808
-26.590588,3.3204744,2.9697042
-26.636951,3.3223238,2.9685078
-26.694279,3.3327858,2.9819827
-26.738075,3.3332791,2.9786472
-26.781776,3.3339157,2.9756227
-26.799484,3.3141983,2.938077
-26.856592,3.3257644,2.9537444
-26.92498,3.346996,2.9859638
-26.962383,3.3434916,2.976163
-26.99253,3.3340428,2.9562778
-27.033611,3.3337781,2.9520998
-27.083261,3.3410392,2.960835
-27.127127,3.3436728,2.9617405
-27.172344,3.3477633,2.9652028
-27.200153,3.33664,2.942688
-27.23498,3.3317416,2.9308658
-27.271296,3.3282647,2.9215264
-27.344784,3.359423,2.971664
-27.381643,3.3571377,2.964507
-27.424543,3.3607476,2.9675279
-27.459923,3.3573546,2.9585705
-27.483038,3.3419802,2.9290404
-27.51994,3.3401027,2.9227667
-27.55904,3.340582,2.9206023
-27.606392,3.349747,2.9334664
-27.654755,3.3604293,2.9490194
-27.69339,3.3613086,2.947722
-27.720972,3.3504934,2.9262757
-27.754587,3.346114,2.915979
-27.794407,3.3486705,2.9177184
-27.845854,3.3646145,2.9426785
-27.883266,3.3651528,2.9410415
-27.916273,3.360747,2.9308891
-27.937681,3.342614,2.8969798
-27.978611,3.3475842,2.903151
-28.040476,3.3785796,2.9545379
-28.079245,3.3820043,2.958159
-28.110195,3.375795,2.9450955
-28.147007,3.377108,2.94514
-28.179129,3.3724673,2.9348783
-28.21201,3.368845,2.9264235
-28.219559,3.3306768,2.857883
-28.190245,3.2399518,2.697815
-28.161453,3.1466472,2.5331535
-28.184387,3.1246402,2.4926462
-28.193424,3.081449,2.4152174
-28.190598,3.0188544,2.3039274
-28.187105,2.9528449,2.1866345
-28.195164,2.902362,2.0963993
-28.160532,2.781589,1.8833933
-28.185793,2.7537103,1.8325577
-28.21767,2.7358592,1.7992587
-28.204191,2.6398757,1.6293898
-28.194391,2.5461109,1.4633317
-28.200747,2.47706,1.3404455
-28.202484,2.3964422,1.1972857
-37.3702,1.7026582,0.39397764
-37.443535,1.7077153,0.41194868
-37.445427,1.7542992,0.4985361
-37.418816,1.8165097,0.610795
-37.48977,1.8226349,0.63068247
-37.44828,1.8917964,0.75420904
-37.408768,1.9587238,0.87389183
-37.46452,1.9725358,0.90644217
-37.536793,1.9775076,0.92463017
-37.425907,2.0805845,1.1030707
-37.51331,2.0770397,1.1073976
-37.42327,2.166665,1.2634807
-37.472332,2.1828368,1.2999449
-37.440216,2.2405283,1.4038081
-37.458813,2.2717063,1.4646001
-37.495693,2.2934442,1.5101295
-37.46297,2.349521,1.6110926
-37.472374,2.3841531,1.677372
-37.642616,2.3405719,1.6179166
-37.42624,2.4834092,1.8579383
-37.49675,2.4876838,1.8754158
-37.5141,2.5171487,1.9332952
-37.567856,2.529489,1.9638548
-37.584366,2.5590203,2.0218768
-37.64681,2.567471,2.0464058
-37.727585,2.567902,2.058352
-37.75465,2.5925453,2.10878
-37.78518,2.6155312,2.1566148
-38.127728,2.5029395,1.9909792
-37.754562,2.7005825,2.3137927
-37.759235,2.7338414,2.3776946
-37.76725,2.7653723,2.4388514
-37.78026,2.7945437,2.4962945
-37.85484,2.7981608,2.5139475
-37.886314,2.8196328,2.5595012
-37.931118,2.8356807,2.5966988
-37.970066,2.8541167,2.637672
-38.01362,2.870748,2.6759334
-38.061024,2.8859293,2.7120523
-38.145844,2.8867824,2.726314
-38.158558,2.915506,2.7833858
-38.301033,2.8951256,2.7656264
-38.376232,2.9006894,2.7877011
-38.483047,2.8949113,2.7927914
-38.859676,2.7913253,2.650485
-38.89858,2.8122416,2.696837
-39.06503,2.787678,2.6750112
-39.08441,2.8159926,2.732799
-39.102493,2.8446128,2.7910485
-39.200092,2.8456569,2.8083272
-39.340523,2.8325546,2.8049455
-39.4214,2.8403194,2.8327923
-39.566784,2.826902,2.8297286
-39.645283,2.8363457,2.8606143
-39.722878,2.846388,2.892599
-39.76999,2.866549,2.9395156
-39.84388,2.8782516,2.9742975
-39.884422,2.9007235,3.0248237
-39.943092,2.9175787,3.0673747
-41.02617,2.6192963,2.6594977
-41.004665,2.6645007,2.7446947
-41.01697,2.699105,2.8147178
-41.007385,2.7400272,2.8936338
-40.99087,2.7826467,2.9748287
-40.987965,2.8209383,3.0498428
-40.991615,2.8570695,3.1217752
-41.00279,2.8908396,3.1903906
-41.09649,2.901326,3.2269402
-41.275238,2.8886666,3.2321262
-41.426254,2.8845394,3.2496057
-41.54929,2.8887289,3.2789097
-41.692482,2.8881137,3.3022032
-41.83859,2.8874328,3.325953
-41.99955,2.8836036,3.3460798
-42.104614,2.8949442,3.3868856
-42.349815,2.8711705,3.3819895
-42.41162,2.894684,3.4397779
-42.63626,2.8780804,3.4458222
-42.80377,2.8766234,3.4722948
-42.95189,2.8806655,3.506485
-43.169167,2.868955,3.521336
-43.306347,2.8771815,3.5621977
-43.51103,2.870391,3.5849123
-43.708466,2.8662958,3.6118727
-43.911774,2.8618658,3.639307
-44.079433,2.8663893,3.678544
-44.314293,2.856958,3.7017407
-44.563675,2.8455815,3.7237253
-44.702305,2.859138,3.776342
-44.973053,2.8454885,3.7978015
-45.200325,2.8422613,3.8326478
-45.41632,2.842476,3.8725533
-45.69269,2.831571,3.9009657
-45.89558,2.8366857,3.9486923
-46.06009,2.8502939,4.006828
-46.5091,2.8097477,4.0068083
-47.016705,2.7604544,3.9998388
-47.56479,2.7062974,3.9905295
-48.15735,2.646872,3.9788074
-48.8255,2.5768976,3.9596305
-49.479362,2.513059,3.9505534
-50.239166,2.434078,3.9302678
-50.9517,2.367341,3.926518
-51.80842,2.27984,3.9071794
-52.830288,2.1692567,3.8714294
2.2897167,0.94935465,2.7114935
2.2810993,0.86112046,2.5261135
2.3233013,0.67416334,2.1446576
2.3106976,0.5856068,1.95858
2.2890072,0.49831486,1.7737617
2.2019863,0.4219954,1.6005073
2.1787853,0.33469748,1.4158616
2.172678,0.24414396,1.2276773
-13.713148,2.8679912,3.8950815
-14.802578,3.0289025,4.0390706
-14.978843,3.0185301,3.9876814
-15.23356,3.0244577,3.9564426
-15.557695,3.0455694,3.9446015
-15.886046,3.069244,3.9373896
-16.707226,3.0756145,3.8122597
-16.958706,3.0898461,3.79921
-17.067616,3.0738776,3.7486553
-17.377665,3.103444,3.7571826
-17.544514,3.1021676,3.7269979
-17.741142,3.1085665,3.7075253
-17.912285,3.1100245,3.682342
-18.117668,3.120433,3.6697106
-18.250244,3.1144686,3.6360292
-18.47725,3.1320498,3.6345034
-18.699106,3.1495867,3.6338081
-18.839325,3.1479821,3.607913
-18.904018,3.128,3.557364
-19.084486,3.137806,3.548057
-19.287445,3.1543818,3.5487971
-19.451578,3.161885,3.5376468
-19.509869,3.1421535,3.4889379
-19.691761,3.155795,3.487392
-19.902142,3.178169,3.4988508
-19.931492,3.1518712,3.4418325
-20.121304,3.1702728,3.4487548
-20.330278,3.1951396,3.465619
-20.351713,3.1676445,3.4076724
-20.543797,3.189386,3.421094
-20.574425,3.1649978,3.368031
-20.740034,3.1805398,3.3733845
-20.868942,3.1860132,3.3645024
-20.97028,3.1838036,3.344706
-21.16009,3.2092028,3.3660588
-21.260883,3.2081065,3.3486767
-21.383316,3.2142873,3.342441
-21.49069,3.2163334,3.3303885
-21.581413,3.213573,3.3114357
-21.690144,3.2170844,3.3021903
-21.779728,3.2148645,3.2845945
-21.887177,3.2190027,3.2768946
-21.984138,3.2201738,3.2649837
-22.100456,3.2284107,3.2641306
-22.216427,3.2371664,3.2644033
-22.343008,3.2502513,3.2716546
-22.416224,3.2452958,3.2514615
-22.51031,3.2480776,3.2434144
-22.620008,3.2569602,3.2450733
-22.648027,3.2367427,3.2017941
-22.796183,3.2606728,3.2273731
-22.839123,3.2464063,3.1936607
-22.942059,3.2547832,3.1955204
-23.040575,3.2620575,3.1959171
-23.068897,3.2428896,3.154914
-23.215616,3.2697084,3.1865697
-23.255266,3.2554107,3.153531
-23.358433,3.266411,3.160709
-23.4612,3.2778616,3.1688628
-23.504774,3.2658763,3.1399126
-23.617271,3.2822928,3.1564245
-23.648975,3.2658715,3.120635
-23.714596,3.2636738,3.1077194
-23.81052,3.2746363,3.1161113
-23.856415,3.2647095,3.0910673
-23.92092,3.2629735,3.0793386
-24.021416,3.2773192,3.0937696
-24.076366,3.2721121,3.076736
-24.125986,3.2647219,3.0562663
-24.24897,3.2907474,3.0902777
-24.283983,3.2773452,3.0602942
-24.381256,3.2928076,3.0775166
-24.467619,3.30381,3.0876622
-24.489973,3.2850423,3.0491939
-24.573698,3.295549,3.0588207
-24.63876,3.2975504,3.0546384
-24.697826,3.2969568,3.0463104
-24.714836,3.2758281,3.0042052
-24.7998,3.288523,3.0180206
-24.87076,3.2947013,3.0212283
-24.91161,3.2858996,2.9997363
-24.969494,3.2859926,2.9930835
-25.051815,3.299148,3.0082679
-25.117662,3.3041608,3.0100584
-25.129908,3.2808914,2.9647937
-25.232107,3.3060174,3.0003753
-25.295277,3.310632,3.0018582
-25.341225,3.3060913,2.988123
-25.36691,3.2903752,2.9557152
-25.455235,3.3099933,2.9826899
-25.514994,3.3139763,2.9835448
-25.539482,3.2978952,2.950715
-25.619432,3.3141572,2.9724503
-25.674091,3.3160722,2.970118
-25.74738,3.3294344,2.9872336
-25.763645,3.3088124,2.9469671
-25.81669,3.31049,2.944491
-25.87846,3.3178573,2.9517574
-25.944351,3.32822,2.964222
-25.96931,3.3130968,2.9334698
-26.03232,3.3222759,2.94411
-26.091932,3.3297002,2.9518704
-26.142727,3.3317375,2.9505439
-26.174011,3.321078,2.9276175
-26.21686,3.3181722,2.917982
-26.29539,3.3397303,2.9502735
-26.343195,3.3408532,2.9477072
-26.382685,3.3364217,2.93569
-26.418123,3.3292408,2.9190102
-26.480112,3.3410878,2.9350624
-26.520613,3.3378916,2.925354
-26.575235,3.3451817,2.9337492
-26.58981,3.3231452,2.8917136
-26.642029,3.329059,2.8978667
-26.70722,3.3452072,2.921763
-26.750126,3.3448026,2.9171805
-26.790796,3.3428504,2.909984
-26.816456,3.3291845,2.882577
-26.857721,3.3278716,2.8765812
-26.937214,3.357756,2.9247017
-26.97332,3.3529558,2.9128127
-26.999699,3.3401227,2.8870263
-27.04157,3.3402302,2.88374
-27.092924,3.3486567,2.8949695
-27.14449,3.3576965,2.9073443
-27.183928,3.3565156,2.9020047
-27.214056,3.3471956,2.8825383
-27.242409,3.3362045,2.86019
-27.289074,3.3418891,2.8669577
-27.349195,3.3604434,2.8962564
-27.398533,3.3695521,2.909151
-27.442509,3.3739831,2.9139414
-27.47447,3.3670661,2.8989444
-27.496191,3.3500402,2.8662891
-27.52448,3.339263,2.8445902
-27.572273,3.348147,2.8573685
-27.63364,3.3714814,2.8955498
-27.674261,3.3740087,2.897324
-27.709688,3.3712776,2.8899202
-27.735954,3.3587508,2.8653526
-27.76452,3.3485303,2.8448606
-27.811523,3.3587105,2.8602648
-27.864212,3.3758433,2.8879628
-27.8967,3.3704648,2.8761153
-27.933147,3.36972,2.8724637
-27.9573,3.3544888,2.8433309
-28.001392,3.3630607,2.856173
-28.058968,3.388719,2.8992066
-28.095356,3.3888927,2.8973598
-28.12952,3.3864126,2.8908706
-28.165466,3.3863294,2.8886528
-28.199617,3.3840396,2.8825774
-28.22794,3.3739815,2.8628073
-28.215977,3.308381,2.7448425
-28.17011,3.192965,2.538691
-28.1792,3.1516445,2.4635525
-28.195665,3.119602,2.4048238
-28.190567,3.0544176,2.2873902
-28.193823,2.9994035,2.1879325
-28.189018,2.9297965,2.0625792
-28.16631,2.8291123,1.882071
-28.18213,2.7864785,1.8044529
-28.21436,2.7692368,1.7718878
-28.24166,2.7431052,1.7235665
-28.198221,2.5938165,1.4565716
-28.198841,2.5155854,1.3156672
-37.499958,1.6892996,0.23700523
-37.44543,1.7689917,0.38033628
-37.460693,1.8075793,0.45436716
-37.4927,1.8362732,0.5117636
-37.44291,1.9102242,0.6450548
-37.433132,1.9609098,0.73920345
-37.467613,1.9867804,0.79177475
-37.456753,2.0368571,0.884789
-37.475464,2.0704854,0.9502902
-37.422897,2.141256,1.0776119
-37.46244,2.1629338,1.1231313
-37.452778,2.20984,1.2105665
-37.457134,2.2489662,1.2850251
-37.450706,2.29305,1.3676386
-37.44701,2.3351932,1.44697
-37.48165,2.3579273,1.4942231
-37.466324,2.4048784,1.5813866
-37.499943,2.4276195,1.628655
-37.497787,2.4672916,1.7037396
-37.51861,2.495662,1.7602506
-37.487465,2.5480154,1.8559766
-37.50776,2.5759094,1.9116383
-37.57808,2.5807757,1.9297867
-37.59236,2.6111934,1.9896235
-37.620575,2.6351266,2.0389209
-37.702003,2.6354556,2.0500078
-37.745102,2.652897,2.0889359
-37.790283,2.6694593,2.1265135
-37.718636,2.735939,2.244532
-37.75343,2.7564266,2.2883964
-37.790268,2.7760134,2.3308644
-38.524864,2.5073147,1.912231
-38.50499,2.5531745,1.9977689
-37.867214,2.848209,2.4799848
-37.98273,2.8361137,2.4722862
-37.939598,2.8874197,2.5653725
-37.96003,2.9131637,2.6178546
-38.009216,2.927635,2.652566
-38.939205,2.6052995,2.1574693
-38.22475,2.9462235,2.7184343
-38.31642,2.9456604,2.7301807
-38.399162,2.9488137,2.7479472
-38.536037,2.9327493,2.7360902
-38.98065,2.807374,2.5554013
-39.051888,2.8173604,2.5850186
-39.08185,2.842048,2.6374345
-39.111427,2.8667994,2.6899881
-39.334816,2.8251877,2.64108
-39.37204,2.847972,2.6910353
-39.463608,2.8525739,2.7134252
-39.591267,2.8456511,2.7186089
-39.673637,2.8542058,2.7475305
-39.735268,2.8697937,2.7872558
-39.847866,2.869276,2.8029923
-39.901512,2.8879251,2.8476877
-39.924385,2.9162962,2.9069777
-40.01424,2.9238987,2.935503
-40.984375,2.6634634,2.5685043
-40.996037,2.6985235,2.6395178
-41.005363,2.7340784,2.7112346
-40.99638,2.7748113,2.790474
-40.988495,2.8148923,2.868668
-40.981724,2.8543308,2.9458413
-40.985046,2.8905976,3.0183606
-41.06321,2.9056365,3.0604162
-41.245697,2.8920422,3.0618787
-41.37536,2.8938923,3.0858984
-41.52599,2.890693,3.1032295
-41.610554,2.9058971,3.1469398
-41.80519,2.8923798,3.150793
-41.939087,2.8957238,3.1787925
-42.086823,2.8961415,3.2032256
-42.220955,2.900736,3.2339363
-42.391068,2.8969362,3.2536707
-42.634327,2.8758793,3.2506256
-42.706112,2.8980527,3.3068528
-42.926003,2.884716,3.3157296
-43.15098,2.871325,3.3254132
-43.231964,2.892951,3.3823056
-43.466793,2.8791804,3.3930202
-43.65525,2.8772478,3.4201393
-43.78106,2.8903942,3.4675388
-44.040283,2.8743827,3.478026
-44.314117,2.8565245,3.487287
-44.46381,2.866991,3.5335073
-44.63807,2.8728967,3.5746565
-44.911915,2.8586597,3.5915856
-45.141533,2.8550248,3.6227937
-45.393265,2.8480158,3.650947
-45.629066,2.8454962,3.6856837
-45.868877,2.843354,3.7219815
-46.103127,2.843496,3.7621198
-46.329845,2.8462484,3.806435
-46.657494,2.8309343,3.8310328
-46.926857,2.8282127,3.8716311
-47.164597,2.8326628,3.9216657
-47.409134,2.837038,3.9728336
-47.959194,2.78807,3.9668875
-48.54603,2.7355685,3.9601336
-49.180397,2.6779706,3.9512224
-49.85856,2.6163006,3.9416327
-50.66911,2.5360954,3.9168663
-51.42945,2.4684718,3.9095602
-52.403526,2.3703315,3.8764744
-53.118572,2.318534,3.8944025
2.2457256,1.2323763,2.812358
2.3284817,1.1311069,2.613906
2.3706188,1.0352437,2.4203625
2.3735867,0.85467434,2.0440125
2.293726,0.776912,1.8691106
2.2710629,0.68995523,1.6844893
2.1675205,0.6161809,1.5144863
2.1840992,0.5224178,1.3224316
2.1692524,0.43358684,1.1357918
2.167593,0.3421855,0.94613266
2.170351,0.24964237,0.75501966
-11.879042,2.5774775,3.3386521
-13.698332,2.8673186,3.6494737
-14.780075,3.0264063,3.807077
-14.993444,3.0229275,3.7664971
-15.191445,3.017466,3.7243423
-15.552041,3.0455046,3.7257009
-15.754294,3.0433133,3.689786
-16.043577,3.060052,3.679246
-16.15078,3.0402462,3.6221695
-16.961237,3.0900674,3.599403
-17.1375,3.0887692,3.569851
-17.344465,3.0952249,3.5514913
-17.576305,3.108397,3.5430965
-17.70712,3.0995111,3.505268
-17.822136,3.0875337,3.4636316
-18.142921,3.124767,3.4908867
-18.272314,3.1178951,3.4575958
-18.48188,3.1311095,3.4530387
-18.676256,3.1417,3.445517
-18.855541,3.1495516,3.434782
-18.910957,3.127038,3.3812003
-19.095312,3.1376603,3.3754516
-19.291079,3.1522193,3.3760233
-19.421913,3.150793,3.3540287
-19.50101,3.1362512,3.313303
-19.715572,3.158467,3.3267307
-19.914165,3.1775382,3.336235
-19.958775,3.1552327,3.2851472
-20.124409,3.1667988,3.2845101
-20.330616,3.1907334,3.3028555
-20.373459,3.169099,3.2535653
-20.542406,3.1840513,3.2594175
-20.603973,3.1684628,3.2196589
-20.744928,3.1766188,3.2160554
-20.866215,3.1796236,3.20503
-20.958393,3.1744041,3.1817923
-21.146378,3.1990523,3.2045798
-21.247639,3.1978383,3.1881528
-21.368656,3.2033298,3.1823497
-21.529045,3.2219963,3.197277
-21.592588,3.210401,3.1656656
-21.712729,3.21747,3.1632814
-21.786465,3.2098897,3.1383305
-21.928194,3.2252817,3.1495647
-21.990656,3.21476,3.1204515
-22.169579,3.244193,3.1544652
-22.216599,3.2292335,3.118794
-22.392662,3.259418,3.1547785
-22.414503,3.2362862,3.1064978
-22.564548,3.258829,3.131023
-22.622143,3.2489283,3.1041055
-22.691326,3.243452,3.0843987
-22.82114,3.2606533,3.1012583
-22.847538,3.2400305,3.0575662
-22.96691,3.2544534,3.0704455
-23.045324,3.2539575,3.0594935
-23.101034,3.2450728,3.035121
-23.238596,3.268336,3.0630794
-23.2597,3.2465172,3.0179873
-23.40115,3.272633,3.0511098
-23.442173,3.2591615,3.0198574
-23.558933,3.2766678,3.039422
-23.669643,3.2924275,3.0563922
-23.66679,3.2614992,2.9968276
-23.763039,3.2720492,3.005567
-23.861206,3.284,3.0168324
-23.862173,3.2546265,2.959958
-23.953852,3.2645059,2.9680943
-24.071758,3.2865064,2.996552
-24.074812,3.2581139,2.941463
-24.196491,3.2828994,2.9749374
-24.250853,3.2778726,2.958929
-24.29329,3.2675557,2.9341764
-24.409828,3.2918627,2.967465
-24.50063,3.3048947,2.9820971
-24.514885,3.2820497,2.9366522
-24.592117,3.2893436,2.941907
-24.66398,3.294484,2.943686
-24.711853,3.2882206,2.9263606
-24.754026,3.2792726,2.9045744
-24.83039,3.287639,2.912156
-24.91278,3.2995527,2.9258952
-24.93579,3.2814345,2.8888268
-25.01003,3.2898777,2.8969154
-25.074236,3.2935073,2.8969512
-25.116877,3.2860088,2.8781385
-25.171207,3.2849143,2.870316
-25.234278,3.288831,2.8711448
-25.323471,3.3075035,2.897325
-25.34232,3.2876635,2.8577147
-25.400175,3.289624,2.855494
-25.47507,3.301609,2.8705812
-25.530499,3.302903,2.867426
-25.555107,3.2865045,2.8339148
-25.627947,3.2984464,2.8492484
-25.695232,3.307606,2.8599114
-25.7443,3.3062274,2.8524952
-25.776812,3.294947,2.8280377
-25.86296,3.3168118,2.860968
-25.899765,3.30857,2.841907
-25.957727,3.3137681,2.8461957
-25.995783,3.3065803,2.8290777
-26.059525,3.3161075,2.8410492
-26.108402,3.3163533,2.8369842
-26.164375,3.3215475,2.8416047
-26.208805,3.3193464,2.833426
-26.256138,3.3192966,2.8290615
-26.309225,3.3234372,2.8320785
-26.369076,3.3326201,2.8439841
-26.39465,3.3180735,2.8144884
-26.448435,3.323541,2.8200412
-26.503685,3.3304272,2.8281598
-26.549143,3.3305366,2.8244805
-26.595058,3.3312075,2.8218489
-26.619957,3.3163292,2.7919736
-26.66966,3.3201525,2.7949848
-26.726736,3.3299718,2.80861
-26.767967,3.3278947,2.8013825
-26.80016,3.318827,2.7818918
-26.834583,3.3115206,2.7655396
-26.918945,3.3447673,2.820766
-26.952026,3.3369286,2.8035994
-27.003021,3.3440206,2.8128448
-27.021536,3.3240638,2.7743435
-27.066866,3.326733,2.7758741
-27.123383,3.3393948,2.7951517
-27.166826,3.341102,2.795107
-27.209183,3.342087,2.7938366
-27.22998,3.323779,2.7583995
-27.276613,3.328872,2.7645025
-27.332361,3.342802,2.7863612
-27.382618,3.3521452,2.8001475
-27.423464,3.3529325,2.7987885
-27.465567,3.355158,2.8000388
-27.494656,3.344791,2.7789235
-27.52262,3.3331697,2.7556005
-27.565098,3.3361633,2.7583442
-27.614702,3.3468075,2.7747812
-27.65426,3.3474267,2.773398
-27.698318,3.353052,2.7809968
-27.73066,3.3463483,2.766633
-27.776484,3.3544595,2.778769
-27.81284,3.3524292,2.7728348
-27.860619,3.363508,2.7903848
-27.894066,3.3585658,2.7793279
-27.930256,3.356865,2.7741075
-27.956617,3.3435276,2.748085
-27.99366,3.34291,2.744873
-28.045664,3.3609867,2.7752118
-28.098234,3.3806088,2.8083882
-28.137493,3.3840272,2.8125648
-28.171026,3.3802657,2.8038979
-28.20117,3.3720224,2.7872176
-28.232143,3.3647668,2.7723374
-28.201574,3.2722566,2.6042862
-28.186966,3.1988113,2.470419
-28.195917,3.1565166,2.3925095
-28.18483,3.0832746,2.258913
-28.193111,3.0362246,2.1723971
-28.18619,2.9641318,2.0407805
-28.165306,2.8673394,1.8646369
-28.188988,2.837678,1.8093519
-28.211939,2.8057134,1.7499237
-28.202427,2.718333,1.5906105
-28.219387,2.6723251,1.5058436
-28.19735,2.556216,1.2946305
-37.40163,1.8565211,0.3938737
-37.429943,1.8872108,0.45496416
-37.502132,1.8933022,0.47396088
-37.427258,1.9801934,0.63119173
-37.505356,1.9826992,0.6441183
-37.45926,2.0520403,0.7711315
-37.429646,2.1115053,0.8811579
-37.475296,2.130637,0.9224682
-37.54726,2.1361127,0.94064283
-37.44107,2.2330647,1.1140656
-37.501396,2.2439666,1.141449
-37.424034,2.3239503,1.2857475
-37.463993,2.3444746,1.3293962
-37.457462,2.3876996,1.411365
-37.458054,2.4269137,1.4865108
-37.47175,2.459379,1.5502596
-37.49145,2.4886773,1.608675
-37.467075,2.5383675,1.7012553
-37.50627,2.5579114,1.743289
-37.463074,2.6151633,1.8483481
-37.522243,2.6251678,1.8744664
-37.549664,2.6495728,1.9246569
-37.616108,2.6565387,1.9458904
-37.652832,2.6767783,1.9892621
-37.683113,2.6997633,2.0372243
-37.734596,2.7135577,2.0700283
-37.75186,2.7419608,2.1270127
-37.7383,2.783077,2.2049212
-37.772408,2.803923,2.2494364
-37.83919,2.8113139,2.2719326
-38.373207,2.629388,1.9847741
-38.508007,2.6120706,1.9678326
-37.817238,2.92318,2.4863791
-37.899765,2.9243982,2.4990678
-37.906857,2.9552798,2.5600634
-37.936825,2.977118,2.606391
-37.95753,3.0024076,2.6583276
-38.017746,3.0127301,2.6861591
-38.28981,2.9446206,2.5880423
-38.650707,2.8458567,2.4415135
-38.34648,2.9911263,2.6863203
-38.49069,2.9726882,2.668992
-38.9999,2.8256056,2.447332
-39.040665,2.846636,2.4939513
-39.086166,2.8660383,2.538062
-39.123837,2.888182,2.5865836
-39.27952,2.8703072,2.5721803
-39.413727,2.8605378,2.5709238
-39.509163,2.8643515,2.5912828
-39.65086,2.8534448,2.588922
-39.709763,2.8701262,2.6298585
-39.785706,2.8815074,2.6627102
-39.882317,2.886629,2.6860757
-39.90703,2.9146667,2.7449923
-39.99135,2.9241855,2.7755084
-40.998592,2.6521444,2.3755565
-41.00274,2.689855,2.4510198
-41.00362,2.728279,2.5275178
-40.998573,2.7681744,2.606184
-40.984005,2.8105276,2.6884766
-40.98913,2.8468416,2.761592
-40.994545,2.8828394,2.8341918
-41.045822,2.9057345,2.8872385
-41.236538,2.890039,2.8831787
-41.33704,2.9001062,2.917779
-41.543846,2.881825,2.9110093
-41.596706,2.9058332,2.9668097
-41.788815,2.8931823,2.9693532
-41.88596,2.9063127,3.0099125
-42.090557,2.8921776,3.0114512
-42.19513,2.904558,3.0517468
-42.391254,2.8944037,3.060214
-42.585033,2.8858578,3.0716567
-42.668663,2.9052455,3.1232305
-42.92105,2.8842092,3.118321
-43.096313,2.8829048,3.1418881
-43.247673,2.8880887,3.1750956
-43.462364,2.8793046,3.189599
-43.607502,2.887538,3.2282267
-43.75453,2.8960154,3.2677236
-44.059868,2.869939,3.2610831
-44.265472,2.8674011,3.2872553
-44.42616,2.8756144,3.3285637
-44.623642,2.8767266,3.3611183
-44.9252,2.8569095,3.3670259
-45.134563,2.8578076,3.4011583
-45.397205,2.848844,3.4234476
-45.552803,2.8627906,3.4761648
-45.807346,2.8577993,3.5055337
-46.063118,2.8538537,3.5373392
-46.36406,2.8424928,3.5610704
-46.607925,2.8435037,3.601408
-46.88456,2.8395994,3.63688
-47.22389,2.825554,3.6614327
-47.471226,2.8299093,3.7095327
-47.866158,2.8091767,3.7292943
-48.171803,2.8061476,3.7716012
-48.45734,2.8081203,3.821178
-48.757507,2.8090231,3.870988
-49.05683,2.8115587,3.9241676
-49.58649,2.7777934,3.939003
-50.25209,2.724878,3.9359884
-50.97618,2.6662073,3.9305415
-51.8555,2.587196,3.9079013
-52.843678,2.4962082,3.878025
2.334795,1.3971226,2.7280293
2.3186703,1.3104625,2.5437365
2.3499775,1.1270676,2.1641107
2.3533459,1.0366495,1.9754286
2.330038,0.9500184,1.7908845
2.2529316,0.87165403,1.6158104
2.1873226,0.79155207,1.439004
2.2078304,0.6974566,1.2459493
2.194975,0.60842896,1.0587158
2.1865788,0.5183668,0.8701782
2.1845684,0.42689824,0.67984486
2.0857716,0.351928,0.50977993
2.3736515,0.20868802,0.25479603
-12.0807,2.6635056,3.2351818
-12.590588,2.7058003,3.2487516
-13.863705,2.894783,3.4551044
-14.773341,3.021365,3.5851922
-14.965457,3.0135374,3.5414467
-15.218313,3.018624,3.5156794
-15.989017,3.0441368,3.45826
-16.236639,3.0533507,3.4420676
-16.584442,3.085125,3.458037
-16.72313,3.0737443,3.4151993
-16.968529,3.0863132,3.4064374
-17.18637,3.0940642,3.3917713
-17.45041,3.1133223,3.3942251
-17.594868,3.106763,3.360744
-17.81342,3.117994,3.3533106
-17.971401,3.1162007,3.3278146
-18.23253,3.1396496,3.339511
-18.388962,3.1393666,3.3174462
-18.466257,3.1205833,3.2687354
-18.650845,3.1285505,3.2597046
-18.860611,3.1437786,3.262033
-19.056175,3.1565456,3.2613735
-19.100536,3.1315694,3.2048726
-19.289188,3.1441514,3.204908
-19.434021,3.1462176,3.1896586
-19.673113,3.1741388,3.2140274
-19.736374,3.1559746,3.1690073
-19.900944,3.165687,3.1667366
-20.093636,3.1840632,3.178238
-20.124752,3.1582599,3.122292
-20.315815,3.1777873,3.1364474
-20.46647,3.1867998,3.13485
-20.537453,3.173472,3.098907
-20.701593,3.1877966,3.1063223
-20.775965,3.1763184,3.0737624
-20.934986,3.1906214,3.081914
-21.0005,3.1773133,3.0469532
-21.169178,3.1960518,3.0628424
-21.346725,3.2185385,3.085135
-21.396305,3.201659,3.0452495
-21.550606,3.218357,3.0590634
-21.58739,3.197955,3.0138884
-21.757977,3.2213354,3.0390592
-21.793127,3.200931,2.994193
-21.964443,3.2261152,3.0229611
-22.000484,3.206544,2.9797454
-22.188356,3.238998,3.0209875
-22.236847,3.224359,2.986116
-22.391819,3.247154,3.0123658
-22.493967,3.2521863,3.0099669
-22.602411,3.260024,3.0123992
-22.61288,3.2329335,2.957734
-22.76512,3.2576487,2.9883037
-22.814947,3.2453492,2.9581914
-22.915094,3.252059,2.9595876
-23.04232,3.2696002,2.9791436
-23.046986,3.2409055,2.9222522
-23.195955,3.2679524,2.9580345
-23.228024,3.2501228,2.9193769
-23.344244,3.2656689,2.9364858
-23.441814,3.2744572,2.942545
-23.457485,3.250579,2.8940606
-23.599165,3.2782412,2.9321165
-23.65308,3.270468,2.9108782
-23.719383,3.268075,2.8988004
-23.797882,3.2711575,2.896089
-23.863155,3.2689826,2.8846402
-23.908548,3.2584784,2.8592038
-23.999443,3.268044,2.8678875
-24.076406,3.2719815,2.8671865
-24.141146,3.270857,2.8580155
-24.23108,3.2814655,2.86896
-24.26433,3.2666357,2.8366508
-24.35965,3.2805872,2.85359
-24.45668,3.295974,2.8731728
-24.4884,3.2810392,2.840948
-24.571732,3.2908366,2.8512301
-24.640291,3.293996,2.8502522
-24.70649,3.2963717,2.848043
-24.694271,3.2602017,2.7794852
-24.826273,3.295863,2.8348832
-24.881405,3.2936275,2.8250265
-24.912022,3.2790556,2.793902
-24.976162,3.281835,2.792882
-25.044233,3.2870302,2.7961612
-25.112047,3.29249,2.800013
-25.141495,3.2777593,2.768857
-25.242144,3.3016307,2.804957
-25.299109,3.3023348,2.8008466
-25.321922,3.2843542,2.7642102
-25.391415,3.2924578,2.7731686
-25.471102,3.3068151,2.7931805
-25.53464,3.3124833,2.7981114
-25.545395,3.2878397,2.7500033
-25.631958,3.3074958,2.779625
-25.689156,3.310387,2.779944
-25.742994,3.3115766,2.7773561
-25.746948,3.28264,2.721819
-25.850227,3.314531,2.7734284
-25.904238,3.3166814,2.772767
-25.956234,3.3178592,2.7704654
-25.964752,3.291518,2.7196164
-26.073124,3.3293777,2.7822876
-26.114368,3.3244483,2.7694082
-26.161587,3.3235955,2.7638006
-26.192177,3.3118029,2.7388582
-26.269825,3.33191,2.7705545
-26.309107,3.3263738,2.7568288
-26.370308,3.336186,2.770431
-26.384346,3.313239,2.7258458
-26.453184,3.329042,2.7502437
-26.511992,3.338223,2.762948
-26.551018,3.3333893,2.7507453
-26.587315,3.3266313,2.7351532
-26.628593,3.3236604,2.7263632
-26.676878,3.326158,2.7273946
-26.738384,3.3391244,2.7472086
-26.779861,3.3370173,2.7401352
-26.805025,3.3221745,2.7103019
-26.838787,3.3140378,2.692503
-26.928736,3.3515122,2.7565308
-26.958588,3.3407624,2.7341638
-26.98963,3.3309221,2.7134542
-27.022827,3.3228436,2.695938
-27.072422,3.3288028,2.703692
-27.130566,3.342565,2.725546
-27.179108,3.3484585,2.733314
-27.19926,3.3293498,2.6961088
-27.238218,3.3269424,2.689012
-27.29115,3.3375201,2.7053695
-27.35987,3.3633401,2.7492952
-27.389133,3.3527613,2.727611
-27.433443,3.356522,2.7318506
-27.462019,3.3452466,2.708969
-27.488169,3.3314242,2.6815057
-27.53975,3.3429358,2.6998882
-27.568699,3.3319008,2.6775274
-27.629131,3.3533506,2.7140136
-27.672268,3.3574557,2.7191567
-27.704119,3.34981,2.7030492
-27.736095,3.3422432,2.6871128
-27.7734,3.3405063,2.6817803
-27.826864,3.3570542,2.7096744
-27.87673,3.3702357,2.7315207
-27.909327,3.3639908,2.7181373
-27.934841,3.3493478,2.6895204
-27.97927,3.3571174,2.7016692
-28.028202,3.3708577,2.7247272
-28.06843,3.3744311,2.7293444
-28.111347,3.3817282,2.7407808
-28.147036,3.3801396,2.736084
-28.185112,3.381813,2.7373643
-28.218023,3.376806,2.7265081
-28.207851,3.3129084,2.6083212
-28.188162,3.2334218,2.4616594
-28.179415,3.1664994,2.3378544
-28.185219,3.118147,2.2478929
-28.194054,3.0724752,2.1628046
-28.179762,2.9901388,2.010746
-28.166029,2.9053438,1.8541403
-28.188776,2.8745766,1.7962008
-28.21739,2.8521068,1.7534332
-28.19341,2.7421443,1.5507145
-28.223083,2.717789,1.5044832
-28.197899,2.5978177,1.2833533
-37.358143,1.9362321,0.4066472
-37.44638,1.9333782,0.40954065
-37.46618,1.9683824,0.47854662
-37.46768,2.012882,0.5640683
-37.485336,2.0481503,0.6334901
-37.452175,2.1098619,0.748816
-37.44742,2.1557584,0.83658457
-37.46468,2.189656,0.9035039
-37.502296,2.2128012,0.9518075
-37.440918,2.2857988,1.0862794
-37.462994,2.3159125,1.1465607
-37.453144,2.3615084,1.2335205
-37.45528,2.4006376,1.309277
-37.46747,2.4344401,1.3758345
-37.46886,2.4730427,1.4506063
-37.477524,2.507753,1.518661
-37.48847,2.5410268,1.584229
-37.494354,2.5762935,1.6531773
-37.49957,2.611483,1.7219596
-37.512325,2.6428878,1.7842565
-37.527508,2.6729138,1.8441911
-37.558743,2.6955874,1.8916287
-37.601746,2.7130215,1.930212
-37.656708,2.7253091,1.9601417
-37.69086,2.746613,2.0053926
-37.725452,2.767668,2.0502596
-37.76901,2.7849212,2.0887647
-37.73687,2.8334615,2.179916
-37.92266,2.792352,2.1205335
-37.9572,2.8136437,2.166071
-38.251907,2.7310014,2.0379324
-38.42582,2.6983204,1.9938493
-37.883568,2.9464438,2.4176788
-37.914394,2.9682178,2.4639492
-37.92478,2.9977336,2.5230913
-37.945957,3.0229423,2.575086
-37.975643,3.0448387,2.6216202
-38.01966,3.061384,2.6593728
-38.125664,3.0553684,2.66011
-38.799065,2.8451865,2.3262157
-38.917152,2.8383105,2.3268075
-38.901337,2.8793035,2.4058232
-39.07532,2.8536687,2.3762345
-39.065445,2.8924937,2.4518027
-39.20334,2.8805726,2.445057
-39.313065,2.8789158,2.455244
-39.45008,2.8687222,2.451932
-39.596863,2.8560686,2.4450078
-39.663204,2.8704123,2.4817443
-39.72942,2.8850052,2.519021
-39.8427,2.8848429,2.532917
-39.882977,2.9081728,2.5844407
-39.957497,2.9208848,2.619205
-41.006866,2.6347356,2.1819782
-41.001904,2.675616,2.2629428
-41.00934,2.7124488,2.3374786
-40.9925,2.756228,2.4228477
-40.98633,2.7964818,2.5026102
-40.986526,2.834572,2.5789323
-40.990513,2.8713076,2.6531014
-41.03739,2.8957047,2.708191
-41.15875,2.8994164,2.7315826
-41.27755,2.9044008,2.757265
-41.47261,2.8892126,2.7525177
-41.567566,2.9019535,2.7907891
-41.79044,2.881176,2.7786207
-41.86031,2.901671,2.8293214
-42.080425,2.8835578,2.8223042
-42.149338,2.905217,2.875371
-42.350166,2.8938591,2.8795543
-42.50027,2.8961713,2.9046106
-42.65787,2.8973722,2.9285088
-42.87079,2.8859491,2.9344306
-42.958878,2.9054737,2.986158
-43.20654,2.8876948,2.9840922
-43.35017,2.8954442,3.019683
-43.53469,2.894476,3.0432625
-43.748283,2.8878446,3.0594168
-43.993004,2.8753579,3.0680428
-44.204544,2.8714557,3.0896459
-44.36579,2.8795438,3.1287894
-44.576847,2.8777254,3.1547532
-44.872845,2.8590374,3.1582322
-45.11002,2.854149,3.181767
-45.287968,2.8626046,3.22437
-45.483,2.8684504,3.2641325
-45.706593,2.869552,3.2983055
-45.979805,2.862029,3.3219218
-46.291473,2.8484726,3.3387184
-46.55207,2.8462422,3.3716183
-46.762238,2.854765,3.4195328
-47.1008,2.8406217,3.4392862
-47.41871,2.8319733,3.4675078
-47.710064,2.8296895,3.505145
-48.037277,2.822566,3.5380821
-48.356133,2.8185484,3.5763445
-48.67331,2.8164232,3.6183968
-49.029404,2.8093815,3.6560526
-49.40809,2.8004327,3.693174
-49.785164,2.7936697,3.7347207
-50.18293,2.7855315,3.776575
-50.491463,2.7933302,3.8385792
-50.878944,2.790549,3.8903246
-51.661842,2.7302365,3.8807478
-52.35797,2.6868646,3.8938088
-53.14105,2.6345248,3.9012032
2.4405346,1.6599684,2.8100147
2.3510609,1.583272,2.636219
2.4121113,1.307301,2.064063
2.345148,1.2272334,1.8869224
2.3208714,1.1408868,1.7025399
2.21554,1.0666308,1.5327611
2.1907673,0.9802203,1.3485236
2.230688,0.8834648,1.1514864
2.230383,0.79257536,0.96150255
2.220972,0.70282245,0.7728491
2.1880093,0.6166649,0.5887356
2.2039013,0.52211046,0.39377928
-12.443277,2.731977,3.0566964
-15.298571,3.0350747,3.3124151
-15.5475855,3.040656,3.2918062
-15.8150835,3.0512705,3.2792773
-15.977719,3.0416396,3.2385716
-16.317665,3.0698972,3.2532516
-16.584663,3.0845075,3.2492447
-16.781979,3.085515,3.226223
-16.99487,3.0909185,3.2103262
-17.200893,3.0958934,3.1944914
-17.414913,3.1037223,3.18357
-17.613716,3.1091971,3.1698098
-17.775246,3.1070845,3.1452627
-18.021269,3.1255538,3.1523142
-18.22533,3.135399,3.147039
-18.40604,3.1407042,3.1354585
-18.600098,3.1501963,3.130834
-18.678955,3.1322548,3.0845704
-18.878777,3.1448731,3.0857325
-19.000196,3.138685,3.0582967
-19.2019,3.1536865,3.0642009
-19.349907,3.1558175,3.0505543
-19.498535,3.158864,3.0387506
-19.704157,3.1778824,3.052515
-19.760983,3.1578336,3.0050797
-19.907898,3.1625886,2.9971232
-20.138733,3.191366,3.0277977
-20.209564,3.176594,2.9895396
-20.3281,3.1756225,2.973556
-20.493866,3.188817,2.9806404
-20.567204,3.1760213,2.9462419
-20.736584,3.1918,2.9582205
-20.764547,3.1663537,2.9037566
-20.952297,3.189096,2.9277182
-21.083193,3.195572,2.9256163
-21.170721,3.1893368,2.9030352
-21.343037,3.21002,2.9247994
-21.388283,3.191486,2.8824883
-21.594551,3.2246203,2.9254427
-21.576939,3.1864638,2.8510675
-21.768562,3.2165406,2.889658
-21.873493,3.219047,2.882914
-21.975655,3.2211652,2.8757534
-22.120121,3.238178,2.8936653
-22.200838,3.2341468,2.8767118
-22.394001,3.2695718,2.9260478
-22.400713,3.2406979,2.8678336
-22.556458,3.2646136,2.8984466
-22.621563,3.2569022,2.8760624
-22.703754,3.2556605,2.8647332
-22.808474,3.2631075,2.8682761
-22.83461,3.2418804,2.8233857
-22.96785,3.2609172,2.84696
-23.033323,3.2549832,2.8282886
-23.114672,3.2554307,2.8206205
-23.227503,3.2685518,2.8347673
-23.253164,3.2480094,2.7915025
-23.425014,3.2856493,2.8480482
-23.441257,3.2618034,2.7993202
-23.57362,3.2851248,2.83176
-23.649612,3.2861056,2.8259559
-23.660835,3.260468,2.7743335
-23.768894,3.2754395,2.7929177
-23.85664,3.282445,2.7979116
-23.874413,3.259786,2.7516146
-23.981428,3.2758799,2.7726321
-24.06617,3.2828596,2.7779942
-24.090992,3.2636132,2.7378225
-24.233171,3.2971997,2.7898283
-24.26461,3.2813647,2.7557783
-24.307274,3.2706754,2.7307615
-24.45711,3.3100672,2.7935133
-24.501549,3.300946,2.7714705
-24.536707,3.2875032,2.7418995
-24.619282,3.296949,2.7526093
-24.687248,3.2997901,2.75183
-24.710459,3.2809079,2.712874
-24.783182,3.2866175,2.7173233
-24.859112,3.2943778,2.7255101
-24.908337,3.2889743,2.7105384
-24.945835,3.2776847,2.6852098
-25.043077,3.297642,2.7153125
-25.094765,3.2942727,2.704183
-25.128143,3.2813244,2.6761088
-25.218798,3.2993317,2.703116
-25.29219,3.3085952,2.7147045
-25.32481,3.295788,2.687078
-25.370777,3.2904284,2.6727672
-25.471622,3.3162978,2.714271
-25.517853,3.311751,2.701581
-25.536385,3.2913036,2.6605048
-25.622425,3.3102372,2.6899443
-25.677408,3.3114495,2.687758
-25.737276,3.315884,2.6914253
-25.753784,3.2943313,2.648519
-25.842663,3.3170247,2.6851192
-25.889616,3.3144255,2.6763678
-25.952393,3.3219805,2.6859517
-25.974277,3.3038988,2.649438
-26.05479,3.3234527,2.6807895
-26.106682,3.325039,2.6798377
-26.165514,3.3314943,2.687746
-26.190077,3.3154132,2.6550035
-26.253876,3.325757,2.6700668
-26.30981,3.331203,2.676353
-26.366074,3.3372474,2.6837935
-26.384148,3.316815,2.6433153
-26.452007,3.3315594,2.666647
-26.512161,3.3413515,2.6810813
-26.545523,3.332046,2.6609044
-26.571924,3.3175752,2.63137
-26.633192,3.3290946,2.6491241
-26.681217,3.3310807,2.6496081
-26.728033,3.3324118,2.6489534
-26.78942,3.3453608,2.6695237
-26.807755,3.3248549,2.6291704
-26.844528,3.3187819,2.6151533
-26.934338,3.3558068,2.6798525
-26.966146,3.3463418,2.6597552
-26.994118,3.3336265,2.6337447
-27.042557,3.338078,2.6391478
-27.091282,3.3431106,2.6456695
-27.138824,3.347467,2.651009
-27.17901,3.3456662,2.645122
-27.202635,3.3292072,2.6124096
-27.243862,3.3284516,2.6085052
-27.299784,3.3414097,2.6298037
-27.35848,3.3575478,2.6570067
-27.405878,3.363654,2.665855
-27.442362,3.3596418,2.6561651
-27.46833,3.3454287,2.6277566
-27.499355,3.3359985,2.608159
-27.53526,3.3313873,2.597454
-27.58262,3.3385544,2.6084614
-27.645576,3.3623571,2.650158
-27.681503,3.3585727,2.6411028
-27.714615,3.3518364,2.626639
-27.74983,3.3473685,2.6163845
-27.786673,3.344746,2.6095672
-27.837523,3.358026,2.6321287
-27.883362,3.3662016,2.6453242
-27.919476,3.3635051,2.6384869
-27.944431,3.3476553,2.607378
-27.980724,3.3451295,2.6009102
-28.040472,3.371543,2.6479836
-28.07888,3.3723888,2.6478357
-28.122099,3.3795836,2.6594696
-28.158545,3.3784325,2.6556997
-28.19969,3.3836448,2.663744
-28.22836,3.3724015,2.6413493
-28.204403,3.2884874,2.4843311
-28.181915,3.203467,2.3251982
-28.187057,3.1547453,2.2332964
-28.18259,3.0901601,2.1119566
-28.171858,3.0137036,1.9685588
-28.171661,2.950235,1.849215
-28.191694,2.9157083,1.7835593
-28.217415,2.888912,1.7322569
-28.190367,2.7752037,1.5195618
-28.203705,2.7237177,1.4223747
-28.220726,2.676305,1.3327456
-37.452213,1.9933465,0.3768983
-37.463943,2.0324683,0.45379114
-37.50541,2.055294,0.50172424
-37.457752,2.1248612,0.63259125
-37.416122,2.1901276,0.755692
-37.481636,2.1992664,0.7793288
-37.463596,2.2510493,0.87843466
-37.489986,2.2797525,0.9367027
-37.5074,2.3126726,1.0024157
-37.460377,2.3768976,1.1232576
-37.467598,2.4137504,1.1957965
-37.473377,2.450869,1.2687721
-37.473377,2.4903026,1.3457747
-37.481308,2.5255349,1.4153671
-37.479797,2.5647635,1.4919257
-37.484856,2.6005049,1.5623388
-37.500298,2.631137,1.6237974
-37.50849,2.6647408,1.6904254
-37.523514,2.6949675,1.7511468
-37.54249,2.7231903,1.8083754
-37.56775,2.7484603,1.8604741
-37.60169,2.769852,1.9058628
-37.649017,2.7854922,1.9413323
-37.706886,2.7967737,1.9693322
-37.760815,2.8098507,2.0005178
-37.83707,2.8138952,2.0162253
-37.92509,2.813498,2.0244274
-38.004707,2.8169062,2.0393214
-38.063995,2.8287268,2.0687737
-37.852318,2.9469423,2.2803388
-37.89268,2.9652455,2.3207307
-37.91764,2.9894664,2.371264
-37.94461,3.012812,2.4203238
-37.965572,3.0383134,2.4730663
-37.963486,3.0722125,2.5400505
-37.984306,3.0973897,2.5922318
-38.034065,3.1119585,2.6265101
-38.118862,3.1140938,2.6399202
-38.89363,2.8724778,2.2436395
-38.96838,2.8817086,2.2701678
-39.051407,2.8883626,2.2925239
-39.213566,2.868316,2.2704415
-39.26607,2.886289,2.3121004
-39.39557,2.8786533,2.3112626
-39.492596,2.8824356,2.3296595
-39.64387,2.868964,2.3197083
-39.710777,2.8835528,2.3564377
-39.78778,2.8951335,2.3883433
-39.886112,2.9002826,2.4098454
-39.91929,2.9261503,2.4655051
-40.016705,2.9322236,2.4888697
-40.99273,2.6717548,2.0781922
-40.990112,2.7119122,2.1586056
-41.00335,2.7470498,2.230825
-40.982807,2.7918878,2.318696
-40.978996,2.8314486,2.397956
-40.981552,2.8688817,2.4737377
-40.99671,2.9024966,2.5433626
-41.11934,2.9059625,2.5648966
-41.25633,2.906053,2.5813766
-41.414032,2.9011824,2.5903578
-41.515774,2.9121625,2.6247854
-41.689205,2.9045486,2.6302261
-41.83427,2.9052756,2.649218
-42.035454,2.8921993,2.6470642
-42.078003,2.9207087,2.7101521
-42.31604,2.8999758,2.6970592
-42.422905,2.9131844,2.7370272
-42.655556,2.895956,2.7305427
-42.790066,2.9037657,2.763051
-42.958565,2.904069,2.7845244
-43.176014,2.8936586,2.7902741
-43.28702,2.9091604,2.8357797
-43.468147,2.9090257,2.8581433
-43.72547,2.8925388,2.8566656
-43.91282,2.8930483,2.8812766
-44.103188,2.893821,2.9068828
-44.32363,2.8890054,2.9249043
-44.570602,2.8796334,2.9370117
-44.813328,2.8724368,2.9531274
-45.053623,2.8669894,2.9726114
-45.231205,2.8756201,3.0131307
-45.443752,2.8780303,3.0454035
-45.7151,2.8697894,3.0633616
-45.9537,2.869359,3.093297
-46.239067,2.861095,3.1131878
-46.526733,2.8538551,3.1355815
-46.751892,2.8597813,3.177177
-47.05164,2.853066,3.2024064
-47.37088,2.8443422,3.2261147
-47.6752,2.8399143,3.2568717
-47.9952,2.8342748,3.2872667
-48.300148,2.8328571,3.324551
-48.63136,2.8285122,3.3593102
-48.98507,2.8220866,3.3928156
-49.363285,2.813436,3.4250374
-49.71962,2.8102424,3.4658337
-50.09755,2.8054233,3.5062203
-50.474808,2.8026214,3.5508404
-50.876633,2.7979672,3.5949836
-51.31476,2.7898965,3.6369576
-51.75225,2.784146,3.6838222
-52.17539,2.782687,3.7378664
-52.613396,2.7812502,3.7940836
-52.983078,2.7915177,3.8657646
2.5266247,1.9156694,2.900114
2.3498478,1.8495269,2.7384787
2.4335423,1.5724959,2.1638298
2.4000225,1.4877386,1.9810815
2.3564854,1.4042819,1.800005
2.3019733,1.3223357,1.6209297
2.219984,1.244391,1.4470892
2.2010326,1.1572199,1.2616563
