x,y,z
-28.3268,1.5869145,2.8675609
-28.37037,1.5989134,2.8748922
-28.410013,1.6017146,2.8727455
-28.450117,1.6059592,2.8722334
-28.491158,1.6129854,2.874763
-28.531572,1.6187913,2.8761415
-28.567749,1.613342,2.8658204
-28.611364,1.6287353,2.8775225
-28.650772,1.632868,2.8775153
-28.689648,1.6357679,2.876329
-28.729126,1.6407871,2.8774958
-28.769156,1.6479301,2.8810263
-28.80801,1.6518228,2.8812466
-28.845572,1.6517854,2.877428
-28.883915,1.6545393,2.8766737
-28.92297,1.6600924,2.8789978
-28.960434,1.6603575,2.875836
-28.998789,1.6640952,2.8764663
-29.037071,1.6679358,2.8773193
-29.075111,1.6712031,2.8776784
-29.11211,1.670516,2.8739467
-29.151634,1.6807497,2.8819346
-29.189915,1.6863532,2.885117
-29.228241,1.6927376,2.8892431
-29.265188,1.693126,2.887096
-29.30145,1.6902208,2.8815436
-29.338785,1.6928351,2.8819814
-29.376684,1.698941,2.8862529
-29.410961,1.6847796,2.869
-29.4477,1.6842856,2.8664336
-29.487293,1.702234,2.8836775
-29.51989,1.6747456,2.8524756
-29.553139,1.6486919,2.8228903
-29.575098,1.5322375,2.6966987
-29.594181,1.3756554,2.5275931
-29.627188,1.3191404,2.4655929
-25.412247,1.0244486,2.7927446
-25.481617,1.0446599,2.796959
-25.545027,1.059125,2.796049
-25.609312,1.0750196,2.7967715
-25.676102,1.094161,2.8008666
-25.7305,1.1002457,2.792789
-25.815254,1.140445,2.817603
-25.86377,1.1408949,2.8046427
-25.930431,1.1621923,2.8119454
-26.002037,1.1898346,2.8256693
-26.050098,1.1908419,2.8139172
-26.116844,1.2140594,2.8239155
-26.18063,1.2344499,2.8314533
-26.232853,1.2415311,2.8262677
-26.286968,1.2512496,2.8238697
-26.347914,1.2698011,2.8303528
-26.403593,1.2823749,2.8312092
-26.457094,1.2926545,2.8300261
-26.513325,1.306843,2.8329186
-26.56115,1.3106306,2.8257275
-26.638824,1.3538992,2.8579292
-26.772175,1.4725316,2.965517
-26.888706,1.5716953,3.0543647
-26.935102,1.5778024,3.0507355
-26.98002,1.5821683,3.0455327
-27.03609,1.6024299,3.0564566
-27.075819,1.6001558,3.0449252
-27.124352,1.6106453,3.0463967
-27.145357,1.5813715,3.0078645
-27.165115,1.5495753,2.9667969
-27.12947,1.4338543,2.8405843
-27.176035,1.4401529,2.8381042
-27.22496,1.450423,2.8398328
-27.273294,1.4602087,2.841247
-27.319035,1.4663064,2.839065
-27.365456,1.4738252,2.8384972
-27.412912,1.483413,2.8402157
-27.460194,1.493149,2.8422542
-27.508064,1.5043201,2.8459387
-27.5531,1.5111258,2.8452916
-27.597641,1.5174212,2.8442707
-27.640966,1.521909,2.8415327
-27.694635,1.5453146,2.8585396
-27.731247,1.538403,2.8442879
-27.775984,1.5465298,2.8457723
-27.824005,1.5612977,2.85432
-27.86467,1.5625343,2.8489337
-27.90829,1.5697567,2.849924
-27.952106,1.5777619,2.8518767
-27.994808,1.5839345,2.8520575
-28.037394,1.5902317,2.8525076
-28.07955,1.5959964,2.852539
-28.122206,1.6031961,2.8542137
-28.16323,1.607234,2.8527002
-28.205353,1.6140206,2.8542113
-28.24648,1.618952,2.8539014
-28.289778,1.6292765,2.8594165
-28.33067,1.6344461,2.8596249
-28.37255,1.6423764,2.8628817
-28.413485,1.6484418,2.864297
-28.453264,1.6519737,2.863153
-28.492718,1.6549528,2.8615446
-28.533108,1.6606958,2.8629942
-28.57412,1.6685438,2.866807
-28.612133,1.6685305,2.8623772
-28.650833,1.6706138,2.8602948
-28.690845,1.6767998,2.8627033
-28.730082,1.6810966,2.8632178
-28.76902,1.6848338,2.8632526
-28.807676,1.6880093,2.8628035
-28.846064,1.6906209,2.861865
-28.884596,1.694005,2.861867
-28.924025,1.700839,2.865683
-28.962208,1.7037635,2.8654218
-29.00015,1.7061198,2.8646631
-29.038395,1.709919,2.8655658
-29.076736,1.7144916,2.8674126
-29.114502,1.7171533,2.8673153
-29.153318,1.7246187,2.872499
-29.191696,1.7308455,2.8764644
-29.229815,1.7365029,2.8799286
-29.267548,1.740916,2.882163
-29.306005,1.749471,2.8889766
-29.343021,1.7513914,2.888739
-29.378765,1.7466676,2.8814316
-29.415993,1.750128,2.8830667
-29.452486,1.7496378,2.880536
-29.488136,1.7438416,2.8723702
-29.52478,1.7442136,2.8709764
-29.556887,1.7122533,2.8346868
-29.576355,1.5796728,2.6895218
-29.591158,1.390316,2.4828691
-29.625584,1.3449764,2.4322405
-25.083149,1.0026412,2.7825127
-25.152773,1.0201774,2.7831159
-25.23092,1.0467939,2.792614
-25.300476,1.0654562,2.794939
-25.365673,1.0802381,2.793888
-25.42546,1.0899215,2.788259
-25.50215,1.1176372,2.800139
-25.565407,1.1319482,2.7995071
-25.646885,1.1661875,2.818337
-25.705057,1.1762094,2.8141603
-25.770205,1.1942301,2.817974
-25.827961,1.2046702,2.814705
-25.89364,1.2243497,2.8206754
-25.958988,1.244268,2.8271637
-26.019222,1.258975,2.8288283
-26.083412,1.2787483,2.835721
-26.140495,1.290848,2.8353305
-26.19169,1.2964389,2.8287444
-26.264755,1.3284602,2.8485217
-26.323112,1.3436205,2.8518882
-26.478436,1.477983,2.9741092
-26.590372,1.562026,3.0469542
-26.641003,1.5714028,3.0456967
-26.706533,1.600081,3.063982
-26.74993,1.6011729,3.0548363
-26.800909,1.6123114,3.0559592
-26.850277,1.6217558,3.0555701
-26.89668,1.6276302,3.0517564
-26.953106,1.6473637,3.0621605
-27.002815,1.6585524,3.0641127
-27.05007,1.6667767,3.0632353
-27.095837,1.6732724,3.0607681
-27.131798,1.6660967,3.0444908
-27.160032,1.6476924,3.0168204
-27.178675,1.6148489,2.9743915
-27.179592,1.5548651,2.9040623
-27.196583,1.517559,2.8569965
-27.23902,1.5182512,2.8491426
-27.285515,1.5254104,2.848115
-27.335104,1.5377975,2.8526669
-27.384071,1.5497077,2.8569021
-27.428896,1.5553987,2.8548484
-27.475548,1.5644171,2.8564124
-27.52012,1.5703824,2.8549552
-27.566088,1.5790446,2.8564658
-27.613749,1.5910542,2.8616376
-27.655338,1.5929353,2.8563614
-27.705534,1.6103764,2.8675528
-27.746899,1.6125171,2.8628392
-27.79101,1.6199377,2.8638182
-27.832226,1.6223216,2.8596315
-27.875084,1.628058,2.859117
-27.920494,1.6391025,2.8643541
-27.964066,1.6470423,2.8664584
-28.009424,1.6590085,2.8729744
-28.052345,1.6665609,2.874958
-28.092014,1.6677284,2.8702946
-28.134096,1.6742218,2.8714194
-28.175453,1.6795316,2.8714194
-28.21759,1.6869199,2.8737664
-28.257854,1.6905055,2.8721857
-28.298046,1.6942043,2.8708515
-28.338438,1.6986718,2.8704634
-28.37956,1.7052214,2.8724318
-28.420025,1.7105746,2.8732452
-28.460123,1.7153845,2.8735995
-28.499874,1.7196481,2.8734884
-28.53954,1.7240222,2.8736181
-28.578144,1.7258673,2.8711433
-28.618374,1.73244,2.87388
-28.65685,1.734499,2.871869
-28.69619,1.7393084,2.872941
-28.735435,1.7442262,2.87425
-28.775019,1.7505777,2.8772264
-28.813011,1.7523968,2.875414
-28.851578,1.7563081,2.8759804
-28.889074,1.7570038,2.8731709
-28.92732,1.7604575,2.8734632
-28.966059,1.7660103,2.8761477
-29.005056,1.7730002,2.8805094
-29.043045,1.7767661,2.8814788
-29.081642,1.7833006,2.885573
-29.119131,1.7859378,2.8855348
-29.156727,1.7893429,2.8864403
-29.194256,1.7928474,2.8875628
-29.230835,1.7924423,2.8845258
-29.267838,1.7941384,2.8838854
-29.306023,1.8019526,2.8900337
-29.343676,1.8078618,2.8942122
-29.380354,1.8091843,2.8934808
-29.416533,1.8079228,2.8900266
-29.452951,1.8080952,2.8882403
-29.489574,1.8097024,2.8881288
-29.524658,1.8013439,2.8772016
-29.55638,1.7682447,2.8392563
-29.57944,1.6654029,2.7249336
-29.584122,1.3994148,2.431737
-29.618637,1.3530068,2.3793297
-29.653027,1.2979412,2.3175044
-24.894417,1.0096936,2.7841053
-24.979939,1.0407777,2.7969203
-25.045088,1.0530612,2.7923636
-25.113613,1.0690687,2.7916298
-25.175941,1.0794983,2.7858891
-25.261627,1.1135323,2.8029728
-25.34267,1.1438041,2.8168626
-25.400055,1.1508892,2.8088326
-25.470522,1.1717203,2.814302
-25.553175,1.2058053,2.8329153
-25.608711,1.212393,2.8252244
-25.669168,1.2245095,2.8231406
-25.742191,1.2505202,2.8348808
-25.799358,1.2601118,2.8308663
-25.861269,1.275279,2.8325639
-25.924,1.2918651,2.8359184
-25.983765,1.3056734,2.8367944
-26.045414,1.3220992,2.8405104
-26.214201,1.461801,2.966908
-26.317577,1.5291183,3.0221305
-26.395557,1.5683937,3.0498714
-26.4565,1.5885456,3.0588298
-26.50544,1.5949216,3.054225
-26.561787,1.6106048,3.0591655
-26.61637,1.6246514,3.062686
-26.670214,1.6382742,3.0659957
-26.71846,1.6453321,3.0628686
-26.772839,1.6605401,3.0681968
-26.825043,1.6734707,3.0714235
-26.873714,1.6822569,3.0706263
-26.922691,1.6918204,3.0708055
-26.97057,1.7003055,3.0700636
-27.020117,1.7114284,3.072206
-27.065403,1.7171161,3.0689435
-27.104332,1.7142205,3.056995
-27.140211,1.7070634,3.0407677
-27.17227,1.6943705,3.018918
-27.18387,1.6516738,2.9660397
-27.190216,1.6001585,2.9039645
-27.209164,1.56619,2.8600864
-27.250637,1.5656085,2.8510284
-27.297422,1.5733476,2.8507948
-27.346083,1.5843914,2.8541842
-27.395336,1.5968556,2.8592348
-27.438858,1.6006024,2.8553076
-27.484627,1.6082878,2.8556685
-27.532164,1.6192937,2.859683
-27.576859,1.6259906,2.8593168
-27.62477,1.6385636,2.8653126
-27.668423,1.6442602,2.8641958
-27.709435,1.6456087,2.8586125
-27.752186,1.6502764,2.8566837
-27.795895,1.6569948,2.8570728
-27.839817,1.6644859,2.8584309
-27.885973,1.6766121,2.8648748
-27.929905,1.6850162,2.8675003
-27.974335,1.6948409,2.871791
-28.013418,1.6944644,2.865304
-28.054081,1.6974297,2.8625174
-28.100288,1.7121663,2.8724947
-28.141026,1.7160237,2.870934
-28.183186,1.7232418,2.873118
-28.22875,1.7383828,2.8839712
-28.266514,1.7367456,2.8768778
-28.305714,1.738467,2.8735204
-28.346817,1.7448606,2.8753333
-28.39516,1.769,2.8964825
-28.439604,1.7847972,2.9087596
-28.465466,1.7549326,2.8716526
-28.498991,1.7434464,2.854545
-28.543709,1.7608833,2.8689613
-28.584934,1.7699265,2.8743916
-28.631485,1.794194,2.8965263
-28.670845,1.799542,2.8981986
-28.70578,1.7924972,2.886468
-28.741714,1.7881737,2.8778024
-28.779009,1.7878969,2.8736591
-28.817558,1.7916772,2.8740568
-28.856443,1.7968822,2.8761277
-28.894432,1.799551,2.8755355
-28.933716,1.806951,2.8802385
-28.971928,1.811151,2.8815475
-29.00951,1.8134677,2.8809
-29.047922,1.8191984,2.8841095
-29.085207,1.8210545,2.8831716
-29.123108,1.8256633,2.8853679
-29.160921,1.8303745,2.887785
-29.19834,1.833858,2.888959
-29.235981,1.8387713,2.8918138
-29.273531,1.843785,2.894887
-29.309633,1.8422441,2.8908381
-29.346273,1.8434596,2.8899288
-29.38338,1.8474364,2.8921714
-29.41935,1.8455126,2.888
-29.455685,1.8456814,2.88624
-29.492647,1.8499465,2.8891072
-29.528023,1.8442996,2.8811164
-29.559418,1.8100376,2.8415642
-29.579765,1.6883657,2.70535
-29.584549,1.4244218,2.4116497
-29.618027,1.3688948,2.3486729
-29.64976,1.2880399,2.2577167
-40.780006,0.27045178,3.981214
-24.63116,1.0099621,2.7901773
-24.707483,1.0299025,2.791623
-24.794037,1.0598173,2.8028517
-24.85852,1.0700879,2.7958684
-24.933846,1.090899,2.7992005
-24.998497,1.1022358,2.7938309
-25.099745,1.1489282,2.8226337
-25.155338,1.1527419,2.8107038
-25.225706,1.1712139,2.8131437
-25.297531,1.1916904,2.81784
-25.363163,1.2066178,2.81747
-25.4326,1.2258687,2.8215995
-25.511494,1.2553205,2.8360047
-25.560215,1.2545896,2.821186
-25.638935,1.2851655,2.8373327
-25.69244,1.2901204,2.8285747
-25.751417,1.3011601,2.8260431
-25.968554,1.4823425,2.9925175
-26.072245,1.5446479,3.0419374
-26.135326,1.5639613,3.0489874
-26.188944,1.573369,3.0464005
-26.257298,1.5996947,3.0609932
-26.308321,1.6071095,3.0568714
-26.36025,1.615895,3.0543294
-26.420301,1.6344836,3.0618973
-26.477465,1.6502731,3.0668783
-26.531303,1.6626384,3.068616
-26.585926,1.6764004,3.0719852
-26.639805,1.6897438,3.0751476
-26.688519,1.6971912,3.0724893
-26.746357,1.716378,3.0820498
-26.795654,1.7253878,3.081386
-26.843828,1.7333362,3.079815
-26.888071,1.7365351,3.0735188
-26.939255,1.7490878,3.077053
-26.986513,1.7568874,3.0758562
-27.03271,1.7636058,3.0737057
-27.07742,1.7686167,3.0699449
-27.122921,1.7750051,3.0677757
-27.153282,1.7604487,3.0438776
-27.180817,1.7416086,3.0155654
-27.183214,1.6860929,2.9488273
-27.200584,1.651077,2.9035525
-27.224417,1.6248043,2.8674836
-27.269444,1.6298485,2.8644896
-27.313547,1.6337755,2.8604684
-27.359592,1.6409738,2.8600564
-27.404697,1.6470568,2.8586187
-27.456383,1.6639855,2.8688564
-27.499208,1.6672053,2.8646932
-27.542349,1.6711824,2.8614755
-27.58767,1.6790845,2.8625894
-27.62837,1.6795187,2.8558702
-27.67125,1.6838775,2.8534803
-27.739359,1.7328634,2.8990955
-27.800915,1.7719173,2.93432
-27.837223,1.7665648,2.922018
-27.875336,1.7644985,2.9133582
-27.913128,1.7618961,2.904234
-27.95396,1.7651567,2.9015517
-27.996367,1.7717397,2.9025931
-28.03735,1.7758803,2.9011226
-28.082697,1.7891364,2.909666
-28.116869,1.7800093,2.8940544
-28.166525,1.8031807,2.91365
-28.204319,1.802001,2.9069118
-28.240936,1.7983387,2.8975792
-28.279053,1.7980056,2.8919806
-28.316309,1.7958333,2.8844852
-28.354149,1.7950559,2.878621
-28.394173,1.7995706,2.8786592
-28.432768,1.8009503,2.8753815
-28.474468,1.8102374,2.8808923
-28.51497,1.8170426,2.8838058
-28.556597,1.8272197,2.8905487
-28.594112,1.8270843,2.8860765
-28.630184,1.823132,2.8775072
-28.669348,1.8277667,2.878501
-28.708193,1.8318555,2.8790083
-28.742956,1.8242693,2.8667397
-28.784985,1.8383875,2.8785443
-28.822962,1.8408267,2.877565
-28.861092,1.8440242,2.8775334
-28.899551,1.8486388,2.879181
-28.938503,1.85533,2.8832397
-28.976202,1.858182,2.8831558
-29.014387,1.8631101,2.8854823
-29.051418,1.8641894,2.8836436
-29.090126,1.8719578,2.8893433
-29.127373,1.8745563,2.8894053
-29.164724,1.8779137,2.8904161
-29.202774,1.8846724,2.8953185
-29.238632,1.8822842,2.8901405
-29.276367,1.888582,2.8947425
-29.313848,1.8943207,2.8988256
-29.350052,1.8942027,2.8964806
-29.386623,1.8961656,2.8965588
-29.422443,1.8942499,2.8924046
-29.45919,1.8977282,2.894374
-29.494698,1.8940101,2.888401
-29.530666,1.8930357,2.885591
-29.561329,1.8549967,2.841425
-29.58187,1.736711,2.7075424
-29.586578,1.4756868,2.413928
-29.62268,1.444402,2.377437
-29.647728,1.3055742,2.2206097
-24.360397,1.0163887,2.7931561
-24.434587,1.0321691,2.789853
-24.507235,1.0471146,2.7861052
-24.603146,1.0830469,2.80262
-24.679539,1.1025281,2.8039312
-24.777542,1.1420102,2.8247323
-24.835077,1.1457574,2.8117113
-24.914776,1.1700873,2.8187604
-24.98487,1.1862102,2.818246
-25.051645,1.1997478,2.815539
-25.11758,1.2129595,2.8128047
-25.189281,1.2321367,2.816185
-25.265417,1.2561767,2.8246522
-25.337603,1.277056,2.8303576
-25.412361,1.3010938,2.8395023
-25.472767,1.3115318,2.8355303
-25.526642,1.3158028,2.8256907
-25.672472,1.4138823,2.909422
-25.874517,1.5720787,3.0539193
-25.939032,1.590945,3.0600352
-25.993187,1.5995042,3.0560827
-26.054918,1.6164718,3.060812
-26.118546,1.63602,3.068406
-26.173685,1.6469498,3.0675492
-26.231318,1.6610303,3.0701098
-26.282833,1.6687922,3.0664763
-26.346352,1.6903965,3.0771642
-26.398502,1.6997273,3.0755663
-26.449442,1.7080402,3.0731277
-26.502792,1.719516,3.0741334
-26.553898,1.7287767,3.0730662
-26.607851,1.7418139,3.0760946
-26.658575,1.7514246,3.0757852
-26.711588,1.7642221,3.0789766
-26.758505,1.7699442,3.0750122
-26.806757,1.7776349,3.0732698
-26.851992,1.7818406,3.0680623
-26.899029,1.788621,3.065711
-26.944061,1.7931144,3.0611286
-26.993164,1.803246,3.0626316
-27.041162,1.812315,3.0631957
-27.091703,1.8252196,3.0679817
-27.129478,1.8210912,3.0549393
-27.158901,1.8053722,3.0297265
-27.185514,1.7853992,3.0000625
-27.190426,1.7339673,2.9369802
-27.20686,1.6979411,2.8902473
-27.233154,1.6755464,2.8580623
-27.277283,1.6792758,2.8538704
-27.320919,1.6825154,2.8492985
-27.36732,1.6902473,2.8496914
-27.415169,1.700619,2.8530803
-27.460846,1.7080173,2.8534307
-27.507938,1.7180603,2.856789
-27.553686,1.7263696,2.8584342
-27.598139,1.7329357,2.8583455
-27.654026,1.7591388,2.8796883
-27.717167,1.7987666,2.915812
-27.736135,1.7629035,2.8701148
-27.797808,1.8016143,2.9056144
-27.834906,1.7975142,2.894678
-27.875168,1.799216,2.8901834
-27.923214,1.815628,2.9018931
-27.963926,1.8188488,2.8993258
-28.00325,1.8196406,2.8942213
-28.043839,1.8230908,2.8921523
-28.080534,1.8190002,2.8819194
-28.116657,1.8137286,2.8704891
-28.156239,1.8155856,2.867012
-28.194565,1.814991,2.8609486
-28.229334,1.8068066,2.846614
-28.2712,1.8141139,2.8494964
-28.314634,1.8253992,2.8569117
-28.353111,1.825876,2.8524885
-28.38883,1.8200169,2.8411489
-28.42678,1.8194063,2.835732
-28.471546,1.8356795,2.849187
-28.51242,1.8430431,2.8528743
-28.553907,1.852464,2.8589754
-28.600609,1.8762476,2.8812118
-28.629873,1.854167,2.852436
-28.670738,1.8632803,2.8585525
-28.724663,1.9101665,2.9070044
-28.750614,1.8779571,2.8671823
-28.788609,1.8802605,2.8660378
-28.82718,1.88462,2.8673034
-28.864847,1.8864782,2.8658762
-28.902668,1.8890901,2.8653998
-28.941982,1.8970237,2.8710046
-28.980583,1.9031069,2.8746443
-29.018154,1.9060292,2.8748412
-29.055664,1.9090519,2.8752565
-29.093111,1.9121754,2.8758893
-29.130495,1.9153986,2.876738
-29.16797,1.9193771,2.878543
-29.205368,1.9234555,2.8805642
-29.242685,1.9276342,2.8828044
-29.27978,1.9312563,2.8845167
-29.317072,1.93629,2.8879275
-29.353619,1.9381378,2.8878412
-29.389132,1.9348226,2.8820171
-29.425406,1.9355438,2.8808522
-29.461437,1.9350436,2.878405
-29.49907,1.9445117,2.8873358
-29.532999,1.9310303,2.8703852
-29.566309,1.9117029,2.8468971
-29.592115,1.8344588,2.7578635
-29.590153,1.5265114,2.407371
-29.626549,1.4987442,2.3744516
-29.647985,1.3285751,2.1801214
-40.759758,0.2847345,3.7136264
-24.044538,0.9970093,2.7804809
-24.150358,1.0364261,2.79842
-24.214058,1.041837,2.7847476
-24.301207,1.0672212,2.7903123
-24.370388,1.0780985,2.7824755
-24.486507,1.1295166,2.813734
-24.550499,1.1371515,2.8035464
-24.635365,1.1633363,2.8115153
-24.700823,1.1731546,2.8040562
-24.790594,1.204988,2.8182564
-24.856768,1.2164638,2.8130531
-24.943165,1.2467144,2.8264952
-25.014309,1.263794,2.827426
-25.087595,1.2834003,2.83116
-25.154491,1.297622,2.829906
-25.224743,1.3154974,2.8325624
-25.288124,1.3273728,2.8295636
-25.36549,1.3531792,2.8407235
-25.420698,1.3581052,2.8313475
-25.484539,1.3718278,2.831016
-25.541203,1.3788755,2.8242354
-25.83086,1.6209202,3.0548725
-25.905201,1.6491964,3.0707188
-25.95765,1.6557283,3.064825
-26.007736,1.6601138,3.056951
-26.090954,1.6996269,3.0851274
-26.13013,1.6933296,3.0667944
-26.196596,1.7164195,3.0787501
-26.252413,1.7286079,3.0797734
-26.310143,1.7433453,3.0836477
-26.36443,1.7547505,3.0843086
-26.418505,1.7663441,3.0853777
-26.470287,1.7757547,3.0843892
-26.520348,1.783561,3.0819259
-26.571276,1.792723,3.0810666
-26.62001,1.7996719,3.078082
-26.671604,1.8103659,3.079207
-26.724976,1.8236303,3.083231
-26.773699,1.8316772,3.0819583
-26.825653,1.8440943,3.0854816
-26.87019,1.8476489,3.0798178
-26.919859,1.8579845,3.081502
-26.96652,1.8648548,3.0796852
-27.012115,1.8706625,3.0769014
-27.059427,1.879044,3.0770245
-27.106123,1.886971,3.076828
-27.142797,1.8816326,3.06258
-27.168467,1.86112,3.0321445
-27.194468,1.8406506,3.0018015
-27.19657,1.7858858,2.9345407
-27.220108,1.7605283,2.8989482
-27.24955,1.7431998,2.8720737
-27.291775,1.7444232,2.865366
-27.33684,1.7500923,2.8636193
-27.383411,1.7583742,2.864862
-27.431023,1.7686594,2.868444
-27.475273,1.7741318,2.8669372
-27.520191,1.7809806,2.8670783
-27.565353,1.7885895,2.8681993
-27.609228,1.794466,2.8675709
-27.654104,1.8023486,2.869285
-27.73014,1.8635383,2.9297528
-27.762262,1.8511012,2.909471
-27.787786,1.8268168,2.876206
-27.827097,1.8264468,2.869388
-27.865011,1.8236701,2.860026
-27.905684,1.826036,2.856463
-27.946632,1.829149,2.8538527
-27.999062,1.8544917,2.8760414
-28.042917,1.8641942,2.881033
-27.73765,1.1809988,2.1150866
-27.778126,1.1716819,2.0982294
-27.790737,1.1046724,2.0171194
-27.822338,1.0751367,1.9778175
-27.823887,0.9800799,1.865313
-28.29041,1.8996658,2.8884144
-28.331139,1.9057817,2.8903098
-28.368109,1.9037092,2.8831415
-28.405922,1.9036527,2.8783402
-28.45124,1.9216268,2.893911
-28.488077,1.9198713,2.8874302
-28.529047,1.928479,2.892723
-28.567337,1.9307818,2.8910317
-28.60631,1.9351189,2.8917432
-28.645672,1.940851,2.8941426
-28.682108,1.9389634,2.8880458
-28.725426,1.9565139,2.9040356
-28.757048,1.9412827,2.8830457
-28.79436,1.9422698,2.8805065
-28.833755,1.9498222,2.8855157
-28.871773,1.9536021,2.8863573
-28.908712,1.9542487,2.8837476
-28.946987,1.9595289,2.8865051
-28.985535,1.9662106,2.8909645
-29.022858,1.9691048,2.8912225
-29.059765,1.9708002,2.8902183
-29.097486,1.975843,2.8931303
-29.13577,1.9835889,2.8992271
-29.172632,1.986234,2.8996139
-29.20913,1.987675,2.8987274
-29.24515,1.9872572,2.8958163
-29.28131,1.9875855,2.8938537
-29.318138,1.9912689,2.8958225
-29.355673,1.9989662,2.902484
-29.391819,2.0002348,2.9018922
-29.427341,1.998332,2.8977666
-29.462666,1.9952137,2.8923426
-29.498575,1.9954543,2.8908582
-29.533258,1.9879394,2.8805819
-29.56512,1.960227,2.847237
-29.592556,1.896585,2.7727628
-29.586967,1.5651815,2.3911667
-29.623653,1.540205,2.3610802
-29.635088,1.280756,2.0619545
-29.674236,1.2506502,2.0260963
-40.762554,0.30513954,3.604228
-23.740904,0.98470354,2.7881336
-23.806318,0.98912334,2.7720804
-23.911556,1.0254099,2.786337
-23.998728,1.0481527,2.78832
-24.087528,1.0728619,2.7925935
-24.171938,1.0946801,2.7945437
-24.264557,1.1238911,2.8039775
-24.33704,1.1371386,2.7985187
-24.447039,1.1823473,2.824233
-24.524622,1.2011693,2.8249454
-24.59739,1.2164443,2.822567
-24.687109,1.2468796,2.8353133
-24.744658,1.250031,2.8217688
-24.837975,1.284991,2.839723
-24.888878,1.2830677,2.8217502
-24.953426,1.2935805,2.8162775
-25.038086,1.3227863,2.8296432
-25.11126,1.3422325,2.833681
-25.18106,1.3591444,2.8355107
-25.243345,1.36955,2.8311205
-25.316778,1.390924,2.8380237
-25.380955,1.4040723,2.8369527
-25.44783,1.4202964,2.8392615
-25.51325,1.4356277,2.8409505
-25.806246,1.6764219,3.0724936
-25.86294,1.6865098,3.0700455
-25.927979,1.7054164,3.0768576
-25.978579,1.7101653,3.0694056
-26.027401,1.71335,3.0605345
-26.089455,1.7305894,3.0663605
-26.173183,1.7712686,3.096714
-26.217531,1.7709835,3.0849218
-26.26942,1.7789998,3.0819259
-26.31955,1.7854385,3.0774813
-26.380148,1.8037629,3.0856586
-26.429914,1.8105621,3.081996
-26.483706,1.8222361,3.083643
-26.53264,1.8287866,3.0800986
-26.587564,1.8425937,3.0843983
-26.641224,1.8554072,3.0878596
-26.690641,1.863656,3.0866804
-26.74039,1.8726645,3.0864916
-26.788006,1.879452,3.0841198
-26.83791,1.8893836,3.0852752
-26.883783,1.8946908,3.0816627
-26.930017,1.900744,3.0790124
-26.978006,1.9093504,3.079266
-27.024899,1.9169087,3.0785637
-27.069342,1.9215996,3.0749307
-27.113684,1.9264297,3.0715995
-27.148045,1.9180655,3.054122
-27.179422,1.9055388,3.0322194
-27.196087,1.872401,2.98798
-27.202908,1.8246331,2.9277945
-27.219091,1.7890215,2.8808188
-27.26081,1.7894869,2.8732834
-27.302082,1.7894616,2.8653393
-27.349102,1.7981474,2.867082
-27.397577,1.8094409,2.8718486
-27.44383,1.8178105,2.8735614
-27.487144,1.822007,2.8708277
-27.531536,1.8281853,2.870421
-27.572334,1.8289301,2.8641462
-27.617277,1.8366094,2.8656788
-27.68303,1.879194,2.9060798
-27.737318,1.90399,2.9269757
-27.76353,1.8816445,2.8956175
-27.80909,1.8923962,2.9011812
-27.853031,1.9007924,2.9042673
-27.891254,1.8993139,2.8964596
-27.491997,1.095567,1.9912376
-27.550074,1.1170173,2.0081644
-27.591227,1.1072502,1.9902759
-27.653654,1.1384661,2.018517
-27.742016,1.2221613,2.1059852
-27.774902,1.1977401,2.0720983
-27.801731,1.1601222,2.0234027
-27.806208,1.0744905,1.9205608
-27.830004,1.0267496,1.860434
-27.864244,0.9999325,1.8239818
-28.344177,1.9616168,2.90665
-28.383993,1.9665489,2.907484
-28.422884,1.9696863,2.9063988
-28.46547,1.9818444,2.9156694
-28.50019,1.9756494,2.90421
-28.54093,1.9842141,2.9096322
-28.575459,1.9775703,2.8978562
-28.612309,1.9767654,2.892826
-28.664783,2.0176487,2.9354525
-28.695864,2.002349,2.9141135
-28.726976,1.9864779,2.8921914
-28.762825,1.9835086,2.8850956
-28.80154,1.9889798,2.8877559
-28.836758,1.9842751,2.87887
-28.874931,1.9886651,2.8805003
-28.912815,1.992516,2.881619
-28.95198,2.0009804,2.8881392
-28.990038,2.0063298,2.8911915
-29.026892,2.0079117,2.8900204
-29.064592,2.01282,2.8927746
-29.10134,2.0145998,2.8920321
-29.137878,2.0158296,2.8907561
-29.175344,2.0210392,2.8941627
-29.211937,2.0231123,2.894055
-29.24952,2.029817,2.8993897
-29.28669,2.0353267,2.903448
-29.322523,2.0350995,2.9009829
-29.358355,2.0349646,2.8987203
-29.39393,2.0336256,2.8951588
-29.429405,2.031728,2.8910446
-29.464907,2.0299218,2.8871279
-29.500755,2.0301573,2.8856664
-29.53629,2.0285347,2.8821478
-29.567175,1.9951215,2.8419118
-29.590248,1.900594,2.7309585
-29.588772,1.601649,2.383194
-29.623077,1.557271,2.330358
-29.634542,1.2986248,2.029214
-29.67033,1.2341416,1.9531646
-23.495737,0.9835825,2.784329
-23.573505,0.9959254,2.7749534
-23.694532,1.0417464,2.7975101
-23.7723,1.0553267,2.7901726
-23.86074,1.0776896,2.791551
-23.96981,1.1168969,2.8094492
-24.041212,1.127214,2.800198
-24.15391,1.1709919,2.8234878
-24.225338,1.1824872,2.8161464
-24.30977,1.2050273,2.8198452
-24.400385,1.2333071,2.829537
-24.475533,1.2494843,2.8278303
-24.565935,1.279002,2.83956
-24.640408,1.295794,2.8391857
-24.701172,1.3013809,2.8280683
-24.778948,1.3220005,2.83212
-24.84629,1.3341155,2.8280587
-24.916538,1.3492396,2.8272943
-24.993967,1.3712704,2.8337626
-25.063616,1.38694,2.8341799
-25.139103,1.4084382,2.8407826
-25.201462,1.4185016,2.8361459
-25.274475,1.4388676,2.842229
-25.336964,1.4499671,2.839192
-25.39806,1.460166,2.8354936
-25.466026,1.4773562,2.8392086
-25.53777,1.4987619,2.847547
-25.82346,1.7304165,3.07298
-25.887516,1.7477925,3.0783882
-25.925049,1.739166,3.0571036
-25.93106,1.6986141,3.002737
-26.030167,1.7526083,3.0468855
-26.059471,1.7357433,3.017418
-26.18043,1.8145912,3.0883508
-26.22855,1.8182976,3.0809011
-26.28253,1.828531,3.0805025
-26.34489,1.8482378,3.0903192
-26.392555,1.8524668,3.0840015
-26.444859,1.8620989,3.083591
-26.49333,1.8678188,3.079215
-26.554066,1.8877573,3.09018
-26.603706,1.8955879,3.0884442
-26.649645,1.8994646,3.082652
-26.707521,1.9176419,3.0923805
-26.75663,1.9259791,3.0917435
-26.80312,1.9315183,3.0882654
-26.846088,1.9330521,3.0806208
-26.888529,1.9341228,3.072617
-26.941391,1.9484346,3.079126
-26.985985,1.952775,3.074986
-27.033276,1.9608457,3.0750618
-27.07718,1.9648736,3.070888
-27.116447,1.9630296,3.0604367
-27.156622,1.962502,3.0515494
-27.183004,1.9433951,3.0223827
-27.194323,1.9031863,2.9700503
-27.211529,1.8702109,2.9256568
-27.224573,1.8305626,2.8738937
-27.26369,1.8273442,2.8623986
-27.31539,1.842493,2.871368
-27.366798,1.857815,2.8807116
-27.402843,1.8507087,2.865304
-27.44864,1.8583786,2.866446
-27.493887,1.8655787,2.8672147
-27.539375,1.8735311,2.86897
-27.58316,1.8791656,2.8682804
-27.639761,1.9058702,2.891335
-27.712746,1.9605289,2.945959
-27.751854,1.9604881,2.9394188
-27.77492,1.9333351,2.9024858
-27.824629,1.951443,2.9165802
-27.863403,1.951098,2.9100237
-27.904598,1.9552104,2.908616
-27.498857,1.1466796,1.9880219
-27.546413,1.1486466,1.983253
-27.594906,1.1526201,1.980897
-27.670324,1.2085993,2.0377402
-27.748566,1.2723634,2.1037173
-27.781948,1.2493296,2.071199
-27.80059,1.1956191,2.0037894
-27.802284,1.1048381,1.8940759
-27.813318,1.0303097,1.8028231
-27.846684,1.0010636,1.7632904
-27.8754,0.9605293,1.710896
-28.400772,2.035248,2.9363122
-28.441807,2.0440667,2.9418826
-28.478628,2.0435176,2.936819
-28.517025,2.0468667,2.9363365
-28.553543,2.0458848,2.9309816
-28.586784,2.0367508,2.9163399
-28.626093,2.0429425,2.9194398
-28.652752,2.016182,2.8846488
-28.697985,2.038474,2.9065247
-28.728807,2.0220473,2.8838143
-28.766624,2.0248168,2.883367
-28.80416,2.027051,2.882403
-28.841854,2.030026,2.882399
-28.881548,2.0394957,2.8900256
-28.919453,2.043959,2.8919587
-28.957266,2.0485258,2.8941174
-28.99215,2.0435839,2.8853378
-29.031141,2.0528378,2.8931427
-29.066938,2.051292,2.8885002
-29.104815,2.0575452,2.893023
-29.141405,2.059403,2.8925343
-29.177794,2.0607145,2.8915067
-29.216307,2.0711308,2.901184
-29.253286,2.075859,2.904338
-29.288746,2.074244,2.9001913
-29.324226,2.072721,2.8962426
-29.360773,2.0764484,2.8985171
-29.396868,2.0783372,2.8987408
-29.432207,2.0764468,2.8946424
-29.470518,2.0914402,2.9103723
-29.512629,2.1310918,2.9550447
-29.548025,2.1327307,2.9553714
-29.583767,2.1370487,2.9589252
-29.62059,2.14987,2.972528
-29.591608,1.656743,2.3937745
-29.622967,1.5899782,2.3141923
-29.636654,1.3536255,2.0359836
-29.668203,1.2500241,1.9133158
-23.317675,1.0453334,2.8267236
-23.377407,1.0432589,2.8033009
-23.462477,1.059979,2.7979164
-23.598314,1.1148562,2.8292127
-23.66861,1.121983,2.8156452
-23.775398,1.1570203,2.8291588
-23.848637,1.1673827,2.8194528
-23.94627,1.1969299,2.8286328
-24.021013,1.209491,2.8218012
-24.106325,1.2307968,2.8238373
-24.191273,1.2524426,2.8266096
-24.272518,1.2717662,2.8275018
-24.346813,1.2860713,2.823821
-24.421509,1.3011961,2.8212867
-24.499855,1.3198302,2.8225756
-24.579168,1.3398471,2.825602
-24.66071,1.3623359,2.8314638
-24.74186,1.3851466,2.8380241
-24.808632,1.396313,2.8332157
-24.883396,1.4148161,2.836115
-24.95282,1.4292309,2.8351946
-25.02198,1.4439054,2.834838
-25.091492,1.4593887,2.8356051
-25.155203,1.4701672,2.8318477
-25.219927,1.4822829,2.8297281
-25.288649,1.4985201,2.8321295
-25.351683,1.5100052,2.8299046
-25.41866,1.5256243,2.8322287
-25.474142,1.5308602,2.8240242
-25.795082,1.7910166,3.0821276
-25.865019,1.8136256,3.093296
-25.856283,1.7597897,3.0245152
-25.975706,1.8319359,3.0882053
-26.020874,1.831459,3.0758166
-26.039091,1.8038394,3.0348582
-26.177917,1.8993185,3.1245356
-26.203144,1.8794429,3.092167
-26.246178,1.8779354,3.0794358
-26.30492,1.8932095,3.084795
-26.358547,1.9035156,3.085061
-26.410908,1.9128537,3.0844898
-26.465189,1.9246836,3.0867987
-26.517157,1.9343855,3.0870156
-26.562729,1.9372938,3.0800729
-26.615906,1.94908,3.0829177
-26.668348,1.9604664,3.085526
-26.720568,1.9720337,3.0885258
-26.762627,1.9720569,3.079113
-26.810562,1.9792559,3.0776887
-26.859808,1.9883785,3.0785432
-26.910316,1.9994347,3.081696
-26.951557,1.9994292,3.072853
-26.9989,2.0072477,3.0727715
-27.04142,2.0092843,3.0664644
-27.085266,2.0132353,3.0624132
-27.127651,2.0155349,3.056675
-27.15826,2.002438,3.033957
-27.18418,1.9828305,3.0040593
-27.209099,1.961468,2.972252
-27.212637,1.910119,2.9069705
-27.236809,1.886373,2.8725176
-27.279615,1.888576,2.8672013
-27.326965,1.8975484,2.8696213
-27.371239,1.902437,2.8676038
-27.417444,1.91049,2.8692932
-27.464693,1.9205093,2.8733525
-27.509754,1.927638,2.8743
-27.553492,1.933079,2.8734798
-27.593632,1.9331625,2.8667216
-27.65128,1.9614649,2.8921285
-27.715914,2.0022106,2.9318967
-27.75463,2.001517,2.924715
-27.805006,2.020575,2.9401717
-27.844244,2.021357,2.9349275
-27.886633,2.027791,2.9362607
-27.45599,1.1969981,1.9790301
-27.501497,1.1950696,1.9698033
-27.544655,1.188937,1.9558754
-27.580936,1.1699123,1.9272423
-27.718287,1.3425667,2.1192732
-27.75893,1.3345087,2.103694
-27.78836,1.3041701,2.0625186
-27.801924,1.2408829,1.9833384
-27.791706,1.1264472,1.8449907
-27.80827,1.0636516,1.7662454
-27.842907,1.0370708,1.7294312
-27.86137,0.97427106,1.6506772
-27.907373,0.9703264,1.6402311
-27.956457,0.9733999,1.6380639
-28.000338,0.9646821,1.6223168
-28.517347,2.0815709,2.917234
-28.554659,2.0824537,2.9140992
-28.58158,2.0576177,2.8810682
-28.633139,2.0946074,2.9202642
-28.670984,2.0976958,2.9200215
-28.705463,2.0920455,2.9096622
-28.734745,2.0719407,2.882474
-28.772669,2.07531,2.882841
-28.810081,2.0775163,2.8819466
-28.845951,2.0753865,2.8760662
-28.88247,2.0752535,2.8726234
-28.920183,2.079027,2.873866
-28.9584,2.084809,2.8775706
-28.9965,2.0906963,2.881503
-29.03503,2.098597,2.8879094
-29.071451,2.099599,2.8862963
-29.108187,2.101972,2.886395
-29.145035,2.1050806,2.8874574
-29.181976,2.1089256,2.8894854
-29.218681,2.1122315,2.8909755
-29.255169,2.1149957,2.891922
-29.291882,2.1191351,2.894589
-29.32892,2.1252923,2.8997374
-29.364267,2.1238675,2.8960176
-29.400505,2.1270175,2.8978004
-29.43668,2.1302626,2.8997903
-29.470858,2.122705,2.889082
-29.514952,2.173595,2.94769
-29.54967,2.1713665,2.9434881
-29.584423,2.1692264,2.9394798
-29.59531,1.9963768,2.7331486
-29.597275,1.7310033,2.4170504
-29.629631,1.6756604,2.350048
-29.63825,1.3999302,2.0215888
-29.66478,1.2488728,1.8410578
-23.03717,1.0855854,2.8764677
-23.112259,1.0929658,2.8610148
-23.17424,1.0915618,2.8376174
-23.246258,1.09746,2.8214173
-23.331705,1.1132762,2.8150039
-23.43247,1.1406426,2.8200626
-23.532778,1.1684272,2.8260298
-23.606703,1.1776419,2.8145528
-23.700653,1.2020717,2.81818
-23.785883,1.220685,2.8165965
-23.871477,1.2401555,2.8162546
-23.970413,1.2703738,2.826881
-24.049124,1.2858634,2.8234591
-24.132286,1.3053255,2.8243341
-24.211752,1.3224907,2.82331
-24.29625,1.3441839,2.8271718
-24.377716,1.3640978,2.8296418
-24.456196,1.382211,2.8306746
-24.540892,1.4059534,2.8377447
-24.615427,1.4220243,2.8374329
-24.69677,1.4442732,2.8437328
-24.768744,1.4593213,2.8430543
-24.840443,1.4746435,2.84297
-24.912489,1.490778,2.8440304
-24.976711,1.5006802,2.8389797
-25.054447,1.5227807,2.8468056
-25.120033,1.5348215,2.844542
-25.184778,1.5465567,2.8422308
-25.250515,1.5596259,2.84158
-25.321447,1.577889,2.8466382
-25.386042,1.5909038,2.8464851
-25.453367,1.6069214,2.8497596
-25.518028,1.620971,2.8512325
-25.802769,1.8443992,3.0747705
-25.859886,1.8544657,3.0731611
-25.923145,1.8708873,3.0785432
-25.994104,1.8953936,3.0928211
-26.039669,1.8954387,3.0812006
-26.093077,1.9035201,3.0783682
-26.185335,1.9513385,3.1185203
-26.217627,1.9389284,3.0940795
-26.270369,1.9476073,3.0925446
-26.321304,1.9547603,3.0895505
-26.378544,1.968934,3.094376
-26.42912,1.9764478,3.092165
-26.480064,1.9847059,3.0909505
-26.532932,1.9954355,3.092628
-26.580925,2.0011632,3.0890098
-26.632383,2.011091,3.0901818
-26.682627,2.0200362,3.090457
-26.731178,2.0274107,3.0891767
-26.77659,2.0314581,3.084383
-26.825846,2.040311,3.085075
-26.876385,2.0510798,3.08807
-26.923813,2.058509,3.087525
-26.969654,2.0643344,3.0853539
-27.01348,2.067957,3.0808716
-27.058617,2.073482,3.0786648
-27.10086,2.0756114,3.0727968
-27.138475,2.0719573,3.0605574
-27.173424,2.0648549,3.0445404
-27.188847,2.0317316,2.9992452
-27.206154,2.0003834,2.955947
-27.221817,1.9660559,2.909274
-27.248392,1.946043,2.8788352
-27.293146,1.951189,2.87704
-27.34156,1.961864,2.881682
-27.387276,1.9690948,2.8825574
-27.429974,1.9722605,2.8789358
-27.4734,1.976758,2.8769684
-27.518314,1.9837992,2.8780503
-27.56308,1.9909792,2.8794322
-27.606144,1.9958768,2.8783312
-27.644516,1.993629,2.869141
-27.75969,2.115355,3.0029254
-27.777693,2.08189,2.9581223
-27.81528,2.080102,2.9499283
-27.850721,2.0747576,2.9377236
-27.262768,0.99483585,1.6805453
-27.30737,0.9868624,1.6638732
-27.48567,1.217361,1.9243283
-27.533754,1.2197738,1.9203081
-27.576122,1.2118769,1.9044199
-27.710415,1.3769951,2.0903473
-27.74856,1.3640013,2.0689583
-27.772089,1.322099,2.0138783
-27.809685,1.3067758,1.9899068
-27.783024,1.1603999,1.8125448
-27.77185,1.0404129,1.6658788
-27.79771,0.99405193,1.6054492
-27.84767,0.9979992,1.6041389
-27.89669,1.0002213,1.6009393
-27.943993,0.99884486,1.5936375
-27.98616,0.98575854,1.5726647
-28.517357,2.1247315,2.910386
-28.557968,2.1336925,2.916864
-28.576366,2.0883946,2.8593574
-28.632458,2.1363266,2.9120913
-28.668314,2.1343508,2.9059563
-28.702066,2.1268272,2.893344
-28.738707,2.1269162,2.8898368
-28.77533,2.1271036,2.8865423
-28.81303,2.1305313,2.8871899
-28.851078,2.135321,2.8895564
-28.888199,2.137696,2.889155
-28.925663,2.1414313,2.8904696
-28.963634,2.147162,2.8942585
-29.000917,2.151102,2.896018
-29.037195,2.1519852,2.8942323
-29.074694,2.1573896,2.897932
-29.111908,2.1622634,2.9010983
-29.149021,2.1672385,2.9044833
-29.185873,2.17168,2.907329
-29.221857,2.1730514,2.906602
-29.258104,2.1757855,2.907596
-29.294577,2.1798856,2.9103184
-29.331102,2.184718,2.9140115
-29.36661,2.1852005,2.9125896
-29.401974,2.1851392,2.9106073
-29.42968,2.1444628,2.860036
-29.469612,2.168111,2.886639
-29.508776,2.1899638,2.911199
-29.540596,2.1686165,2.8840337
-29.572712,2.1467059,2.8562655
-29.598736,2.0789773,2.773562
-29.595102,1.7772839,2.4099355
-29.629002,1.7357235,2.3586817
-29.629856,1.3962777,1.9495912
-29.656609,1.2450156,1.7665696
-22.843023,1.0888078,2.8563766
-22.914263,1.0923204,2.8367825
-23.006577,1.1104894,2.831429
-23.071014,1.1101091,2.808836
-23.196766,1.1524503,2.8274717
-23.338326,1.2068772,2.8584056
-23.37981,1.1919386,2.8229923
-23.474726,1.2150202,2.8246622
-23.567837,1.2374761,2.8261862
-23.656353,1.2572579,2.82554
-23.745222,1.2779078,2.826171
-23.817095,1.2866144,2.8154182
-23.915672,1.3156528,2.8251677
-23.998001,1.3332286,2.8239703
-24.080696,1.3516481,2.8239975
-24.164415,1.3714345,2.8257785
-24.24711,1.3910317,2.8277555
-24.324781,1.4072957,2.8267379
-24.40282,1.4243867,2.8269086
-24.483845,1.4444146,2.8304234
-24.55665,1.4584234,2.8281436
-24.6383,1.480128,2.834085
-24.709225,1.4936512,2.8319626
-24.781176,1.5085089,2.831524
-24.862408,1.5316622,2.840002
-24.923609,1.5385077,2.8318648
-24.997858,1.5568709,2.8360033
-25.063038,1.5679641,2.8328457
-25.131714,1.5825446,2.8336182
-25.208717,1.6049824,2.8429642
-25.274334,1.6179199,2.842595
-25.334856,1.6267319,2.8381186
-25.397,1.6374025,2.8358574
-25.459528,1.6488464,2.8346686
-25.575056,1.710072,2.8869934
-25.78865,1.8651052,3.0405183
-25.859898,1.888268,3.053248
-25.925522,1.906709,3.0611844
-26.002821,1.9370863,3.0823002
-26.056295,1.9448893,3.0792637
-26.133808,1.9769368,3.1027937
-26.180607,1.979001,3.0939665
-26.236193,1.9902153,3.0953035
-26.28059,1.9903502,3.084711
-26.334194,2.000233,3.0849748
-26.384369,2.0069022,3.0818992
-26.441332,2.0211244,3.087338
-26.489035,2.0258715,3.0825138
-26.540293,2.0347693,3.0824566
-26.591885,2.0444145,3.0834136
-26.64328,2.0542352,3.084752
-26.694475,2.0642314,3.086471
-26.737919,2.0657632,3.0789075
-26.78878,2.0760875,3.081339
-26.836473,2.0831144,3.0802474
-26.884504,2.0908775,3.0801482
-26.930439,2.0964742,3.0777707
-26.976248,2.1022193,3.0757146
-27.023346,2.1098611,3.0759573
-27.068415,2.1153183,3.073882
-27.109198,2.115646,3.0661259
-27.144009,2.1084628,3.0499468
-27.173502,2.0943112,3.0259166
-27.196524,2.071383,2.9919238
-27.211105,2.0366726,2.9444833
-27.214514,1.9859743,2.8787017
-27.253689,1.9832187,2.8678894
-27.297565,1.9871054,2.8648272
-27.348907,2.0018346,2.8743901
-27.39374,2.0077946,2.8740096
-27.43844,2.0138931,2.873929
-27.480581,2.016541,2.8699942
-27.524645,2.0223095,2.8698034
-27.570543,2.0312133,2.8733869
-27.613544,2.0360532,2.8723907
-27.669046,2.0608938,2.8948073
-27.738014,2.108244,2.9436536
-27.776028,2.1069238,2.9359531
-27.827942,2.1287005,2.9553542
-27.848095,2.0979326,2.913435
-27.259699,1.025111,1.650404
-27.310677,1.0280745,1.6465492
-27.41553,1.1267507,1.7552814
-27.496239,1.1856148,1.8176036
-27.546917,1.1916707,1.8180366
-27.706663,1.4020457,2.0595036
-27.742342,1.3841903,2.032278
-27.780537,1.3707018,2.0102892
-27.808407,1.3364344,1.9638066
-27.742786,1.1123104,1.6925287
-27.745218,1.0194225,1.5763922
-27.78276,0.9966669,1.5433803
-27.81811,0.9684367,1.503941
-27.871714,0.9791775,1.5109019
-27.924545,0.9888377,1.5167313
-27.97366,0.9906056,1.5133076
-28.53434,2.1896892,2.9376273
-28.560902,2.1657321,2.905033
-28.599798,2.171008,2.9074025
-28.637838,2.1745288,2.9077797
-28.674345,2.1744215,2.9039187
-28.720522,2.1999495,2.930849
-28.74294,2.1626532,2.8826356
-28.77929,2.1622026,2.878636
-28.816725,2.1649716,2.8785925
-28.854095,2.1678426,2.8787713
-28.89285,2.1751952,2.8844323
-28.930246,2.1788983,2.8858104
-28.966778,2.1801963,2.8843913
-29.004791,2.1866095,2.8892264
-29.042673,2.1931276,2.8942895
-29.079887,2.197866,2.8973055
-29.116484,2.2008185,2.8982658
-29.152016,2.200095,2.8948822
-29.188032,2.2013524,2.8939805
-29.22448,2.2045944,2.8955684
-29.2616,2.2110856,2.9011765
-29.297874,2.2145236,2.9031882
-29.333803,2.216796,2.9038825
-29.369284,2.2172687,2.9024892
-29.404497,2.2165706,2.899766
-29.439835,2.216596,2.8980074
-29.475843,2.220507,2.9010444
-29.510372,2.2162888,2.8943176
-29.543343,2.2020326,2.8755012
-29.576284,2.1859565,2.8545527
-29.586742,2.0097158,2.6393242
-29.5988,1.8207695,2.4086428
-29.630959,1.7661631,2.3410397
-29.631168,1.4225183,1.9224858
-29.654118,1.2347906,1.6932373
-22.690262,1.0842104,2.8049688
-22.785658,1.1026566,2.799366
-22.874126,1.1170857,2.7903833
-23.066818,1.2021775,2.849928
-23.154213,1.2175839,2.8430629
-23.234112,1.2283876,2.832141
-23.337528,1.2559133,2.8379326
-23.417604,1.267901,2.8289862
-23.513096,1.2912228,2.8315864
-23.600412,1.3094075,2.8295622
-23.673351,1.317852,2.818263
-23.774065,1.3468285,2.8277922
-23.863169,1.3680942,2.830079
-23.948444,1.387171,2.8305812
-24.025146,1.4004486,2.825615
-24.110462,1.4206982,2.8280673
-24.19948,1.4443805,2.8344088
-24.281343,1.463254,2.836247
-24.363533,1.4829702,2.8393192
-24.434729,1.4946866,2.8345213
-24.50438,1.5056283,2.8292289
-24.588902,1.5288787,2.8370032
-24.666489,1.5472131,2.8400397
-24.745678,1.567431,2.845385
-24.823854,1.5874314,2.8508496
-24.885704,1.5944779,2.8430328
-24.948034,1.6022787,2.8362594
-25.02153,1.6199114,2.8401432
-25.092197,1.635685,2.8423653
-25.16008,1.6495786,2.8428807
-25.22585,1.6621108,2.8422203
-25.30176,1.6840663,2.8519258
-25.368168,1.6981936,2.8535395
-25.431892,1.7103949,2.853345
-25.482239,1.7108452,2.840701
-25.787888,1.946887,3.0836334
-25.823189,1.9362693,3.0600204
-25.866806,1.9334338,3.0449886
-25.935886,1.9549656,3.0567355
-25.998827,1.97124,3.063005
-26.064865,1.9910698,3.0734305
-26.136732,2.017256,3.091123
-26.198606,2.0342598,3.0989733
-26.244087,2.03531,3.0894065
-26.296658,2.0437784,3.0882254
-26.350683,2.0541105,3.0893083
-26.403421,2.0635068,3.089548
-26.45543,2.0725224,3.0895543
-26.5046,2.0788918,3.0867825
-26.556778,2.088823,3.0881815
-26.608751,2.0989344,3.0899706
-26.659487,2.1080863,3.0908637
-26.708504,2.1156998,3.090198
-26.757357,2.1234765,3.0898867
-26.805544,2.1308434,3.0892782
-26.852585,2.1372218,3.0877109
-26.899971,2.1443293,3.0871325
-26.942848,2.146402,3.080967
-26.987097,2.150341,3.0770712
-27.033617,2.1573153,3.076796
-27.077173,2.160958,3.0728517
-27.11832,2.1618283,3.0658565
-27.1521,2.1534986,3.0483885
-27.176495,2.1329923,3.016955
-27.193628,2.102577,2.9741044
-27.213053,2.0745065,2.9339685
-27.221163,2.0305882,2.875461
-27.26672,2.036642,2.874967
-27.310436,2.0404804,2.872037
-27.357004,2.048586,2.8742146
-27.402151,2.055064,2.8746405
-27.445925,2.059904,2.873292
-27.491608,2.067847,2.875708
-27.535124,2.0729585,2.874948
-27.577341,2.0764146,2.872374
-27.61714,2.076415,2.8658605
-27.67951,2.111804,2.9011383
-27.729128,2.1282578,2.9143105
-27.792187,2.1670694,2.9540472
-27.82592,2.1592522,2.9388757
-27.272732,1.1731265,1.7654381
-27.312841,1.1591601,1.7416701
-27.34618,1.1332154,1.7037754
-27.388578,1.122441,1.6839666
-27.43047,1.110559,1.6629424
-27.499216,1.1472728,1.6999078
-27.707188,1.4434252,2.0465207
-27.725101,1.3922191,1.9793186
-27.766094,1.3836071,1.9630146
-27.791676,1.3446224,1.9104671
-27.67175,1.0133369,1.5078125
-27.707123,0.98564005,1.4684877
-27.752684,0.97819805,1.4535356
-27.803835,0.98251057,1.4528193
-27.85262,0.98206043,1.4465127
-27.89945,0.9774437,1.4353199
-27.95502,0.9926207,1.448091
-28.005243,0.9962702,1.4471226
-28.052258,0.99266624,1.437532
-28.604048,2.2146685,2.9086142
-28.6457,2.2274103,2.920251
-28.67643,2.2130826,2.8992538
-28.72256,2.2384171,2.926351
-28.748339,2.210643,2.889227
-28.785656,2.2132845,2.889032
-28.821812,2.2129254,2.885293
-28.858812,2.2151458,2.884778
-28.896591,2.219952,2.8875003
-28.934265,2.2248623,2.890448
-28.970657,2.2261407,2.8890748
-29.007963,2.2306316,2.891705
-29.044804,2.2339768,2.8930368
-29.081747,2.2380455,2.8953443
-29.11843,2.2415898,2.8971071
-29.154533,2.2433577,2.8967938
-29.191074,2.2470973,2.8989806
-29.227537,2.2509346,2.9013796
-29.263018,2.2511132,2.8993983
-29.299206,2.2545168,2.9014482
-29.335041,2.2567632,2.9021735
-29.37096,2.2597308,2.9038706
-29.406307,2.260284,2.902701
-29.440079,2.2527668,2.8917322
-29.475235,2.2522438,2.8894138
-29.511477,2.2580955,2.8949952
-29.543612,2.2395253,2.8707204
-29.576763,2.2254333,2.8520093
-29.576977,1.980515,2.5501566
-29.600727,1.8764985,2.421155
-29.630753,1.8071384,2.3347263
-29.633223,1.4878039,1.941402
-29.650509,1.2515466,1.6500373
-22.569954,1.108918,2.767465
-22.729807,1.167871,2.8011312
-22.917532,1.2463739,2.8546581
-22.999514,1.2569172,2.8428593
-23.091543,1.2745955,2.8384447
-23.18035,1.2906959,2.8329191
-23.341974,1.3566756,2.8772001
-23.372923,1.334799,2.8349667
-23.452877,1.3465774,2.8264232
-23.544712,1.3670993,2.8270187
-23.6291,1.383019,2.8234115
-23.72657,1.4087648,2.8301344
-23.804695,1.4213805,2.8239846
-23.879797,1.4322879,2.8164425
-23.969204,1.4540865,2.820384
-24.049286,1.4696622,2.8183408
-24.135221,1.4901276,2.8217015
-24.217388,1.5083878,2.8231688
-24.305288,1.5315804,2.830132
-24.383385,1.5479376,2.8303614
-24.447859,1.5542939,2.8204608
-24.545261,1.5867372,2.8382387
-24.645367,1.6221786,2.8596292
-24.697197,1.6200488,2.8417263
-24.768475,1.6337535,2.8408256
-24.84142,1.6492994,2.842186
-24.908308,1.660398,2.8390994
-24.981958,1.677542,2.8427682
-25.05402,1.6939116,2.8459144
-25.12076,1.7063155,2.8450813
-25.190357,1.7216265,2.8476639
-25.252876,1.7313333,2.844449
-25.31152,1.7380567,2.838231
-25.377302,1.751426,2.8394928
-25.43679,1.7596569,2.8353891
-25.551123,1.8177519,2.8862572
-25.79079,1.9916193,3.065105
-25.866697,2.0184538,3.0828514
-25.910574,2.0161986,3.0687199
-25.956194,2.0157175,3.0567021
-26.032806,2.0449321,3.077878
-26.086658,2.0530512,3.0758424
-26.174784,2.0949185,3.1117415
-26.203917,2.0797818,3.0841222
-26.252153,2.083511,3.077767
-26.305794,2.0929437,3.078001
-26.35651,2.0997849,3.0755053
-26.412476,2.1123703,3.0796876
-26.460691,2.117334,3.0754318
-26.51038,2.1241372,3.0734305
-26.560966,2.1322303,3.073071
-26.61554,2.1449964,3.0782228
-26.666763,2.1545706,3.0799193
-26.717785,2.1643193,3.081995
-26.765066,2.1702757,3.0798907
-26.81121,2.1752517,3.0768175
-26.857235,2.180377,3.0740662
-26.904606,2.1873624,3.0736146
-26.946493,2.188214,3.0662189
-26.99121,2.1926308,3.063088
-27.039139,2.2012086,3.0649357
-27.081257,2.2030406,3.0590873
-27.120993,2.2021174,3.0501547
-27.15292,2.1914887,3.0299973
-27.177305,2.1710932,2.9984837
-27.194864,2.141453,2.9561696
-27.211166,2.1094906,2.9111295
-27.234585,2.086258,2.8763533
-27.270502,2.0793953,2.860896
-27.316334,2.086072,2.8615088
-27.361593,2.092307,2.8617435
-27.406712,2.0986838,2.8622823
-27.451275,2.1046119,2.8624287
-27.496513,2.111856,2.864272
-27.540792,2.1180615,2.8650184
-27.58138,2.1190841,2.859726
-27.64021,2.1480467,2.887865
-27.7376,2.2377024,2.9886765
-27.763742,2.2184806,2.9597087
-27.79953,2.2141776,2.9486456
-27.245096,1.2518353,1.7892184
-27.28372,1.2360704,1.7631254
-27.308365,1.1964853,1.7084885
-27.347385,1.1802592,1.6819744
-27.374949,1.1437383,1.6310925
-27.414022,1.1264579,1.6034465
-27.711733,1.5746377,2.1379113
-27.736557,1.5389209,2.0887742
-27.736538,1.4555948,1.9820461
-27.758648,1.4114089,1.9226351
-27.787785,1.3793218,1.8779011
-27.662518,1.0403543,1.4606586
-27.691168,0.9988644,1.4042044
-27.739407,0.9962473,1.3950634
-27.78969,0.99801135,1.3913794
-27.839348,0.99869776,1.3865142
-27.888966,0.9995196,1.3819418
-27.93393,0.9901104,1.3650069
-27.985424,0.9954648,1.3662181
-28.03289,0.9917958,1.3565307
-28.613077,2.269455,2.9154253
-28.651081,2.2735124,2.9167137
-28.701134,2.3083315,2.9558167
-28.722061,2.2696693,2.9049153
-28.749716,2.2470002,2.8736715
-28.786354,2.247751,2.8712559
-28.824278,2.2522933,2.8735952
-28.861675,2.255708,2.8746443
-28.8992,2.2598414,2.8766751
-28.936028,2.262226,2.876647
-28.97299,2.265328,2.8775954
-29.010645,2.271002,2.8818111
-29.0467,2.2718308,2.8801427
-29.08344,2.2752311,2.8817382
-29.120453,2.27997,2.8850808
-29.156693,2.2823286,2.8855743
-29.192554,2.2835436,2.8847423
-29.228848,2.286715,2.8864207
-29.264622,2.2881196,2.8860002
-29.300789,2.2914832,2.8880944
-29.336607,2.2936997,2.888856
-29.372374,2.2960098,2.8898225
-29.408085,2.2984142,2.8909922
-29.443502,2.2996674,2.8908205
-29.478088,2.29665,2.8854332
-29.513264,2.2968385,2.8841105
-29.544436,2.2727904,2.8527641
-29.578564,2.2650392,2.8417344
-29.575796,2.0020401,2.513534
-29.607042,1.95315,2.4514318
-29.628666,1.8206122,2.285369
-29.631048,1.501241,1.8869314
-29.651186,1.2911804,1.6244116
-40.828575,0.2645707,2.606698
-40.838745,0.30861425,2.6802425
-40.966293,0.29063272,2.7019072
-40.558346,0.69109416,3.1779652
-40.65937,0.6857679,3.2103171
-40.752014,0.68507075,3.2469292
-40.819256,0.69730425,3.2942476
-40.910934,0.6977205,3.3326964
-41.029854,0.6852679,3.3617268
-42.18721,0.6524153,3.8034315
-42.302265,0.647773,3.8465085
-42.385403,0.6574919,3.8999276
-42.51635,0.6468904,3.9404812
-42.61527,0.6505685,3.991201
-42.769474,0.63123226,4.027834
-22.63842,1.21035,2.783636
-22.843483,1.297709,2.8468285
-22.926409,1.30813,2.8350525
-23.01503,1.3227186,2.8278027
-23.118767,1.3477795,2.8314276
-23.24247,1.3868146,2.8495731
-23.31984,1.395808,2.8380818
-23.415771,1.4177713,2.8400602
-23.485504,1.4225225,2.825006
-23.580072,1.4447188,2.828055
-23.666443,1.461884,2.8263912
